# .PCD v0.7 - Point Cloud Data file format
VERSION 0.7
FIELDS x y z rgb
SIZE 4 4 4 4
TYPE F F F F
COUNT 1 1 1 1
WIDTH 857
HEIGHT 1
VIEWPOINT 0 0 0 1 0 0 0
POINTS 857
DATA ascii
0.0642481745827 -0.144558392811 0.789 1.37375594301e-38
0.0657916409268 -0.144741610039 0.79 1.3925467949e-38
0.0672536773918 -0.144741610039 0.79 1.10458472489e-39
0.0687157138569 -0.144741610039 0.79 1.49212194273e-38
0.0703554155126 -0.145108044495 0.792 1.64896409504e-38
0.0718211533358 -0.145108044495 0.792 1.68562332403e-38
0.073286891159 -0.145108044495 0.792 1.71349865374e-38
0.0747526289822 -0.145108044495 0.792 1.65782212302e-38
0.0760258961821 -0.144741610039 0.79 1.73139491668e-38
0.0773898466564 -0.144558392811 0.789 1.74090020443e-38
0.0788500324424 -0.144558392811 0.789 1.13248233524e-38
-0.0581983047039 -0.139108142951 0.767 1.308890818e-38
-0.0567788338575 -0.139108142951 0.767 1.7640371835e-39
-0.0553593630111 -0.139108142951 0.767 2.78936726985e-39
-0.0539398921646 -0.139108142951 0.767 2.88050491937e-39
-0.0524519461926 -0.138926776402 0.766 2.97377254256e-39
-0.0510343260252 -0.138926776402 0.766 2.38795271306e-41
-0.0496167058579 -0.138926776402 0.766 1.54017274733e-38
-0.0482620087789 -0.139108142951 0.767 1.61279840336e-38
-0.0468425379324 -0.139108142951 0.767 1.76040880139e-38
-0.045423067086 -0.139108142951 0.767 3.2275897334e-39
-0.0440035962396 -0.139108142951 0.767 1.66847675577e-38
-0.0425841253931 -0.139108142951 0.767 1.76019482311e-38
-0.0411646545467 -0.139108142951 0.767 1.83388995013e-38
-0.0397451837003 -0.139108142951 0.767 2.85628207412e-39
-0.0384256495236 -0.139470876049 0.769 1.63175699068e-38
-0.037002477319 -0.139470876049 0.769 1.58499524053e-38
-0.0355793051144 -0.139470876049 0.769 1.83406595322e-38
-0.0341561329098 -0.139470876049 0.769 3.04790823781e-39
-0.0327329607053 -0.139470876049 0.769 2.51460206826e-39
-0.0313097885007 -0.139470876049 0.769 2.20774573054e-41
-0.029964344817 -0.139833609146 0.771 1.65054588075e-38
-0.0285374712543 -0.139833609146 0.771 1.68644350403e-38
-0.0271809234963 -0.140196342244 0.773 1.76059461356e-38
-0.0257503485754 -0.140196342244 0.773 3.96810450558e-39
-0.0243197736545 -0.140196342244 0.773 3.1520387267e-39
-0.0229188095988 -0.140377708793 0.774 1.22206118035e-39
-0.021541904371 -0.14074044189 0.776 9.49437162817e-40
-0.0201057774129 -0.14074044189 0.776 2.51386918916e-39
-0.0186696504548 -0.14074044189 0.776 2.69681571017e-39
-0.0172335234968 -0.14074044189 0.776 1.77630415026e-39
-0.0157973965387 -0.14074044189 0.776 1.86850258272e-39
-0.0143612695806 -0.14074044189 0.776 1.72419070115e-38
-0.0129251426226 -0.14074044189 0.776 1.7049507331e-38
-0.0114890156645 -0.14074044189 0.776 1.68677028683e-38
-0.0100528887065 -0.14074044189 0.776 3.32347358082e-39
-0.00863896989722 -0.141103174988 0.778 1.58978431816e-39
-0.00719914158102 -0.141103174988 0.778 2.87763926401e-39
-0.00575931326482 -0.141103174988 0.778 1.23604277591e-38
-0.00431948494861 -0.141103174988 0.778 1.73297712278e-38
-0.00287965663241 -0.141103174988 0.778 1.87998580324e-38
-0.00144352967434 -0.141465908086 0.78 1.02332020396e-38
0.0 -0.141103174988 0.778 1.86418097825e-39
0.0014398283162 -0.141103174988 0.778 2.33127299277e-39
0.00288705934869 -0.141465908086 0.78 2.8815769127e-39
0.00433058902303 -0.141465908086 0.78 2.79046028265e-39
0.00577411869737 -0.141465908086 0.78 2.51459926566e-39
0.00721764837172 -0.141465908086 0.78 3.06490178429e-39
0.00866117804606 -0.141465908086 0.78 2.69791152557e-39
0.0101047077204 -0.141465908086 0.78 2.69791152557e-39
0.0115630428273 -0.141647274634 0.781 2.88157971529e-39
0.0130084231807 -0.141647274634 0.781 2.79010715544e-39
0.0144538035341 -0.141647274634 0.781 3.24893291031e-39
0.0158991838875 -0.141647274634 0.781 2.79046308525e-39
0.017344564241 -0.141647274634 0.781 3.24963916474e-39
0.0187899445944 -0.141647274634 0.781 3.24963636214e-39
0.0202353249478 -0.141647274634 0.781 3.341831992e-39
0.0216807053012 -0.141647274634 0.781 3.06345564428e-39
0.0231260856546 -0.141647274634 0.781 8.54702380136e-40
0.0246343890964 -0.142010007732 0.783 6.55353100082e-39
0.0260168463614 -0.141647274634 0.781 1.63988648359e-38
0.0274622267148 -0.141647274634 0.781 1.61175163341e-38
0.028981634231 -0.142010007732 0.783 1.51052001066e-38
0.0304307159426 -0.142010007732 0.783 1.61179423288e-38
0.0318797976542 -0.142010007732 0.783 1.55640524861e-38
0.0333288793657 -0.142010007732 0.783 1.61164751693e-38
0.0347779610773 -0.142010007732 0.783 1.57488094848e-38
0.0362270427888 -0.142010007732 0.783 1.58409700822e-38
0.0376761245004 -0.142010007732 0.783 1.60242795395e-38
0.0391252062119 -0.142010007732 0.783 1.57480681979e-38
0.0405742879235 -0.142010007732 0.783 1.68573220493e-38
0.0421307090211 -0.14237274083 0.785 1.5015550636e-38
0.0435834920908 -0.14237274083 0.785 1.69513337619e-38
0.0451510172628 -0.142735473927 0.787 1.54758225309e-38
0.0466075016906 -0.142735473927 0.787 1.64871354287e-38
0.0480639861184 -0.142735473927 0.787 5.42440813852e-39
0.049646316723 -0.143098207025 0.789 1.93718022045e-39
0.051106502509 -0.143098207025 0.789 1.68761162643e-38
0.0525666882949 -0.143098207025 0.789 1.71487584987e-38
0.0540268740809 -0.143098207025 0.789 1.67792487053e-38
0.0554870598669 -0.143098207025 0.789 1.59480461004e-38
0.0569472456528 -0.143098207025 0.789 1.38264507982e-38
0.0584074314388 -0.143098207025 0.789 1.01379389674e-38
0.0598676172248 -0.143098207025 0.789 5.25302513244e-39
0.0613278030108 -0.143098207025 0.789 2.7637655469e-39
0.0627879887967 -0.143098207025 0.789 1.82168800362e-44
0.0643296044618 -0.143279573574 0.79 2.38220738935e-44
0.0657916409268 -0.143279573574 0.79 7.36086669027e-39
0.0672536773918 -0.143279573574 0.79 1.65799826624e-38
0.0687157138569 -0.143279573574 0.79 1.77814517618e-38
0.0703554155126 -0.143642306672 0.792 1.58428646377e-38
0.0720025198846 -0.144005039769 0.794 1.74104818154e-38
0.0734719590659 -0.144005039769 0.794 1.54715163408e-38
0.0747526289822 -0.143642306672 0.792 1.694516945e-38
0.0760258961821 -0.143279573574 0.79 1.7683495394e-38
0.0773898466564 -0.143098207025 0.789 3.489748854e-39
0.0788500324424 -0.143098207025 0.789 1.4353048952e-38
-0.0586535717551 -0.138765767323 0.773 1.24442590384e-38
-0.0569268881831 -0.138047703844 0.769 2.3157311915e-39
-0.0555037159785 -0.138047703844 0.769 3.06487235702e-39
-0.0540805437739 -0.138047703844 0.769 3.06415909611e-39
-0.0525204213182 -0.137688672104 0.767 3.06560523612e-39
-0.0511009504718 -0.137688672104 0.767 2.0995654891e-41
-0.0496814796253 -0.137688672104 0.767 1.47567532305e-38
-0.0482620087789 -0.137688672104 0.767 1.62208705036e-38
-0.0468425379324 -0.137688672104 0.767 1.90785594814e-38
-0.045423067086 -0.137688672104 0.767 9.28850687078e-40
-0.0441183383419 -0.138047703844 0.769 4.90518221594e-39
-0.0426951661373 -0.138047703844 0.769 1.60376885645e-38
-0.0413793333188 -0.138406735583 0.771 1.77867220453e-38
-0.0399524597561 -0.138406735583 0.771 1.57606266347e-38
-0.0385255861933 -0.138406735583 0.771 1.61297987151e-38
-0.0370987126306 -0.138406735583 0.771 1.70491822298e-38
-0.0356718390679 -0.138406735583 0.771 1.92618689387e-38
-0.0342449655052 -0.138406735583 0.771 3.32484124812e-39
-0.0328180919425 -0.138406735583 0.771 2.69791152557e-39
-0.0313912183798 -0.138406735583 0.771 2.24459988016e-41
-0.029964344817 -0.138406735583 0.771 1.64140296879e-38
-0.0286114984171 -0.138765767323 0.773 1.60365142764e-38
-0.0271809234963 -0.138765767323 0.773 1.79736916942e-38
-0.0257836607987 -0.138945283193 0.774 1.75864919091e-39
-0.0243512351987 -0.138945283193 0.774 3.14325258533e-41
-0.0229188095988 -0.138945283193 0.774 3.94112390494e-40
-0.021541904371 -0.139304314932 0.776 2.23658865683e-39
-0.0201057774129 -0.139304314932 0.776 5.63772500115e-39
-0.0186696504548 -0.139304314932 0.776 4.3484113036e-39
-0.0172335234968 -0.139304314932 0.776 3.06416890519e-39
-0.0158381114782 -0.139663346672 0.778 2.24249793246e-41
-0.014398283162 -0.139663346672 0.778 1.71508534399e-38
-0.0129584548458 -0.139663346672 0.778 1.68651412947e-38
-0.0115186265296 -0.139663346672 0.778 1.75087072326e-38
-0.0100787982134 -0.139663346672 0.778 1.58528390802e-38
-0.00863896989722 -0.139663346672 0.778 1.50273803977e-38
-0.00721764837172 -0.140022378411 0.78 1.65013712198e-38
-0.00577411869737 -0.140022378411 0.78 1.69573523388e-38
-0.00433058902303 -0.140022378411 0.78 1.81529682146e-38
-0.00288705934869 -0.140022378411 0.78 1.64988923229e-38
-0.00144352967434 -0.140022378411 0.78 3.05325279016e-39
0.0 -0.140022378411 0.78 2.51566845639e-39
0.00144352967434 -0.140022378411 0.78 2.79046028265e-39
0.00288705934869 -0.140022378411 0.78 2.79010715544e-39
0.00433058902303 -0.140022378411 0.78 2.88338038382e-39
0.00577411869737 -0.140022378411 0.78 2.69826745538e-39
0.00721764837172 -0.140022378411 0.78 3.24963916474e-39
0.00867228212048 -0.140201894281 0.781 2.79046308525e-39
0.0101176624739 -0.140201894281 0.781 3.24928323493e-39
0.0115630428273 -0.140201894281 0.781 3.71062432055e-39
0.0130084231807 -0.140201894281 0.781 3.34111592849e-39
0.0144538035341 -0.140201894281 0.781 3.15816660488e-39
0.0158991838875 -0.140201894281 0.781 3.61734268437e-39
0.017344564241 -0.140201894281 0.781 4.16979759744e-39
0.0187899445944 -0.140201894281 0.781 5.09138395328e-39
0.0202871439617 -0.140560926021 0.783 5.82570638754e-39
0.0217362256733 -0.140560926021 0.783 6.28451672813e-39
0.0231853073848 -0.140560926021 0.783 7.01704690166e-39
0.0246343890964 -0.140560926021 0.783 6.46064312952e-39
0.0260834708079 -0.140560926021 0.783 1.06014212371e-38
0.0275325525195 -0.140560926021 0.783 1.66729363947e-38
0.028981634231 -0.140560926021 0.783 1.58406015407e-38
0.0305861729845 -0.1412789895 0.787 1.55633041928e-38
0.0320426574123 -0.1412789895 0.787 1.57477010577e-38
0.0334991418401 -0.1412789895 0.787 1.55633041928e-38
0.0349556262679 -0.1412789895 0.787 1.57480513823e-38
0.0365046446493 -0.141638021239 0.789 1.57480653953e-38
0.0378685951236 -0.1412789895 0.787 1.60246326667e-38
0.0393250795514 -0.1412789895 0.787 1.57465856241e-38
0.0408852020072 -0.141638021239 0.789 1.59349663806e-38
0.0423453877931 -0.141638021239 0.789 1.70439119463e-38
0.0438055735791 -0.141638021239 0.789 1.53836269011e-38
0.0453231304162 -0.141817537109 0.79 1.80569624542e-38
0.0467259451511 -0.141638021239 0.789 1.60268439157e-38
0.048186130937 -0.141638021239 0.789 1.60268439157e-38
0.0497092398114 -0.141817537109 0.79 1.26195684828e-38
0.0511712762764 -0.141817537109 0.79 1.56120343469e-39
0.0526333127414 -0.141817537109 0.79 0.0
0.0540953492065 -0.141817537109 0.79 0.0
0.0555573856715 -0.141817537109 0.79 0.0
0.0570194221366 -0.141817537109 0.79 0.0
0.0584814586016 -0.141817537109 0.79 0.0
0.0599434950666 -0.141817537109 0.79 8.40779078595e-45
0.0613278030108 -0.141638021239 0.789 4.32462286087e-39
0.0627879887967 -0.141638021239 0.789 1.00381903388e-38
0.0643296044618 -0.141817537109 0.79 1.46496547914e-38
0.0657916409268 -0.141817537109 0.79 1.68583590101e-38
0.0672536773918 -0.141817537109 0.79 1.74094252364e-38
0.0688896776894 -0.142176568848 0.792 1.51981720558e-38
0.0705330807033 -0.142535600588 0.794 1.75948926934e-38
0.0720025198846 -0.142535600588 0.794 1.57488277016e-38
0.0736570269729 -0.142894632327 0.796 1.78674116135e-38
0.0747526289822 -0.142176568848 0.792 1.61218953918e-38
0.0760258961821 -0.141817537109 0.79 3.30607786169e-39
0.0774879326471 -0.141817537109 0.79 4.5917748079e-40
-0.0586535717551 -0.137335192402 0.773 1.31818268799e-38
-0.0570749425087 -0.136979862021 0.771 3.42028368653e-39
-0.0555037159785 -0.136624531639 0.769 2.78899872835e-39
-0.0540805437739 -0.136624531639 0.769 2.60570188273e-39
-0.0526573715693 -0.136624531639 0.769 2.69789470999e-39
-0.0512341993648 -0.136624531639 0.769 2.17005080185e-41
-0.0498110271602 -0.136624531639 0.769 1.44794825072e-38
-0.0483878549556 -0.136624531639 0.769 1.69588166957e-38
-0.046964682751 -0.136624531639 0.769 1.81580255007e-38
-0.0455415105465 -0.136624531639 0.769 3.32298592896e-39
-0.0442330804442 -0.136979862021 0.771 1.18950621443e-40
-0.0428062068815 -0.136979862021 0.771 5.08487912581e-39
-0.0413793333188 -0.136979862021 0.771 1.69613320265e-38
-0.0399524597561 -0.136979862021 0.771 1.6495592265e-38
-0.0385255861933 -0.136979862021 0.771 1.68651539064e-38
-0.0370987126306 -0.136979862021 0.771 1.61282614907e-38
-0.0356718390679 -0.136979862021 0.771 1.87083476375e-38
-0.0343337981005 -0.137335192402 0.773 3.13972551709e-39
-0.0329032231797 -0.137335192402 0.773 2.51459646307e-39
-0.0314726482588 -0.137335192402 0.773 2.06313172903e-41
-0.030042073338 -0.137335192402 0.773 1.54939231032e-38
-0.0286485119985 -0.137512857593 0.774 1.56687659152e-38
-0.0272160863986 -0.137512857593 0.774 1.87090931283e-38
-0.0257836607987 -0.137512857593 0.774 9.40184809447e-39
-0.0243512351987 -0.137512857593 0.774 1.14351447779e-38
-0.022978031329 -0.137868187974 0.776 1.43842208363e-38
-0.0215974247431 -0.138223518356 0.778 1.47508327444e-38
-0.0201575964269 -0.138223518356 0.778 1.7146079216e-38
-0.0187177681107 -0.138223518356 0.778 1.50266559264e-38
-0.0172779397944 -0.138223518356 0.778 3.23596529432e-39
-0.0158381114782 -0.138223518356 0.778 8.52925533684e-40
-0.014398283162 -0.138223518356 0.778 6.83588983879e-39
-0.0129584548458 -0.138223518356 0.778 1.6870861395e-38
-0.0115186265296 -0.138223518356 0.778 1.67743904035e-38
-0.0101047077204 -0.138578848737 0.78 1.72332147571e-38
-0.00866117804606 -0.138578848737 0.78 1.640523654e-38
-0.00722690176707 -0.138756513928 0.781 1.79718223621e-38
-0.00578152141365 -0.138756513928 0.781 1.61307810254e-38
-0.00433614106024 -0.138756513928 0.781 1.42901628808e-38
-0.00289076070683 -0.138756513928 0.781 4.15707941258e-39
-0.00144538035341 -0.138756513928 0.781 2.23872984089e-39
0.0 -0.138578848737 0.78 2.97377254256e-39
0.00144352967434 -0.138578848737 0.78 3.24963636214e-39
0.00289076070683 -0.138756513928 0.781 3.06632690483e-39
0.00433614106024 -0.138756513928 0.781 3.52729944895e-39
0.00578152141365 -0.138756513928 0.781 3.80279752964e-39
0.00722690176707 -0.138756513928 0.781 4.7208035679e-39
0.00867228212048 -0.138756513928 0.781 4.72260283513e-39
0.0101176624739 -0.138756513928 0.781 5.82570919014e-39
0.0115630428273 -0.138756513928 0.781 6.74514455283e-39
0.0130084231807 -0.138756513928 0.781 6.83481924676e-39
0.0144538035341 -0.138756513928 0.781 7.84608169782e-39
0.0159398988271 -0.139111844309 0.783 6.55282754899e-39
0.0173889805386 -0.139111844309 0.783 5.63015939074e-39
0.0188380622502 -0.139111844309 0.783 2.13065609813e-39
0.0202871439617 -0.139111844309 0.783 4.78263165874e-42
0.0217362256733 -0.139111844309 0.783 5.6051938573e-44
0.0231853073848 -0.139111844309 0.783 9.80908925027e-45
0.0246973121848 -0.13946717469 0.785 0.0
0.026216719701 -0.139822505072 0.787 1.12103877146e-44
0.0276732041288 -0.139822505072 0.787 9.94517635064e-39
0.0291296885566 -0.139822505072 0.787 1.70420145882e-38
0.0306639015054 -0.140177835453 0.789 1.58410051146e-38
0.0321240872913 -0.140177835453 0.789 1.62075777864e-38
0.0335842730773 -0.140177835453 0.789 1.57476982551e-38
0.0350444588633 -0.140177835453 0.789 1.61164807745e-38
0.036550911626 -0.140355500644 0.79 1.59317714201e-38
0.038012948091 -0.140355500644 0.79 1.61168282966e-38
0.0394749845561 -0.140355500644 0.79 1.57477010577e-38
0.0409370210211 -0.140355500644 0.79 1.63952326703e-38
0.0423990574862 -0.140355500644 0.79 1.51978091195e-38
0.0438610939512 -0.140355500644 0.79 1.60279397311e-38
0.0453231304162 -0.140355500644 0.79 1.51985223804e-38
0.0467851668813 -0.140355500644 0.79 1.6950207118e-38
0.0482472033463 -0.140355500644 0.79 1.64907507788e-38
0.0497092398114 -0.140355500644 0.79 1.5844579827e-38
0.0513008238113 -0.140710831025 0.792 1.53836240985e-38
0.0527665616345 -0.140710831025 0.792 1.6030085119e-38
0.0542322994576 -0.140710831025 0.792 1.5293970424e-38
0.0556980372808 -0.140710831025 0.792 1.41865578788e-38
0.057163775104 -0.140710831025 0.792 1.49244760449e-38
0.0586295129272 -0.140710831025 0.792 1.53883366652e-38
0.0600952507504 -0.140710831025 0.792 1.59393538461e-38
0.0615609885735 -0.140710831025 0.792 1.62137350919e-38
0.0630267263967 -0.140710831025 0.792 1.68576723739e-38
0.0644924642199 -0.140710831025 0.792 1.64899968802e-38
0.0661247631593 -0.141066161407 0.794 1.57513850713e-38
0.0675942023407 -0.141066161407 0.794 1.59367964764e-38
0.0692376053545 -0.141421491788 0.796 1.74094224338e-38
0.0708884110847 -0.141776822169 0.798 1.68569142714e-38
0.0723652529823 -0.141776822169 0.798 1.70405474287e-38
0.0738420948799 -0.141776822169 0.798 9.39018788995e-39
0.0751301675124 -0.141421491788 0.796 2.57139389242e-39
0.0766033080518 -0.141421491788 0.796 3.30609047337e-39
0.0782726205727 -0.141776822169 0.798 5.97152410444e-39
-0.0603173322387 -0.136432061016 0.776 1.06014436578e-38
-0.0587294495969 -0.136080431993 0.774 1.33665684643e-38
-0.0572229968342 -0.135904617481 0.773 2.49582046494e-39
-0.0557924219134 -0.135904617481 0.773 3.06381998188e-39
-0.0542211953832 -0.135552988458 0.771 2.42132043209e-39
-0.0526573715693 -0.135201359435 0.769 2.97377534516e-39
-0.0512341993648 -0.135201359435 0.769 2.13473808055e-41
-0.0499405746951 -0.135552988458 0.771 1.40181498294e-38
-0.0485137011324 -0.135552988458 0.771 1.60379239826e-38
-0.0470868275696 -0.135552988458 0.771 1.88033949098e-38
-0.0456599540069 -0.135552988458 0.771 4.1530450743e-39
-0.0442330804442 -0.135552988458 0.771 2.33020099945e-39
-0.0428062068815 -0.135552988458 0.771 2.11503582414e-40
-0.0414866727048 -0.135904617481 0.773 4.53637727571e-39
-0.040056097784 -0.135904617481 0.773 1.62231490149e-38
-0.0386255228631 -0.135904617481 0.773 1.64966838765e-38
-0.0371949479422 -0.135904617481 0.773 1.64967441323e-38
-0.0357643730214 -0.135904617481 0.773 1.8709063701e-38
-0.0343337981005 -0.135904617481 0.773 4.24527994052e-39
-0.0329032231797 -0.135904617481 0.773 2.33091986556e-39
-0.0314726482588 -0.135904617481 0.773 2.38515011613e-41
-0.0300809375984 -0.136080431993 0.774 1.54946433706e-38
-0.0286485119985 -0.136080431993 0.774 1.63123332544e-38
-0.0272160863986 -0.136080431993 0.774 1.65900355776e-38
-0.0257836607987 -0.136080431993 0.774 1.62198265363e-38
-0.0244141582871 -0.136432061016 0.776 1.80640502218e-38
-0.022978031329 -0.136432061016 0.776 1.64049240504e-38
-0.0215974247431 -0.136783690039 0.778 1.81555297882e-38
-0.0201575964269 -0.136783690039 0.778 1.78807743957e-38
-0.0187177681107 -0.136783690039 0.778 1.30919728198e-38
-0.0172779397944 -0.136783690039 0.778 2.32155638922e-39
-0.0158788264178 -0.137135319063 0.78 3.61590495215e-39
-0.0144352967434 -0.137135319063 0.78 1.68555466041e-39
-0.0129917670691 -0.137135319063 0.78 4.07613480809e-39
-0.0115482373947 -0.137135319063 0.78 9.50376733437e-39
-0.0101047077204 -0.137135319063 0.78 1.07911990881e-38
-0.00867228212048 -0.137311133574 0.781 1.04227724984e-38
-0.00722690176707 -0.137311133574 0.781 7.38039658696e-39
-0.00578152141365 -0.137311133574 0.781 6.46204863188e-39
-0.00433614106024 -0.137311133574 0.781 2.51063499231e-39
-0.00289076070683 -0.137311133574 0.781 4.72440350365e-39
-0.00144538035341 -0.137311133574 0.781 6.37851162522e-39
0.0 -0.137311133574 0.781 6.74514175024e-39
0.00144538035341 -0.137311133574 0.781 7.11176346746e-39
0.00289076070683 -0.137311133574 0.781 7.3854762939e-39
0.00433614106024 -0.137311133574 0.781 7.84356076189e-39
0.00578152141365 -0.137311133574 0.781 7.29001703991e-39
0.00722690176707 -0.137311133574 0.781 4.799272078e-39
0.00869449026931 -0.137662762597 0.783 1.85336295411e-39
0.0101435719809 -0.137662762597 0.783 5.48187959244e-42
0.0115926536924 -0.137662762597 0.783 6.0255833966e-44
0.013041735404 -0.137662762597 0.783 2.66246708222e-44
0.0144908171155 -0.137662762597 0.783 4.20389539297e-45
0.0159398988271 -0.137662762597 0.783 9.1835496158e-41
0.0174333968363 -0.138014391621 0.785 2.29589160785e-39
0.018886179906 -0.138014391621 0.785 3.67342965541e-39
0.0203389629757 -0.138014391621 0.785 3.95109134092e-39
0.0217917460454 -0.138014391621 0.785 4.22734472148e-39
0.0233037508453 -0.138366020644 0.787 3.76707562918e-39
0.0247602352731 -0.138366020644 0.787 4.22517691275e-39
0.026216719701 -0.138366020644 0.787 4.59324056609e-39
0.0277435299334 -0.138717649667 0.789 1.56121184248e-39
0.0292037157194 -0.138717649667 0.789 2.8469003809e-39
0.0306639015054 -0.138717649667 0.789 1.54736266962e-38
0.0321648022309 -0.138893464179 0.79 1.63069901034e-38
0.0336268386959 -0.138893464179 0.79 1.68551416288e-38
0.035088875161 -0.138893464179 0.79 1.63941410588e-38
0.036550911626 -0.138893464179 0.79 1.58395211396e-38
0.038012948091 -0.138893464179 0.79 1.62086609901e-38
0.0394749845561 -0.138893464179 0.79 1.60239572408e-38
0.041040659049 -0.139245093202 0.792 1.55633069954e-38
0.0425063968722 -0.139245093202 0.792 1.59328097822e-38
0.0440831754396 -0.139596722225 0.794 1.57502346053e-38
0.0455526146209 -0.139596722225 0.794 1.65821476685e-38
0.0469036103417 -0.139245093202 0.792 1.55665860338e-38
0.0483693481649 -0.139245093202 0.792 1.55665832312e-38
0.0498350859881 -0.139245093202 0.792 1.6951305736e-38
0.0514303713462 -0.139596722225 0.794 1.72275745308e-38
0.0528998105275 -0.139596722225 0.794 1.67669817386e-38
0.0543692497088 -0.139596722225 0.794 1.51988755076e-38
0.0558386888901 -0.139596722225 0.794 1.72260723388e-38
0.0573081280714 -0.139596722225 0.794 1.62119386272e-38
0.0589256215783 -0.139948351249 0.796 1.62119358246e-38
0.0603987621178 -0.139948351249 0.796 1.75948898908e-38
0.0617164456154 -0.139596722225 0.794 1.53808229028e-38
0.0631858847967 -0.139596722225 0.794 1.53821723533e-38
0.064655323978 -0.139596722225 0.794 1.79632968622e-38
0.0662913242756 -0.139948351249 0.796 1.77800000166e-38
0.0679347272895 -0.140299980272 0.798 1.61211891374e-38
0.0694115691871 -0.140299980272 0.798 1.50151722855e-38
0.0710660762754 -0.140651609295 0.8 9.2043560954e-39
0.0725466195311 -0.140651609295 0.8 3.76525534248e-39
0.0740271627868 -0.140651609295 0.8 1.92854541932e-39
0.0755077060426 -0.140651609295 0.8 5.42405501131e-39
0.0767957786751 -0.140299980272 0.798 2.20406451948e-39
0.0782726205727 -0.140299980272 0.798 1.61111502352e-38
-0.0603173322387 -0.134995934058 0.776 1.06014436578e-38
-0.0587294495969 -0.134648006393 0.774 1.27211990552e-38
-0.057297023997 -0.134648006393 0.774 2.49505955988e-39
-0.0558645983971 -0.134648006393 0.774 2.87905877936e-39
-0.0543618469925 -0.13447404256 0.773 2.97197327533e-39
-0.0529312720717 -0.13447404256 0.773 2.97377254256e-39
-0.0515006971508 -0.13447404256 0.773 2.27893169253e-41
-0.0500701222299 -0.13447404256 0.773 1.23600774345e-38
-0.0486395473091 -0.13447404256 0.773 1.57606266347e-38
-0.0472089723882 -0.13447404256 0.773 1.8339179761e-38
-0.0457783974674 -0.13447404256 0.773 4.70405805125e-39
-0.0443478225465 -0.13447404256 0.773 2.33057094224e-39
-0.0429172476257 -0.13447404256 0.773 3.06345003908e-39
-0.0414866727048 -0.13447404256 0.773 2.11506385011e-40
-0.0401079167979 -0.134648006393 0.774 5.26927599073e-39
-0.038675491198 -0.134648006393 0.774 1.61316568369e-38
-0.0372430655981 -0.134648006393 0.774 1.68654916193e-38
-0.0358106399981 -0.134648006393 0.774 1.91689404298e-38
-0.0343782143982 -0.134648006393 0.774 4.42677751892e-39
-0.0329457887983 -0.134648006393 0.774 2.79118195136e-39
-0.0315133631984 -0.134648006393 0.774 2.38613102505e-41
-0.0300809375984 -0.134648006393 0.774 1.31926421015e-38
-0.0287225391613 -0.134995934058 0.776 1.35551594155e-38
-0.0272864122032 -0.134995934058 0.776 1.29125855969e-38
-0.0258502852452 -0.134995934058 0.776 1.37405483997e-38
-0.0244770813755 -0.135343861723 0.778 1.17129718166e-38
-0.0230372530593 -0.135343861723 0.778 1.01465037036e-38
-0.0216529451152 -0.135691789388 0.78 8.02610230764e-39
-0.0202094154408 -0.135691789388 0.78 7.56479064929e-39
-0.0187658857665 -0.135691789388 0.78 3.70338941658e-39
-0.0173223560921 -0.135691789388 0.78 2.9762892746e-39
-0.0158991838875 -0.135865753221 0.781 4.81299919776e-39
-0.0144538035341 -0.135865753221 0.781 5.91826215111e-39
-0.0130084231807 -0.135865753221 0.781 6.65509431092e-39
-0.0115630428273 -0.135865753221 0.781 6.10157020712e-39
-0.0101176624739 -0.135865753221 0.781 6.00685504262e-39
-0.00867228212048 -0.135865753221 0.781 7.1081635317e-39
-0.00722690176707 -0.135865753221 0.781 7.47442231262e-39
-0.00578152141365 -0.135865753221 0.781 6.82833684006e-39
-0.00433614106024 -0.135865753221 0.781 5.16914620896e-39
-0.0028981634231 -0.136213680886 0.783 1.76117012684e-39
-0.00144908171155 -0.136213680886 0.783 9.78526717638e-42
0.0 -0.136213680886 0.783 4.34402523941e-44
0.00144908171155 -0.136213680886 0.783 3.50324616081e-44
0.0028981634231 -0.136213680886 0.783 0.0
0.00434724513466 -0.136213680886 0.783 6.42848473106e-40
0.00579632684621 -0.136213680886 0.783 2.29588740395e-39
0.00724540855776 -0.136213680886 0.783 2.75507469383e-39
0.00869449026931 -0.136213680886 0.783 3.21425497722e-39
0.0101694814878 -0.136561608551 0.785 4.41136323581e-39
0.0116222645575 -0.136561608551 0.785 4.96311189445e-39
0.0130750476272 -0.136561608551 0.785 4.50249247754e-39
0.0145278306969 -0.136561608551 0.785 4.77906955804e-39
0.0159806137666 -0.136561608551 0.785 4.96382095148e-39
0.0174333968363 -0.136561608551 0.785 4.77836750751e-39
0.018886179906 -0.136561608551 0.785 4.50284280216e-39
0.0203907819896 -0.136909536216 0.787 4.87125257622e-39
0.0218472664175 -0.136909536216 0.787 4.50284280216e-39
0.0233037508453 -0.136909536216 0.787 4.77905694636e-39
0.0248231583615 -0.137257463881 0.789 3.76814341861e-39
0.0262833441475 -0.137257463881 0.789 4.59395943221e-39
0.0277786928358 -0.137431427714 0.79 4.59503843202e-39
0.0292407293008 -0.137431427714 0.79 4.3162921415e-39
0.0307027657658 -0.137431427714 0.79 1.1020259539e-39
0.0321648022309 -0.137431427714 0.79 5.05491796334e-39
0.0336268386959 -0.137431427714 0.79 1.3724140596e-38
0.035088875161 -0.137431427714 0.79 1.59384808371e-38
0.036550911626 -0.137431427714 0.79 1.64909932034e-38
0.038012948091 -0.137431427714 0.79 1.59342194885e-38
0.0394749845561 -0.137431427714 0.79 1.59328097822e-38
0.0411442970769 -0.138127283044 0.794 1.60235466604e-38
0.0426137362582 -0.138127283044 0.794 1.60235438578e-38
0.0441942161837 -0.138475210709 0.796 1.56558529498e-38
0.0456673567232 -0.138475210709 0.796 1.56573145041e-38
0.0471404972627 -0.138475210709 0.796 1.58417309872e-38
0.0486136378021 -0.138475210709 0.796 1.78704230039e-38
0.0500867783416 -0.138475210709 0.796 1.55659232196e-38
0.051559918881 -0.138475210709 0.796 1.56584285364e-38
0.0530330594205 -0.138475210709 0.796 1.5844232305e-38
0.05450619996 -0.138475210709 0.796 1.53836072829e-38
0.0559793404994 -0.138475210709 0.796 1.64895862998e-38
0.0574524810389 -0.138475210709 0.796 1.61207967738e-38
0.0589256215783 -0.138475210709 0.796 1.65810910895e-38
0.0605505178015 -0.138823138374 0.798 1.65836120254e-38
0.0620273596991 -0.138823138374 0.798 1.85175916802e-38
0.0635042015967 -0.138823138374 0.798 1.75960011204e-38
0.0649810434943 -0.138823138374 0.798 1.51084188892e-38
0.0664578853919 -0.138823138374 0.798 1.11444187868e-38
0.0679347272895 -0.138823138374 0.798 4.40810381558e-39
0.0695855330196 -0.139171066039 0.8 1.83670992316e-39
0.0710660762754 -0.139171066039 0.8 3.67378278262e-39
0.0725466195311 -0.139171066039 0.8 5.14534515454e-39
0.0742122306938 -0.139518993704 0.802 6.06729164409e-39
0.0755077060426 -0.139171066039 0.8 4.40884790507e-39
0.0769882492983 -0.139171066039 0.8 3.30612830843e-39
0.0784687925541 -0.139171066039 0.8 1.34341951281e-38
-0.0603173322387 -0.1335598071 0.776 1.02323080112e-38
-0.0587294495969 -0.133215580793 0.774 1.19840053604e-38
-0.057297023997 -0.133215580793 0.774 3.69143493938e-39
-0.0558645983971 -0.133215580793 0.774 3.06345564428e-39
-0.0544321727972 -0.133215580793 0.774 3.43151088983e-39
-0.0529312720717 -0.13304346764 0.773 3.06667722945e-39
-0.0515006971508 -0.13304346764 0.773 8.52549985695e-40
-0.0500701222299 -0.13304346764 0.773 8.8663629058e-39
-0.0486395473091 -0.13304346764 0.773 1.74230262393e-38
-0.0472089723882 -0.13304346764 0.773 1.87087007647e-38
-0.0457783974674 -0.13304346764 0.773 6.36463036264e-39
-0.0444051935977 -0.133215580793 0.774 2.69754158278e-39
-0.0429727679978 -0.133215580793 0.774 3.79957314187e-39
-0.0415403423978 -0.133215580793 0.774 3.15672466876e-39
-0.0401079167979 -0.133215580793 0.774 1.03801744264e-39
-0.038675491198 -0.133215580793 0.774 5.36111849338e-39
-0.0373393009097 -0.1335598071 0.776 1.19875744676e-38
-0.0359031739516 -0.1335598071 0.776 1.09716106602e-38
-0.0345558795889 -0.133904033407 0.778 4.43369012424e-39
-0.0331160512727 -0.133904033407 0.778 3.61697414288e-39
-0.0316762229565 -0.133904033407 0.778 3.98467065602e-39
-0.0302363946403 -0.133904033407 0.778 3.80099545981e-39
-0.0287965663241 -0.133904033407 0.778 4.7208007653e-39
-0.0273567380079 -0.133904033407 0.778 4.99809671191e-39
-0.0259169096917 -0.133904033407 0.778 3.98432033141e-39
-0.0245400044638 -0.134248259714 0.78 6.00865290855e-39
-0.0230964747895 -0.134248259714 0.78 6.19052042974e-39
-0.0216807053012 -0.134420372867 0.781 7.3851063511e-39
-0.0202353249478 -0.134420372867 0.781 7.84356356448e-39
-0.0187899445944 -0.134420372867 0.781 7.9332424623e-39
-0.017344564241 -0.134420372867 0.781 6.27371692087e-39
-0.0158991838875 -0.134420372867 0.781 4.52377960252e-39
-0.0144538035341 -0.134420372867 0.781 1.02145689739e-39
-0.0130084231807 -0.134420372867 0.781 4.02593048801e-42
-0.0115630428273 -0.134420372867 0.781 1.12524266685e-42
-0.0101176624739 -0.134420372867 0.781 1.10982838375e-42
-0.00869449026931 -0.134764599174 0.783 2.80259692865e-45
-0.00724540855776 -0.134764599174 0.783 2.75513494966e-40
-0.00579632684621 -0.134764599174 0.783 2.02038091548e-39
-0.00434724513466 -0.134764599174 0.783 2.8469003809e-39
-0.0028981634231 -0.134764599174 0.783 3.21424236553e-39
-0.00144908171155 -0.134764599174 0.783 4.13331619322e-39
0.0 -0.134764599174 0.783 4.87091626459e-39
0.00144908171155 -0.134764599174 0.783 4.59468810741e-39
0.00290556613938 -0.135108825481 0.785 4.77872063473e-39
0.00435834920908 -0.135108825481 0.785 5.51411786491e-39
0.00581113227877 -0.135108825481 0.785 5.14569407786e-39
0.00726391534846 -0.135108825481 0.785 4.87197564623e-39
0.00871669841815 -0.135108825481 0.785 4.96417127609e-39
0.0101953909948 -0.135453051788 0.787 4.87232316825e-39
0.0116518754226 -0.135453051788 0.787 4.59503843202e-39
0.0131083598505 -0.135453051788 0.787 4.22589718016e-39
0.0145648442783 -0.135453051788 0.787 5.23786728695e-39
0.0160213287061 -0.135453051788 0.787 5.05384877262e-39
0.017477813134 -0.135453051788 0.787 4.87126658921e-39
0.0189342975618 -0.135453051788 0.787 4.77906955804e-39
0.0203907819896 -0.135453051788 0.787 4.50284280216e-39
0.0218472664175 -0.135453051788 0.787 4.4106471723e-39
0.0233629725755 -0.135797278095 0.789 5.23681070791e-39
0.0248231583615 -0.135797278095 0.789 4.50249247754e-39
0.0263166563707 -0.135969391249 0.79 4.22517691275e-39
0.0277786928358 -0.135969391249 0.79 4.96094408573e-39
0.0292407293008 -0.135969391249 0.79 5.14496260006e-39
0.0307027657658 -0.135969391249 0.79 5.14461507804e-39
0.0321648022309 -0.135969391249 0.79 3.39793858122e-39
0.0337119699331 -0.136313617556 0.792 1.01019045774e-39
0.0351777077563 -0.136313617556 0.792 2.47955839627e-39
0.036735979533 -0.136657843863 0.794 8.64488347962e-39
0.0382054187143 -0.136657843863 0.794 1.42772373038e-38
0.0396748578956 -0.136657843863 0.794 1.428009315e-38
0.0412479351048 -0.13700207017 0.796 1.62155133396e-38
0.0427210756443 -0.13700207017 0.796 1.66739677504e-38
0.0441942161837 -0.13700207017 0.796 1.6120093322e-38
0.0456673567232 -0.13700207017 0.796 1.68576583609e-38
0.0471404972627 -0.13700207017 0.796 1.6120093322e-38
0.0486136378021 -0.13700207017 0.796 1.57502584274e-38
0.0500867783416 -0.13700207017 0.796 1.63030370404e-38
0.051559918881 -0.13700207017 0.796 1.62123057674e-38
0.0530330594205 -0.13700207017 0.796 1.63966998297e-38
0.05450619996 -0.13700207017 0.796 1.67662054192e-38
0.0561199921087 -0.137346296477 0.798 1.67665585464e-38
0.0575968340063 -0.137346296477 0.798 1.65825134074e-38
0.0590736759039 -0.137346296477 0.798 1.46492610266e-38
0.0605505178015 -0.137346296477 0.798 1.29907920642e-38
0.0620273596991 -0.137346296477 0.798 8.92669721248e-39
0.0635042015967 -0.137346296477 0.798 5.41833350968e-39
0.0649810434943 -0.137346296477 0.798 2.75506488474e-39
0.0666244465082 -0.137690522784 0.8 1.65303893084e-39
0.0681049897639 -0.137690522784 0.8 4.5954237891e-39
0.0695855330196 -0.137690522784 0.8 5.3311741465e-39
0.0712437414661 -0.13803474909 0.802 5.51446818953e-39
0.0727279860799 -0.13803474909 0.802 4.96382095148e-39
0.0742122306938 -0.13803474909 0.802 5.51663599825e-39
0.0756964753077 -0.13803474909 0.802 1.74490385427e-39
0.0771807199216 -0.13803474909 0.802 1.5930662993e-38
0.0787630505261 -0.138206862244 0.803 1.80490689399e-38
0.0804490191586 -0.138551088551 0.805 1.69447967046e-38
-0.0603173322387 -0.132123680142 0.776 1.06014436578e-38
-0.0587294495969 -0.131783155193 0.774 1.16148767202e-38
-0.057297023997 -0.131783155193 0.774 4.33645122121e-39
-0.0558645983971 -0.131783155193 0.774 3.33786631735e-39
-0.0544321727972 -0.131783155193 0.774 2.97232640254e-39
-0.0529997471972 -0.131783155193 0.774 2.60569908013e-39
-0.0515673215973 -0.131783155193 0.774 2.97376273347e-39
-0.0501348959974 -0.131783155193 0.774 1.49827252195e-39
-0.0487024703975 -0.131783155193 0.774 8.58254952003e-39
-0.0472700447975 -0.131783155193 0.774 7.19600392594e-39
-0.0458376191976 -0.131783155193 0.774 4.71502040914e-39
-0.0444051935977 -0.131783155193 0.774 3.61732727009e-39
-0.0429727679978 -0.131783155193 0.774 4.63003726247e-39
-0.0416476817839 -0.132123680142 0.776 4.72150982232e-39
-0.0402115548258 -0.132123680142 0.776 5.82605951475e-39
-0.0387754278677 -0.132123680142 0.776 6.28596567075e-39
-0.0374355362213 -0.132464205091 0.778 5.73169887876e-39
-0.0359957079051 -0.132464205091 0.778 6.65185731147e-39
-0.0346447121842 -0.13280473004 0.78 7.75388606796e-39
-0.0332011825099 -0.13280473004 0.78 7.8439166917e-39
-0.0316762229565 -0.132464205091 0.778 7.38114347905e-39
-0.0302363946403 -0.132464205091 0.778 5.99857477e-39
-0.0288705934869 -0.13280473004 0.78 4.06532238914e-39
-0.0274270638125 -0.13280473004 0.78 4.71159983958e-40
-0.0259835341382 -0.13280473004 0.78 6.89719104141e-42
-0.0245400044638 -0.13280473004 0.78 4.20389539297e-44
-0.0231260856546 -0.132974992514 0.781 4.34402523941e-44
-0.0216807053012 -0.132974992514 0.781 0.0
-0.0202353249478 -0.132974992514 0.781 9.1835496158e-41
-0.0187899445944 -0.132974992514 0.781 8.26519465422e-40
-0.017344564241 -0.132974992514 0.781 2.20405190779e-39
-0.0159398988271 -0.133315517463 0.783 3.30607786169e-39
-0.0144538035341 -0.132974992514 0.781 4.31664947261e-39
-0.0130084231807 -0.132974992514 0.781 4.87091626459e-39
-0.0115926536924 -0.133315517463 0.783 4.41281217842e-39
-0.0101435719809 -0.133315517463 0.783 4.04403246157e-39
-0.00869449026931 -0.133315517463 0.783 4.32061935116e-39
-0.00724540855776 -0.133315517463 0.783 5.24075816568e-39
-0.00581113227877 -0.133656042412 0.785 4.78012613709e-39
-0.00435834920908 -0.133656042412 0.785 4.87126658921e-39
-0.00290556613938 -0.133656042412 0.785 4.50284280216e-39
-0.00145278306969 -0.133656042412 0.785 4.59503843202e-39
0.0 -0.133656042412 0.785 4.68580473745e-39
0.00145278306969 -0.133656042412 0.785 5.42085584691e-39
0.00291296885566 -0.13399656736 0.787 4.50284280216e-39
0.00436945328349 -0.13399656736 0.787 5.33043285961e-39
0.00582593771132 -0.13399656736 0.787 5.05384877262e-39
0.00728242213916 -0.13399656736 0.787 5.14569407786e-39
0.00873890656699 -0.13399656736 0.787 5.32972660518e-39
0.0101953909948 -0.13399656736 0.787 5.69956570368e-39
0.0116518754226 -0.13399656736 0.787 4.133700149e-39
0.0131083598505 -0.13399656736 0.787 2.38772290011e-39
0.0145648442783 -0.13399656736 0.787 2.57139389242e-39
0.0160620436457 -0.134337092309 0.789 3.58158435016e-39
0.0175222294316 -0.134337092309 0.789 4.59395943221e-39
0.0189824152176 -0.134337092309 0.789 5.05384597002e-39
0.0204426010036 -0.134337092309 0.789 4.77906955804e-39
0.0219027867896 -0.134337092309 0.789 4.50319032418e-39
0.0233925834406 -0.134507354784 0.79 4.13440640343e-39
0.0248546199057 -0.134507354784 0.79 5.14496260006e-39
0.0263166563707 -0.134507354784 0.79 4.31808019834e-39
0.0278490186404 -0.134847879733 0.792 4.86945471029e-39
0.0293147564636 -0.134847879733 0.792 5.23786728695e-39
0.0307804942868 -0.134847879733 0.792 5.14604440248e-39
0.0322462321099 -0.134847879733 0.792 4.50067499344e-39
0.0337971011703 -0.135188404681 0.794 4.77544580022e-39
0.0352665403517 -0.135188404681 0.794 1.01019045774e-39
0.0368285134865 -0.13552892963 0.796 3.95184944339e-39
0.0383016540259 -0.13552892963 0.796 3.21424236553e-39
0.0398747312351 -0.135869454579 0.798 4.5917748079e-40
0.0413515731327 -0.135869454579 0.798 3.58158435016e-39
0.0428284150303 -0.135869454579 0.798 6.24911852763e-39
0.0443052569279 -0.135869454579 0.798 8.27703842884e-39
0.0457820988255 -0.135869454579 0.798 1.03096596864e-38
0.0472589407231 -0.135869454579 0.798 1.04940271241e-38
0.0486136378021 -0.13552892963 0.796 1.18783712783e-38
0.0500867783416 -0.13552892963 0.796 1.16936086744e-38
0.0516894664159 -0.135869454579 0.798 9.84798369045e-39
0.0531663083135 -0.135869454579 0.798 8.28065097628e-39
0.0546431502111 -0.135869454579 0.798 6.06510842108e-39
0.0561199921087 -0.135869454579 0.798 4.95911679253e-39
0.0575968340063 -0.135869454579 0.798 2.8469003809e-39
0.0590736759039 -0.135869454579 0.798 5.51012976948e-40
0.0607022734852 -0.136209979528 0.8 7.34683969264e-40
0.0621828167409 -0.136209979528 0.8 2.93873587706e-39
0.0636633599967 -0.136209979528 0.8 4.86800296508e-39
0.0651439032524 -0.136209979528 0.8 5.053498448e-39
0.0667910076244 -0.136550504477 0.802 4.87197284363e-39
0.0682752522383 -0.136550504477 0.802 5.05601658134e-39
0.0697594968522 -0.136550504477 0.802 5.24147703179e-39
0.0712437414661 -0.136550504477 0.802 4.77941988266e-39
0.0728186693543 -0.136720766951 0.803 4.87091626459e-39
0.0743047646473 -0.136720766951 0.803 4.86945471029e-39
0.0757908599402 -0.136720766951 0.803 6.0637225369e-39
0.0772769552332 -0.136720766951 0.803 1.59271471351e-38
0.0789592225075 -0.1370612919 0.805 1.14027089223e-38
0.0804490191586 -0.1370612919 0.805 1.70352196919e-38
-0.0606282463224 -0.131361200365 0.78 1.05067467102e-38
-0.0588812052807 -0.130687553184 0.776 1.13375821749e-38
-0.0574450783226 -0.130687553184 0.776 7.19235774734e-39
-0.0560089513645 -0.130687553184 0.776 5.9114252159e-39
-0.0545728244065 -0.130687553184 0.776 6.10192613693e-39
-0.0531366974484 -0.130687553184 0.776 5.82389590992e-39
-0.0517005704903 -0.130687553184 0.776 6.28523559425e-39
-0.0502644435323 -0.130687553184 0.776 6.83732476841e-39
-0.0488283165742 -0.130687553184 0.776 7.01811889498e-39
-0.0473921896161 -0.130687553184 0.776 7.47550411504e-39
-0.0459560626581 -0.130687553184 0.776 7.10420065965e-39
-0.0445199357 -0.130687553184 0.776 7.1956746208e-39
-0.0430838087419 -0.130687553184 0.776 4.70672332093e-39
-0.0417550211699 -0.131024376775 0.778 2.77567518255e-39
-0.0403151928537 -0.131024376775 0.778 7.65669480907e-42
-0.0388753645375 -0.131024376775 0.778 2.22245936442e-42
-0.0375317715329 -0.131361200365 0.78 5.184804318e-44
-0.0360882418586 -0.131361200365 0.78 2.94272677508e-44
-0.0346447121842 -0.131361200365 0.78 2.80259692865e-45
-0.0332011825099 -0.131361200365 0.78 9.1835496158e-41
-0.0317983677751 -0.131529612161 0.781 6.42848473106e-40
-0.0303529874217 -0.131529612161 0.781 1.83670992316e-39
-0.0289076070683 -0.131529612161 0.781 3.03057137321e-39
-0.0274622267148 -0.131529612161 0.781 3.67378558522e-39
-0.0260168463614 -0.131529612161 0.781 4.1347959644e-39
-0.024571466008 -0.131529612161 0.781 4.22734472148e-39
-0.0231260856546 -0.131529612161 0.781 4.68580473745e-39
-0.0217362256733 -0.131866435751 0.783 4.96382095148e-39
-0.0202871439617 -0.131866435751 0.783 4.41316530564e-39
-0.0188380622502 -0.131866435751 0.783 4.87126658921e-39
-0.0173889805386 -0.131866435751 0.783 4.96382095148e-39
-0.0159398988271 -0.131866435751 0.783 4.77906955804e-39
-0.0144908171155 -0.131866435751 0.783 4.9641684735e-39
-0.013041735404 -0.131866435751 0.783 4.87126658921e-39
-0.0115926536924 -0.131866435751 0.783 4.87197564623e-39
-0.0101435719809 -0.131866435751 0.783 5.05566625672e-39
-0.00869449026931 -0.131866435751 0.783 4.32026622394e-39
-0.00726391534846 -0.132203259342 0.785 4.50284280216e-39
-0.00581113227877 -0.132203259342 0.785 4.68755916313e-39
-0.00435834920908 -0.132203259342 0.785 4.87197284363e-39
-0.00290556613938 -0.132203259342 0.785 4.13300090107e-39
-0.00145278306969 -0.132203259342 0.785 4.86730792104e-39
0.0 -0.132540082933 0.787 4.8705463218e-39
0.00145648442783 -0.132540082933 0.787 4.77941988266e-39
0.00292037157194 -0.132876906523 0.789 5.14604440248e-39
0.00438055735791 -0.132876906523 0.789 5.05314251819e-39
0.00584074314388 -0.132876906523 0.789 4.86874845587e-39
0.00730092892985 -0.132876906523 0.789 4.40958779066e-39
0.00876111471582 -0.132876906523 0.789 5.23610445348e-39
0.0102213005018 -0.132876906523 0.789 2.02039773106e-39
0.0116814862878 -0.132876906523 0.789 6.8030293898e-39
0.0131416720737 -0.132876906523 0.789 1.58423545651e-38
0.0146018578597 -0.132876906523 0.789 1.83339599242e-38
0.0160620436457 -0.132876906523 0.789 3.58660660386e-39
0.0175444375805 -0.133045318319 0.79 4.13259732711e-39
0.0190064740455 -0.133045318319 0.79 5.05311729482e-39
0.0204685105106 -0.133045318319 0.79 4.77977581247e-39
0.0219305469756 -0.133045318319 0.79 4.50319032418e-39
0.0233925834406 -0.133045318319 0.79 4.41134501893e-39
0.0249175429941 -0.133382141909 0.792 4.22766141493e-39
0.0263832808172 -0.133382141909 0.792 4.50319032418e-39
0.0278490186404 -0.133382141909 0.792 4.59574468645e-39
0.0293147564636 -0.133382141909 0.792 4.59501601125e-39
0.0307804942868 -0.133382141909 0.792 4.59574468645e-39
0.032327661989 -0.1337189655 0.794 3.95037527741e-39
0.0337971011703 -0.1337189655 0.794 1.83670992316e-39
0.0352665403517 -0.1337189655 0.794 1.91674928885e-38
0.0368285134865 -0.134055789091 0.796 1.7041821209e-38
0.0383978893375 -0.134392612681 0.798 2.06356529077e-38
0.0398747312351 -0.134392612681 0.798 2.02043977001e-39
0.0413515731327 -0.134392612681 0.798 5.51012976948e-40
0.0428284150303 -0.134392612681 0.798 8.26519465422e-40
0.0443052569279 -0.134392612681 0.798 5.51015359155e-39
0.0458968409278 -0.134729436272 0.8 3.67341984632e-39
0.0472589407231 -0.134392612681 0.798 3.76525534248e-39
0.0487357826207 -0.134392612681 0.798 2.66322938858e-39
0.0502126245183 -0.134392612681 0.798 2.57139389242e-39
0.0516894664159 -0.134392612681 0.798 3.12240686937e-39
0.0532995572065 -0.134729436272 0.8 3.39791335785e-39
0.0547801004623 -0.134729436272 0.8 4.13296586861e-39
0.056260643718 -0.134729436272 0.8 4.68580473745e-39
0.0578855399412 -0.135066259863 0.802 4.77800036732e-39
0.0594438117178 -0.135234671658 0.803 4.4106471723e-39
0.0609299070108 -0.135234671658 0.803 5.14713321139e-39
0.0624160023037 -0.135234671658 0.803 4.96417127609e-39
0.0639020975967 -0.135234671658 0.803 5.42227255966e-39
0.0653881928896 -0.135234671658 0.803 4.9648901422e-39
0.0670408492988 -0.135571495249 0.805 4.96522505254e-39
0.0683603834755 -0.135234671658 0.803 5.42549554613e-39
0.0698464787685 -0.135234671658 0.803 5.14928140193e-39
0.0713325740614 -0.135234671658 0.803 5.05673544745e-39
0.0730000359032 -0.135571495249 0.805 5.79358162025e-39
0.0744898325543 -0.135571495249 0.805 2.93876810692e-39
0.0759796292053 -0.135571495249 0.805 1.45403268865e-38
0.0774694258564 -0.135571495249 0.805 1.01115903524e-38
0.0789592225075 -0.135571495249 0.805 1.80350461462e-38
0.0804490191586 -0.135571495249 0.805 1.68544409796e-38
-0.0606282463224 -0.129917670691 0.78 1.14279771362e-38
-0.0588812052807 -0.129251426226 0.776 1.14283274609e-38
-0.0574450783226 -0.129251426226 0.776 7.65116528533e-39
-0.056153304332 -0.129584548458 0.778 2.25889312449e-42
-0.0547134760158 -0.129584548458 0.778 7.61745845207e-42
-0.0532736476996 -0.129584548458 0.778 2.9497332674e-42
-0.0518338193833 -0.129584548458 0.778 5.88545355016e-44
-0.0503939910671 -0.129584548458 0.778 3.92363570011e-44
-0.0489541627509 -0.129584548458 0.778 9.80908925027e-45
-0.0475143344347 -0.129584548458 0.778 0.0
-0.0460745061185 -0.129584548458 0.778 1.19386145005e-39
-0.0446346778023 -0.129584548458 0.778 1.744874427e-39
-0.0431948494861 -0.129584548458 0.778 2.66322938858e-39
-0.041862360556 -0.129917670691 0.78 3.30608626948e-39
-0.0404188308816 -0.129917670691 0.78 4.31987386037e-39
-0.0389753012073 -0.129917670691 0.78 4.04295346175e-39
-0.0375317715329 -0.129917670691 0.78 4.31989908375e-39
-0.0361345088353 -0.130084231807 0.781 4.22734472148e-39
-0.0346891284819 -0.130084231807 0.781 4.31989908375e-39
-0.0332437481285 -0.130084231807 0.781 4.41316530564e-39
-0.0317983677751 -0.130084231807 0.781 4.41351282766e-39
-0.0303529874217 -0.130084231807 0.781 4.87197284363e-39
-0.028981634231 -0.13041735404 0.783 4.41351282766e-39
-0.0275325525195 -0.13041735404 0.783 4.04508904061e-39
-0.0260834708079 -0.13041735404 0.783 4.4106471723e-39
-0.0246343890964 -0.13041735404 0.783 4.87197284363e-39
-0.0231853073848 -0.13041735404 0.783 4.77940727097e-39
-0.0217917460454 -0.130750476272 0.785 4.50284280216e-39
-0.0203389629757 -0.130750476272 0.785 4.87125257622e-39
-0.018886179906 -0.130750476272 0.785 4.87091626459e-39
-0.0174333968363 -0.130750476272 0.785 4.41281217842e-39
-0.0159806137666 -0.130750476272 0.785 4.87091626459e-39
-0.0145278306969 -0.130750476272 0.785 4.96344960738e-39
-0.0130750476272 -0.130750476272 0.785 4.87126658921e-39
-0.0116222645575 -0.130750476272 0.785 4.87126658921e-39
-0.0101694814878 -0.130750476272 0.785 4.59503843202e-39
-0.00871669841815 -0.130750476272 0.785 4.77906955804e-39
-0.00726391534846 -0.130750476272 0.785 5.14856253582e-39
-0.00582593771132 -0.131083598505 0.787 4.50391199289e-39
-0.00436945328349 -0.131083598505 0.787 2.47955979756e-39
-0.00291296885566 -0.131083598505 0.787 1.03024850383e-38
-0.00145648442783 -0.131083598505 0.787 1.2699291155e-38
0.0 -0.131083598505 0.787 2.84690458479e-39
0.00146018578597 -0.131416720737 0.789 3.95038788909e-39
0.00292037157194 -0.131416720737 0.789 4.4106471723e-39
0.00438610939512 -0.131583281854 0.79 1.744874427e-39
0.00584074314388 -0.131416720737 0.789 2.29588740395e-39
0.00730092892985 -0.131416720737 0.789 6.97949770801e-39
0.00877221879024 -0.131583281854 0.79 4.5917748079e-40
0.0102342552553 -0.131583281854 0.79 1.10458598606e-38
0.0116962917203 -0.131583281854 0.79 1.76836285173e-38
0.0131583281854 -0.131583281854 0.79 6.43147089809e-39
0.0146203646504 -0.131583281854 0.79 1.90449451339e-38
0.0160824011154 -0.131583281854 0.79 9.76121809214e-39
0.0175444375805 -0.131583281854 0.79 2.47955839627e-39
0.0190064740455 -0.131583281854 0.79 4.77906955804e-39
0.0204685105106 -0.131583281854 0.79 4.50284280216e-39
0.0219860673477 -0.131916404086 0.792 4.22589718016e-39
0.0234518051709 -0.131916404086 0.792 4.50211132436e-39
0.0249804660824 -0.132249526319 0.794 4.31808019834e-39
0.0264499052637 -0.132249526319 0.794 5.0527669702e-39
0.0279193444451 -0.132249526319 0.794 4.77835069193e-39
0.0293887836264 -0.132249526319 0.794 4.04079406082e-39
0.0309359513286 -0.132582648551 0.796 2.75506488474e-39
0.0324090918681 -0.132582648551 0.796 1.65303893084e-39
0.0338822324075 -0.132582648551 0.796 7.55931857878e-39
0.035355372947 -0.132582648551 0.796 9.95031351081e-39
0.0369210474399 -0.132915770784 0.798 5.78563625795e-39
0.0383978893375 -0.132915770784 0.798 2.16457775044e-38
0.0398747312351 -0.132915770784 0.798 1.40956794695e-38
0.0414552111606 -0.133248893016 0.8 1.88893239329e-38
0.0429357544164 -0.133248893016 0.8 6.90559883219e-39
0.0444162976721 -0.133248893016 0.8 1.45507245211e-38
0.0458968409278 -0.133248893016 0.8 3.8614138444e-39
0.0473773841836 -0.133248893016 0.8 5.23714561824e-39
0.0488579274393 -0.133248893016 0.8 5.05601658134e-39
0.0503384706951 -0.133248893016 0.8 4.87126658921e-39
