# .PCD v0.7 - Point Cloud Data file format
VERSION 0.7
FIELDS x y z rgb
SIZE 4 4 4 4
TYPE F F F F
COUNT 1 1 1 1
WIDTH 847
HEIGHT 1
VIEWPOINT 0 0 0 1 0 0 0
POINTS 847
DATA ascii
0.100269791995 -0.0159158399992 0.86 2.3473789568e-38
0.101861375995 -0.0159158399992 0.86 1.44364682496e-38
0.103934136553 -0.015989867162 0.864 1.6089148448e-38
0.105533123269 -0.015989867162 0.864 2.34609522728e-38
-0.0334232639983 -0.0150404687992 0.903 2.32069290911e-38
-0.0317521007983 -0.0150404687992 0.903 2.34928864635e-38
-0.0300809375984 -0.0150404687992 0.903 4.95911679253e-39
-0.0284097743985 -0.0150404687992 0.903 1.11210955752e-38
-0.0267386111986 -0.0150404687992 0.903 9.74784970479e-39
-0.0250674479987 -0.0150404687992 0.903 9.56238645173e-39
-0.0233962847988 -0.0150404687992 0.903 9.1943129893e-39
-0.0217251215989 -0.0150404687992 0.903 1.02055880521e-38
-0.0198985013571 -0.0149238760178 0.896 9.92935428968e-39
-0.0182402929107 -0.0149238760178 0.896 9.93008016228e-39
-0.0165820844643 -0.0149238760178 0.896 1.00219072506e-38
-0.0149238760178 -0.0149238760178 0.896 9.47054114649e-39
-0.0132656675714 -0.0149238760178 0.896 9.74749938017e-39
-0.011633368632 -0.0149571882411 0.898 9.4708970763e-39
-0.00994925067855 -0.0149238760178 0.896 9.56237384005e-39
-0.00827253544143 -0.0148905637946 0.894 9.37834551662e-39
-0.00659582020431 -0.0148405954597 0.891 1.02081061854e-38
-0.00494686515323 -0.0148405954597 0.891 7.71812773375e-39
-0.00329791010215 -0.0148405954597 0.891 6.06114274643e-39
-0.00164895505108 -0.0148405954597 0.891 7.89785266959e-39
0.0 -0.0148072832364 0.889 1.75619033249e-38
0.00164525369294 -0.0148072832364 0.889 2.09981800308e-38
0.00329050738588 -0.0148072832364 0.889 2.33956195345e-38
0.00493576107881 -0.0148072832364 0.889 2.11800699728e-38
0.00658101477175 -0.0148072832364 0.889 1.49871224941e-38
0.00820776167399 -0.0147739710132 0.887 2.34622512764e-38
0.00984931400879 -0.0147739710132 0.887 2.34808296915e-38
0.0114649568366 -0.0147406587899 0.885 2.22823047201e-38
0.0131028078133 -0.0147406587899 0.885 2.26500054372e-38
0.0147406587899 -0.0147406587899 0.885 2.32946475723e-38
0.0163785097666 -0.0147406587899 0.885 2.28347526267e-38
0.0180163607432 -0.0147406587899 0.885 2.25599636031e-38
0.0195875872734 -0.014690690455 0.882 2.03429973286e-38
0.0212198862128 -0.014690690455 0.882 2.14478931418e-38
0.0229299136732 -0.0147406587899 0.885 2.09894331258e-38
0.024623285022 -0.0147739710132 0.887 1.95107381447e-38
0.0262648373568 -0.0147739710132 0.887 1.70153955225e-38
0.0278434666032 -0.0147406587899 0.885 1.91322754554e-38
0.0293813809101 -0.014690690455 0.882 2.34827536743e-38
0.0310136798495 -0.014690690455 0.882 1.81325022505e-38
0.032645978789 -0.014690690455 0.882 1.81959838735e-38
0.0342005492075 -0.0146573782318 0.88 2.05191349404e-38
0.0357477169098 -0.0146240660085 0.878 2.08889880519e-38
0.0372449162771 -0.0145740976737 0.875 1.90461796778e-38
0.0388642604631 -0.0145740976737 0.875 2.0426223247e-38
0.0403910706956 -0.0145407854504 0.873 2.34777692556e-38
0.0420067135234 -0.0145407854504 0.873 2.34824313756e-38
0.0435224196815 -0.0145074732272 0.871 2.29296191315e-38
0.0451343611511 -0.0145074732272 0.871 2.34831432353e-38
0.0467463026208 -0.0145074732272 0.871 2.34834963625e-38
0.0483582440905 -0.0145074732272 0.871 2.28377738262e-38
0.0499701855602 -0.0145074732272 0.871 2.34853194518e-38
0.0515821270299 -0.0145074732272 0.871 2.26534077899e-38
0.0533162133182 -0.0145407854504 0.873 2.28370549601e-38
0.0548060099692 -0.0145074732272 0.871 2.32061836003e-38
0.0564179514389 -0.0145074732272 0.871 2.26530126237e-38
0.0580298929086 -0.0145074732272 0.871 2.27455781963e-38
0.0597787846294 -0.0145407854504 0.873 2.33905944782e-38
0.061253775848 -0.0145074732272 0.871 2.32065661548e-38
0.0628657173177 -0.0145074732272 0.871 2.33905972808e-38
0.0644776587873 -0.0145074732272 0.871 2.31129159771e-38
0.066089600257 -0.0145074732272 0.871 2.30207049329e-38
0.0677015417267 -0.0145074732272 0.871 2.32948087216e-38
0.0693134831964 -0.0145074732272 0.871 2.34835005664e-38
0.0716582935777 -0.0146573782318 0.88 2.29281421629e-38
0.073286891159 -0.0146573782318 0.88 2.34849396999e-38
0.0747452262659 -0.0146240660085 0.878 2.34856347439e-38
0.0757612490751 -0.0145074732272 0.871 2.34856543621e-38
0.0771955253541 -0.0144741610039 0.869 2.34824495925e-38
0.0788037654657 -0.0144741610039 0.869 2.34849649233e-38
0.0802269376702 -0.0144408487806 0.867 2.34834865534e-38
0.081548322526 -0.0143908804458 0.864 2.34838466871e-38
0.0829548386189 -0.0143575682225 0.862 2.34831404327e-38
0.084550123977 -0.0143575682225 0.862 2.08987845294e-38
0.086145409335 -0.0143575682225 0.862 1.58875408353e-38
0.0877406946931 -0.0143575682225 0.862 2.34731295564e-38
0.0891287039954 -0.0143242559993 0.86 2.3492865444e-38
0.0907202879953 -0.0143242559993 0.86 1.58280417025e-38
0.0920971932231 -0.014290943776 0.858 1.88524697833e-38
0.0936850758649 -0.014290943776 0.858 1.97801461822e-38
0.0957171214834 -0.0143575682225 0.862 2.03272131027e-38
0.0973124068414 -0.0143575682225 0.862 1.70060684799e-38
0.0989076921995 -0.0143575682225 0.862 2.14246273834e-38
0.100502977558 -0.0143575682225 0.862 2.34668797653e-38
0.102335149837 -0.0143908804458 0.864 1.34248428622e-38
0.103934136553 -0.0143908804458 0.864 9.1835496158e-39
0.105533123269 -0.0143908804458 0.864 2.3486409662e-38
0.107132109985 -0.0143908804458 0.864 2.35098253593e-38
-0.0335343047424 -0.013413721897 0.906 2.3483151643e-38
-0.0318575895053 -0.013413721897 0.906 2.34881991201e-38
-0.0301808742682 -0.013413721897 0.906 6.43386571716e-39
-0.0285041590311 -0.013413721897 0.906 9.83143715818e-39
-0.026827443794 -0.013413721897 0.906 1.00222912064e-38
-0.0251507285568 -0.013413721897 0.906 1.02981368091e-38
-0.0234740133197 -0.013413721897 0.906 1.00215499195e-38
-0.0217972980826 -0.013413721897 0.906 9.74532456495e-39
-0.0201205828455 -0.013413721897 0.906 1.02966962743e-38
-0.018382795199 -0.0133693055993 0.903 1.07569499523e-38
-0.0167116319991 -0.0133693055993 0.903 1.01137427468e-38
-0.0150404687992 -0.0133693055993 0.903 9.83752860261e-39
-0.0133693055993 -0.0133693055993 0.903 9.19325641026e-39
-0.011633368632 -0.0132952784365 0.898 9.09817130296e-39
-0.00994925067855 -0.0132656675714 0.896 9.83430701744e-39
-0.00829104223213 -0.0132656675714 0.896 9.83717827799e-39
-0.0066328337857 -0.0132656675714 0.896 9.9304304869e-39
-0.00497462533928 -0.0132656675714 0.896 9.74604202977e-39
-0.00330901417657 -0.0132360567063 0.894 9.74568890255e-39
-0.00165450708829 -0.0132360567063 0.894 9.28471215454e-39
0.0 -0.0132360567063 0.894 8.54321226954e-39
0.00164895505108 -0.0131916404086 0.891 6.79582671569e-39
0.00329791010215 -0.0131916404086 0.891 7.53051068496e-39
0.00493576107881 -0.0131620295435 0.889 1.24907036747e-38
0.00658101477175 -0.0131620295435 0.889 1.82056934706e-38
0.00822626846469 -0.0131620295435 0.889 2.34719412553e-38
0.00984931400879 -0.0131324186784 0.887 2.1637662585e-38
0.0114908663436 -0.0131324186784 0.887 2.3482268825e-38
0.0131324186784 -0.0131324186784 0.887 1.32393782078e-38
0.0147739710132 -0.0131324186784 0.887 2.06712599017e-38
0.016415523348 -0.0131324186784 0.887 2.34786800996e-38
0.0180570756828 -0.0131324186784 0.887 2.2745069525e-38
0.0196986280176 -0.0131324186784 0.887 2.22826634526e-38
0.0213401803524 -0.0131324186784 0.887 1.95114556095e-38
0.0229817326872 -0.0131324186784 0.887 2.34768990493e-38
0.0246788053941 -0.0131620295435 0.889 2.25599636031e-38
0.026324059087 -0.0131620295435 0.889 2.30209347459e-38
0.0279063896916 -0.0131324186784 0.887 2.15429572296e-38
0.0294813175799 -0.0131028078133 0.885 1.68188101636e-38
0.0311191685565 -0.0131028078133 0.885 1.93084130672e-38
0.0327570195332 -0.0131028078133 0.885 2.24380198081e-38
0.0342005492075 -0.0130287806505 0.88 2.34776010998e-38
0.0358291467888 -0.0130287806505 0.88 2.32957237695e-38
0.0374577443701 -0.0130287806505 0.88 2.34822646211e-38
0.0390863419515 -0.0130287806505 0.88 1.60956056313e-38
0.0404836046491 -0.0129547534877 0.875 1.99498308146e-38
0.042102948835 -0.0129547534877 0.875 1.98698937437e-38
0.043722293021 -0.0129547534877 0.875 1.87664202485e-38
0.0453416372069 -0.0129547534877 0.875 1.96890856041e-38
0.0469609813929 -0.0129547534877 0.875 1.92280878366e-38
0.0485803255789 -0.0129547534877 0.875 2.34740866433e-38
0.0501996697648 -0.0129547534877 0.875 2.30174567231e-38
0.0518190139508 -0.0129547534877 0.875 2.30178098503e-38
0.0534383581368 -0.0129547534877 0.875 2.34827746938e-38
0.054931856146 -0.0129251426226 0.873 2.34831390314e-38
0.0565474989738 -0.0129251426226 0.873 2.34860116932e-38
0.0582963906946 -0.0129547534877 0.875 2.28359563421e-38
0.0599157348806 -0.0129547534877 0.875 2.21866212584e-38
0.0613944274573 -0.0129251426226 0.873 2.09866333315e-38
0.0630100702851 -0.0129251426226 0.873 2.14472289263e-38
0.0646257131129 -0.0129251426226 0.873 2.31096537543e-38
0.066089600257 -0.0128955317575 0.871 2.34824061523e-38
0.0677015417267 -0.0128955317575 0.871 2.31140103912e-38
0.0693134831964 -0.0128955317575 0.871 2.34838550949e-38
0.0714954338195 -0.0129991697854 0.878 2.33905650509e-38
0.0731203300427 -0.0129991697854 0.878 2.29278072525e-38
0.0747452262659 -0.0129991697854 0.878 2.34816998978e-38
0.0761091767402 -0.0129547534877 0.875 2.34845627506e-38
0.0773731905448 -0.0128955317575 0.871 2.2746304069e-38
0.0789851320145 -0.0128955317575 0.871 2.3114366321e-38
0.0802269376702 -0.0128363100272 0.867 2.3483888726e-38
0.0818314764236 -0.0128363100272 0.867 2.33895056693e-38
0.0831473092422 -0.0127918937296 0.864 2.34871243242e-38
0.0847462959584 -0.0127918937296 0.864 1.7116204934e-38
0.0863452826746 -0.0127918937296 0.864 1.59793763315e-38
0.0877406946931 -0.0127622828645 0.862 2.34807175876e-38
0.0893359800512 -0.0127622828645 0.862 2.10810219934e-38
0.0909312654092 -0.0127622828645 0.862 2.03361814129e-38
0.0923118719952 -0.0127326719993 0.86 2.21736410307e-38
0.0939034559951 -0.0127326719993 0.86 1.75574401893e-38
0.0957171214834 -0.0127622828645 0.862 2.34766552234e-38
0.0973124068414 -0.0127622828645 0.862 2.32883249137e-38
0.0989076921995 -0.0127622828645 0.862 1.4436826982e-38
0.10073616312 -0.0127918937296 0.864 1.75686253536e-38
0.102335149837 -0.0127918937296 0.864 1.06547112164e-38
0.104295018971 -0.0128363100272 0.867 7.53051068496e-39
0.105899557725 -0.0128363100272 0.867 2.34994095078e-38
-0.0336083319052 -0.0117629161668 0.908 2.18222248031e-38
-0.03192791531 -0.0117629161668 0.908 2.34828097262e-38
-0.0302474987147 -0.0117629161668 0.908 1.03049471197e-38
-0.0285670821194 -0.0117629161668 0.908 9.64452496252e-39
-0.0268866655242 -0.0117629161668 0.908 1.04829036168e-38
-0.0252062489289 -0.0117629161668 0.908 1.22364002333e-38
-0.0235258323337 -0.0117629161668 0.908 1.17775800836e-38
-0.0218454157384 -0.0117629161668 0.908 1.13173053861e-38
-0.0201649991431 -0.0117629161668 0.908 1.10342501028e-38
-0.0184438676083 -0.0117370066599 0.906 1.1303299408e-38
-0.0167671523712 -0.0117370066599 0.906 1.30528373563e-38
-0.0150904371341 -0.0117370066599 0.906 9.64452075862e-39
-0.013413721897 -0.0117370066599 0.906 1.39787537244e-38
-0.0117370066599 -0.0117370066599 0.906 1.06629620617e-38
-0.00997145882739 -0.011633368632 0.898 1.25911487486e-38
-0.00830954902282 -0.011633368632 0.898 9.64739061788e-39
-0.00664763921826 -0.011633368632 0.898 9.92074471191e-39
-0.00498572941369 -0.011633368632 0.898 1.18568235118e-38
-0.00332381960913 -0.011633368632 0.898 1.0199479792e-38
-0.00165820844643 -0.011607459125 0.896 1.03849444464e-38
0.0 -0.011607459125 0.896 1.02977864845e-38
0.00165820844643 -0.011607459125 0.896 9.92864523265e-39
0.00330901417657 -0.011581549618 0.894 1.04814546742e-38
0.00496352126486 -0.011581549618 0.894 8.91055425417e-39
0.00661802835314 -0.011581549618 0.894 1.85827128224e-38
0.00824477525538 -0.0115426853575 0.891 2.34805312149e-38
0.00987152215763 -0.0115167758506 0.889 2.26521578316e-38
0.0115167758506 -0.0115167758506 0.889 2.34833408183e-38
0.0131324186784 -0.0114908663436 0.887 1.56314058968e-38
0.0147739710132 -0.0114908663436 0.887 2.13270241427e-38
0.0164525369294 -0.0115167758506 0.889 2.3476883635e-38
0.0180977906223 -0.0115167758506 0.889 2.21883168295e-38
0.0196986280176 -0.0114908663436 0.887 2.34815471563e-38
0.0213401803524 -0.0114908663436 0.887 1.52583241937e-38
0.0229817326872 -0.0114908663436 0.887 2.1055103577e-38
0.0246788053941 -0.0115167758506 0.889 2.26492879724e-38
0.026324059087 -0.0115167758506 0.889 2.26528752964e-38
0.0279063896916 -0.0114908663436 0.887 2.34833506274e-38
0.0295479420264 -0.0114908663436 0.887 1.55402878655e-38
0.0311894943612 -0.0114908663436 0.887 1.95792560344e-38
0.032831046696 -0.0114908663436 0.887 2.34665336446e-38
0.0344725990308 -0.0114908663436 0.887 2.21868818999e-38
0.0360327214865 -0.0114649568366 0.885 2.13582100401e-38
0.0375428756073 -0.0114260925761 0.882 2.2463823318e-38
0.0391751745468 -0.0114260925761 0.882 1.66365741009e-38
0.0406224055793 -0.0113742735622 0.878 1.98526101284e-38
0.0422473018025 -0.0113742735622 0.878 2.34754739288e-38
0.0438721980256 -0.0113742735622 0.878 2.34801206345e-38
0.0454970942488 -0.0113742735622 0.878 2.34776010998e-38
0.047121990472 -0.0113742735622 0.878 2.20950464038e-38
0.0487468866951 -0.0113742735622 0.878 2.18170287884e-38
0.0503717829183 -0.0113742735622 0.878 2.10773225655e-38
0.0519966791415 -0.0113742735622 0.878 2.06127640986e-38
0.0536215753646 -0.0113742735622 0.878 1.77497207594e-38
0.0552464715878 -0.0113742735622 0.878 2.21721906868e-38
0.056871367811 -0.0113742735622 0.878 2.34834234949e-38
0.0584962640342 -0.0113742735622 0.878 1.57253937874e-38
0.0599157348806 -0.0113354093017 0.875 2.31805972916e-38
0.0615350790666 -0.0113354093017 0.875 2.32907015158e-38
0.0631544232525 -0.0113354093017 0.875 2.31095416504e-38
0.0647737674385 -0.0113354093017 0.875 2.12645808819e-38
0.0663931116244 -0.0113354093017 0.875 1.53501596898e-38
0.0680124558104 -0.0113354093017 0.875 2.34773418596e-38
0.0698705375964 -0.0113742735622 0.878 2.30225378313e-38
0.0714954338195 -0.0113742735622 0.878 2.34827845028e-38
0.0731203300427 -0.0113742735622 0.878 2.34838424832e-38
0.0747452262659 -0.0113742735622 0.878 2.33895112745e-38
0.0761091767402 -0.0113354093017 0.875 2.34831124067e-38
0.0773731905448 -0.0112835902878 0.871 2.3487813763e-38
0.0789851320145 -0.0112835902878 0.871 2.34870976995e-38
0.0804120055772 -0.0112576807808 0.869 2.34856291387e-38
0.0818314764236 -0.0112317712738 0.867 2.28337787243e-38
0.083436015177 -0.0112317712738 0.867 1.19479415431e-38
0.0850405539305 -0.0112317712738 0.867 1.78164449871e-38
0.0866450926839 -0.0112317712738 0.867 2.3468094691e-38
0.0882496314373 -0.0112317712738 0.867 2.04291463556e-38
0.089543256107 -0.0111929070134 0.864 1.88499866824e-38
0.0911422428232 -0.0111929070134 0.864 2.11566150391e-38
0.0927412295394 -0.0111929070134 0.864 1.95925291335e-38
0.0943402162556 -0.0111929070134 0.864 1.525330194e-38
0.0962723252043 -0.0112317712738 0.867 2.19856694534e-38
0.0975381896879 -0.0111929070134 0.864 2.08883714806e-38
0.0991371764041 -0.0111929070134 0.864 1.19508114024e-38
0.101085941465 -0.0112317712738 0.867 1.25072796342e-38
0.102690480218 -0.0112317712738 0.867 1.08481030161e-38
0.10453560725 -0.0112576807808 0.869 8.35703015038e-39
0.106143847362 -0.0112576807808 0.869 2.35073744883e-38
0.108248069464 -0.0113094997948 0.873 2.35098477801e-38
-0.0337933998122 -0.0101380199437 0.913 2.20076880562e-38
-0.0319982411146 -0.0101047077204 0.91 2.27470285403e-38
-0.0303141231612 -0.0101047077204 0.91 1.47292471429e-38
-0.0287243898404 -0.0101380199437 0.913 9.64272709659e-39
-0.0270347198498 -0.0101380199437 0.913 1.14055381439e-38
-0.0253450498591 -0.0101380199437 0.913 1.07616162762e-38
-0.0235776513476 -0.0101047077204 0.91 1.24229466901e-38
-0.0218935333942 -0.0101047077204 0.91 1.70311937614e-38
-0.0202094154408 -0.0101047077204 0.91 1.59234603189e-38
-0.0185252974874 -0.0101047077204 0.91 2.17306877836e-38
-0.0168041659526 -0.0100824995716 0.908 1.97088929579e-38
-0.0151237493574 -0.0100824995716 0.908 1.53749276402e-38
-0.0134433327621 -0.0100824995716 0.908 1.9614194609e-38
-0.0117629161668 -0.0100824995716 0.908 1.40842757026e-38
-0.0100824995716 -0.0100824995716 0.908 1.9982646422e-38
-0.00838357618561 -0.0100602914227 0.906 2.04493867106e-38
-0.00670686094849 -0.0100602914227 0.906 1.70344531816e-38
-0.00500238552532 -0.0100047710506 0.901 1.52773468203e-38
-0.00333492368355 -0.0100047710506 0.901 1.69318655224e-38
-0.00166746184177 -0.0100047710506 0.901 1.07576674171e-38
0.0 -0.0100047710506 0.901 1.13025819432e-38
0.00166190980456 -0.00997145882739 0.898 1.00122214757e-38
0.00332381960913 -0.00997145882739 0.898 1.01019045774e-38
0.00498572941369 -0.00997145882739 0.898 1.2309552217e-38
0.0066328337857 -0.00994925067855 0.896 1.83104391295e-38
0.00829104223213 -0.00994925067855 0.896 1.93249147579e-38
0.00992704252972 -0.00992704252972 0.894 2.08003811474e-38
0.011581549618 -0.00992704252972 0.894 2.31981653705e-38
0.0131916404086 -0.00989373030646 0.891 1.66426725518e-38
0.0148405954597 -0.00989373030646 0.891 2.3464746989e-38
0.0164895505108 -0.00989373030646 0.891 2.31099354153e-38
0.0180977906223 -0.00987152215763 0.889 2.348263036e-38
0.0197430443153 -0.00987152215763 0.889 2.03458671879e-38
0.0213882980082 -0.00987152215763 0.889 1.66326280444e-38
0.0230335517011 -0.00987152215763 0.889 2.29015118869e-38
0.0246788053941 -0.00987152215763 0.889 2.33875592657e-38
0.026324059087 -0.00987152215763 0.889 2.21919041536e-38
0.0279693127799 -0.00987152215763 0.889 2.34801122267e-38
0.0296145664729 -0.00987152215763 0.889 1.68231149524e-38
0.0312598201658 -0.00987152215763 0.889 1.97622095619e-38
0.0329050738588 -0.00987152215763 0.889 2.34765459221e-38
0.0344725990308 -0.00984931400879 0.887 2.30180648866e-38
0.0361141513656 -0.00984931400879 0.887 2.34815471563e-38
0.0376705724632 -0.00982710585995 0.885 1.94224899726e-38
0.0393084234398 -0.00982710585995 0.885 1.88384736142e-38
0.0409462744165 -0.00982710585995 0.885 2.24340723503e-38
0.0423435371141 -0.00977158548786 0.88 2.34772423674e-38
0.0439721346954 -0.00977158548786 0.88 2.27425583982e-38
0.0456007322767 -0.00977158548786 0.88 2.28347526267e-38
0.047229329858 -0.00977158548786 0.88 2.11716691885e-38
0.0488579274393 -0.00977158548786 0.88 2.31974310901e-38
0.0504865250206 -0.00977158548786 0.88 2.3476883635e-38
0.0521151226019 -0.00977158548786 0.88 2.34804737617e-38
0.0537437201832 -0.00977158548786 0.88 2.34801122267e-38
0.0552464715878 -0.00974937733903 0.878 1.89550616465e-38
0.056871367811 -0.00974937733903 0.878 2.06938376225e-38
0.0584962640342 -0.00974937733903 0.878 1.97640032239e-38
0.0601211602573 -0.00974937733903 0.878 2.2169304012e-38
0.0617460564805 -0.00974937733903 0.878 2.34740137758e-38
0.0633709527037 -0.00974937733903 0.878 2.34783185646e-38
0.0649958489268 -0.00974937733903 0.878 2.01539453502e-38
0.06662074515 -0.00974937733903 0.878 1.89421472798e-38
0.0682456413732 -0.00974937733903 0.878 2.34788286373e-38
0.0700296959964 -0.00977158548786 0.88 2.34878431903e-38
0.0716582935777 -0.00977158548786 0.88 2.34827817003e-38
0.073286891159 -0.00977158548786 0.88 2.26497924398e-38
0.0747452262659 -0.00974937733903 0.878 2.34795278852e-38
0.076370122489 -0.00974937733903 0.878 2.135904101e-38
0.0777285209262 -0.00971606511577 0.875 1.66470754316e-38
0.0791664985633 -0.00969385696694 0.873 1.4510008393e-38
0.0805970734842 -0.0096716488181 0.871 1.68058957969e-38
0.0820202456888 -0.00964944066926 0.869 1.84768727494e-38
0.0836284858003 -0.00964944066926 0.869 2.34834627313e-38
0.0852367259118 -0.00964944066926 0.869 2.34859892724e-38
0.0868449660234 -0.00964944066926 0.869 2.20915389537e-38
0.0884532061349 -0.00964944066926 0.869 2.10709410523e-38
0.0900614462465 -0.00964944066926 0.869 2.02382754918e-38
0.091669686358 -0.00964944066926 0.869 2.23565973608e-38
0.0932779264696 -0.00964944066926 0.869 2.34737993771e-38
0.0948861665811 -0.00964944066926 0.869 1.4804527699e-38
0.096716488181 -0.0096716488181 0.871 1.75714405623e-38
0.0981026468042 -0.00964944066926 0.869 1.39790844308e-38
0.0997108869157 -0.00964944066926 0.869 1.30610966094e-38
0.101319127027 -0.00964944066926 0.869 1.10346648872e-38
0.10316425406 -0.0096716488181 0.871 9.74499525981e-39
0.104776195529 -0.0096716488181 0.871 8.81620763117e-39
0.106632426636 -0.00969385696694 0.873 2.35098491814e-38
0.108248069464 -0.00969385696694 0.873 2.35098477801e-38
-0.033867426975 -0.00846685674374 0.915 2.14555708561e-38
-0.0321740556262 -0.00846685674374 0.915 2.18239946431e-38
-0.0304806842775 -0.00846685674374 0.915 1.8140505066e-38
-0.0287873129287 -0.00846685674374 0.915 9.36722060812e-39
-0.02709394158 -0.00846685674374 0.915 1.14034151768e-38
-0.0254005702312 -0.00846685674374 0.915 9.74568329736e-39
-0.0237071988825 -0.00846685674374 0.915 1.25976199449e-38
-0.0220138275337 -0.00846685674374 0.915 1.98835928375e-38
-0.020320456185 -0.00846685674374 0.915 1.60130971777e-38
-0.0185863698967 -0.00844834995305 0.913 2.34734238291e-38
-0.0168966999061 -0.00844834995305 0.913 1.74018259948e-38
-0.0152070299155 -0.00844834995305 0.913 2.08104508781e-38
-0.0134729436272 -0.008420589767 0.91 1.75862354714e-38
-0.0117888256738 -0.008420589767 0.91 1.48200386717e-38
-0.0101380199437 -0.00844834995305 0.913 1.56558557524e-38
-0.008420589767 -0.008420589767 0.91 1.67617927303e-38
-0.00672166638105 -0.00840208297631 0.908 1.55532022321e-38
-0.00503014571137 -0.00838357618561 0.906 2.01500161093e-38
-0.00335343047424 -0.00838357618561 0.906 2.03463660501e-38
-0.00167116319991 -0.00835581599956 0.903 1.70320107184e-38
0.0 -0.00835581599956 0.903 1.73014467819e-38
0.00167116319991 -0.00835581599956 0.903 1.73060402383e-38
0.00334232639983 -0.00835581599956 0.903 1.63819119271e-38
0.00501348959974 -0.00835581599956 0.903 1.4995014607e-38
0.00668465279965 -0.00835581599956 0.903 1.52651401094e-38
0.00833730920887 -0.00833730920887 0.901 1.38818945732e-38
0.00997145882739 -0.00830954902282 0.898 1.2765133966e-38
0.011633368632 -0.00830954902282 0.898 1.34079824391e-38
0.0132656675714 -0.00829104223213 0.896 1.61716667107e-38
0.0148905637946 -0.00827253544143 0.894 1.61809839441e-38
0.0165450708829 -0.00827253544143 0.894 1.56331995589e-38
0.0181995779711 -0.00827253544143 0.894 1.62785591588e-38
0.0198540850594 -0.00827253544143 0.894 1.51729458809e-38
0.021436415664 -0.00824477525538 0.891 1.92180881708e-38
0.0230853707151 -0.00824477525538 0.891 2.34737601407e-38
0.0247343257662 -0.00824477525538 0.891 2.24627471208e-38
0.0263832808172 -0.00824477525538 0.891 2.34815485576e-38
0.0280322358683 -0.00824477525538 0.891 1.81278247162e-38
0.0296811909194 -0.00824477525538 0.891 1.88467244596e-38
0.0313301459705 -0.00824477525538 0.891 2.28989937535e-38
0.0329050738588 -0.00822626846469 0.889 2.34779598322e-38
0.0345503275517 -0.00822626846469 0.889 2.34815471563e-38
0.0361955812446 -0.00822626846469 0.889 2.24663344449e-38
0.0378408349376 -0.00822626846469 0.889 1.78505245657e-38
0.0393972560352 -0.00820776167399 0.887 1.9116849962e-38
0.0409462744165 -0.00818925488329 0.885 2.34608415702e-38
0.0425841253931 -0.00818925488329 0.885 2.32028120762e-38
0.0440720713651 -0.00816149469725 0.882 2.30198585487e-38
0.0457043703046 -0.00816149469725 0.882 2.31106178476e-38
0.047336669244 -0.00816149469725 0.882 1.71915331343e-38
0.0488579274393 -0.00814298790655 0.88 1.87462793857e-38
0.0504865250206 -0.00814298790655 0.88 2.34780397062e-38
0.0521151226019 -0.00814298790655 0.88 2.27436345954e-38
0.0537437201832 -0.00814298790655 0.88 2.34811884239e-38
0.0554981639413 -0.00816149469725 0.882 2.15415223e-38
0.0570009153459 -0.00814298790655 0.88 1.84711316296e-38
0.0586295129272 -0.00814298790655 0.88 2.19741633917e-38
0.0602581105085 -0.00814298790655 0.88 2.34772479726e-38
0.0618867080898 -0.00814298790655 0.88 2.34776010998e-38
0.0635153056711 -0.00814298790655 0.88 2.34783185646e-38
0.0651439032524 -0.00814298790655 0.88 1.7847295974e-38
0.0667725008337 -0.00814298790655 0.88 1.85733703655e-38
0.068401098415 -0.00814298790655 0.88 1.56213796063e-38
0.0700296959964 -0.00814298790655 0.88 1.47855723347e-38
0.0716582935777 -0.00814298790655 0.88 1.67140855241e-38
0.073286891159 -0.00814298790655 0.88 1.87534540338e-38
0.0749154887403 -0.00814298790655 0.88 1.97766149101e-38
0.076370122489 -0.00812448111586 0.878 2.30141636717e-38
0.0779950187122 -0.00812448111586 0.878 2.34838410819e-38
0.0793478651121 -0.00809672092981 0.875 2.34896466614e-38
0.0807821413911 -0.00807821413911 0.873 2.34882047253e-38
0.082397784219 -0.00807821413911 0.873 2.27491332906e-38
0.0838209564235 -0.00805970734842 0.871 1.90555291412e-38
0.0854328978932 -0.00805970734842 0.871 1.71944029935e-38
0.0870448393629 -0.00805970734842 0.871 1.91182848916e-38
0.0886567808326 -0.00805970734842 0.871 2.18019788429e-38
0.0902687223023 -0.00805970734842 0.871 1.67294857942e-38
0.091880663772 -0.00805970734842 0.871 1.96757788739e-38
0.0934926052416 -0.00805970734842 0.871 2.03369184959e-38
0.0951045467113 -0.00805970734842 0.871 1.40719961242e-38
0.0969385696694 -0.00807821413911 0.873 1.13047707714e-38
0.0985542124972 -0.00807821413911 0.873 1.14034277884e-38
0.100169855325 -0.00807821413911 0.873 1.2139145916e-38
0.101785498153 -0.00807821413911 0.873 1.17736578492e-38
0.103401140981 -0.00807821413911 0.873 8.26878197829e-39
0.105016783808 -0.00807821413911 0.873 1.49907924948e-38
0.106632426636 -0.00807821413911 0.873 2.35098085437e-38
0.108248069464 -0.00807821413911 0.873 2.35098407736e-38
-0.033867426975 -0.006773485395 0.915 2.11782594952e-38
-0.0321740556262 -0.006773485395 0.915 2.05343124041e-38
-0.0304806842775 -0.006773485395 0.915 2.10893232855e-38
-0.0287873129287 -0.006773485395 0.915 7.07133320417e-39
-0.0271827741753 -0.00679569354383 0.918 1.20480362924e-38
-0.0254838507894 -0.00679569354383 0.918 1.18632806951e-38
-0.0237849274034 -0.00679569354383 0.918 1.12165001785e-38
-0.0220860040175 -0.00679569354383 0.918 1.60141901905e-38
-0.0203870806315 -0.00679569354383 0.918 2.18268490881e-38
-0.0186270848362 -0.006773485395 0.915 1.9241348324e-38
-0.0169337134875 -0.006773485395 0.915 1.91477850268e-38
-0.0152403421387 -0.006773485395 0.915 1.41631253659e-38
-0.0135173599249 -0.00675867996244 0.913 1.56425266014e-38
-0.0118276899343 -0.00675867996244 0.913 1.60156083046e-38
-0.0101380199437 -0.00675867996244 0.913 1.35224180769e-38
-0.00844834995305 -0.00675867996244 0.913 1.47173557241e-38
-0.0067364718136 -0.0067364718136 0.91 2.32979714523e-38
-0.00504124978578 -0.00672166638105 0.908 2.13594067489e-38
-0.00335343047424 -0.00670686094849 0.906 1.7675509394e-38
-0.00167671523712 -0.00670686094849 0.906 1.85967790564e-38
0.0 -0.00670686094849 0.906 1.53605825478e-38
0.00167671523712 -0.00670686094849 0.906 1.80432283279e-38
0.00335343047424 -0.00670686094849 0.906 1.88776651297e-38
0.00503014571137 -0.00670686094849 0.906 1.6384432863e-38
0.00670686094849 -0.00670686094849 0.906 1.67431960984e-38
0.00835581599956 -0.00668465279965 0.903 1.60120546117e-38
0.0100047710506 -0.00666984736709 0.901 1.85913700443e-38
0.0116722328924 -0.00666984736709 0.901 1.13990809606e-38
0.0132952784365 -0.00664763921826 0.898 1.1671751221e-38
0.0149571882411 -0.00664763921826 0.898 1.12147009113e-38
0.0165820844643 -0.0066328337857 0.896 1.20415707013e-38
0.0182402929107 -0.0066328337857 0.896 1.16756636463e-38
0.0198985013571 -0.0066328337857 0.896 1.10256405251e-38
0.0215567098035 -0.0066328337857 0.896 1.40572880955e-38
0.023163099236 -0.00661802835314 0.894 1.48780678424e-38
0.0248176063243 -0.00661802835314 0.894 1.77285555474e-38
0.0264721134126 -0.00661802835314 0.894 1.58886170326e-38
0.0281266205009 -0.00661802835314 0.894 1.60712118276e-38
0.0297811275891 -0.00661802835314 0.894 1.91154654791e-38
0.0314356346774 -0.00661802835314 0.894 2.19860225806e-38
0.0329791010215 -0.00659582020431 0.891 2.23673243006e-38
0.0346280560726 -0.00659582020431 0.891 2.1816670056e-38
0.0362770111237 -0.00659582020431 0.891 2.34779626348e-38
0.0378408349376 -0.00658101477175 0.889 1.68317245302e-38
0.0394860886305 -0.00658101477175 0.889 1.98565575862e-38
0.0411313423234 -0.00658101477175 0.889 2.34805676487e-38
0.0426803607048 -0.00656620933919 0.887 2.34844506467e-38
0.0443219130396 -0.00656620933919 0.887 2.32038882734e-38
0.0459634653743 -0.00656620933919 0.887 2.05288207154e-38
0.0476050177091 -0.00656620933919 0.887 1.86609010728e-38
0.0492465700439 -0.00656620933919 0.887 2.00395097124e-38
0.0508881223787 -0.00656620933919 0.887 2.34772647882e-38
0.0524112312531 -0.00655140390664 0.885 2.34826233535e-38
0.0540490822297 -0.00655140390664 0.885 2.34836995507e-38
0.0556869332064 -0.00655140390664 0.885 1.80370654173e-38
0.0571304628807 -0.0065291957578 0.882 1.91175674268e-38
0.0587627618202 -0.0065291957578 0.882 2.34690433701e-38
0.0603950607596 -0.0065291957578 0.882 2.34808296915e-38
0.0620273596991 -0.0065291957578 0.882 2.29280230525e-38
0.0635153056711 -0.00651439032524 0.88 2.34880043396e-38
0.0651439032524 -0.00651439032524 0.88 1.72898258138e-38
0.0667725008337 -0.00651439032524 0.88 2.34784867205e-38
0.0685565554569 -0.0065291957578 0.882 2.29339519463e-38
0.0701888543963 -0.0065291957578 0.882 2.24768904262e-38
0.0716582935777 -0.00651439032524 0.88 2.21066925953e-38
0.073286891159 -0.00651439032524 0.88 2.14595337281e-38
0.0749154887403 -0.00651439032524 0.88 1.9430482979e-38
0.0765440863216 -0.00651439032524 0.88 1.68447299813e-38
0.0779950187122 -0.00649958489268 0.878 1.35178106075e-38
0.0796199149354 -0.00649958489268 0.878 1.02855839775e-38
0.0809672092981 -0.00647737674385 0.875 1.18467790044e-38
0.0825865534841 -0.00647737674385 0.875 1.79366301524e-38
0.0840134270468 -0.00646257131129 0.873 1.99645528563e-38
0.0856290698746 -0.00646257131129 0.873 1.90397224945e-38
0.0872447127024 -0.00646257131129 0.873 2.09722433975e-38
0.0888603555303 -0.00646257131129 0.873 2.25464242573e-38
0.0904759983581 -0.00646257131129 0.873 1.90447447482e-38
0.0920916411859 -0.00646257131129 0.873 1.28627358053e-38
0.0939219627858 -0.00647737674385 0.875 1.31525663667e-38
0.0958688771671 -0.00649958489268 0.878 1.13994649164e-38
0.0974937733903 -0.00649958489268 0.878 1.14048739285e-38
0.0987799953437 -0.00647737674385 0.875 1.19601720761e-38
0.100169855325 -0.00646257131129 0.873 1.13155355462e-38
0.101785498153 -0.00646257131129 0.873 1.21453088266e-38
0.103401140981 -0.00646257131129 0.873 7.16532109476e-39
0.105016783808 -0.00646257131129 0.873 2.1438438581e-38
0.106632426636 -0.00646257131129 0.873 2.35097931294e-38
0.108248069464 -0.00646257131129 0.873 2.35098463788e-38
-0.033867426975 -0.00508011404625 0.915 2.11775560433e-38
-0.0321740556262 -0.00508011404625 0.915 2.10871288521e-38
-0.0304806842775 -0.00508011404625 0.915 1.97992879193e-38
-0.0287873129287 -0.00508011404625 0.915 7.80637590584e-39
-0.0271827741753 -0.00509677015787 0.918 1.25061291682e-38
-0.0255393711615 -0.00510787423229 0.92 1.26948252168e-38
-0.0238367464174 -0.00510787423229 0.92 1.18647156247e-38
-0.0221341216733 -0.00510787423229 0.92 1.06626033293e-38
-0.0204314969292 -0.00510787423229 0.92 1.71069213317e-38
-0.0186881572455 -0.00509677015787 0.918 1.49057308754e-38
-0.0169892338596 -0.00509677015787 0.918 1.997857565e-38
-0.0152903104736 -0.00509677015787 0.918 1.80403444557e-38
-0.0135913870877 -0.00509677015787 0.918 2.02606177945e-38
-0.0118535994412 -0.00508011404625 0.915 1.85063967067e-38
-0.0101602280925 -0.00508011404625 0.915 1.46323361437e-38
-0.00846685674374 -0.00508011404625 0.915 2.34837990429e-38
-0.00675867996244 -0.00506900997183 0.913 1.70347824868e-38
-0.00506900997183 -0.00506900997183 0.913 1.94301480687e-38
-0.0033682359068 -0.0050523538602 0.91 2.19197635841e-38
-0.00168041659526 -0.00504124978578 0.908 2.27477263869e-38
0.0 -0.00504124978578 0.908 1.43572248214e-38
0.00168041659526 -0.00504124978578 0.908 1.23328614157e-38
0.00336083319052 -0.00504124978578 0.908 1.26062295227e-38
0.00504124978578 -0.00504124978578 0.908 1.85959971319e-38
0.00670686094849 -0.00503014571137 0.906 1.444475693e-38
0.00838357618561 -0.00503014571137 0.906 1.79499480931e-38
0.0100602914227 -0.00503014571137 0.906 2.09923814578e-38
0.0117370066599 -0.00503014571137 0.906 1.72073790173e-38
0.0133693055993 -0.00501348959974 0.903 1.30474563702e-38
0.015007156576 -0.00500238552532 0.901 1.34263198308e-38
0.0166190980456 -0.00498572941369 0.898 1.26001170588e-38
0.0182810078502 -0.00498572941369 0.898 1.27830705863e-38
0.0199429176548 -0.00498572941369 0.898 1.24150111369e-38
0.0216048274593 -0.00498572941369 0.898 1.01987623272e-38
0.0232667372639 -0.00498572941369 0.898 2.3483071769e-38
0.0248731266964 -0.00497462533928 0.896 2.04395229707e-38
0.0265313351428 -0.00497462533928 0.896 2.07128504401e-38
0.0281895435892 -0.00497462533928 0.896 1.72959242647e-38
0.0297811275891 -0.00496352126486 0.894 2.2464184853e-38
0.0314356346774 -0.00496352126486 0.894 1.21273077466e-38
0.0330901417657 -0.00496352126486 0.894 1.3958995416e-38
0.034744648854 -0.00496352126486 0.894 1.41426664083e-38
0.0363991559423 -0.00496352126486 0.894 1.50610213699e-38
0.0380536630306 -0.00496352126486 0.894 1.46936793853e-38
0.0395749212258 -0.00494686515323 0.891 1.66323323704e-38
0.0412238762769 -0.00494686515323 0.891 1.71972728528e-38
0.042872831328 -0.00494686515323 0.891 1.94128041976e-38
0.0445217863791 -0.00494686515323 0.891 2.26435622668e-38
0.0460671034023 -0.00493576107881 0.889 1.81271072514e-38
0.0477123570952 -0.00493576107881 0.889 1.87566826255e-38
0.0493576107881 -0.00493576107881 0.889 2.34694385363e-38
0.0510028644811 -0.00493576107881 0.889 2.34794115774e-38
0.052648118174 -0.00493576107881 0.889 2.26482117752e-38
0.0541712270483 -0.00492465700439 0.887 2.34797548956e-38
0.0558127793831 -0.00492465700439 0.887 1.78462197768e-38
0.0574543317179 -0.00492465700439 0.887 1.99523685661e-38
0.0590958840527 -0.00492465700439 0.887 2.34830381379e-38
0.0607374363875 -0.00492465700439 0.887 2.34804709591e-38
0.0623789887223 -0.00492465700439 0.887 2.34872938813e-38
0.0638761880897 -0.00491355292998 0.885 2.16365863878e-38
0.0655140390664 -0.00491355292998 0.885 2.08768415968e-38
0.067151890043 -0.00491355292998 0.885 1.17549435082e-38
0.0687897410197 -0.00491355292998 0.885 8.17335915806e-39
0.0704275919963 -0.00491355292998 0.885 8.17335915806e-39
0.072065442973 -0.00491355292998 0.885 7.71418167727e-39
0.0734534522752 -0.00489689681835 0.882 7.80601717343e-39
0.0749154887403 -0.00488579274393 0.88 7.71418167727e-39
0.0765440863216 -0.00488579274393 0.88 1.01984035948e-38
0.0781726839029 -0.00488579274393 0.88 8.90876059214e-39
0.0798012814842 -0.00488579274393 0.88 1.21341404779e-38
0.0812448111586 -0.00487468866951 0.878 1.85905909224e-38
0.0828697073817 -0.00487468866951 0.878 2.07006563409e-38
0.0844946036049 -0.00487468866951 0.878 2.02400915746e-38
0.0861194998281 -0.00487468866951 0.878 1.96861582916e-38
0.0877443960512 -0.00487468866951 0.878 1.68271072518e-38
0.0893692922744 -0.00487468866951 0.878 1.77547430131e-38
0.0909941884976 -0.00487468866951 0.878 1.36056439953e-38
0.0928300621347 -0.00488579274393 0.88 1.14923639981e-38
0.0949953566462 -0.00491355292998 0.885 1.13148054697e-38
0.0966332076229 -0.00491355292998 0.885 1.1774361301e-38
0.0982710585995 -0.00491355292998 0.885 1.15914091748e-38
0.0999089095762 -0.00491355292998 0.885 1.2237807137e-38
0.100973050041 -0.00488579274393 0.88 1.05779649021e-38
0.102601647623 -0.00488579274393 0.88 1.20516488399e-38
0.103638027902 -0.00485803255789 0.875 6.79582671569e-39
0.105257372088 -0.00485803255789 0.875 2.34820978666e-38
0.106876716274 -0.00485803255789 0.875 2.3509837971e-38
-0.0324553588448 -0.00341635356261 0.923 1.98875332888e-38
-0.0307471820635 -0.00341635356261 0.923 2.09052655348e-38
-0.0291019283706 -0.00342375627889 0.925 7.72135632541e-39
-0.0273900502311 -0.00342375627889 0.925 1.33312221118e-38
-0.0256781720917 -0.00342375627889 0.925 1.22324163418e-38
-0.0239662939522 -0.00342375627889 0.925 1.23242518379e-38
-0.0222544158128 -0.00342375627889 0.925 1.00176066657e-38
-0.0205425376733 -0.00342375627889 0.925 1.42571384799e-38
-0.0188306595339 -0.00342375627889 0.925 2.06257022873e-38
-0.0171187813945 -0.00342375627889 0.925 1.9334718242e-38
-0.0153735910318 -0.00341635356261 0.923 2.22860489896e-38
-0.0136654142505 -0.00341635356261 0.923 1.87847632454e-38
-0.0118924637017 -0.00339784677192 0.918 1.66559456508e-38
-0.0101935403157 -0.00339784677192 0.918 1.87836912521e-38
-0.00849461692979 -0.00339784677192 0.918 1.86943654814e-38
-0.00679569354383 -0.00339784677192 0.918 5.96930725027e-39
-0.00508011404625 -0.0033867426975 0.915 5.05095228869e-39
-0.00337933998122 -0.00337933998122 0.913 2.21084778495e-38
-0.0016841179534 -0.0033682359068 0.91 2.18246784768e-38
0.0 -0.0033682359068 0.91 5.87747175411e-39
0.0016841179534 -0.0033682359068 0.91 2.29588740395e-39
0.0033682359068 -0.0033682359068 0.91 1.62021897938e-38
0.00504124978578 -0.00336083319052 0.908 1.4534760929e-38
0.00672166638105 -0.00336083319052 0.908 1.68385586628e-38
0.00840208297631 -0.00336083319052 0.908 1.32455229016e-38
0.0100824995716 -0.00336083319052 0.908 1.67478498106e-38
0.0117370066599 -0.00335343047424 0.906 1.91448366949e-38
0.013413721897 -0.00335343047424 0.906 1.24150111369e-38
0.0150404687992 -0.00334232639983 0.903 1.40734310538e-38
0.0167116319991 -0.00334232639983 0.903 1.36156885026e-38
0.018382795199 -0.00334232639983 0.903 1.3155793557e-38
0.020053958399 -0.00334232639983 0.903 1.33355184929e-38
0.0217251215989 -0.00334232639983 0.903 1.23203057814e-38
0.0233444657848 -0.00333492368355 0.901 1.90562311917e-38
0.0250119276266 -0.00333492368355 0.901 2.01608243244e-38
0.026590556873 -0.00332381960913 0.898 2.09872821327e-38
0.0282524666776 -0.00332381960913 0.898 1.74760345576e-38
0.0299143764822 -0.00332381960913 0.898 2.32932294583e-38
0.0315762862867 -0.00332381960913 0.898 2.34819451251e-38
0.0331641689285 -0.00331641689285 0.896 1.86784789608e-38
0.0348223773749 -0.00331641689285 0.896 2.11770501746e-38
0.0364805858214 -0.00331641689285 0.896 1.84112233176e-38
0.0381387942678 -0.00331641689285 0.896 1.59094235122e-38
0.0397081701189 -0.00330901417657 0.894 1.78491162608e-38
0.0413626772071 -0.00330901417657 0.894 1.17570959027e-38
0.0430171842954 -0.00330901417657 0.894 1.49695446062e-38
0.0446716913837 -0.00330901417657 0.894 1.72665082073e-38
0.046326198472 -0.00330901417657 0.894 1.54355380027e-38
0.0478196964812 -0.00329791010215 0.891 1.50620975671e-38
0.0494686515323 -0.00329791010215 0.891 1.67226698785e-38
0.0511176065834 -0.00329791010215 0.891 1.52536606724e-38
0.0527665616345 -0.00329791010215 0.891 1.56235137839e-38
0.0542933718669 -0.00329050738588 0.889 1.56227963191e-38
0.0559386255599 -0.00329050738588 0.889 1.66362153685e-38
0.0575838792528 -0.00329050738588 0.889 1.86713043126e-38
0.0592291329458 -0.00329050738588 0.889 1.92287744729e-38
0.0608743866387 -0.00329050738588 0.889 2.03351150248e-38
0.0625196403316 -0.00329050738588 0.889 1.86792020308e-38
0.0641648940246 -0.00329050738588 0.889 1.95968339223e-38
0.0658101477175 -0.00329050738588 0.889 1.83043210604e-38
0.0674554014104 -0.00329050738588 0.889 1.10259992575e-38
0.0689451980615 -0.0032831046696 0.887 1.23238931055e-38
0.0705867503963 -0.0032831046696 0.887 1.20487789806e-38
0.0722283027311 -0.0032831046696 0.887 1.19569392806e-38
0.0737032939496 -0.00327570195332 0.885 1.14970457363e-38
0.0750857512147 -0.0032645978789 0.882 1.17718249508e-38
0.0767180501541 -0.0032645978789 0.882 1.18625912563e-38
0.0783503490936 -0.0032645978789 0.882 1.02027209954e-38
0.079982648033 -0.0032645978789 0.882 1.75725910283e-38
0.0816149469725 -0.0032645978789 0.882 2.02479598655e-38
0.0832472459119 -0.0032645978789 0.882 2.00582002313e-38
0.0848795448514 -0.0032645978789 0.882 1.89532932078e-38
0.0865118437908 -0.0032645978789 0.882 1.65601640982e-38
0.0881441427303 -0.0032645978789 0.882 1.18503663284e-38
0.0897764416697 -0.0032645978789 0.882 1.23203296035e-38
0.0917196546929 -0.00327570195332 0.885 1.2231027655e-38
0.0933575056696 -0.00327570195332 0.885 1.14984946789e-38
0.0949953566462 -0.00327570195332 0.885 1.19604971774e-38
0.0966332076229 -0.00327570195332 0.885 1.19601748787e-38
0.0982710585995 -0.00327570195332 0.885 1.15931916265e-38
0.100134692423 -0.0032831046696 0.887 1.17754346957e-38
0.101546760553 -0.00327570195332 0.885 1.09453208997e-38
0.102601647623 -0.00325719516262 0.88 1.01137427468e-38
0.103993358283 -0.00324979244634 0.878 6.24481373874e-39
0.105618254506 -0.00324979244634 0.878 2.34962537837e-38
0.107243150729 -0.00324979244634 0.878 2.35098561879e-38
-0.0309803676263 -0.00172113153479 0.93 2.08116601987e-38
-0.0292592360915 -0.00172113153479 0.93 1.02106004967e-38
-0.0275381045567 -0.00172113153479 0.93 1.40626830946e-38
-0.0258169730219 -0.00172113153479 0.93 1.29696226483e-38
-0.0240440224732 -0.00171743017665 0.928 1.00215485182e-38
-0.0223265922965 -0.00171743017665 0.928 1.14034151768e-38
-0.0206535784175 -0.00172113153479 0.93 1.25064879006e-38
-0.0188917319432 -0.00171743017665 0.928 2.00712449187e-38
-0.0171743017665 -0.00171743017665 0.928 1.74903978669e-38
-0.015406903255 -0.00171187813945 0.925 1.68436355672e-38
-0.0136950251156 -0.00171187813945 0.925 2.13594039463e-38
-0.0119572374691 -0.00170817678131 0.923 1.73132288994e-38
-0.0102490606878 -0.00170817678131 0.923 1.86962208006e-38
-0.00854088390653 -0.00170817678131 0.923 1.59249064589e-38
-0.00683270712523 -0.00170817678131 0.923 1.94294474195e-38
-0.00510787423229 -0.0017026247441 0.92 1.77749259149e-38
-0.00340524948819 -0.0017026247441 0.92 1.62987210411e-38
-0.00169892338596 -0.00169892338596 0.918 1.60130971777e-38
0.0 -0.00169337134875 0.915 1.45434363678e-38
0.00169337134875 -0.00169337134875 0.915 1.26098028338e-38
0.0033867426975 -0.00169337134875 0.915 1.88777197803e-38
0.00506900997183 -0.00168966999061 0.913 1.93357271769e-38
0.00675867996244 -0.00168966999061 0.913 2.05379067346e-38
0.00844834995305 -0.00168966999061 0.913 1.50090051709e-38
0.0101380199437 -0.00168966999061 0.913 1.61993605722e-38
0.0118276899343 -0.00168966999061 0.913 1.52734582171e-38
0.0135173599249 -0.00168966999061 0.913 1.56439993661e-38
0.0151237493574 -0.00168041659526 0.908 1.41602442963e-38
0.0167671523712 -0.00167671523712 0.906 1.46276838328e-38
0.0184438676083 -0.00167671523712 0.906 1.47195081186e-38
0.0201205828455 -0.00167671523712 0.906 1.46265964252e-38
0.0217251215989 -0.00167116319991 0.903 1.45336847318e-38
0.0233962847988 -0.00167116319991 0.903 1.25057704358e-38
0.0250674479987 -0.00167116319991 0.903 1.51693585568e-38
0.0266793894684 -0.00166746184177 0.901 1.50807516523e-38
0.0283468513102 -0.00166746184177 0.901 1.59000964696e-38
0.0300143131519 -0.00166746184177 0.901 1.5441995186e-38
0.0315762862867 -0.00166190980456 0.898 1.65486860625e-38
0.0332381960913 -0.00166190980456 0.898 1.94978419949e-38
0.0349001058959 -0.00166190980456 0.898 1.98841785802e-38
0.0364805858214 -0.00165820844643 0.896 1.95136080039e-38
0.0381387942678 -0.00165820844643 0.896 2.24609660705e-38
0.0397970027142 -0.00165820844643 0.896 2.17270374011e-38
0.0414552111606 -0.00165820844643 0.896 1.8221095142e-38
0.0431134196071 -0.00165820844643 0.896 2.34823374886e-38
0.0447716280535 -0.00165820844643 0.896 2.34769438908e-38
0.0464298364999 -0.00165820844643 0.896 1.97909081545e-38
0.0480880449463 -0.00165820844643 0.896 1.18550298497e-38
0.0496352126486 -0.00165450708829 0.894 1.30560799609e-38
0.0512897197369 -0.00165450708829 0.894 1.2869166364e-38
0.0529442268251 -0.00165450708829 0.894 1.17631943536e-38
0.0545987339134 -0.00165450708829 0.894 1.24042491647e-38
0.0560644717366 -0.00164895505108 0.891 1.13011470135e-38
0.0577134267877 -0.00164895505108 0.891 1.40601705664e-38
0.0593623818388 -0.00164895505108 0.891 1.12050067285e-38
0.0610113368898 -0.00164895505108 0.891 1.32268225736e-38
0.0626602919409 -0.00164895505108 0.891 1.32257463764e-38
0.0641648940246 -0.00164525369294 0.889 1.42431114823e-38
0.0658101477175 -0.00164525369294 0.889 1.34212695511e-38
0.0676071570942 -0.00164895505108 0.891 1.27805986958e-38
0.0692561121452 -0.00164895505108 0.891 1.19540806317e-38
0.0707459087963 -0.00164525369294 0.889 1.22292283878e-38
0.0723911624893 -0.00164525369294 0.889 1.25072544109e-38
0.0738698550659 -0.0016415523348 0.887 1.21388264199e-38
0.0755114074007 -0.0016415523348 0.887 1.26916302563e-38
0.0771529597355 -0.0016415523348 0.887 1.24161559977e-38
0.0786168468796 -0.00163785097666 0.885 1.18633171289e-38
0.0802546978563 -0.00163785097666 0.885 1.30560799609e-38
0.0820776167399 -0.0016415523348 0.887 1.57250812979e-38
0.0837191690747 -0.0016415523348 0.887 1.36017077479e-38
0.0853607214095 -0.0016415523348 0.887 1.27751938876e-38
0.0870022737443 -0.0016415523348 0.887 1.203907639e-38
0.0886438260791 -0.0016415523348 0.887 1.28756669875e-38
0.0902853784139 -0.0016415523348 0.887 1.23249693027e-38
0.0919269307487 -0.0016415523348 0.887 1.23242952782e-38
0.0935684830835 -0.0016415523348 0.887 1.14055801829e-38
0.0952100354183 -0.0016415523348 0.887 1.21438640879e-38
0.0968515877531 -0.0016415523348 0.887 1.11308009683e-38
0.0984931400879 -0.0016415523348 0.887 9.92720189523e-39
0.100134692423 -0.0016415523348 0.887 8.81620763117e-39
0.101776244757 -0.0016415523348 0.887 1.3971587484e-38
0.103417797092 -0.0016415523348 0.887 1.71181317194e-38
0.105059349427 -0.0016415523348 0.887 1.98900374091e-38
0.106700901762 -0.0016415523348 0.887 2.35026997566e-38
0.108342454097 -0.0016415523348 0.887 2.35098547866e-38
-0.0293536207241 0.0 0.933 1.14105603976e-38
-0.027626937152 0.0 0.933 1.31461077821e-38
-0.02590025358 0.0 0.933 1.36157165286e-38
-0.024173570008 0.0 0.933 7.25895025296e-39
-0.022446886436 0.0 0.933 1.54618347697e-38
-0.020720202864 0.0 0.933 7.07133320417e-39
-0.0189324468827 0.0 0.93 1.57394137786e-38
-0.0172113153479 0.0 0.93 1.92486504903e-38
-0.0154568715899 0.0 0.928 2.01677131076e-38
-0.0137394414132 0.0 0.928 1.94222027064e-38
-0.0119831469761 0.0 0.925 2.03535140736e-38
-0.0102712688367 0.0 0.925 7.99506915185e-39
-0.00855939069723 0.0 0.925 1.4897132508e-38
-0.00684751255778 0.0 0.925 1.50018935812e-38
-0.00512453034392 0.0 0.923 1.66606708293e-38
-0.00341635356261 0.0 0.923 1.638763483e-38
-0.0017026247441 0.0 0.92 1.64748110087e-38
0.0 0.0 0.92 1.08516553077e-38
0.00169892338596 0.0 0.918 1.79485594063e-38
0.00339784677192 0.0 0.918 1.62886443039e-38
0.00508011404625 0.0 0.915 1.87804444435e-38
0.006773485395 0.0 0.915 2.10925028317e-38
0.00846685674374 0.0 0.915 1.26141076227e-38
0.0101602280925 0.0 0.915 1.88776623271e-38
0.0118535994412 0.0 0.915 1.6656312791e-38
0.01354697079 0.0 0.915 1.75754384668e-38
0.0152403421387 0.0 0.915 1.58229690021e-38
0.0169337134875 0.0 0.915 1.48127785444e-38
0.0185863698967 0.0 0.913 1.56407329394e-38
0.0202760398873 0.0 0.913 1.61020628146e-38
0.0218935333942 0.0 0.91 1.56410916718e-38
0.0235776513476 0.0 0.91 1.53641502537e-38
0.0252062489289 0.0 0.908 1.527267349e-38
0.026827443794 0.0 0.906 1.43529046182e-38
0.0285041590311 0.0 0.906 1.50886591795e-38
0.0301808742682 0.0 0.906 1.50882850328e-38
0.0318575895053 0.0 0.906 1.44432869679e-38
0.0335343047424 0.0 0.906 1.44407730384e-38
0.0350944271982 0.0 0.903 1.43464264154e-38
0.0367655903981 0.0 0.903 1.3423766665e-38
0.038436753598 0.0 0.903 1.44332396579e-38
0.0401079167979 0.0 0.903 1.5817588016e-38
0.0416865460443 0.0 0.901 1.48927758711e-38
0.0433540078861 0.0 0.901 1.57211002089e-38
0.0450214697279 0.0 0.901 1.86713589633e-38
0.0464298364999 0.0 0.896 1.5723241393e-38
0.0480880449463 0.0 0.896 1.40644627436e-38
0.0497462533928 0.0 0.896 1.38844085027e-38
0.0514044618392 0.0 0.896 1.79399189999e-38
0.0530626702856 0.0 0.896 1.9152119243e-38
0.054720878732 0.0 0.896 1.85974811069e-38
0.0562532410017 0.0 0.894 1.89673566392e-38
0.05790774809 0.0 0.894 1.94243494957e-38
0.0595622551783 0.0 0.894 1.7028703654e-38
0.0612167622666 0.0 0.894 1.74860916767e-38
0.0628712693549 0.0 0.894 1.69268460713e-38
0.064309246992 0.0 0.891 1.74778492391e-38
0.0659582020431 0.0 0.891 1.54484523693e-38
