# .PCD v0.7 - Point Cloud Data file format
VERSION 0.7
FIELDS x y z rgb
SIZE 4 4 4 4
TYPE F F F F
COUNT 1 1 1 1
WIDTH 842
HEIGHT 1
VIEWPOINT 0 0 0 1 0 0 0
POINTS 842
DATA ascii
0.0823866801445 -0.0390252695422 0.781 1.02214269286e-38
0.0842614180421 -0.0392251428817 0.785 1.37205476667e-38
0.085932581242 -0.0393250795514 0.787 1.45487514929e-38
0.0873890656699 -0.0393250795514 0.787 2.34950584761e-38
0.0894100072139 -0.0395749212258 0.792 1.92493399292e-38
0.0911052292418 -0.0396748578956 0.794 2.34942905645e-38
0.0928078539859 -0.0397747945654 0.796 1.45405805216e-38
0.0945178814462 -0.0398747312351 0.798 2.05357179064e-38
0.096475899902 -0.0400746045747 0.802 1.88830531223e-38
-0.033867426975 -0.0440276550675 0.915 2.35015226659e-38
-0.0321037298216 -0.0439314197559 0.913 1.03975000806e-38
-0.0303141231612 -0.0437870667884 0.91 1.25897432463e-38
-0.0286300052078 -0.0437870667884 0.91 1.22382107109e-38
-0.026827443794 -0.0435945961652 0.906 1.13176487043e-38
-0.0250674479987 -0.0434502431977 0.903 1.16864634536e-38
-0.0233444657848 -0.0433540078861 0.901 1.15027714418e-38
-0.0216048274593 -0.0432096549187 0.898 9.19719686154e-39
-0.0198985013571 -0.0431134196071 0.896 1.30560799609e-38
-0.0182402929107 -0.0431134196071 0.896 1.83199217162e-38
-0.0165820844643 -0.0431134196071 0.896 2.02555198707e-38
-0.0149238760178 -0.0431134196071 0.896 1.97071077037e-38
-0.0131620295435 -0.0427765960164 0.889 2.00751489363e-38
-0.0115167758506 -0.0427765960164 0.889 1.97063467986e-38
-0.00987152215763 -0.0427765960164 0.889 1.98900374091e-38
-0.00822626846469 -0.0427765960164 0.889 2.10896764127e-38
-0.00658101477175 -0.0427765960164 0.889 3.39791335785e-39
-0.00477475199975 -0.0413811839978 0.86 8.92100373682e-39
-0.00318316799983 -0.0413811839978 0.86 2.03581832001e-38
-0.00158788264178 -0.0412849486862 0.858 2.24740177643e-38
0.0 -0.0411887133746 0.856 4.49993931174e-39
0.00157492788829 -0.0409481250955 0.851 4.95911679253e-39
0.00314985577658 -0.0409481250955 0.851 2.348989329e-38
0.00472478366487 -0.0409481250955 0.851 5.42044666776e-39
0.0062849061206 -0.0408518897839 0.849 1.77763524367e-38
0.00781911906936 -0.0406594191607 0.845 2.00794677381e-38
0.0093607347344 -0.040563183849 0.843 1.97974494157e-38
0.0108949476832 -0.0404669485374 0.841 1.94276117185e-38
0.0123921470505 -0.0402744779142 0.837 1.9703841277e-38
0.0139078532086 -0.0401782426026 0.835 1.9796390034e-38
0.0154531702318 -0.0401782426026 0.835 2.02588199286e-38
0.0169577723154 -0.0400820072909 0.833 2.01666439169e-38
0.0184105553851 -0.0398895366677 0.829 2.20116537309e-38
0.0198004153664 -0.0396008307328 0.823 9.92971302208e-39
0.0212717052268 -0.0395045954212 0.821 1.34079824391e-38
0.0227355923709 -0.0394083601096 0.819 1.85762892702e-38
0.0241920767987 -0.039312124798 0.817 1.86839188014e-38
0.0255782354219 -0.0391196541747 0.813 8.91952256434e-39
0.0270828375056 -0.0391196541747 0.813 9.73635625478e-39
0.0285171137846 -0.0390234188631 0.811 9.10283482425e-39
0.0298699601845 -0.0388309482398 0.807 6.98129137004e-39
0.0313634581937 -0.0388309482398 0.807 1.3802251775e-38
0.0327755263239 -0.0387347129282 0.805 1.92389016569e-38
0.034265322975 -0.0387347129282 0.805 1.86799138904e-38
0.0356662870307 -0.0386384776166 0.803 1.88617912207e-38
0.0371061153469 -0.0385903599608 0.802 2.00617707398e-38
0.0383016540259 -0.0383016540259 0.796 1.83125719058e-38
0.0397747945654 -0.0383016540259 0.796 2.08050614842e-38
0.0409370210211 -0.038012948091 0.79 7.34935081949e-39
0.0423990574862 -0.038012948091 0.79 1.16043095285e-38
0.0438055735791 -0.0379648304352 0.789 5.60735465953e-39
0.0452657593651 -0.0379648304352 0.789 1.82395011973e-38
0.0466075016906 -0.0378685951236 0.787 4.86728129637e-39
0.0480639861184 -0.0378685951236 0.787 6.52536630299e-39
0.0493946243695 -0.037772359812 0.785 7.72853798004e-39
0.0508474074392 -0.037772359812 0.785 7.73430152062e-39
0.0523001905089 -0.037772359812 0.785 1.83670992316e-39
0.0537529735786 -0.037772359812 0.785 6.15660620431e-39
0.055065105039 -0.0376761245004 0.783 1.92431812224e-38
0.0563698337831 -0.0375798891887 0.781 1.88726232578e-38
0.0578152141365 -0.0375798891887 0.781 1.0477138675e-38
0.0592605944899 -0.0375798891887 0.781 1.31385744015e-38
0.0607059748433 -0.0375798891887 0.781 1.28723949556e-38
0.0621513551968 -0.0375798891887 0.781 1.28720362232e-38
0.0635967355502 -0.0375798891887 0.781 1.3885814005e-38
0.0650421159036 -0.0375798891887 0.781 1.39773103869e-38
0.066487496257 -0.0375798891887 0.781 1.3060014807e-38
0.0678458946941 -0.0375317715329 0.78 1.17646292832e-38
0.0692894243685 -0.0375317715329 0.78 1.42488512008e-38
0.0707329540428 -0.0375317715329 0.78 1.28770738912e-38
0.0721764837172 -0.0375317715329 0.78 1.43496550071e-38
0.0736200133915 -0.0375317715329 0.78 1.17686019644e-38
0.0751597783775 -0.0375798891887 0.781 2.00665449637e-38
0.0766051587309 -0.0375798891887 0.781 1.73932318314e-38
0.0780505390843 -0.0375798891887 0.781 1.32476290532e-38
0.0794959194377 -0.0375798891887 0.781 1.0954270993e-38
0.0811485758469 -0.0376761245004 0.783 1.17855114329e-38
0.0825976575585 -0.0376761245004 0.783 1.04082620528e-38
0.0842614180421 -0.037772359812 0.785 1.38080223221e-38
0.085932581242 -0.0378685951236 0.787 2.34932003543e-38
0.0876111471582 -0.0379648304352 0.789 2.26566265724e-38
0.0894100072139 -0.0381091834027 0.792 2.34892599031e-38
0.0913347134464 -0.0383016540259 0.796 1.8319568589e-38
0.0930410395486 -0.0383978893375 0.798 1.49117886887e-38
0.0949916552881 -0.0385903599608 0.802 1.83244885479e-38
0.0968367823205 -0.0387347129282 0.805 1.68501025596e-38
-0.0321037298216 -0.0422417497652 0.913 1.84210352095e-38
-0.030414059831 -0.0422417497652 0.913 1.20340373208e-38
-0.0287243898404 -0.0422417497652 0.913 1.26970210515e-38
-0.0268866655242 -0.0420104148815 0.908 1.17793625353e-38
-0.0251507285568 -0.041917880928 0.906 1.1777229759e-38
-0.0233962847988 -0.0417790799978 0.903 1.15931972317e-38
-0.0217251215989 -0.0417790799978 0.903 1.12255203367e-38
-0.0200095421013 -0.0416865460443 0.901 8.64474334977e-39
-0.0182810078502 -0.0415477451141 0.898 1.5920587657e-38
-0.0165820844643 -0.0414552111606 0.896 1.60142686633e-38
-0.0149238760178 -0.0414552111606 0.896 2.21866114493e-38
-0.0131620295435 -0.0411313423234 0.889 1.88776833466e-38
-0.0115167758506 -0.0411313423234 0.889 1.9610926781e-38
-0.00987152215763 -0.0411313423234 0.889 1.95198129535e-38
-0.00820776167399 -0.04103880837 0.887 2.0720155409e-38
-0.00655140390664 -0.0409462744165 0.885 1.66671602425e-38
-0.00488579274393 -0.0407149395328 0.88 5.87747175411e-39
-0.00319057071611 -0.0398821339514 0.862 1.98975329546e-38
-0.00159528535806 -0.0398821339514 0.862 2.05426361169e-38
0.0 -0.0397895999979 0.86 5.14278778485e-39
0.00158788264178 -0.0396970660444 0.858 4.40810381558e-39
0.00316836256728 -0.039604532091 0.856 2.31147712963e-38
0.00475254385092 -0.039604532091 0.856 4.77544580022e-39
0.00629971155316 -0.0393731972073 0.851 2.11221641163e-39
0.00785613265075 -0.0392806632538 0.849 1.74965411593e-38
0.00940515103207 -0.0391881293003 0.847 2.05386438176e-38
0.0109467666971 -0.0390955953468 0.845 1.9982956109e-38
0.0124217579156 -0.0388179934863 0.839 2.06272142884e-38
0.0139411654318 -0.0387254595329 0.837 1.89680642949e-38
0.0154531702318 -0.0386329255794 0.835 2.03492429159e-38
0.0169577723154 -0.0385403916259 0.833 1.81375973717e-38
0.0184105553851 -0.0383553237189 0.829 1.06529357712e-38
0.019896650678 -0.0382627897654 0.827 2.07994689021e-38
0.0213235242407 -0.0380777218585 0.823 1.39647771735e-38
0.0228466331151 -0.0380777218585 0.823 1.98734936794e-38
0.0243105202592 -0.037985187905 0.821 1.60913849203e-38
0.0257040815987 -0.037800119998 0.817 1.75744057098e-38
0.0271494619521 -0.0377075860445 0.815 1.12187058223e-38
0.0285874395892 -0.0376150520911 0.813 9.09171411964e-39
0.0300180145101 -0.0375225181376 0.811 1.04872168135e-38
0.0313634581937 -0.0373374502306 0.807 5.23462328101e-39
0.0328569562029 -0.0373374502306 0.807 1.30643336089e-38
0.034265322975 -0.0372449162771 0.805 1.98832172895e-38
0.0356662870307 -0.0371523823236 0.803 1.88653785447e-38
0.0371061153469 -0.0371061153469 0.802 1.87717493865e-38
0.0383978893375 -0.0369210474399 0.798 1.89572154422e-38
0.0398747312351 -0.0369210474399 0.798 2.06203198999e-38
0.0411442970769 -0.036735979533 0.794 1.25118786958e-38
0.0425063968722 -0.0366434455795 0.792 1.04940271241e-38
0.0439721346954 -0.0366434455795 0.792 9.29767836923e-39
0.0453231304162 -0.036550911626 0.79 1.54711477993e-38
0.0467259451511 -0.0365046446493 0.789 1.61146632904e-38
0.048186130937 -0.0365046446493 0.789 1.4831214027e-38
0.0495204705463 -0.0364121106958 0.787 9.20046328826e-39
0.0508474074392 -0.0363195767423 0.785 7.81821547656e-39
0.0523001905089 -0.0363195767423 0.785 1.02214157182e-38
0.0536160233274 -0.0362270427888 0.783 6.07764443714e-39
0.055065105039 -0.0362270427888 0.783 4.40953874521e-39
0.0563698337831 -0.0361345088353 0.781 1.55596888427e-38
0.0578152141365 -0.0361345088353 0.781 2.15473278795e-38
0.0592605944899 -0.0361345088353 0.781 1.28741886176e-38
0.0607059748433 -0.0361345088353 0.781 1.23070326824e-38
0.0621513551968 -0.0361345088353 0.781 1.31468434637e-38
0.0635967355502 -0.0361345088353 0.781 1.28716858986e-38
0.0650421159036 -0.0361345088353 0.781 1.37968637824e-38
0.0664023650198 -0.0360882418586 0.78 1.38901342082e-38
0.0678458946941 -0.0360882418586 0.78 1.37986616483e-38
0.0692894243685 -0.0360882418586 0.78 1.41645757098e-38
0.0707329540428 -0.0360882418586 0.78 1.42593048873e-38
0.0721764837172 -0.0360882418586 0.78 1.25968884671e-38
0.0736200133915 -0.0360882418586 0.78 1.93236017413e-38
0.0750635430659 -0.0360882418586 0.78 1.83191369891e-38
0.0765070727402 -0.0360882418586 0.78 1.17743150582e-38
0.0780505390843 -0.0361345088353 0.781 1.25190953829e-38
0.0794959194377 -0.0361345088353 0.781 1.29843881302e-38
0.0811485758469 -0.0362270427888 0.783 1.04961823211e-38
0.0825976575585 -0.0362270427888 0.783 1.4089230694e-38
0.0844760968142 -0.0364121106958 0.787 2.34957296981e-38
0.085932581242 -0.0364121106958 0.787 2.3490358521e-38
0.0877221879024 -0.036550911626 0.79 2.34867221515e-38
0.0896357900604 -0.036735979533 0.794 1.97031406277e-38
0.091564197651 -0.0369210474399 0.798 1.85074378715e-38
0.0932742251114 -0.0370135813934 0.8 1.60243047629e-38
0.0951100987485 -0.0371523823236 0.803 1.84167192102e-38
0.0970773705996 -0.0373374502306 0.807 1.67572188922e-38
-0.0321740556262 -0.04064091237 0.915 2.34006782219e-38
-0.0304806842775 -0.04064091237 0.915 9.91823358506e-39
-0.0287873129287 -0.04064091237 0.915 1.39855640349e-38
-0.0270347198498 -0.0405520797746 0.913 1.37108016359e-38
-0.025261769301 -0.0404188308816 0.91 1.15899714426e-38
-0.0235776513476 -0.0404188308816 0.91 1.14084472395e-38
-0.0218454157384 -0.0403299982863 0.908 1.10403905927e-38
-0.0201205828455 -0.0402411656909 0.906 1.12251349796e-38
-0.0183420802595 -0.0400190842026 0.901 7.16926715124e-39
-0.0166190980456 -0.0398858353096 0.898 1.86921752519e-38
-0.0149571882411 -0.0398858353096 0.898 1.31547593988e-38
-0.0131916404086 -0.0395749212258 0.891 2.20908929551e-38
-0.0115167758506 -0.0394860886305 0.889 1.97056461494e-38
-0.00987152215763 -0.0394860886305 0.889 2.07165512693e-38
-0.00820776167399 -0.0393972560352 0.887 1.94301508713e-38
-0.00655140390664 -0.0393084234398 0.885 2.21955937725e-38
-0.00488579274393 -0.0390863419515 0.88 1.31590950162e-38
-0.00323128565565 -0.0387754278677 0.873 4.49993931174e-39
-0.0016045387534 -0.0385089300817 0.867 1.05754677882e-38
0.0 -0.0382868485934 0.862 8.6400700194e-39
0.00159158399992 -0.038198015998 0.86 4.13259732711e-39
0.00318316799983 -0.038198015998 0.86 2.16346245699e-38
0.00476364792533 -0.0381091834027 0.858 7.07133320417e-39
0.00633672513455 -0.0380203508073 0.856 7.44836096378e-39
0.00787463944145 -0.037798269319 0.851 6.88802094426e-39
0.00944956732974 -0.037798269319 0.851 7.16317710811e-39
0.0109985857111 -0.0377094367236 0.849 1.77656100827e-38
0.0124809796459 -0.0374429389376 0.843 2.03546463228e-38
0.0139744776551 -0.0372652737469 0.839 1.92446708027e-38
0.0154901838131 -0.0371764411516 0.837 1.9426557942e-38
0.0169984872549 -0.0370876085562 0.835 2.05339564743e-38
0.0184993879804 -0.0369987759609 0.833 1.35192763657e-38
0.019896650678 -0.0367322781748 0.827 1.75703587598e-38
0.0214271622687 -0.0367322781748 0.827 1.32264638412e-38
0.0229021534872 -0.0366434455795 0.825 1.38671599199e-38
0.0244289637197 -0.0366434455795 0.825 1.35916534314e-38
0.0258928508638 -0.0365546129841 0.823 2.07908789425e-38
0.0273493352916 -0.0364657803888 0.821 1.89627463672e-38
0.0287280911985 -0.0362881151981 0.817 1.58273760858e-38
0.0300920416729 -0.0361104500074 0.813 1.11285967258e-38
0.0315189152356 -0.0360216174121 0.811 9.45905610427e-39
0.032938386082 -0.0359327848167 0.809 6.42848473106e-39
0.0343504542122 -0.0358439522214 0.807 1.32419327749e-38
0.0358439522214 -0.0358439522214 0.807 1.86839286105e-38
0.0372449162771 -0.035755119626 0.805 1.92323631983e-38
0.0385903599608 -0.035621870733 0.802 2.07099945938e-38
0.0399746679049 -0.0355330381377 0.8 1.97884432705e-38
0.0412479351048 -0.035355372947 0.796 1.82250510076e-38
0.0427210756443 -0.035355372947 0.796 9.935811473e-39
0.0440831754396 -0.0352665403517 0.794 1.25295028266e-38
0.0454378725186 -0.0351777077563 0.792 8.9277734097e-39
0.0467851668813 -0.035088875161 0.79 1.325595697e-38
0.048186130937 -0.0350444588633 0.789 1.44616607933e-38
0.0495204705463 -0.0349556262679 0.787 9.75036783813e-39
0.0508474074392 -0.0348667936726 0.785 5.32645877716e-39
0.0523001905089 -0.0348667936726 0.785 4.32093184071e-39
0.0536160233274 -0.0347779610773 0.783 1.05001269763e-38
0.055065105039 -0.0347779610773 0.783 4.41348480169e-39
0.0563698337831 -0.0346891284819 0.781 3.30607786169e-39
0.0578152141365 -0.0346891284819 0.781 1.48203483587e-38
0.0591847166481 -0.0346447121842 0.78 2.05306381995e-38
0.0606282463224 -0.0346447121842 0.78 1.98838198478e-38
0.0620717759968 -0.0346447121842 0.78 1.23210232463e-38
0.0635153056711 -0.0346447121842 0.78 1.2765133966e-38
0.0650421159036 -0.0346891284819 0.781 1.32404544051e-38
0.0664023650198 -0.0346447121842 0.78 1.41645701046e-38
0.0678458946941 -0.0346447121842 0.78 1.37968637824e-38
0.0692894243685 -0.0346447121842 0.78 1.41613527234e-38
0.0707329540428 -0.0346447121842 0.78 1.37921974585e-38
0.0721764837172 -0.0346447121842 0.78 1.36056439953e-38
0.0736200133915 -0.0346447121842 0.78 1.85010115167e-38
0.0750635430659 -0.0346447121842 0.78 1.02959788095e-38
0.0765070727402 -0.0346447121842 0.78 1.27910481785e-38
0.0780505390843 -0.0346891284819 0.781 1.14166588485e-38
0.0794959194377 -0.0346891284819 0.781 1.17861966679e-38
0.0811485758469 -0.0347779610773 0.783 1.13248233524e-38
0.0825976575585 -0.0347779610773 0.783 2.34982534366e-38
0.0844760968142 -0.0349556262679 0.787 2.13677066397e-38
0.0861509613723 -0.0350444588633 0.789 2.3495396189e-38
0.0879442693908 -0.0351777077563 0.792 1.97031406277e-38
0.0896357900604 -0.0352665403517 0.794 1.86899892263e-38
0.091564197651 -0.0354442055423 0.798 1.767915277e-38
0.0932742251114 -0.0355330381377 0.8 1.78653460996e-38
-0.0304806842775 -0.0389475410212 0.915 9.1835496158e-39
-0.0287873129287 -0.0389475410212 0.915 1.34302266509e-38
-0.0270347198498 -0.038862409784 0.913 1.43540060388e-38
-0.0253450498591 -0.038862409784 0.913 1.27895445852e-38
-0.0237071988825 -0.0389475410212 0.915 1.15038308234e-38
-0.0219657098779 -0.038862409784 0.913 1.20562801313e-38
-0.0201649991431 -0.038649581691 0.908 1.13162516097e-38
-0.0184845825479 -0.038649581691 0.908 1.15935475563e-38
-0.0167116319991 -0.038436753598 0.903 6.24840106281e-39
-0.0150404687992 -0.038436753598 0.903 1.91589015276e-38
-0.0132952784365 -0.038223925505 0.898 1.27881376816e-38
-0.0115426853575 -0.0379259661748 0.891 2.21812767061e-38
-0.00987152215763 -0.0378408349376 0.889 1.9430135457e-38
-0.00820776167399 -0.0377557037004 0.887 1.96137980415e-38
-0.00655140390664 -0.0376705724632 0.885 2.0259164648e-38
-0.00488579274393 -0.0374577443701 0.88 2.12718928573e-38
-0.00324979244634 -0.0373726131329 0.878 1.44476814399e-38
-0.00161564282782 -0.0371597850399 0.873 7.71633407171e-39
0.0 -0.0369043913283 0.867 5.78564046185e-39
0.0015989867162 -0.0367766944725 0.864 6.43099585791e-39
0.00319057071611 -0.0366915632353 0.862 1.92418163577e-38
0.00477475199975 -0.0366064319981 0.86 6.97949770801e-39
0.00635153056711 -0.0365213007609 0.858 6.71116586767e-39
0.0079023996275 -0.0363510382865 0.854 1.38962831058e-38
0.00944956732974 -0.0362233414307 0.851 1.48095499527e-38
0.0109985857111 -0.0361382101935 0.849 3.67341984632e-39
0.0125402013761 -0.0360530789563 0.847 1.51960056484e-38
0.0140411021016 -0.0358828164819 0.843 1.95267227563e-38
0.0155642109759 -0.0357976852446 0.841 1.96120436159e-38
0.017079917134 -0.0357125540074 0.839 1.94276145211e-38
0.0185438042781 -0.035542291533 0.835 2.08094951926e-38
0.0199447683338 -0.0352868978214 0.829 1.92414183889e-38
0.0214789812826 -0.0352868978214 0.829 1.6289015648e-38
0.0229576738593 -0.0352017665842 0.827 2.07146959502e-38
0.0244881854499 -0.0352017665842 0.827 2.01630145539e-38
0.0259557739521 -0.035116635347 0.825 1.60109447833e-38
0.0274159597381 -0.0350315041098 0.823 1.19386145005e-38
0.0288687428078 -0.0349463728726 0.821 1.81960623462e-38
0.0301660688356 -0.034690979161 0.815 1.7567861646e-38
0.0315966437565 -0.0346058479238 0.813 1.65627130601e-38
0.0330198159611 -0.0345207166866 0.811 1.75865465597e-38
0.0345207166866 -0.0345207166866 0.811 1.27023557948e-38
0.0359327848167 -0.0344355854494 0.809 1.27866733247e-38
0.0373374502306 -0.0343504542122 0.807 1.92327709761e-38
0.0386384776166 -0.0341801917378 0.803 1.83129306382e-38
0.0400746045747 -0.0341376261192 0.802 2.1169169272e-38
0.0413515731327 -0.0339673636447 0.798 2.02518792973e-38
0.0427210756443 -0.0338822324075 0.796 1.15892091363e-38
0.0441942161837 -0.0338822324075 0.796 7.81534421601e-39
0.0455526146209 -0.0337971011703 0.794 1.18870481184e-38
0.0469036103417 -0.0337119699331 0.792 9.76437521758e-39
0.0483693481649 -0.0337119699331 0.792 1.28939497286e-38
0.049646316723 -0.0335842730773 0.789 1.36236380688e-38
0.0509769549741 -0.0334991418401 0.787 1.51995607426e-38
0.0523001905089 -0.0334140106029 0.785 8.74768974146e-39
0.0537529735786 -0.0334140106029 0.785 5.41972920295e-39
0.055065105039 -0.0333288793657 0.783 5.70241033956e-39
0.0563698337831 -0.0332437481285 0.781 9.57998395785e-39
0.0578152141365 -0.0332437481285 0.781 4.50424410062e-39
0.0591847166481 -0.0332011825099 0.78 1.61128654245e-38
0.0606282463224 -0.0332011825099 0.78 1.92370421338e-38
0.0620717759968 -0.0332011825099 0.78 2.11734754622e-38
0.0635153056711 -0.0332011825099 0.78 1.41595268315e-38
0.0649588353455 -0.0332011825099 0.78 1.07447530505e-38
0.0662321025454 -0.0331160512727 0.778 1.47106140772e-38
0.0676719308616 -0.0331160512727 0.778 1.42571188617e-38
0.0691117591778 -0.0331160512727 0.778 1.49018072397e-38
0.070551587494 -0.0331160512727 0.778 1.13076041969e-38
0.0719914158102 -0.0331160512727 0.778 1.69312055108e-38
0.0734312441264 -0.0331160512727 0.778 7.34791588986e-39
0.0748710724426 -0.0331160512727 0.778 1.32559177336e-38
0.0765070727402 -0.0332011825099 0.78 1.20603032592e-38
0.0780505390843 -0.0332437481285 0.781 1.23397796262e-38
0.0794959194377 -0.0332437481285 0.781 1.0675917066e-38
0.0811485758469 -0.0333288793657 0.783 2.34935913166e-38
0.0828086349724 -0.0334140106029 0.785 2.34878235721e-38
0.0844760968142 -0.0334991418401 0.787 2.33912657001e-38
0.0864785315676 -0.0337119699331 0.792 2.14573981493e-38
0.0881663508791 -0.0337971011703 0.794 1.85127445888e-38
0.0898615729069 -0.0338822324075 0.796 1.62955414949e-38
-0.0328773136727 -0.0380684684631 0.935 2.35004352583e-38
-0.0311469287426 -0.0380684684631 0.935 7.62234618111e-39
-0.0293536207241 -0.0379870385841 0.933 1.29663828462e-38
-0.027626937152 -0.0379870385841 0.933 1.61064236555e-38
-0.0258169730219 -0.0378648937655 0.93 1.76780807767e-38
-0.0240440224732 -0.0377834638864 0.928 1.49111398875e-38
-0.022206298157 -0.0375798891887 0.923 1.03896303885e-38
-0.0204981213757 -0.0375798891887 0.923 1.08527567283e-38
-0.0184845825479 -0.0369691650957 0.908 1.12222384957e-38
-0.0167116319991 -0.0367655903981 0.903 1.10389234332e-38
-0.015007156576 -0.036684160519 0.901 7.17106081327e-39
-0.0132952784365 -0.0365620157004 0.898 1.87915399248e-38
-0.011607459125 -0.0364805858214 0.896 1.21427528582e-38
-0.00989373030646 -0.0362770111237 0.891 2.22770218249e-38
-0.00822626846469 -0.0361955812446 0.889 1.9523049953e-38
-0.00656620933919 -0.0361141513656 0.887 1.97982047156e-38
-0.00489689681835 -0.0359105766679 0.882 1.94297697181e-38
-0.00325719516262 -0.0358291467888 0.88 2.23778970975e-38
-0.00161934418596 -0.0356255720912 0.875 1.73086172262e-38
0.0 -0.035462712333 0.871 1.32530212497e-38
0.00160824011154 -0.035381282454 0.869 1.64773739836e-38
0.00320907750681 -0.0352998525749 0.867 1.87865386905e-38
0.00478585607417 -0.0350962778772 0.862 7.4386751888e-39
0.00636633599967 -0.0350148479982 0.86 3.58158435016e-39
0.0079023996275 -0.034770558361 0.854 1.8775761304e-38
0.00944956732974 -0.0346484135424 0.851 2.34845487376e-38
0.011024495218 -0.0346484135424 0.851 9.28650581657e-39
0.0125698122412 -0.0345669836633 0.849 2.29588740395e-39
0.0141077265481 -0.0344855537843 0.847 1.9342606151e-38
0.0156382381387 -0.0344041239052 0.845 1.99844008477e-38
0.0172020619526 -0.0344041239052 0.845 1.94286865144e-38
0.0186326368734 -0.034159834268 0.839 1.99818602936e-38
0.0200410036455 -0.0339155446308 0.833 1.95226786089e-38
0.0215826193105 -0.0339155446308 0.833 1.99844036503e-38
0.0230131942314 -0.0337526848727 0.829 2.07223316255e-38
0.0245474071801 -0.0337526848727 0.829 9.47161173851e-39
0.0260816201289 -0.0337526848727 0.829 1.87603470209e-38
0.0274825841846 -0.0335898251145 0.825 1.90491027864e-38
0.0289390686124 -0.0335083952355 0.823 1.72891798152e-38
0.0301660688356 -0.0331826757192 0.815 1.8211489241e-38
0.0315966437565 -0.0331012458401 0.813 1.36942621101e-38
0.0331012458401 -0.0331012458401 0.813 2.17239503405e-38
0.0345207166866 -0.0330198159611 0.811 8.63863508977e-39
0.0360216174121 -0.0330198159611 0.811 1.84019214984e-38
0.0374299841841 -0.032938386082 0.809 9.28220102769e-39
0.0387347129282 -0.0327755263239 0.805 1.97887963977e-38
0.0400746045747 -0.0326533815053 0.802 1.84980365601e-38
0.0413515731327 -0.0324905217471 0.798 1.94203375782e-38
0.0427210756443 -0.0324090918681 0.796 1.92402539099e-38
0.0441942161837 -0.0324090918681 0.796 5.78563625795e-39
0.0455526146209 -0.032327661989 0.794 1.46320726996e-38
0.0469036103417 -0.0322462321099 0.792 1.08591886883e-38
0.0483693481649 -0.0322462321099 0.792 1.10472457448e-38
0.049646316723 -0.0321240872913 0.789 1.28828934837e-38
0.051106502509 -0.0321240872913 0.789 8.37283399446e-39
0.0524334394019 -0.0320426574123 0.787 1.03989868583e-38
0.0537529735786 -0.0319612275332 0.785 8.64582515219e-39
0.055065105039 -0.0318797976542 0.783 7.45589434433e-39
0.0565141867505 -0.0318797976542 0.783 5.24287412636e-39
0.0578152141365 -0.0317983677751 0.781 4.31913817868e-39
0.0591847166481 -0.0317576528356 0.78 6.25521697854e-39
0.0606282463224 -0.0317576528356 0.78 1.65680828358e-38
0.0620717759968 -0.0317576528356 0.78 1.71129707372e-38
0.0635153056711 -0.0317576528356 0.78 2.07060457348e-38
0.0649588353455 -0.0317576528356 0.78 1.85905895211e-38
0.0662321025454 -0.0316762229565 0.778 1.01058506339e-38
0.0676719308616 -0.0316762229565 0.778 1.41512759861e-38
0.0691117591778 -0.0316762229565 0.778 1.37954134385e-38
0.070551587494 -0.0316762229565 0.778 1.40687675325e-38
0.0719914158102 -0.0316762229565 0.778 1.23171080183e-38
0.0734312441264 -0.0316762229565 0.778 1.37158365013e-38
0.0748710724426 -0.0316762229565 0.778 1.26177538013e-38
0.0765070727402 -0.0317576528356 0.78 1.21560567858e-38
0.0779506024145 -0.0317576528356 0.78 1.11389999656e-38
0.0794959194377 -0.0317983677751 0.781 2.34939542529e-38
0.0811485758469 -0.0318797976542 0.783 2.24704612688e-38
0.0828086349724 -0.0319612275332 0.785 2.34824383821e-38
0.0844760968142 -0.0320426574123 0.787 2.24697143768e-38
0.0864785315676 -0.0322462321099 0.792 1.69408086092e-38
0.0881663508791 -0.032327661989 0.794 1.73125282502e-38
-0.0328773136727 -0.036338083533 0.935 2.35004660869e-38
-0.0311469287426 -0.036338083533 0.935 7.07671419027e-39
-0.0293536207241 -0.0362603550121 0.933 1.46201756756e-38
-0.027626937152 -0.0362603550121 0.933 1.34349406189e-38
-0.0258169730219 -0.0361437622307 0.93 1.81350386007e-38
-0.0240440224732 -0.0360660337097 0.928 2.10817310504e-38
-0.022206298157 -0.0358717124074 0.923 1.73989757538e-38
-0.0204981213757 -0.0358717124074 0.923 1.52776957437e-38
-0.0188306595339 -0.0359494409284 0.925 1.12211665024e-38
-0.0167671523712 -0.0352110199796 0.906 1.08520686908e-38
-0.015007156576 -0.0350166986772 0.901 1.14988506087e-38
-0.0133396947342 -0.0350166986772 0.901 6.43027839309e-39
-0.011607459125 -0.0348223773749 0.896 1.96195069315e-38
-0.00992704252972 -0.034744648854 0.894 1.36175045855e-38
-0.00824477525538 -0.0346280560726 0.891 2.19050247268e-38
-0.00658101477175 -0.0345503275517 0.889 2.06304737086e-38
-0.00489689681835 -0.0342782777284 0.882 1.86000020429e-38
-0.0032645978789 -0.0342782777284 0.882 2.00744034455e-38
-0.00162489622317 -0.0341228206866 0.878 1.98885898678e-38
0.0 -0.0340062279052 0.875 2.127153973e-38
0.00161194146968 -0.0338507708634 0.871 2.17317990132e-38
0.00321648022309 -0.0337730423424 0.869 1.52838460426e-38
0.00481361626021 -0.0336953138215 0.867 8.44994184376e-39
0.00638114143223 -0.0335009925192 0.862 3.21424236553e-39
0.00792090641819 -0.0332678069564 0.856 2.1083893254e-38
0.00948287955299 -0.0331900784355 0.854 2.10903924763e-38
0.0110633594785 -0.0331900784355 0.854 2.09077836682e-38
0.0125994231063 -0.0330734856541 0.851 4.49993931174e-39
0.0141410387714 -0.0329957571332 0.849 5.69488116291e-39
0.0157122653015 -0.0329957571332 0.849 2.26605109718e-38
0.0172427768921 -0.0329180286122 0.847 1.55644028108e-38
0.0187214694688 -0.0327625715704 0.843 1.95280694041e-38
0.0201372389571 -0.0325293860076 0.837 2.00758551907e-38
0.0216862573384 -0.0325293860076 0.837 1.95208849469e-38
0.0231797553476 -0.0324516574867 0.835 1.979858727e-38
0.0246658506406 -0.0323739289658 0.833 1.92457638155e-38
0.0262074663056 -0.0323739289658 0.833 1.15823932205e-38
0.0276158330776 -0.0322184719239 0.829 1.58032387197e-38
0.0290093944171 -0.0320630148821 0.825 1.35916534314e-38
0.0302400959984 -0.0317521007983 0.817 1.43263374006e-38
0.0316743722774 -0.0316743722774 0.815 2.01360787948e-38
0.0331012458401 -0.0315966437565 0.813 2.08956147923e-38
0.0346058479238 -0.0315966437565 0.813 2.05364788115e-38
0.0360216174121 -0.0315189152356 0.811 2.18242903171e-38
0.0375225181376 -0.0315189152356 0.811 8.54679959361e-39
0.0388309482398 -0.0313634581937 0.807 1.01937400735e-38
0.0402245095793 -0.0312857296728 0.805 1.88693764493e-38
0.0415588491885 -0.0311691368914 0.802 1.83190739306e-38
0.0429357544164 -0.0310914083705 0.8 2.12638844365e-38
0.0441942161837 -0.0309359513286 0.796 1.71209062904e-38
0.0456673567232 -0.0309359513286 0.796 1.84141590379e-38
0.0470220538022 -0.0308582228077 0.794 1.80511246448e-38
0.0483693481649 -0.0307804942868 0.792 1.03960777627e-38
0.0497092398114 -0.0307027657658 0.79 1.41724608163e-38
0.051106502509 -0.0306639015054 0.789 1.14188196508e-38
0.0525666882949 -0.0306639015054 0.789 7.82504960917e-39
0.0538899238298 -0.0305861729845 0.787 1.0679870129e-38
0.0552057566483 -0.0305084444635 0.785 8.93315439581e-39
0.0565141867505 -0.0304307159426 0.783 1.46470511789e-38
0.0578152141365 -0.0303529874217 0.781 6.79905530735e-39
0.0591847166481 -0.0303141231612 0.78 2.20405190779e-39
0.0606282463224 -0.0303141231612 0.78 1.25115732127e-38
0.0620717759968 -0.0303141231612 0.78 1.78580579463e-38
0.0635153056711 -0.0303141231612 0.78 1.7939848935e-38
0.0649588353455 -0.0303141231612 0.78 1.92294919377e-38
0.0662321025454 -0.0302363946403 0.778 2.23717355881e-38
0.0676719308616 -0.0302363946403 0.778 1.84998302221e-38
0.0691117591778 -0.0302363946403 0.778 1.34305825807e-38
0.070551587494 -0.0302363946403 0.778 1.22220383253e-38
0.0719914158102 -0.0302363946403 0.778 1.35199644032e-38
0.0734312441264 -0.0302363946403 0.778 1.32588016059e-38
0.0748710724426 -0.0302363946403 0.778 1.25237827263e-38
0.0765070727402 -0.0303141231612 0.78 1.06791092239e-38
0.0779506024145 -0.0303141231612 0.78 2.32141345678e-38
0.0796994941354 -0.0304307159426 0.783 2.33012925296e-38
0.0813558519027 -0.0305084444635 0.785 2.34863522087e-38
0.0828086349724 -0.0305084444635 0.785 2.33005764661e-38
0.0846907755863 -0.0306639015054 0.789 1.49125061535e-38
0.0864785315676 -0.0307804942868 0.792 1.74926357405e-38
0.0881663508791 -0.0308582228077 0.794 2.02624296734e-38
-0.0311469287426 -0.0346076986028 0.935 9.56452343189e-39
-0.0293536207241 -0.0345336714401 0.933 1.42463793103e-38
-0.027626937152 -0.0345336714401 0.933 1.1682479562e-38
-0.0258169730219 -0.0344226306959 0.93 2.02555801265e-38
-0.0240958414871 -0.0344226306959 0.93 2.00715195732e-38
-0.0223265922965 -0.0343486035331 0.928 1.88708464113e-38
-0.0205425376733 -0.0342375627889 0.925 1.71198931516e-38
-0.0187899445944 -0.0341635356261 0.923 1.62003723097e-38
-0.0168041659526 -0.0336083319052 0.908 1.27005929613e-38
-0.0150904371341 -0.0335343047424 0.906 1.10328151732e-38
-0.0133693055993 -0.0334232639983 0.903 1.13169312394e-38
-0.0116722328924 -0.0333492368355 0.901 6.15584810184e-39
-0.00994925067855 -0.0331641689285 0.896 1.90670562223e-38
-0.00827253544143 -0.0330901417657 0.894 1.19576581467e-38
-0.00659582020431 -0.0329791010215 0.891 2.24621039248e-38
-0.00491355292998 -0.0327570195332 0.885 1.64748110087e-38
-0.00327570195332 -0.0327570195332 0.885 2.06215264179e-38
-0.00163229893945 -0.032645978789 0.882 1.95201758898e-38
0.0 -0.0324979244634 0.878 1.91510500523e-38
0.00161934418596 -0.0323868837192 0.875 2.18261428337e-38
0.00322388293937 -0.0322388293937 0.871 8.64975579438e-39
0.00482472033463 -0.0321648022309 0.869 8.35954548112e-39
0.00641815501362 -0.0320907750681 0.867 5.4225990622e-39
0.00793941320889 -0.0317576528356 0.858 1.5093032632e-38
0.00950508770183 -0.0316836256728 0.856 2.04511019e-38
0.0110633594785 -0.03160959851 0.854 2.15513510074e-38
0.012643839404 -0.03160959851 0.854 5.6938007618e-39
0.0141743509946 -0.0314985577658 0.851 3.39791335785e-39
0.0157122653015 -0.031424530603 0.849 2.34891870355e-38
0.0172427768921 -0.0313505034402 0.847 2.20405190779e-39
0.0187658857665 -0.0312764762774 0.845 5.88251222469e-39
0.0201853566129 -0.0310543947891 0.839 2.01652818548e-38
0.0216862573384 -0.0309803676263 0.837 2.06308422501e-38
0.0231797553476 -0.0309063404635 0.835 1.97056461494e-38
0.0247250723708 -0.0309063404635 0.835 2.00754852479e-38
0.026270389394 -0.0309063404635 0.835 2.06272297026e-38
0.0277490819706 -0.0308323133007 0.833 1.9702756672e-38
0.0291500460264 -0.0306842589751 0.829 2.04399461629e-38
0.0304621774868 -0.0304621774868 0.823 2.21913324238e-38
0.0318298293193 -0.0303141231612 0.819 2.01648474523e-38
0.0331826757192 -0.0301660688356 0.815 1.25997583264e-38
0.034690979161 -0.0301660688356 0.815 1.96690049971e-38
0.0361104500074 -0.0300920416729 0.813 1.63733219675e-38
0.0375225181376 -0.0300180145101 0.811 1.65423045493e-38
0.0389271835515 -0.0299439873473 0.809 1.63783414186e-38
0.0403244462491 -0.0298699601845 0.807 6.61215572338e-39
0.0416106682025 -0.0297219058589 0.803 1.67489063897e-38
0.0430430938024 -0.0296848922775 0.802 1.99785812552e-38
0.0444162976721 -0.0296108651147 0.8 1.86831943301e-38
0.0456673567232 -0.0294628107892 0.796 1.67492160766e-38
0.0471404972627 -0.0294628107892 0.796 1.51909147311e-38
0.0484914929835 -0.0293887836264 0.794 1.98014108864e-38
0.0498350859881 -0.0293147564636 0.792 1.45463160362e-38
0.0511712762764 -0.0292407293008 0.79 9.75536907235e-39
0.0526333127414 -0.0292407293008 0.79 1.23365019891e-38
0.0540268740809 -0.0292037157194 0.789 1.52913541998e-38
0.0553464082576 -0.0291296885566 0.787 7.45230702026e-39
0.056658539718 -0.0290556613938 0.785 1.4641741659e-38
0.0578152141365 -0.0289076070683 0.781 1.79589079954e-38
0.0592605944899 -0.0289076070683 0.781 1.28002897418e-38
0.0607059748433 -0.0289076070683 0.781 3.67700717039e-39
0.0620717759968 -0.0288705934869 0.78 1.82301251093e-38
0.0635153056711 -0.0288705934869 0.78 1.75735831476e-38
0.0649588353455 -0.0288705934869 0.78 1.77543842807e-38
0.0662321025454 -0.0287965663241 0.778 1.83118544409e-38
0.0676719308616 -0.0287965663241 0.778 2.34831432353e-38
0.0691117591778 -0.0287965663241 0.778 2.08116055481e-38
0.070551587494 -0.0287965663241 0.778 2.04453621814e-38
0.0719914158102 -0.0287965663241 0.778 1.18726077377e-38
0.0734312441264 -0.0287965663241 0.778 1.29844273665e-38
0.0748710724426 -0.0287965663241 0.778 1.24315422548e-38
0.0765070727402 -0.0288705934869 0.78 2.14620700783e-38
0.0780505390843 -0.0289076070683 0.781 2.32098017529e-38
0.079903068833 -0.0290556613938 0.785 2.34874368137e-38
0.0815631279585 -0.0291296885566 0.787 2.26562916621e-38
0.0830196123864 -0.0291296885566 0.787 1.58373182984e-38
0.0847981149723 -0.0292407293008 0.79 1.74050910203e-38
-0.0335454088169 -0.0335454088169 0.954 2.34939472464e-38
-0.0317798609844 -0.0335454088169 0.954 1.69412191896e-38
-0.0294165438124 -0.0328773136727 0.935 1.35148846963e-38
-0.0276861588823 -0.0328773136727 0.935 1.30661482904e-38
-0.02590025358 -0.0328069878681 0.933 1.38897628641e-38
-0.0240958414871 -0.0327014991611 0.93 1.80454381756e-38
-0.0223265922965 -0.0326311733564 0.928 1.66617428226e-38
-0.0205425376733 -0.0325256846495 0.925 1.748860981e-38
-0.0187899445944 -0.0324553588448 0.923 1.3063282635e-38
-0.0168041659526 -0.03192791531 0.908 2.11817879647e-38
-0.0151237493574 -0.03192791531 0.908 1.34324505116e-38
-0.013413721897 -0.0318575895053 0.906 1.1126085599e-38
-0.0116981423994 -0.0317521007983 0.903 1.150029815e-38
-0.0100047710506 -0.0316817749937 0.901 5.51407582596e-39
-0.00829104223213 -0.0315059604821 0.896 1.72228031095e-38
-0.00661802835314 -0.0314356346774 0.894 1.51816311287e-38
-0.00492465700439 -0.0311894943612 0.887 1.7194761726e-38
-0.0032831046696 -0.0311894943612 0.887 1.81188676164e-38
-0.00163785097666 -0.0311191685565 0.885 2.01618374632e-38
0.0 -0.0309433540449 0.88 2.04417594431e-38
0.00162489622317 -0.0308730282403 0.878 2.23803703893e-38
0.00323128565565 -0.0306972137286 0.873 4.4088212804e-39
0.00483582440905 -0.030626887924 0.871 4.68432776887e-39
0.00643296044618 -0.0305565621193 0.869 1.20574348012e-38
0.00797642679028 -0.0303104218031 0.862 5.976123166e-39
0.00952729585067 -0.0301697701938 0.858 1.59331208705e-38
0.0110892689855 -0.0300994443891 0.856 1.35324695907e-38
0.012643839404 -0.0300291185845 0.854 7.62234618111e-39
0.0141743509946 -0.0299236298775 0.851 4.13259732711e-39
0.0157492788829 -0.0299236298775 0.851 2.18225751278e-38
0.0172834918317 -0.0298533040729 0.849 6.33844289694e-39
0.0187658857665 -0.0297126524636 0.845 4.86907495841e-39
0.0202334742687 -0.0295720008543 0.841 1.00273302757e-38
0.0217380763524 -0.0295016750496 0.839 1.57505695156e-38
0.0232352757197 -0.029431349245 0.837 2.00780215981e-38
0.0247250723708 -0.0293610234403 0.835 1.97067573791e-38
0.026270389394 -0.0293610234403 0.835 1.94286837118e-38
0.0278157064172 -0.0293610234403 0.835 1.99807883003e-38
0.0292906976357 -0.0292906976357 0.833 2.04431929714e-38
0.0306102318124 -0.0290797202217 0.827 1.9796390034e-38
0.0319852863611 -0.0289390686124 0.823 1.9890055626e-38
0.0334269653564 -0.0288687428078 0.821 2.05361495063e-38
0.0347761103982 -0.0287280911985 0.817 1.28677314343e-38
0.0361992826028 -0.0286577653939 0.815 1.26732984698e-38
0.0376150520911 -0.0285874395892 0.813 1.98555514539e-38
0.0390234188631 -0.0285171137846 0.811 2.1271877443e-38
0.0404243829188 -0.0284467879799 0.809 9.47130205155e-39
0.0417143062304 -0.0283061363706 0.805 7.44441490731e-39
0.0430967634954 -0.028235810566 0.803 1.49064161103e-38
0.0445273384163 -0.0282006476636 0.802 1.95164876723e-38
0.0458968409278 -0.028130321859 0.8 1.98838198478e-38
0.0471404972627 -0.0279896702497 0.796 1.60145321074e-38
0.0484914929835 -0.0279193444451 0.794 9.56201230504e-39
0.0498350859881 -0.0278490186404 0.792 1.80490689399e-38
0.0513008238113 -0.0278490186404 0.792 1.85167943413e-38
0.0526333127414 -0.0277786928358 0.79 1.11361581323e-38
0.0540953492065 -0.0277786928358 0.79 1.42718226865e-38
0.0554870598669 -0.0277435299334 0.789 1.20656884492e-38
0.0568028926854 -0.0276732041288 0.787 9.01925017345e-39
0.0579632684621 -0.0275325525195 0.783 1.43644274955e-38
0.0592605944899 -0.0274622267148 0.781 1.80564972231e-38
0.0607059748433 -0.0274622267148 0.781 6.53287586146e-39
0.0621513551968 -0.0274622267148 0.781 1.31648179191e-38
0.0635153056711 -0.0274270638125 0.78 1.9338215883e-38
0.0649588353455 -0.0274270638125 0.78 1.82232475364e-38
0.0662321025454 -0.0273567380079 0.778 1.83118544409e-38
0.0676719308616 -0.0273567380079 0.778 2.04319825837e-38
0.0691117591778 -0.0273567380079 0.778 2.28315240351e-38
0.070551587494 -0.0273567380079 0.778 1.84130169797e-38
0.0719914158102 -0.0273567380079 0.778 1.40838805365e-38
0.0734312441264 -0.0273567380079 0.778 1.27085411262e-38
0.0748710724426 -0.0273567380079 0.778 1.44555693489e-38
0.0765070727402 -0.0274270638125 0.78 2.3492475883e-38
0.0782504124238 -0.0275325525195 0.783 2.34888549278e-38
0.0803102182284 -0.0277435299334 0.789 2.34867501775e-38
0.0817704040143 -0.0277435299334 0.789 1.43586233173e-38
0.0832305898003 -0.0277435299334 0.789 1.69387178719e-38
0.0850127937444 -0.0278490186404 0.792 1.90660416822e-38
-0.0354960245563 -0.0319464221007 0.959 2.34896340497e-38
-0.0335454088169 -0.0317798609844 0.954 2.34928724505e-38
-0.0317798609844 -0.0317798609844 0.954 2.06287136777e-38
-0.0296682361659 -0.0314134265286 0.943 1.08412520679e-38
-0.0277749914776 -0.0312468654123 0.938 1.26958986114e-38
-0.0259557739521 -0.0311469287426 0.935 1.27005957639e-38
-0.024173570008 -0.0310803042961 0.933 1.65728094156e-38
-0.0223747099523 -0.0309803676263 0.93 1.6019985961e-38
-0.0206091621199 -0.0309137431798 0.928 1.63794554508e-38
-0.0188306595339 -0.03081380651 0.925 1.44447919624e-38
-0.0169892338596 -0.0305806209472 0.918 1.65737959297e-38
-0.0151570615806 -0.0303141231612 0.91 1.73092604222e-38
-0.0134433327621 -0.0302474987147 0.908 1.58241166655e-38
-0.0117370066599 -0.0301808742682 0.906 1.10331739056e-38
-0.0100269791995 -0.0300809375984 0.903 9.93189764639e-39
-0.00830954902282 -0.0299143764822 0.898 6.89340193036e-39
-0.0066328337857 -0.0298477520357 0.896 1.63883607026e-38
-0.00493576107881 -0.0296145664729 0.889 1.6835700014e-38
-0.00329050738588 -0.0296145664729 0.889 2.20954247543e-38
-0.0016415523348 -0.0295479420264 0.887 1.86895996654e-38
0.0 -0.0293813809101 0.882 1.56432440663e-38
0.00162859758131 -0.0293147564636 0.88 2.18200668035e-38
0.00324979244634 -0.0292481320171 0.878 1.6667486745e-38
0.00484692848347 -0.0290815709008 0.873 4.86728129637e-39
0.00644776587873 -0.0290149464543 0.871 1.38891224707e-38
0.00797642679028 -0.028715136445 0.862 2.00812403807e-38
0.0095495039995 -0.0286485119985 0.86 4.13259732711e-39
0.0110892689855 -0.0285152631055 0.856 4.5917748079e-39
0.012643839404 -0.028448638659 0.854 6.98991636209e-39
0.0141743509946 -0.0283487019892 0.851 4.04076183095e-39
0.0157122653015 -0.0282820775427 0.849 2.04403539407e-38
0.0172834918317 -0.0282820775427 0.849 7.25500419648e-39
0.0187658857665 -0.0281488286497 0.845 7.36154772132e-39
0.0203297095803 -0.0281488286497 0.845 6.43745304123e-39
0.0217898953663 -0.0280155797567 0.841 4.86728129637e-39
0.0232907960918 -0.0279489553102 0.839 5.78563625795e-39
0.024784294101 -0.0278823308637 0.837 1.97985578428e-38
0.0263333124823 -0.0278823308637 0.837 2.01702746812e-38
0.0278157064172 -0.0278157064172 0.835 1.92439617456e-38
0.0293610234403 -0.0278157064172 0.835 2.05343670547e-38
0.0306842589751 -0.0276158330776 0.829 1.96134477169e-38
0.0320630148821 -0.0274825841846 0.825 1.8970229301e-38
0.0335083952355 -0.0274159597381 0.823 2.00751321207e-38
0.0349463728726 -0.0273493352916 0.821 2.13644262e-38
0.0362881151981 -0.0272160863986 0.817 1.85963712785e-38
0.0377075860445 -0.0271494619521 0.815 1.97045475314e-38
0.0391196541747 -0.0270828375056 0.813 1.99825427259e-38
0.0405243195886 -0.0270162130591 0.811 1.68473209821e-38
0.0418179442583 -0.026882964166 0.807 7.35186194634e-39
0.0433114422675 -0.026882964166 0.807 6.61215572338e-39
0.0446938995326 -0.0268163397195 0.805 1.29649773439e-38
0.0460689540813 -0.026749715273 0.803 1.87800969215e-38
0.0472589407231 -0.0265831541568 0.798 1.99764120452e-38
0.0486136378021 -0.0265165297102 0.796 1.7949924271e-38
0.0500867783416 -0.0265165297102 0.796 8.91593524028e-39
0.0514303713462 -0.0264499052637 0.794 1.51916349985e-38
0.0527665616345 -0.0263832808172 0.792 1.9064200376e-38
0.0540953492065 -0.0263166563707 0.79 1.68522703683e-38
0.0554870598669 -0.0262833441475 0.789 1.01241459866e-38
0.0569472456528 -0.0262833441475 0.789 1.53797018641e-38
0.0579632684621 -0.0260834708079 0.783 8.84167763205e-39
0.0594123501736 -0.0260834708079 0.783 9.66212246863e-39
0.0608614318852 -0.0260834708079 0.783 1.37176539854e-38
0.0621513551968 -0.0260168463614 0.781 9.76113401423e-39
0.0635967355502 -0.0260168463614 0.781 1.79564052764e-38
0.0649588353455 -0.0259835341382 0.78 1.84976778277e-38
0.0664023650198 -0.0259835341382 0.78 2.06131270349e-38
0.0676719308616 -0.0259169096917 0.778 2.04301973295e-38
0.0691117591778 -0.0259169096917 0.778 2.27339544256e-38
0.070551587494 -0.0259169096917 0.778 1.33444868031e-38
0.0719914158102 -0.0259169096917 0.778 1.44598909534e-38
0.0734312441264 -0.0259169096917 0.778 1.28936414429e-38
0.0750635430659 -0.0259835341382 0.78 1.86969018317e-38
0.0768013307123 -0.0260834708079 0.783 2.34936109348e-38
0.0791498424517 -0.0263832808172 0.792 2.34895864056e-38
0.0806155802749 -0.0263832808172 0.792 1.48221490272e-38
0.082081318098 -0.0263832808172 0.792 1.77731953113e-38
0.0835470559212 -0.0263832808172 0.792 1.62075651747e-38
-0.0354960245563 -0.0301716208728 0.959 2.34892683108e-38
-0.0336157346215 -0.0300772362403 0.956 2.34889095784e-38
-0.0318464854309 -0.0300772362403 0.956 2.34907382729e-38
-0.0297626207984 -0.0297626207984 0.946 1.01022633098e-38
-0.0278342132079 -0.0295738515333 0.94 1.01177084215e-38
-0.0259557739521 -0.0294165438124 0.935 1.28868437441e-38
-0.024225389022 -0.0294165438124 0.935 1.95198129535e-38
-0.022446886436 -0.0293536207241 0.933 1.74969082995e-38
-0.020720202864 -0.0293536207241 0.933 1.99811232106e-38
-0.0188917319432 -0.0291963130031 0.928 1.69401682158e-38
-0.0171743017665 -0.0291963130031 0.928 1.61115005598e-38
-0.0152903104736 -0.0288816975613 0.918 1.87861281101e-38
-0.0134729436272 -0.0286300052078 0.91 2.02562233225e-38
-0.0117629161668 -0.0285670821194 0.908 1.51848807399e-38
-0.0100602914227 -0.0285041590311 0.906 1.20487551585e-38
-0.00835581599956 -0.0284097743985 0.903 9.84220053169e-39
-0.00666984736709 -0.0283468513102 0.901 7.62558037797e-39
-0.00498572941369 -0.0282524666776 0.898 1.68378355928e-38
-0.00331641689285 -0.0281895435892 0.896 2.04369852192e-38
-0.00164895505108 -0.0280322358683 0.891 2.0071795629e-38
0.0 -0.0279693127799 0.889 1.92402539099e-38
0.0016415523348 -0.0279063896916 0.887 1.60091511213e-38
0.00327570195332 -0.0278434666032 0.885 2.25518935252e-38
0.00488579274393 -0.0276861588823 0.88 1.7772053253e-38
0.00651439032524 -0.0276861588823 0.88 1.49096362942e-38
0.00809672092981 -0.0275288511614 0.875 2.19179937441e-38
0.00969385696694 -0.027465928073 0.873 1.75876844141e-38
0.0112835902878 -0.0274030049846 0.871 8.27272803476e-39
0.0128659208924 -0.0273400818963 0.869 7.4386751888e-39
0.0141743509946 -0.0267737741009 0.851 1.35214259575e-38
0.0157122653015 -0.0267108510126 0.849 1.82294370718e-38
0.0172834918317 -0.0267108510126 0.849 6.79582671569e-39
0.0187658857665 -0.0265850048358 0.845 3.21424236553e-39
0.0203297095803 -0.0265850048358 0.845 1.73089100976e-38
0.0217898953663 -0.0264591586591 0.841 1.78627901312e-38
0.0232907960918 -0.0263962355707 0.839 5.97002471508e-39
0.024784294101 -0.0263333124823 0.837 2.29588740395e-39
0.0263333124823 -0.0263333124823 0.837 2.06312191994e-38
0.0278823308637 -0.0263333124823 0.837 1.99836973959e-38
0.0293610234403 -0.026270389394 0.835 1.95201604756e-38
0.0308323133007 -0.0262074663056 0.833 1.98885870652e-38
0.0322962004448 -0.0261445432172 0.831 1.94304885842e-38
0.0336712549936 -0.0260186970405 0.827 1.97045769587e-38
0.0350315041098 -0.0258928508638 0.823 1.97963942379e-38
0.0364657803888 -0.0258299277754 0.821 1.97056405442e-38
0.0378926539515 -0.025767004687 0.819 2.01684039478e-38
0.039312124798 -0.0257040815987 0.817 1.02898803586e-38
0.0407241929281 -0.0256411585103 0.815 2.04248555797e-38
0.042128858342 -0.0255782354219 0.813 2.05347608196e-38
0.0435261210396 -0.0255153123336 0.811 7.16890841883e-39
0.0449159810209 -0.0254523892452 0.809 7.53051068496e-39
0.046298438286 -0.0253894661568 0.807 8.45137677338e-39
0.0475550493743 -0.0252636199801 0.803 1.74896916124e-38
0.0487357826207 -0.0251063122592 0.798 2.04395930357e-38
0.0500867783416 -0.0250433891708 0.796 1.96062604571e-38
0.0514303713462 -0.0249804660824 0.794 1.12164861655e-38
0.0528998105275 -0.0249804660824 0.794 1.02934676826e-38
0.0542322994576 -0.0249175429941 0.792 1.7216406182e-38
0.0555573856715 -0.0248546199057 0.79 1.38119151292e-38
0.0569472456528 -0.0248231583615 0.789 1.24229901303e-38
0.0581113227877 -0.0246973121848 0.785 1.13284457089e-38
0.0594123501736 -0.0246343890964 0.783 1.16965233752e-38
0.0608614318852 -0.0246343890964 0.783 9.93869254264e-39
0.0621513551968 -0.024571466008 0.781 5.23462328101e-39
0.0635967355502 -0.024571466008 0.781 1.83201879629e-38
0.0650421159036 -0.024571466008 0.781 1.8409788388e-38
0.0664023650198 -0.0245400044638 0.78 2.24559410142e-38
0.0678458946941 -0.0245400044638 0.78 2.07982287529e-38
0.0692894243685 -0.0245400044638 0.78 2.20885892204e-38
0.0707329540428 -0.0245400044638 0.78 1.15906440659e-38
0.0721764837172 -0.0245400044638 0.78 1.50123556755e-38
0.0736200133915 -0.0245400044638 0.78 1.27999814562e-38
0.0751597783775 -0.024571466008 0.781 1.98933192501e-38
0.0774879326471 -0.0248546199057 0.79 2.34982674496e-38
0.0793497157912 -0.0249804660824 0.794 1.18722644196e-38
0.0808191549725 -0.0249804660824 0.794 1.90634969242e-38
0.0822885941539 -0.0249804660824 0.794 1.70381259849e-38
-0.0356070653005 -0.0284856522404 0.962 2.34860411205e-38
-0.0337212233285 -0.028396819645 0.959 2.34842474584e-38
-0.0318464854309 -0.0283079870497 0.956 2.34932479985e-38
-0.0297626207984 -0.0280118783985 0.946 1.00154556725e-38
-0.0278342132079 -0.0278342132079 0.94 1.24211320086e-38
-0.0259557739521 -0.0276861588823 0.935 1.25144262564e-38
-0.024225389022 -0.0276861588823 0.935 1.71191854959e-38
-0.0224950040919 -0.0276861588823 0.935 1.67607781903e-38
-0.020720202864 -0.027626937152 0.933 1.80471785883e-38
-0.0189324468827 -0.0275381045567 0.93 1.61092752978e-38
-0.0171743017665 -0.0274788828265 0.928 1.61986192853e-38
-0.015406903255 -0.0273900502311 0.925 1.86032110163e-38
-0.01354697079 -0.02709394158 0.915 1.73128757722e-38
-0.0117888256738 -0.0269458872544 0.91 1.78592294318e-38
-0.0100824995716 -0.0268866655242 0.908 1.60113539624e-38
-0.00838357618561 -0.026827443794 0.906 1.23289153592e-38
-0.00666984736709 -0.0266793894684 0.901 8.81836002561e-39
-0.00498572941369 -0.026590556873 0.898 1.9600827623e-38
-0.00332381960913 -0.026590556873 0.898 2.08997556293e-38
-0.00165820844643 -0.0265313351428 0.896 1.9888487573e-38
0.0 -0.0263832808172 0.891 1.51750982753e-38
0.00164525369294 -0.026324059087 0.889 2.17220305616e-38
0.0032831046696 -0.0262648373568 0.887 1.66537932564e-38
0.00491355292998 -0.0262056156265 0.885 2.10809799545e-38
0.00651439032524 -0.026057561301 0.88 2.01633816941e-38
0.00812448111586 -0.0259983395707 0.878 2.0532157207e-38
0.00971606511577 -0.0259095069754 0.875 2.02580842469e-38
0.0113354093017 -0.0259095069754 0.875 2.00751321207e-38
0.0129251426226 -0.0258502852452 0.873 1.39895325121e-38
