# .PCD v0.7 - Point Cloud Data file format
VERSION 0.7
FIELDS x y z rgb
SIZE 4 4 4 4
TYPE F F F F
COUNT 1 1 1 1
WIDTH 854
HEIGHT 1
VIEWPOINT 0 0 0 1 0 0 0
POINTS 854
DATA ascii
0.0418179442583 -0.0104544860646 0.807 9.0120867357e-39
0.0428284150303 -0.0103378932832 0.798 9.83932646854e-39
0.0438610939512 -0.0102342552553 0.79 1.73041989321e-38
0.0452657593651 -0.0102213005018 0.789 1.80395765441e-38
0.0466075016906 -0.0101953909948 0.787 1.96050847677e-38
0.0480639861184 -0.0101953909948 0.787 1.86827837496e-38
0.0493946243695 -0.0101694814878 0.785 2.27379229028e-38
0.0508474074392 -0.0101694814878 0.785 9.1049872187e-39
0.0523001905089 -0.0101694814878 0.785 9.57208063451e-39
0.0540268740809 -0.0102213005018 0.789 9.57713231547e-39
0.0554870598669 -0.0102213005018 0.789 1.08675039934e-38
0.0570194221366 -0.0102342552553 0.79 1.20620478758e-38
0.0586295129272 -0.0102601647623 0.792 1.16936941536e-38
0.0600952507504 -0.0102601647623 0.792 1.53864337019e-38
0.0618719026572 -0.0103119837762 0.796 1.09589373169e-38
0.0635042015967 -0.0103378932832 0.798 1.10465212735e-38
0.0651439032524 -0.0103638027902 0.8 1.60272362792e-38
0.0668742881826 -0.0104026670506 0.803 1.52936186981e-38
0.0687009084243 -0.0104544860646 0.807 1.12330411056e-38
0.0701944064336 -0.0104544860646 0.807 1.40907356885e-38
0.0720432348242 -0.0105063050785 0.811 1.53804025133e-38
0.0735441355497 -0.0105063050785 0.811 1.64842263331e-38
0.0752301041821 -0.0105322145855 0.813 1.28918211562e-38
0.0769234755309 -0.0105581240925 0.815 1.57488277016e-38
0.0788167202191 -0.0106099431064 0.819 1.41818621277e-38
0.0805285983586 -0.0106358526134 0.821 1.46410227929e-38
0.0822478792143 -0.0106617621204 0.823 1.4548118106e-38
0.0839745627863 -0.0106876716274 0.825 1.49190516186e-38
0.0859159251304 -0.0107394906413 0.829 1.55637147732e-38
0.0874501380792 -0.0107394906413 0.829 1.53811059651e-38
0.0891990298 -0.0107654001483 0.831 1.27985745525e-38
0.0911737043673 -0.0108172191622 0.835 1.79550586286e-38
0.0931631843672 -0.0108690381762 0.839 1.55644028108e-38
0.0951674697997 -0.0109208571901 0.843 1.34435880317e-38
0.0964981080508 -0.0108949476832 0.841 1.40864393074e-38
0.0980545291484 -0.0108949476832 0.841 8.55612663619e-39
0.099610950246 -0.0108949476832 0.841 2.35088066153e-38
0.101167371344 -0.0108949476832 0.841 2.35098477801e-38
0.0265850048358 -0.00938294288323 0.845 1.82244806791e-38
0.0279489553102 -0.00931631843672 0.839 2.06236970292e-38
0.0295016750496 -0.00931631843672 0.839 4.77544580022e-39
0.0309803676263 -0.00929411028789 0.837 1.51892093508e-38
0.0325293860076 -0.00929411028789 0.837 6.06688246494e-39
0.0339969745099 -0.00927190213905 0.835 1.80439794239e-38
0.035542291533 -0.00927190213905 0.835 1.86976305069e-38
0.0361104500074 -0.00902761250186 0.813 1.79557438635e-38
0.0374299841841 -0.00898319620418 0.809 1.8961186722e-38
0.0389271835515 -0.00898319620418 0.809 1.21473967613e-38
0.0404243829188 -0.00898319620418 0.809 1.07544486346e-38
0.0417143062304 -0.00893877990651 0.805 1.01184328928e-38
0.0430430938024 -0.00890546768326 0.802 9.10570468351e-39
0.0441942161837 -0.00883884323675 0.796 9.47017680889e-39
0.0456673567232 -0.00883884323675 0.796 1.51880182471e-38
0.0470220538022 -0.00881663508791 0.794 1.87810764291e-38
0.0484914929835 -0.00881663508791 0.794 1.99735029495e-38
0.0497092398114 -0.00877221879024 0.79 2.20921849523e-38
0.0511712762764 -0.00877221879024 0.79 1.03939127566e-38
0.0527665616345 -0.00879442693908 0.792 9.11329972119e-39
0.0542322994576 -0.00879442693908 0.792 1.42733108655e-38
0.0558386888901 -0.00881663508791 0.794 1.56554844083e-38
0.0573081280714 -0.00881663508791 0.794 1.81480062167e-38
0.0587775672528 -0.00881663508791 0.794 1.02210373676e-38
0.0603987621178 -0.00883884323675 0.796 1.09593450947e-38
0.0620273596991 -0.00886105138558 0.798 1.10518728323e-38
0.0636633599967 -0.00888325953442 0.8 1.14192498494e-38
0.0653067630106 -0.00890546768326 0.802 1.15996950527e-38
0.0673739715314 -0.00898319620418 0.809 1.35365053303e-38
0.0688711708987 -0.00898319620418 0.809 1.52860783111e-38
0.0705423340987 -0.00900540435302 0.811 1.68576429466e-38
0.0722209000148 -0.00902761250186 0.813 1.38102629983e-38
0.0737255020985 -0.00902761250186 0.813 1.2888603775e-38
0.0754151720891 -0.00904982065069 0.815 1.34431984708e-38
0.0773010140611 -0.00909423694836 0.819 1.48254308682e-38
0.0790091908424 -0.0091164450972 0.821 1.40853869323e-38
0.0809209423214 -0.00916086139487 0.825 1.34414370386e-38
0.0826476258934 -0.00918306954371 0.827 1.5561591806e-38
0.0843817121817 -0.00920527769254 0.829 1.49215697519e-38
0.0861232011862 -0.00922748584138 0.831 1.39045661811e-38
0.0876611154931 -0.00922748584138 0.831 1.5751665331e-38
0.0896283873442 -0.00927190213905 0.835 1.63048797479e-38
0.0916104646278 -0.00931631843672 0.839 1.65756666631e-38
0.0938294288323 -0.00938294288323 0.845 1.6023253789e-38
0.0956190354927 -0.00940515103207 0.847 1.5196008451e-38
0.0969570764601 -0.00938294288323 0.845 1.32595330837e-38
0.0985209002739 -0.00938294288323 0.845 9.93797087393e-39
0.100084724088 -0.00938294288323 0.845 2.35098645957e-38
0.0280822042032 -0.00780061227866 0.843 1.06683430478e-38
0.0295720008543 -0.00778210548797 0.841 1.47293256156e-38
0.0309803676263 -0.00774509190657 0.837 9.46802441444e-39
0.0325293860076 -0.00774509190657 0.837 1.81444287017e-38
0.0340784043889 -0.00774509190657 0.837 4.31626831943e-39
0.035542291533 -0.00772658511588 0.835 1.9527350538e-38
0.0368211107702 -0.00767106474379 0.829 1.91521164404e-38
0.0374299841841 -0.00748599683682 0.809 1.06690605126e-38
0.0389271835515 -0.00748599683682 0.809 2.08044911558e-38
0.0404243829188 -0.00748599683682 0.809 8.82732833578e-39
0.0417143062304 -0.00744898325543 0.805 1.00251498553e-38
0.0430430938024 -0.00742122306938 0.802 1.03975225014e-38
0.0443052569279 -0.00738420948799 0.798 1.03957372472e-38
0.0457820988255 -0.00738420948799 0.798 7.71920393097e-39
0.0471404972627 -0.00736570269729 0.796 1.13065308022e-38
0.0486136378021 -0.00736570269729 0.796 1.57297097867e-38
0.0499609321648 -0.00734719590659 0.794 1.89629957984e-38
0.0514303713462 -0.00734719590659 0.794 1.07684293893e-38
0.0528998105275 -0.00734719590659 0.794 1.13288114478e-38
0.0543692497088 -0.00734719590659 0.794 1.71342494544e-38
0.0559793404994 -0.00736570269729 0.796 1.48243322502e-38
0.0574524810389 -0.00736570269729 0.796 1.16914478722e-38
0.0589256215783 -0.00736570269729 0.796 1.17858463433e-38
0.0605505178015 -0.00738420948799 0.798 1.09614988905e-38
0.0623382737828 -0.00742122306938 0.802 1.07749552363e-38
0.0643795727966 -0.00748599683682 0.809 1.40900532562e-38
0.0660396319221 -0.00750450362752 0.811 1.52910333024e-38
0.0675405326476 -0.00750450362752 0.811 1.51931343878e-38
0.0690414333731 -0.00750450362752 0.811 1.62104938885e-38
0.0707162979312 -0.00752301041821 0.813 1.25248210884e-38
0.0723985652055 -0.00754151720891 0.815 1.50093919293e-38
0.0740882351961 -0.00756002399961 0.817 1.54700772072e-38
0.0756002399961 -0.00756002399961 0.817 1.38102027425e-38
0.0774897833262 -0.007597037581 0.821 1.42726256305e-38
0.0792016614656 -0.0076155443717 0.823 1.56569277458e-38
0.0811171143028 -0.00765255795309 0.827 1.37187512021e-38
0.0828474992329 -0.00767106474379 0.829 1.50120081535e-38
0.0845852868793 -0.00768957153448 0.831 1.26170349352e-38
0.086330477242 -0.00770807832518 0.833 1.63913496722e-38
0.088083070321 -0.00772658511588 0.835 1.43680400429e-38
0.0904871024325 -0.00780061227866 0.843 1.70413531753e-38
0.0924839851487 -0.00783762586006 0.847 1.57487716497e-38
0.0940515103207 -0.00783762586006 0.847 1.47310828439e-38
0.0956190354927 -0.00783762586006 0.847 1.39946094165e-38
0.0971865606647 -0.00783762586006 0.847 1.3168080142e-38
0.0987540858367 -0.00783762586006 0.847 1.29786091753e-38
0.100321611009 -0.00783762586006 0.847 2.35098001359e-38
0.0309803676263 -0.00619607352526 0.837 9.56524089671e-39
0.0325293860076 -0.00619607352526 0.837 1.52685172387e-38
0.0340784043889 -0.00619607352526 0.837 7.07671419027e-39
0.0354571602958 -0.00616646266014 0.833 1.78535471665e-38
0.0368211107702 -0.00613685179503 0.829 1.87858604621e-38
0.038170255812 -0.00610724092991 0.825 1.59249190706e-38
0.0396008307328 -0.00609243549736 0.823 1.99613915269e-38
0.0411239396072 -0.00609243549736 0.823 1.40824764354e-38
0.0426470484815 -0.00609243549736 0.823 1.01984035948e-38
0.0430967634954 -0.00594438117178 0.803 1.03024359928e-38
0.0444162976721 -0.00592217302295 0.8 1.04864881383e-38
0.0457820988255 -0.00590736759039 0.798 1.03017507579e-38
0.0472589407231 -0.00590736759039 0.798 9.10500123168e-39
0.0486136378021 -0.00589256215783 0.796 8.4574752243e-39
0.0500867783416 -0.00589256215783 0.796 9.0059770744e-39
0.051559918881 -0.00589256215783 0.796 1.15993251099e-38
0.0530330594205 -0.00589256215783 0.796 1.16057710828e-38
0.05450619996 -0.00589256215783 0.796 1.15096476133e-38
0.0561199921087 -0.00590736759039 0.798 1.17825855217e-38
0.0575968340063 -0.00590736759039 0.798 1.1879116769e-38
0.0592217302295 -0.00592217302295 0.8 1.16018180198e-38
0.0610816626945 -0.00595918660434 0.805 1.31687863964e-38
0.0628823734293 -0.00598879746946 0.809 1.16010851407e-38
0.0645387311966 -0.00600360290201 0.811 1.3535085815e-38
0.0660396319221 -0.00600360290201 0.811 1.7503009553e-38
0.0677070937639 -0.00601840833457 0.813 1.41786965944e-38
0.0692116958476 -0.00601840833457 0.813 1.34407167712e-38
0.0708902617637 -0.00603321376713 0.815 1.36312064818e-38
0.0725762303962 -0.00604801919968 0.817 1.29872439765e-38
0.0744509682938 -0.0060776300648 0.821 1.41811586758e-38
0.076155443717 -0.00609243549736 0.823 1.31673514668e-38
0.0778673218564 -0.00610724092991 0.825 1.62119932779e-38
0.0793941320889 -0.00610724092991 0.825 1.34457138015e-38
0.0813132862841 -0.00613685179503 0.829 1.46410592266e-38
0.0830473725724 -0.00615165722759 0.831 1.52882040808e-38
0.0849924362746 -0.0061812680927 0.835 1.58385094021e-38
0.0867450293536 -0.00619607352526 0.837 1.54729512704e-38
0.0887160025628 -0.00622568439037 0.841 1.45527872325e-38
0.0909164599767 -0.00627010068805 0.847 1.55676257972e-38
0.0927023652789 -0.0062849061206 0.849 1.27081333483e-38
0.094273591809 -0.0062849061206 0.849 1.42719067644e-38
0.0958448183392 -0.0062849061206 0.849 1.38120006084e-38
0.0974160448693 -0.0062849061206 0.849 1.18762427059e-38
0.0989872713995 -0.0062849061206 0.849 1.50948052746e-38
0.102098262916 -0.00638114143223 0.862 2.35098211554e-38
0.0309803676263 -0.00464705514394 0.837 1.75848131535e-38
0.0325293860076 -0.00464705514394 0.837 5.78563625795e-39
0.0340784043889 -0.00464705514394 0.837 1.74958951607e-38
0.0354571602958 -0.00462484699511 0.833 1.23317852185e-38
0.0368211107702 -0.00460263884627 0.829 2.00755202803e-38
0.038170255812 -0.00458043069744 0.825 1.63862349328e-38
0.0395045954212 -0.0045582225486 0.821 1.46050794873e-38
0.0409240662676 -0.00454711847418 0.819 2.17335996818e-38
0.0424397724257 -0.00454711847418 0.819 6.79582671569e-39
0.0432041028815 -0.00446938995326 0.805 1.04857846865e-38
0.0445828587884 -0.00445828587884 0.803 1.0302469624e-38
0.0458968409278 -0.00444162976721 0.8 9.93330174745e-39
0.0472589407231 -0.00443052569279 0.798 9.47380336931e-39
0.0487357826207 -0.00443052569279 0.798 1.2145268189e-38
0.0502126245183 -0.00443052569279 0.798 1.9149560472e-38
0.0516894664159 -0.00443052569279 0.798 1.15949488548e-38
0.0531663083135 -0.00443052569279 0.798 1.11426601572e-38
0.0546431502111 -0.00443052569279 0.798 1.16014704978e-38
0.056260643718 -0.00444162976721 0.8 1.20624514497e-38
0.0578855399412 -0.00445273384163 0.802 1.16032529495e-38
0.0594438117178 -0.00445828587884 0.803 1.08660788728e-38
0.0613851740619 -0.00449159810209 0.809 1.43659198784e-38
0.0630378304711 -0.00450270217651 0.811 1.60253585393e-38
0.0646978895966 -0.00451380625093 0.813 1.63023910418e-38
0.0663653514384 -0.00452491032535 0.815 1.25248210884e-38
0.0680402159965 -0.00453601439976 0.817 1.39031466657e-38
0.0695522207964 -0.00453601439976 0.817 1.48250805436e-38
0.0717600809265 -0.00458043069744 0.825 1.39052668303e-38
0.073286891159 -0.00458043069744 0.825 1.0683833001e-38
0.0749950679403 -0.00459153477185 0.827 1.57498786755e-38
0.0767106474379 -0.00460263884627 0.829 1.35357640434e-38
0.0782448603866 -0.00460263884627 0.829 1.51055924702e-38
0.0797790733354 -0.00460263884627 0.829 1.31662808747e-38
0.0817056302469 -0.00462484699511 0.833 1.55600826076e-38
0.0834471192515 -0.00463595106953 0.835 1.66664567906e-38
0.0851960109723 -0.00464705514394 0.837 1.58367311543e-38
0.0879886856884 -0.00471367959045 0.849 1.61186682014e-38
0.0895599122186 -0.00471367959045 0.849 1.34442970888e-38
0.0913458175208 -0.00472478366487 0.851 1.38120006084e-38
0.0929207454091 -0.00472478366487 0.851 1.39052528173e-38
0.0948287955299 -0.0047414397765 0.854 1.39974652628e-38
0.0964092754554 -0.0047414397765 0.854 1.4643535321e-38
0.0979897553809 -0.0047414397765 0.854 1.16021571341e-38
0.100502977558 -0.00478585607417 0.862 2.05347229845e-38
0.102098262916 -0.00478585607417 0.862 2.35098435762e-38
0.0325293860076 -0.00309803676263 0.837 9.47597117804e-39
0.0340784043889 -0.00309803676263 0.837 6.61215572338e-39
0.035542291533 -0.00309063404635 0.835 1.96145869726e-38
0.0367322781748 -0.00306102318124 0.827 1.97989137726e-38
0.038170255812 -0.00305362046496 0.825 1.61089375849e-38
0.0395045954212 -0.0030388150324 0.821 1.28569694621e-38
0.0409240662676 -0.00303141231612 0.819 2.29306602962e-38
0.0424397724257 -0.00303141231612 0.819 6.98559615892e-39
0.0439554785838 -0.00303141231612 0.819 1.09366889011e-38
0.0446938995326 -0.00297959330217 0.805 1.03874835992e-38
0.0460115830302 -0.00296848922775 0.802 1.33333871179e-38
0.0473773841836 -0.00296108651147 0.8 1.45394286542e-38
0.0488579274393 -0.00296108651147 0.8 1.87778870738e-38
0.0503384706951 -0.00296108651147 0.8 1.86781776816e-38
0.0518190139508 -0.00296108651147 0.8 1.27834293187e-38
0.0532995572065 -0.00296108651147 0.8 1.16943695795e-38
0.0547801004623 -0.00296108651147 0.8 1.1786568012e-38
0.0564012953273 -0.00296848922775 0.802 1.13274199584e-38
0.0579577164249 -0.00297219058589 0.803 1.1143016087e-38
0.0598879746946 -0.00299439873473 0.809 1.35415121697e-38
0.0616886854293 -0.00300920416729 0.813 1.70456425499e-38
0.0633487445548 -0.00301660688356 0.815 1.28007213418e-38
0.0648570479966 -0.00301660688356 0.815 1.39038655318e-38
0.0665282111965 -0.00302400959984 0.817 1.34460935534e-38
0.0682067771127 -0.00303141231612 0.819 1.50162540879e-38
0.0698927457452 -0.0030388150324 0.821 1.37219545704e-38
0.0717600809265 -0.00305362046496 0.825 1.36300700288e-38
0.073286891159 -0.00305362046496 0.825 1.38162941869e-38
0.0751764344891 -0.00306842589751 0.829 1.42751269483e-38
0.0767106474379 -0.00306842589751 0.829 1.25220044785e-38
0.078999937447 -0.00309803676263 0.837 1.39971177407e-38
0.0807414264516 -0.00310543947891 0.839 1.58370576569e-38
0.0822941461911 -0.00310543947891 0.839 1.72217549383e-38
0.0838468659305 -0.00310543947891 0.839 1.56537047593e-38
0.086621033856 -0.00314985577658 0.851 1.51949392603e-38
0.0881959617442 -0.00314985577658 0.851 1.30733663788e-38
0.0897708896325 -0.00314985577658 0.851 1.42715144008e-38
0.0916678356789 -0.003160959851 0.854 1.39960429448e-38
0.0932483156044 -0.003160959851 0.854 1.42744108848e-38
0.0948287955299 -0.003160959851 0.854 1.30773068301e-38
0.0973124068414 -0.00319057071611 0.862 1.36286855459e-38
0.0989076921995 -0.00319057071611 0.862 1.18762455085e-38
0.100502977558 -0.00319057071611 0.862 2.34849677259e-38
0.102098262916 -0.00319057071611 0.862 2.35098351684e-38
0.0340784043889 -0.00154901838131 0.837 3.30607786169e-39
0.0356274227702 -0.00154901838131 0.837 1.99786387084e-38
0.0367322781748 -0.00153051159062 0.827 1.99840477205e-38
0.038170255812 -0.00152681023248 0.825 1.65706289951e-38
0.0396008307328 -0.00152310887434 0.823 1.46047319653e-38
0.0410240029374 -0.0015194075162 0.821 1.90533823519e-38
0.0424397724257 -0.00151570615806 0.819 1.46305424817e-38
0.0439554785838 -0.00151570615806 0.819 1.69314703562e-38
0.0454711847418 -0.00151570615806 0.819 1.69325283365e-38
0.0461836961836 -0.00148979665109 0.805 1.71144617188e-38
0.047495827644 -0.00148424461388 0.802 1.71093834131e-38
0.0489800722579 -0.00148424461388 0.802 1.55410053303e-38
0.0505272399602 -0.00148609529295 0.803 1.98670098715e-38
0.0520133352531 -0.00148609529295 0.803 1.35209831472e-38
0.0534994305461 -0.00148609529295 0.803 1.16943723821e-38
0.0551224760902 -0.00148979665109 0.805 1.13255898626e-38
0.0566122727412 -0.00148979665109 0.805 1.15099587016e-38
0.0583907753272 -0.00149719936736 0.809 1.28017765195e-38
0.0600360290201 -0.0015009007255 0.811 1.43709365269e-38
0.0618404411131 -0.00150830344178 0.815 1.28003443925e-38
0.0635042015967 -0.00151200479992 0.817 1.69506022841e-38
0.0651753647966 -0.00151570615806 0.819 1.28013981689e-38
0.0666910709547 -0.00151570615806 0.819 1.36297449275e-38
0.0685398993453 -0.00152310887434 0.823 1.33520958537e-38
0.070233270694 -0.00152681023248 0.825 1.55665538039e-38
0.071934044759 -0.00153051159062 0.827 1.38131118381e-38
0.0736422215403 -0.00153421294876 0.829 1.51960056484e-38
0.0753578010379 -0.0015379143069 0.831 1.30779948676e-38
0.0770807832518 -0.00154161566504 0.833 1.56587634467e-38
0.0791887067122 -0.00155271973945 0.839 1.50144492154e-38
0.0811263676981 -0.00156012245573 0.843 1.48275818613e-38
0.0834711780794 -0.00157492788829 0.851 1.51938378397e-38
0.0850461059677 -0.00157492788829 0.851 1.40842729e-38
0.086621033856 -0.00157492788829 0.851 1.35335387815e-38
0.0881959617442 -0.00157492788829 0.851 1.45484894501e-38
0.0900873557534 -0.0015804799255 0.854 1.7038807016e-38
0.0916678356789 -0.0015804799255 0.854 1.56541153397e-38
0.0934666957347 -0.00158418128364 0.856 1.32591813577e-38
0.0950508770183 -0.00158418128364 0.856 1.41825599743e-38
0.0973124068414 -0.00159528535806 0.862 1.68580240998e-38
0.0989076921995 -0.00159528535806 0.862 8.9274146773e-39
0.100502977558 -0.00159528535806 0.862 2.34935913166e-38
0.0327625715704 0.0 0.843 1.14966561753e-38
0.0342412641471 0.0 0.841 5.32645877716e-39
0.0357125540074 0.0 0.839 1.78477668103e-38
0.0372652737469 0.0 0.839 1.96138260675e-38
0.0383553237189 0.0 0.829 1.77691665782e-38
0.0396970660444 0.0 0.825 1.47019302306e-38
0.0411239396072 0.0 0.823 1.5634655508e-38
0.0425434104536 0.0 0.821 1.60019834796e-38
0.0440628179698 0.0 0.821 1.60916595748e-38
0.0454711847418 0.0 0.819 1.70218527058e-38
0.0469868908999 0.0 0.819 1.61867236627e-38
0.0476734928347 0.0 0.805 1.61795546197e-38
0.0491632894858 0.0 0.805 1.63707533874e-38
0.0506530861369 0.0 0.805 2.30974344317e-38
0.052142882788 0.0 0.805 1.03935540242e-38
0.0536326794391 0.0 0.805 1.15121082934e-38
0.0553963765925 0.0 0.809 1.17858491459e-38
0.0568935759598 0.0 0.809 1.2062429029e-38
0.0585351282946 0.0 0.811 1.16018180198e-38
0.0601840833457 0.0 0.813 1.15078511487e-38
0.0619921967968 0.0 0.817 1.2705615215e-38
0.0636596586385 0.0 0.819 1.47403636436e-38
0.0653345231966 0.0 0.821 1.280103243e-38
0.0670167904709 0.0 0.823 1.34435305785e-38
0.0687064604615 0.0 0.825 1.56544628618e-38
0.0704035331684 0.0 0.827 1.35357612408e-38
0.0721080085916 0.0 0.829 1.29836888822e-38
0.073819886731 0.0 0.831 1.3813449551e-38
0.0753578010379 0.0 0.831 1.62080149915e-38
0.0776359869727 0.0 0.839 1.5014118509e-38
0.0795662452424 0.0 0.843 1.6120093322e-38
0.0813188383213 0.0 0.845 1.46446325377e-38
0.0834711780794 0.0 0.851 1.29829405889e-38
0.0853459159769 0.0 0.854 1.33495931347e-38
0.0871299706001 0.0 0.856 1.528416694e-38
0.0887141518838 0.0 0.856 1.86976305069e-38
0.0902983331674 0.0 0.856 1.65703066965e-38
0.0920971932231 0.0 0.858 1.52806244574e-38
0.0939034559951 0.0 0.86 1.71270748062e-38
0.0957171214834 0.0 0.862 1.83277731915e-38
0.0975381896879 0.0 0.864 1.73171721533e-38
0.0991371764041 0.0 0.864 8.83450298392e-39
0.10073616312 0.0 0.864 2.3507011552e-38
0.0327625715704 0.00156012245573 0.843 1.94269082667e-38
0.0343226940261 0.00156012245573 0.843 1.4451921769e-38
0.0357976852446 0.00155642109759 0.841 1.79513549967e-38
0.0373541063422 0.00155642109759 0.841 1.98896842819e-38
0.0389105274398 0.00155642109759 0.841 1.61103725145e-38
0.0404669485374 0.00155642109759 0.841 1.36834889275e-38
0.0414237496164 0.00153421294876 0.829 1.72995115888e-38
0.0429579625652 0.00153421294876 0.829 1.64690474682e-38
0.0442774967419 0.00152681023248 0.825 1.61913871839e-38
0.045582225486 0.0015194075162 0.821 1.59148255177e-38
0.0471016330022 0.0015194075162 0.821 1.86724071345e-38
0.0486210405184 0.0015194075162 0.821 1.36063614601e-38
0.0501404480346 0.0015194075162 0.821 1.96019290436e-38
0.0510306246671 0.0015009007255 0.811 1.51758157401e-38
0.0525315253926 0.0015009007255 0.811 1.24211320086e-38
0.0540324261181 0.0015009007255 0.811 1.1328107996e-38
0.0556702770948 0.00150460208364 0.813 1.18783979029e-38
0.0571748791784 0.00150460208364 0.813 1.18780447757e-38
0.0588238342295 0.00150830344178 0.815 1.20606563864e-38
0.0604801919968 0.00151200479992 0.817 1.54743553714e-38
0.0622957081642 0.0015194075162 0.821 1.42761807247e-38
0.0641260297641 0.00152681023248 0.825 1.2339022925e-38
0.0656528399966 0.00152681023248 0.825 1.46410354046e-38
0.0671796502291 0.00152681023248 0.825 1.55615497671e-38
0.0690395826941 0.00153421294876 0.829 1.46403347553e-38
0.0705737956428 0.00153421294876 0.829 1.26156252289e-38
0.0722819724241 0.0015379143069 0.831 1.4460241278e-38
0.0741752171124 0.00154531702318 0.835 1.6766908871e-38
0.0757205341356 0.00154531702318 0.835 1.57480934213e-38
0.0776359869727 0.00155271973945 0.839 1.63008902511e-38
0.0795662452424 0.00156012245573 0.843 1.37223076976e-38
0.0817037795678 0.00157122653015 0.849 1.27074481134e-38
0.0837654360515 0.0015804799255 0.854 1.31669983396e-38
0.0853459159769 0.0015804799255 0.854 1.16900788036e-38
0.0871299706001 0.00158418128364 0.856 2.17393646237e-38
0.0887141518838 0.00158418128364 0.856 1.74036266634e-38
0.0905093105813 0.00158788264178 0.858 1.46334992214e-38
0.0923118719952 0.00159158399992 0.86 1.57477430966e-38
0.0941218361253 0.00159528535806 0.862 1.85103623814e-38
0.0959392029717 0.0015989867162 0.864 1.62058051438e-38
0.0975381896879 0.0015989867162 0.864 1.33502993891e-38
0.0991371764041 0.0015989867162 0.864 1.02106004967e-38
0.0328403000913 0.00312764762774 0.845 1.92432064458e-38
0.0343226940261 0.00312024491147 0.843 1.91510220263e-38
0.0358828164819 0.00312024491147 0.843 1.95198255652e-38
0.0374429389376 0.00312024491147 0.843 1.92450183247e-38
0.0389105274398 0.00311284219519 0.841 1.59259938665e-38
0.0404669485374 0.00311284219519 0.841 1.46057983534e-38
0.042023369635 0.00311284219519 0.841 2.21020094558e-38
0.0429579625652 0.00306842589751 0.829 1.20526914059e-38
0.0443848361279 0.00306102318124 0.827 1.15805995585e-38
0.0456932662302 0.00304621774868 0.823 1.6559838997e-38
0.0472163751045 0.00304621774868 0.823 1.49856987749e-38
0.0486210405184 0.0030388150324 0.821 1.55488974432e-38
0.0501404480346 0.0030388150324 0.821 1.82204211174e-38
0.0515340093741 0.00303141231612 0.819 1.27848642483e-38
0.0529201679972 0.00302400959984 0.817 1.18730379363e-38
0.0542989239041 0.00301660688356 0.815 1.13281528375e-38
0.0558072273459 0.00301660688356 0.815 1.12337445574e-38
0.0575968340063 0.00303141231612 0.819 1.42733108655e-38
0.0591125401644 0.00303141231612 0.819 1.53789507681e-38
0.060776300648 0.0030388150324 0.821 1.26162908457e-38
0.0625992195316 0.00305362046496 0.825 1.44598755391e-38
0.064281486806 0.00306102318124 0.827 1.42754940885e-38
0.0659711567966 0.00306842589751 0.829 1.53839772257e-38
0.0676682295035 0.00307582861379 0.831 1.42729633434e-38
0.0692061438103 0.00307582861379 0.831 1.32573975048e-38
0.0709143205917 0.00308323133007 0.833 1.49205131729e-38
0.0726299000892 0.00309063404635 0.835 1.54743707857e-38
0.0743528823031 0.00309803676263 0.837 1.42751143366e-38
0.0764460003309 0.00312024491147 0.843 1.67621977056e-38
0.0781911906936 0.00312764762774 0.845 1.30754711291e-38
0.0803213223028 0.00314985577658 0.851 1.25220044785e-38
0.082184956126 0.003160959851 0.854 1.27078012406e-38
0.0837654360515 0.003160959851 0.854 1.32591575357e-38
0.0853459159769 0.003160959851 0.854 1.49180174603e-38
0.0871299706001 0.00316836256728 0.856 1.68515416931e-38
0.0889214279396 0.00317576528356 0.858 1.62922820747e-38
0.0907202879953 0.00318316799983 0.86 1.65771100005e-38
0.0925265507673 0.00319057071611 0.862 1.60264725716e-38
0.0946677864509 0.00320907750681 0.867 1.48239819256e-38
0.0962723252043 0.00320907750681 0.867 1.34407167712e-38
0.0978768639577 0.00320907750681 0.867 1.3074067028e-38
0.0328403000913 0.00469147144162 0.845 1.9153861057e-38
0.0344041239052 0.00469147144162 0.845 1.77706337377e-38
0.0359679477191 0.00469147144162 0.845 1.88733841629e-38
0.0375317715329 0.00469147144162 0.845 1.90585040978e-38
0.0390030613933 0.0046803673672 0.843 1.65699227407e-38
0.040563183849 0.0046803673672 0.843 1.2214120989e-38
0.042023369635 0.00466926329278 0.841 2.31151118118e-38
0.0429579625652 0.00460263884627 0.829 8.18412113027e-39
0.0443848361279 0.00459153477185 0.827 1.00161745386e-38
0.0458043069744 0.00458043069744 0.825 1.23253616663e-38
0.0473311172068 0.00458043069744 0.825 1.05686280504e-38
0.0488579274393 0.00458043069744 0.825 1.12154099683e-38
0.0502625928532 0.00456932662302 0.823 1.2406781311e-38
0.0516598555508 0.0045582225486 0.821 1.53587846819e-38
0.0530497155321 0.00454711847418 0.819 1.20559718456e-38
0.0542989239041 0.00452491032535 0.815 1.10526001062e-38
0.0558072273459 0.00452491032535 0.815 1.17868791002e-38
0.0578781372249 0.00456932662302 0.823 1.36304483794e-38
0.0595455990667 0.00458043069744 0.825 1.59364055141e-38
0.0610724092991 0.00458043069744 0.825 1.16958045091e-38
0.0625992195316 0.00458043069744 0.825 1.47389735555e-38
0.0645924008897 0.00461374292069 0.831 1.2708897056e-38
0.0661303151966 0.00461374292069 0.831 1.30751208044e-38
0.0676682295035 0.00461374292069 0.831 1.55637175758e-38
0.0695392660429 0.00463595106953 0.835 1.49215697519e-38
0.0712548455405 0.00464705514394 0.837 1.55669223454e-38
0.0729778277543 0.00465815921836 0.839 1.61154662345e-38
0.0748858778752 0.0046803673672 0.843 1.33481161661e-38
0.0764460003309 0.0046803673672 0.843 1.23350376322e-38
0.0781911906936 0.00469147144162 0.845 1.26102526506e-38
0.0806044762005 0.0047414397765 0.854 1.93433124055e-38
0.082184956126 0.0047414397765 0.854 1.34457011898e-38
0.0837654360515 0.0047414397765 0.854 1.41786097139e-38
0.0853459159769 0.0047414397765 0.854 1.28886318009e-38
0.0873335452978 0.00476364792533 0.858 1.70384566914e-38
0.0893359800512 0.00478585607417 0.862 1.64817250154e-38
0.0911422428232 0.00479696014859 0.864 1.54711506019e-38
0.0930632476975 0.00481361626021 0.867 1.46417360538e-38
0.0946677864509 0.00481361626021 0.867 1.37176511828e-38
0.0962723252043 0.00481361626021 0.867 1.51917148725e-38
0.0345669836633 0.0062849061206 0.849 1.87862304049e-38
0.0360530789563 0.00627010068805 0.847 1.95201660808e-38
0.0376206041283 0.00627010068805 0.847 1.92432176562e-38
0.0390955953468 0.00625529525549 0.845 1.6570994734e-38
0.0406594191607 0.00625529525549 0.845 1.28569694621e-38
0.0421233063048 0.00624048982293 0.843 2.32990854846e-38
0.0433725146768 0.00619607352526 0.837 5.87962414855e-39
0.044492175514 0.00613685179503 0.829 1.01980504676e-38
0.0460263884627 0.00613685179503 0.829 1.1862613677e-38
0.0475606014115 0.00613685179503 0.829 1.31514943734e-38
0.0489763708998 0.00612204636247 0.827 1.35209831472e-38
0.0505068824904 0.00612204636247 0.827 1.4353959796e-38
0.0519115479043 0.00610724092991 0.825 1.96969945327e-38
0.0533088106019 0.00609243549736 0.823 1.27884753945e-38
0.0546986705832 0.0060776300648 0.821 1.19716781378e-38
0.0562180780994 0.0060776300648 0.821 1.21546274614e-38
0.0578781372249 0.00609243549736 0.823 1.16932975862e-38
0.0596899520341 0.00612204636247 0.827 1.34468152221e-38
0.0612204636247 0.00612204636247 0.827 1.1142588691e-38
0.062902730899 0.00613685179503 0.829 1.34453634769e-38
0.0647478579315 0.00616646266014 0.833 1.49186956888e-38
0.0664486319965 0.0061812680927 0.835 1.60261194444e-38
0.0681568087778 0.00619607352526 0.837 1.51920259607e-38
0.0698723882754 0.00621087895782 0.839 1.60214405088e-38
0.0715953704893 0.00622568439037 0.841 1.44594929846e-38
0.0733257554194 0.00624048982293 0.843 1.30747858941e-38
0.0750635430659 0.00625529525549 0.845 1.23350698621e-38
0.0769900999774 0.0062849061206 0.849 1.44538121206e-38
0.0787463944145 0.00629971155316 0.851 1.97099439318e-38
0.0806044762005 0.006321919702 0.854 2.15506349439e-38
0.0823774267492 0.00633672513455 0.856 1.35310276546e-38
0.0841577800142 0.00635153056711 0.858 1.37162316675e-38
0.085745662656 0.00635153056711 0.858 1.52889103353e-38
0.0877406946931 0.00638114143223 0.862 1.55640679004e-38
0.0902687223023 0.00644776587873 0.871 1.56537453969e-38
0.0914587089441 0.00641815501362 0.867 1.30747732824e-38
0.0930632476975 0.00641815501362 0.867 1.33513503629e-38
0.0946677864509 0.00641815501362 0.867 1.47314555893e-38
0.0345669836633 0.00785613265075 0.849 1.84973933641e-38
0.0361382101935 0.00785613265075 0.849 2.03499561768e-38
0.0377094367236 0.00785613265075 0.849 1.94304885842e-38
0.0391881293003 0.00783762586006 0.847 1.74011113326e-38
0.0407556544723 0.00783762586006 0.847 1.38700297791e-38
0.0422232429745 0.00781911906936 0.845 2.22830782369e-38
0.0434761527047 0.00776359869727 0.839 1.00251358423e-38
0.0448141936721 0.00772658511588 0.835 1.40788190464e-38
0.0460263884627 0.00767106474379 0.829 1.41732091097e-38
0.0475606014115 0.00767106474379 0.829 1.20501802791e-38
0.0490948143602 0.00767106474379 0.829 1.29667499864e-38
0.0505068824904 0.00765255795309 0.827 1.14891269986e-38
0.052037394081 0.00765255795309 0.827 1.27794832622e-38
0.0535679056716 0.00765255795309 0.827 1.32509136968e-38
0.0550984172622 0.00765255795309 0.827 1.1969514533e-38
0.0566289288529 0.00765255795309 0.827 1.33528147198e-38
0.0583000920528 0.00767106474379 0.829 1.16950534132e-38
0.059978657969 0.00768957153448 0.831 1.23387104355e-38
0.0615165722759 0.00768957153448 0.831 1.42751297509e-38
0.0633579979502 0.00772658511588 0.835 1.55604805764e-38
0.0650587720152 0.00774509190657 0.837 1.68544353744e-38
0.0666077903965 0.00774509190657 0.837 1.52903704883e-38
0.068319668536 0.00776359869727 0.839 1.51026959862e-38
0.0698723882754 0.00776359869727 0.839 1.44526980884e-38
0.0717656329637 0.00780061227866 0.843 1.26134588215e-38
0.0733257554194 0.00780061227866 0.843 1.22446945189e-38
0.0750635430659 0.00781911906936 0.845 1.41786153191e-38
0.0769900999774 0.00785613265075 0.849 1.6385235807e-38
0.079023996275 0.0079023996275 0.854 2.21948931232e-38
0.0806044762005 0.0079023996275 0.854 1.49074881037e-38
0.0825698973724 0.00793941320889 0.858 1.55536604567e-38
0.0843539519956 0.00795791999959 0.86 1.62094373095e-38
0.0859455359955 0.00795791999959 0.86 1.56609172425e-38
0.0879442693908 0.00799493358098 0.864 1.27989669161e-38
0.0900614462465 0.00804120055772 0.869 1.48240113528e-38
0.091880663772 0.00805970734842 0.871 1.22439560346e-38
0.0934926052416 0.00805970734842 0.871 1.65785197068e-38
0.0951045467113 0.00805970734842 0.871 1.87908967288e-38
0.0346484135424 0.00944956732974 0.851 1.58363261791e-38
0.0362233414307 0.00944956732974 0.851 1.32454766588e-38
0.037798269319 0.00944956732974 0.851 1.96051702469e-38
0.0392806632538 0.0094273591809 0.849 1.74908028421e-38
0.0407556544723 0.00940515103207 0.847 1.58089980564e-38
0.0423231796443 0.00940515103207 0.847 2.0529936149e-38
0.0435797907326 0.00933852658556 0.841 9.3769063831e-39
0.0449215330581 0.00929411028789 0.837 1.06597334701e-38
0.0462484699511 0.00924969399022 0.833 9.65243669365e-39
0.0476753435138 0.00922748584138 0.831 9.28363595732e-39
0.0490948143602 0.00920527769254 0.829 1.54585753494e-38
0.050629027309 0.00920527769254 0.829 1.22338512714e-38
0.0521632402577 0.00920527769254 0.829 1.83194873137e-38
0.0536974532065 0.00920527769254 0.829 1.20570410364e-38
0.0552316661553 0.00920527769254 0.829 1.20617227745e-38
0.056765879104 0.00920527769254 0.829 1.21546512835e-38
0.0584407436621 0.00922748584138 0.831 1.28918393731e-38
0.0601230109364 0.00924969399022 0.833 1.5195285381e-38
0.0616646266014 0.00924969399022 0.833 1.61168535199e-38
0.0635097536339 0.00929411028789 0.837 1.56551523006e-38
0.0652142290571 0.00931631843672 0.839 1.59324594576e-38
0.0667669487965 0.00931631843672 0.839 1.35368402407e-38
0.0684825282941 0.00933852658556 0.841 1.29818742007e-38
0.070205510508 0.0093607347344 0.843 1.21507010231e-38
0.0719358954381 0.00938294288323 0.845 1.28907421564e-38
0.0738476469171 0.0094273591809 0.849 1.19681076293e-38
0.0754188734472 0.0094273591809 0.849 1.98049841975e-38
0.0771714665262 0.00944956732974 0.851 1.93408335085e-38
0.0793941320889 0.00952729585067 0.858 1.54624961825e-38
0.0809820147307 0.00952729585067 0.858 1.74950964206e-38
0.0829548386189 0.00957171214834 0.862 1.62076170228e-38
0.0850405539305 0.00962723252043 0.867 1.5472245016e-38
0.0866450926839 0.00962723252043 0.867 1.27988800356e-38
0.0884532061349 0.00964944066926 0.869 1.76834757758e-38
0.0900614462465 0.00964944066926 0.869 1.46399634112e-38
0.0923026185998 0.00971606511577 0.875 1.74994698731e-38
0.0942439809439 0.00974937733903 0.878 1.66693266499e-38
0.0960872572973 0.00977158548786 0.88 1.74079426626e-38
0.0977158548786 0.00977158548786 0.88 1.3902748697e-38
0.0363510382865 0.0110633594785 0.854 1.97071455387e-38
0.037931518212 0.0110633594785 0.854 1.2414293672e-38
0.0393731972073 0.011024495218 0.851 1.17549435082e-38
0.0409481250955 0.011024495218 0.851 1.65419093831e-38
0.0423231796443 0.0109726762041 0.847 2.20105410999e-38
0.0435797907326 0.0108949476832 0.841 6.33916036175e-39
0.0450288724442 0.0108690381762 0.839 9.00203101792e-39
0.0464705514394 0.0108431286692 0.837 1.32444719278e-38
0.0477900856161 0.0107913096553 0.833 1.60117070897e-38
0.0493317012812 0.0107913096553 0.833 1.78512420305e-38
0.0507511721276 0.0107654001483 0.831 1.72974068385e-38
0.0522890864345 0.0107654001483 0.831 1.95125696418e-38
0.0538270007414 0.0107654001483 0.831 1.19598091398e-38
0.0553649150483 0.0107654001483 0.831 1.22475685821e-38
0.0570397796063 0.0107913096553 0.833 1.21553729522e-38
0.0587220468807 0.0108172191622 0.835 1.57509380571e-38
0.0602673639038 0.0108172191622 0.835 1.53767871633e-38
0.061812680927 0.0108172191622 0.835 1.63009140732e-38
0.0635097536339 0.0108431286692 0.837 1.39016823088e-38
0.0653696860989 0.0108949476832 0.841 1.29815182709e-38
0.0669261071965 0.0108949476832 0.841 1.04011574696e-38
0.0688082478104 0.0109467666971 0.845 1.38105502645e-38
0.0705386327405 0.0109726762041 0.847 1.61107774898e-38
0.0722764203869 0.0109985857111 0.849 1.27016677572e-38
0.0740216107496 0.011024495218 0.851 1.5010583033e-38
0.075863036424 0.0110633594785 0.854 1.76895041618e-38
0.0776248828983 0.0110892689855 0.856 1.50994617894e-38
0.0797642679028 0.0111669975064 0.862 1.62044150558e-38
0.0813595532609 0.0111669975064 0.862 1.55676412115e-38
0.0831473092422 0.0111929070134 0.864 1.33527838913e-38
0.0854328978932 0.0112835902878 0.871 1.37183826606e-38
0.0872447127024 0.0113094997948 0.873 1.70413531753e-38
0.0890639302279 0.0113354093017 0.875 1.53793066979e-38
0.0906832744139 0.0113354093017 0.875 1.48247148047e-38
0.0926190847208 0.0113742735622 0.878 1.82337979126e-38
0.0942439809439 0.0113742735622 0.878 1.67626307068e-38
0.0960872572973 0.0114001830692 0.88 1.36304806092e-38
0.0977158548786 0.0114001830692 0.88 1.48225624102e-38
0.0363510382865 0.012643839404 0.854 1.04775100191e-38
0.037931518212 0.012643839404 0.854 1.97989530089e-38
0.0393731972073 0.0125994231063 0.851 1.92461197453e-38
0.0409481250955 0.0125994231063 0.851 1.81361176005e-38
0.0424231163141 0.0125698122412 0.849 2.02562835784e-38
0.0435797907326 0.0124513687807 0.841 1.16814033648e-38
0.0450288724442 0.0124217579156 0.839 1.57325684356e-38
0.0464705514394 0.0123921470505 0.837 1.66530757916e-38
0.0479048277184 0.0123625361854 0.835 1.78462646184e-38
0.0493317012812 0.0123329253203 0.833 1.6739889034e-38
0.0508733169462 0.0123329253203 0.833 1.49896392261e-38
0.0524149326112 0.0123329253203 0.833 1.95082494386e-38
0.0539565482763 0.0123329253203 0.833 1.33391100208e-38
0.0554981639413 0.0123329253203 0.833 1.16950982547e-38
0.0571767298575 0.0123625361854 0.835 1.34457586431e-38
0.05886269849 0.0123921470505 0.837 1.32595498992e-38
0.0604117168713 0.0123921470505 0.837 1.62987434619e-38
0.0621087895782 0.0124217579156 0.839 1.39045493655e-38
0.063965020685 0.0124809796459 0.843 1.22428994556e-38
0.0656806001826 0.012510590511 0.845 1.1968791463e-38
0.0672444239965 0.012510590511 0.845 1.62998602968e-38
0.0691339673266 0.0125698122412 0.849 1.90635389632e-38
0.0708717549731 0.0125994231063 0.851 1.95216276351e-38
0.072702076573 0.012643839404 0.854 1.17735975934e-38
0.074456520331 0.0126734502691 0.856 1.40867672113e-38
0.0760407016146 0.0126734502691 0.856 1.51971028651e-38
0.0778062494471 0.0127030611342 0.858 1.6301617525e-38
0.0799493358098 0.0127918937296 0.864 1.36236688974e-38
0.0818314764236 0.0128363100272 0.867 1.42729633434e-38
0.0838209564235 0.0128955317575 0.871 1.49183327525e-38
0.085825241856 0.0129547534877 0.875 1.63952775118e-38
0.087444586042 0.0129547534877 0.875 1.7684523947e-38
0.0893692922744 0.0129991697854 0.878 1.52853482346e-38
0.0909941884976 0.0129991697854 0.878 1.77753000615e-38
0.0928300621347 0.0130287806505 0.88 1.72203298177e-38
0.094458659716 0.0130287806505 0.88 1.27066844057e-38
0.0960872572973 0.0130287806505 0.88 1.4824740028e-38
0.0977158548786 0.0130287806505 0.88 1.54736547222e-38
0.039604532091 0.0142576315527 0.856 1.52701623631e-38
0.0411887133746 0.0142576315527 0.856 1.79374064718e-38
0.0425230529838 0.0141743509946 0.851 1.57264699846e-38
0.0439943428442 0.0141410387714 0.849 1.78426436631e-38
0.0455655693744 0.0141410387714 0.849 1.70171891846e-38
0.0465815921836 0.0139744776551 0.839 1.70171891846e-38
0.0480195698208 0.0139411654318 0.837 1.61831363386e-38
0.0494501447416 0.0139078532086 0.835 1.64629476159e-38
0.0509954617648 0.0139078532086 0.835 1.5083980244e-38
0.0526666249647 0.0139411654318 0.837 2.18131317774e-38
0.054215643346 0.0139411654318 0.837 1.26030093388e-38
0.0557646617273 0.0139411654318 0.837 1.18794825079e-38
0.0573136801086 0.0139411654318 0.837 1.16950758339e-38
0.0590033500993 0.0139744776551 0.839 1.52892732716e-38
0.0607004228061 0.0140077898783 0.841 1.24308079744e-38
0.0624048982293 0.0140411021016 0.843 1.20616681239e-38
0.0641167763688 0.0140744143248 0.845 1.16003971032e-38
0.0658360572245 0.0141077265481 0.847 1.48203665755e-38
0.0674035823965 0.0141077265481 0.847 2.23728300022e-38
0.0692968270848 0.0141743509946 0.851 1.98853710852e-38
0.0708717549731 0.0141743509946 0.851 1.60070057333e-38
0.072702076573 0.0142243193295 0.854 1.57419725496e-38
0.0746304841636 0.014290943776 0.858 1.58410275354e-38
0.0762183668053 0.014290943776 0.858 1.55651216769e-38
0.0779876159959 0.0143242559993 0.86 1.34417901658e-38
0.0799493358098 0.0143908804458 0.864 1.3626540158e-38
0.0822090149539 0.0145074732272 0.871 1.85160502519e-38
0.0840134270468 0.0145407854504 0.873 1.51005758217e-38
0.085825241856 0.0145740976737 0.875 1.67614942538e-38
0.0877443960512 0.0146240660085 0.878 1.59248812355e-38
0.0895728669721 0.0146573782318 0.88 1.93386390751e-38
0.0914087406092 0.014690690455 0.882 1.51002198919e-38
0.0933575056696 0.0147406587899 0.885 1.43615015843e-38
0.0949953566462 0.0147406587899 0.885 1.53786032461e-38
0.0978342983391 0.0149238760178 0.896 1.64877996442e-38
0.0396970660444 0.0158788264178 0.858 1.59115759066e-38
0.0412849486862 0.0158788264178 0.858 1.50771657295e-38
0.0426729579885 0.015804799255 0.854 1.72966599464e-38
0.044253437914 0.015804799255 0.854 1.6739889034e-38
0.0456729087604 0.0157492788829 0.851 1.52676512363e-38
0.0470257551603 0.0156752517201 0.847 1.72934131378e-38
0.0481343119231 0.0155271973945 0.839 1.74735038126e-38
0.0496870316625 0.0155271973945 0.839 1.48088324879e-38
0.051239751402 0.0155271973945 0.839 2.04305532593e-38
0.0527924711414 0.0155271973945 0.839 1.47144858649e-38
0.0543451908809 0.0155271973945 0.839 1.36171570634e-38
0.0560311595134 0.0155642109759 0.841 1.21553519327e-38
0.057587580611 0.0155642109759 0.841 1.20631549016e-38
0.0591440017085 0.0155642109759 0.841 1.19706061445e-38
0.0608447757736 0.0156012245573 0.843 1.26145280122e-38
0.0625529525549 0.0156382381387 0.845 1.12326935836e-38
0.0642685320525 0.0156752517201 0.847 1.64821005634e-38
0.0659915142663 0.0157122653015 0.849 2.17332913961e-38
0.0677218991965 0.0157492788829 0.851 1.90556328372e-38
0.0692968270848 0.0157492788829 0.851 1.65601640982e-38
0.0711215966475 0.015804799255 0.854 1.59234995552e-38
0.0728723390474 0.0158418128364 0.856 1.54700772072e-38
0.0746304841636 0.0158788264178 0.858 1.52867551382e-38
0.076396031996 0.0159158399992 0.86 1.19684453422e-38
0.0783503490936 0.015989867162 0.864 1.60243075655e-38
0.0805970734842 0.0161194146968 0.871 1.66739957764e-38
0.0828697073817 0.0162489622317 0.878 1.51044966548e-38
0.0844946036049 0.0162489622317 0.878 1.60207314518e-38
0.0863156718095 0.0162859758131 0.88 1.66668225295e-38
0.0879442693908 0.0162859758131 0.88 1.84178192295e-38
0.0897764416697 0.0163229893945 0.882 1.37176413737e-38
0.0919269307487 0.016415523348 0.887 1.40846568558e-38
0.0937794604974 0.0164525369294 0.889 1.66682840838e-38
0.0961760898927 0.0165820844643 0.896 1.61154241955e-38
0.0978342983391 0.0165820844643 0.896 1.43633765217e-38
0.0397895999979 0.0175074239991 0.86 1.70214939734e-38
0.0413811839978 0.0175074239991 0.86 1.54523984258e-38
0.042872831328 0.0174667090596 0.858 1.67416826961e-38
0.0443570759419 0.01742599412 0.856 1.75714405623e-38
0.0458339178395 0.0173852791805 0.854 1.33362541746e-38
0.0472478366487 0.0173242067712 0.851 1.99685367478e-38
0.04847853823 0.0172020619526 0.845 1.4344274021e-38
0.049805475123 0.0171206320735 0.841 1.78526881705e-38
0.0513618962206 0.0171206320735 0.841 1.86784887698e-38
0.0529183173182 0.0171206320735 0.841 1.63786497042e-38
0.0544747384158 0.0171206320735 0.841 1.26980944461e-38
0.0560311595134 0.0171206320735 0.841 1.2429782224e-38
0.057587580611 0.0171206320735 0.841 1.24308626251e-38
0.0592846533178 0.0171613470131 0.843 1.19706061445e-38
0.0608447757736 0.0171613470131 0.843 1.25233903627e-38
0.0627010068805 0.0172427768921 0.847 1.31695024599e-38
0.0644202877362 0.0172834918317 0.849 1.88849630921e-38
0.0661469713082 0.0173242067712 0.851 1.45452524506e-38
0.0677218991965 0.0173242067712 0.851 1.52780881072e-38
0.069541116722 0.0173852791805 0.854 1.64823962373e-38
0.0711215966475 0.0173852791805 0.854 1.41825375535e-38
0.0730426015218 0.0174667090596 0.858 1.28904170552e-38
0.0748044479961 0.0175074239991 0.86 1.34424768021e-38
0.0765736971867 0.0175481389386 0.862 1.7319339962e-38
0.0789851320145 0.0177313561665 0.871 1.58435414649e-38
0.0807821413911 0.0177720711061 0.873 1.73215077708e-38
0.0830584766468 0.0179145733944 0.88 1.52864076162e-38
0.0846870742281 0.0179145733944 0.88 1.71285027294e-38
0.0865118437908 0.0179552883339 0.882 1.56537902385e-38
0.0881441427303 0.0179552883339 0.882 1.72203326203e-38
0.0900818037162 0.0180163607432 0.885 1.34421460956e-38
0.0923414828603 0.0181385055618 0.891 1.58413204068e-38
0.0943069040323 0.0181995779711 0.894 1.89720313709e-38
0.0961760898927 0.0182402929107 0.896 1.58366891154e-38
0.0978342983391 0.0182402929107 0.896 1.47350331043e-38
0.0398821339514 0.0191434242967 0.862 1.48149309388e-38
0.0414774193095 0.0191434242967 0.862 1.20508977439e-38
0.0429727679978 0.019099007999 0.86 1.67499335414e-38
0.0444607139698 0.0190545917013 0.858 1.38818679485e-38
0.0460485966116 0.0190545917013 0.858 1.6747781147e-38
0.0477475199975 0.019099007999 0.86 1.72909230305e-38
0.04847853823 0.0187658857665 0.845 1.58244039317e-38
0.0499239185834 0.0187214694688 0.843 1.67456427655e-38
0.0514840410392 0.0187214694688 0.843 1.28688076315e-38
0.0530441634949 0.0187214694688 0.843 1.42611167662e-38
0.0546042859506 0.0187214694688 0.843 1.26116469426e-38
0.0561644084064 0.0187214694688 0.843 1.25237799237e-38
0.0577245308621 0.0187214694688 0.843 1.25234422107e-38
0.0594253049271 0.0187658857665 0.845 1.20635248444e-38
0.0611334817084 0.0188103020641 0.847 1.18773441265e-38
0.0627010068805 0.0188103020641 0.847 1.18791293807e-38
0.0645720434199 0.0188991346595 0.851 1.37205476667e-38
0.066380156871 0.018965759106 0.854 1.66707910068e-38
0.0679606367965 0.018965759106 0.854 1.60271942403e-38
0.069541116722 0.018965759106 0.854 1.36265555722e-38
0.0712881577637 0.0190101754037 0.856 1.28889877307e-38
0.0732128639962 0.019099007999 0.86 1.64863773263e-38
0.0749784118287 0.0191434242967 0.862 1.60246733043e-38
0.0783503490936 0.0195875872734 0.882 1.56555474668e-38
0.0798012814842 0.0195431709757 0.88 1.57459452307e-38
0.0814298790655 0.0195431709757 0.88 1.45477677814e-38
0.0835303998096 0.0196542117199 0.885 1.58363261791e-38
0.0851682507863 0.0196542117199 0.885 1.45502887173e-38
0.0868061017629 0.0196542117199 0.885 1.84220917885e-38
0.0884439527396 0.0196542117199 0.885 1.38101845256e-38
0.0904889531116 0.0197430443153 0.889 1.74036448802e-38
0.0923414828603 0.0197874606129 0.891 1.98050108222e-38
0.0943069040323 0.0198540850594 0.894 1.68508662672e-38
0.0961760898927 0.0198985013571 0.896 1.43619121648e-38
0.0978342983391 0.0198985013571 0.896 1.49183481668e-38
0.0430727046675 0.0207387096547 0.862 1.25111794479e-38
0.0446679900256 0.0207387096547 0.862 1.14005158902e-38
0.0461559359976 0.0206905919989 0.86 1.19543987264e-38
0.0477475199975 0.0206905919989 0.86 1.25968884671e-38
0.0485932803324 0.0203778272361 0.847 1.18636422301e-38
0.0500423620439 0.0203297095803 0.845 1.3984850774e-38
0.0516061858578 0.0203297095803 0.845 9.46517417337e-39
0.0530441634949 0.0202815919245 0.843 1.06702207878e-38
0.0546042859506 0.0202815919245 0.843 1.25230638601e-38
0.0562976572994 0.0203297095803 0.845 1.18805362844e-38
0.0578614811133 0.0203297095803 0.845 1.22489754857e-38
0.0595659565364 0.0203778272361 0.847 1.14181526327e-38
0.0614221876433 0.0204740625478 0.851 1.45495670486e-38
0.0629971155316 0.0204740625478 0.851 1.49158272308e-38
0.0651031883129 0.0206424743431 0.858 1.52860516864e-38
0.0665356139128 0.0205943566873 0.856 1.46424689329e-38
0.0681197951965 0.0205943566873 0.856 1.19659580375e-38
0.0698668362382 0.0206424743431 0.858 1.49147300141e-38
0.07145471888 0.0206424743431 0.858 1.7134252257e-38
0.0733831264706 0.0207387096547 0.862 1.57459396255e-38
0.0773269235681 0.0213882980082 0.889 1.62054688322e-38
0.0787945120703 0.0213401803524 0.887 1.53761411647e-38
0.0802546978563 0.0212920626966 0.885 1.81415574412e-38
0.0818925488329 0.0212920626966 0.885 1.65753303515e-38
0.0835303998096 0.0212920626966 0.885 1.72213990085e-38
0.0853607214095 0.0213401803524 0.887 1.66682672682e-38
0.0870022737443 0.0213401803524 0.887 1.44569762526e-38
0.0888436994186 0.0213882980082 0.889 1.71292328059e-38
0.0906925278092 0.021436415664 0.891 1.6944821928e-38
0.092652396944 0.0215085921477 0.894 1.55604777738e-38
0.0947288588602 0.0216048274593 0.898 1.768059891e-38
0.0963907686647 0.0216048274593 0.898 1.51027015914e-38
0.0436223563512 0.0226189995895 0.873 1.00237009127e-38
0.0451343611511 0.0225671805756 0.871 9.47340820314e-39
0.0462632753836 0.0223339950128 0.862 9.47412286536e-39
0.0477475199975 0.0222821759988 0.86 9.38194264978e-39
0.048822764537 0.0220489904361 0.851 9.47379075763e-39
0.0502792489648 0.0219971714221 0.849 9.2893980966e-39
0.0517283306764 0.0219453524082 0.847 1.01169923579e-38
0.0531700096716 0.0218935333942 0.845 1.14996059085e-38
0.0547338334855 0.0218935333942 0.845 1.28918365705e-38
0.0564309061924 0.0219453524082 0.847 1.16961548337e-38
0.0581353816156 0.0219971714221 0.849 1.18780419731e-38
0.059847259755 0.0220489904361 0.851 1.42733290823e-38
0.0616387170945 0.022126718957 0.854 1.74072616316e-38
0.0635153056711 0.0222303569849 0.858 1.48257643772e-38
0.0651031883129 0.0222303569849 0.858 1.27957004894e-38
0.0666910709547 0.0222303569849 0.858 1.20587982646e-38
