# .PCD v0.7 - Point Cloud Data file format
VERSION 0.7
FIELDS x y z rgb
SIZE 4 4 4 4
TYPE F F F F
COUNT 1 1 1 1
WIDTH 835
HEIGHT 1
VIEWPOINT 0 0 0 1 0 0 0
POINTS 835
DATA ascii
0.0129991697854 -0.0454970942488 0.878 3.489748854e-39
0.0146240660085 -0.0454970942488 0.878 4.95983425735e-39
0.0162489622317 -0.0454970942488 0.878 4.49993931174e-39
0.0178738584549 -0.0454970942488 0.878 1.45463188388e-38
0.0195875872734 -0.0457043703046 0.882 2.10900449542e-38
-0.0431134196071 -0.0447716280535 0.896 2.13659339972e-38
-0.0414552111606 -0.0447716280535 0.896 1.83256207971e-38
-0.0397081701189 -0.0446716913837 0.894 5.6938007618e-39
-0.0380536630306 -0.0446716913837 0.894 6.15837604427e-39
-0.0363991559423 -0.0446716913837 0.894 1.84232058208e-38
-0.034744648854 -0.0446716913837 0.894 1.75895004969e-38
-0.0330901417657 -0.0446716913837 0.894 1.14116365949e-38
-0.0312598201658 -0.0444218497093 0.889 1.44494933188e-38
-0.0296145664729 -0.0444218497093 0.889 1.47378595233e-38
-0.0279693127799 -0.0444218497093 0.889 1.2251216162e-38
-0.0262648373568 -0.0443219130396 0.887 1.51067247193e-38
-0.024623285022 -0.0443219130396 0.887 1.34435305785e-38
-0.0230335517011 -0.0444218497093 0.889 1.47353806263e-38
-0.0213882980082 -0.0444218497093 0.889 1.24254143767e-38
-0.0197430443153 -0.0444218497093 0.889 1.32545136326e-38
-0.0180977906223 -0.0444218497093 0.889 1.3531817987e-38
-0.016415523348 -0.0443219130396 0.887 1.58356773779e-38
-0.0147739710132 -0.0443219130396 0.887 1.72214256331e-38
-0.0131324186784 -0.0443219130396 0.887 1.70362706657e-38
-0.0114908663436 -0.0443219130396 0.887 1.73124693957e-38
-0.00984931400879 -0.0443219130396 0.887 1.76790827051e-38
-0.00820776167399 -0.0443219130396 0.887 1.84159190688e-38
-0.00655140390664 -0.0442219763698 0.885 1.25179673376e-38
-0.00491355292998 -0.0442219763698 0.885 1.47302700908e-38
-0.0032645978789 -0.0440720713651 0.882 1.85113783228e-38
-0.00163229893945 -0.0440720713651 0.882 1.73142602551e-38
0.0 -0.0440720713651 0.882 1.39981869315e-38
0.00163229893945 -0.0440720713651 0.882 1.46457045311e-38
0.0032645978789 -0.0440720713651 0.882 1.36319253479e-38
0.00489689681835 -0.0440720713651 0.882 1.29862056143e-38
0.00651439032524 -0.0439721346954 0.88 1.20624738705e-38
0.00814298790655 -0.0439721346954 0.88 1.53822354117e-38
0.00977158548786 -0.0439721346954 0.88 1.40939796945e-38
0.0114001830692 -0.0439721346954 0.88 1.97154047919e-38
0.0130287806505 -0.0439721346954 0.88 3.489748854e-39
0.0146573782318 -0.0439721346954 0.88 4.49993931174e-39
0.0162859758131 -0.0439721346954 0.88 5.32645877716e-39
0.0179145733944 -0.0439721346954 0.88 1.49147328167e-38
0.0195875872734 -0.0440720713651 0.882 1.97975012637e-38
-0.0432096549187 -0.0432096549187 0.898 2.08130881219e-38
-0.0414552111606 -0.0431134196071 0.896 1.68522885852e-38
-0.0397970027142 -0.0431134196071 0.896 5.41829427332e-39
-0.0380536630306 -0.0430171842954 0.894 6.15837604427e-39
-0.0363991559423 -0.0430171842954 0.894 1.90678549624e-38
-0.034744648854 -0.0430171842954 0.894 1.22443189709e-38
-0.0330901417657 -0.0430171842954 0.894 1.52896712403e-38
-0.0313301459705 -0.042872831328 0.891 1.55669615818e-38
-0.0296145664729 -0.0427765960164 0.889 1.35425953734e-38
-0.0279693127799 -0.0427765960164 0.889 1.37295075691e-38
-0.0262648373568 -0.0426803607048 0.887 1.63005217096e-38
-0.024623285022 -0.0426803607048 0.887 1.33412932439e-38
-0.0230335517011 -0.0427765960164 0.889 1.7585491382e-38
-0.0213882980082 -0.0427765960164 0.889 1.41742656887e-38
-0.0197430443153 -0.0427765960164 0.889 1.31662976903e-38
-0.0180977906223 -0.0427765960164 0.889 1.63952803144e-38
-0.0164525369294 -0.0427765960164 0.889 1.75909214135e-38
-0.0147739710132 -0.0426803607048 0.887 1.67611859681e-38
-0.0131324186784 -0.0426803607048 0.887 1.71284719008e-38
-0.0114908663436 -0.0426803607048 0.887 1.74961347828e-38
-0.00984931400879 -0.0426803607048 0.887 1.73110358673e-38
-0.00820776167399 -0.0426803607048 0.887 1.67589382854e-38
-0.00656620933919 -0.0426803607048 0.887 1.94322444112e-38
-0.00492465700439 -0.0426803607048 0.887 1.57476379993e-38
-0.00327570195332 -0.0425841253931 0.885 1.84195316162e-38
-0.00163785097666 -0.0425841253931 0.885 1.62093798562e-38
0.0 -0.0425841253931 0.885 1.48293937402e-38
0.00163785097666 -0.0425841253931 0.885 1.48308468868e-38
0.0032645978789 -0.0424397724257 0.882 1.48311916062e-38
0.00489689681835 -0.0424397724257 0.882 1.3816318009e-38
0.0065291957578 -0.0424397724257 0.882 1.0589138856e-38
0.00816149469725 -0.0424397724257 0.882 1.46486178306e-38
0.00977158548786 -0.0423435371141 0.88 1.41861781269e-38
0.0114001830692 -0.0423435371141 0.88 1.94398786852e-38
0.0130287806505 -0.0423435371141 0.88 3.489748854e-39
0.0146573782318 -0.0423435371141 0.88 4.40810381558e-39
0.0162859758131 -0.0423435371141 0.88 6.61215572338e-39
0.0179145733944 -0.0423435371141 0.88 1.51916700309e-38
-0.0432096549187 -0.0415477451141 0.898 1.93408335085e-38
-0.0414552111606 -0.0414552111606 0.896 1.52860362721e-38
-0.0397970027142 -0.0414552111606 0.896 5.14278778485e-39
-0.0380536630306 -0.0413626772071 0.894 7.63350612208e-39
-0.0363991559423 -0.0413626772071 0.894 1.90700073569e-38
-0.034744648854 -0.0413626772071 0.894 1.39988847781e-38
-0.0330901417657 -0.0413626772071 0.894 1.36319071311e-38
-0.0314356346774 -0.0413626772071 0.894 1.36261870307e-38
-0.0296811909194 -0.0412238762769 0.891 1.10432198143e-38
-0.0280322358683 -0.0412238762769 0.891 1.63905537347e-38
-0.026324059087 -0.0411313423234 0.889 1.27953067245e-38
-0.0246788053941 -0.0411313423234 0.889 1.68552144964e-38
-0.0230853707151 -0.0412238762769 0.891 1.5292538297e-38
-0.0213882980082 -0.0411313423234 0.889 1.51041855665e-38
-0.0197430443153 -0.0411313423234 0.889 1.51988783102e-38
-0.0180977906223 -0.0411313423234 0.889 1.7591275942e-38
-0.0164525369294 -0.0411313423234 0.889 1.75905416616e-38
-0.0148072832364 -0.0411313423234 0.889 1.74983558408e-38
-0.0131620295435 -0.0411313423234 0.889 1.712917255e-38
-0.0115167758506 -0.0411313423234 0.889 1.72206198865e-38
-0.00984931400879 -0.04103880837 0.887 1.75886863425e-38
-0.00820776167399 -0.04103880837 0.887 1.65756204203e-38
-0.00656620933919 -0.04103880837 0.887 1.49164872424e-38
-0.00492465700439 -0.04103880837 0.887 1.71288194228e-38
-0.0032831046696 -0.04103880837 0.887 1.73131854592e-38
-0.0016415523348 -0.04103880837 0.887 1.64841716825e-38
0.0 -0.04103880837 0.887 1.44616860167e-38
0.00163785097666 -0.0409462744165 0.885 1.46471660854e-38
0.00327570195332 -0.0409462744165 0.885 1.51074281712e-38
0.00491355292998 -0.0409462744165 0.885 1.50149018349e-38
0.0065291957578 -0.0408074734862 0.882 1.40032302046e-38
0.00816149469725 -0.0408074734862 0.882 1.42819778965e-38
0.00977158548786 -0.0407149395328 0.88 1.51095763617e-38
0.0114001830692 -0.0407149395328 0.88 1.85172147309e-38
0.0130287806505 -0.0407149395328 0.88 3.76525534248e-39
0.0146573782318 -0.0407149395328 0.88 4.49993931174e-39
0.0163229893945 -0.0408074734862 0.882 7.90433227369e-39
0.0179552883339 -0.0408074734862 0.882 1.50976793377e-38
-0.0448715647232 -0.0398858353096 0.898 1.74958573257e-38
-0.0432096549187 -0.0398858353096 0.898 1.85110826488e-38
-0.0414552111606 -0.0397970027142 0.896 1.49179796253e-38
-0.0397970027142 -0.0397970027142 0.896 5.51012976948e-39
-0.0381387942678 -0.0397970027142 0.896 7.72642482195e-39
-0.0364805858214 -0.0397970027142 0.896 1.96213762636e-38
-0.0348223773749 -0.0397970027142 0.896 1.09503067196e-38
-0.0330901417657 -0.0397081701189 0.894 1.4543789495e-38
-0.0314356346774 -0.0397081701189 0.894 1.6023253789e-38
-0.0296811909194 -0.0395749212258 0.891 1.46438884482e-38
-0.0280322358683 -0.0395749212258 0.891 1.55633490343e-38
-0.0263832808172 -0.0395749212258 0.891 1.47375372246e-38
-0.0247343257662 -0.0395749212258 0.891 1.5016263897e-38
-0.0230853707151 -0.0395749212258 0.891 1.2618127948e-38
-0.021436415664 -0.0395749212258 0.891 1.21485514313e-38
-0.0197874606129 -0.0395749212258 0.891 1.23267629648e-38
-0.0180977906223 -0.0394860886305 0.889 1.32505451553e-38
-0.0164525369294 -0.0394860886305 0.889 1.69402102547e-38
-0.0148072832364 -0.0394860886305 0.889 1.73118388114e-38
-0.0131620295435 -0.0394860886305 0.889 1.70344713985e-38
-0.0115167758506 -0.0394860886305 0.889 1.67596249216e-38
-0.00987152215763 -0.0394860886305 0.889 1.71262564479e-38
-0.00820776167399 -0.0393972560352 0.887 1.54689001165e-38
-0.00656620933919 -0.0393972560352 0.887 1.52877514614e-38
-0.00492465700439 -0.0393972560352 0.887 1.52870325953e-38
-0.0032831046696 -0.0393972560352 0.887 1.75898101838e-38
-0.0016415523348 -0.0393972560352 0.887 1.63001503656e-38
0.0 -0.0393972560352 0.887 1.43698407115e-38
0.0016415523348 -0.0393972560352 0.887 1.46471660854e-38
0.0032831046696 -0.0393972560352 0.887 1.45549578438e-38
0.00491355292998 -0.0393084234398 0.885 1.33564328725e-38
0.00655140390664 -0.0393084234398 0.885 1.40046679369e-38
0.00818925488329 -0.0393084234398 0.885 1.4371655393e-38
0.0097937936367 -0.0391751745468 0.882 1.47386456517e-38
0.0114260925761 -0.0391751745468 0.882 1.9347685858e-38
0.0130583915156 -0.0391751745468 0.882 4.13259732711e-39
0.014690690455 -0.0391751745468 0.882 3.76525534248e-39
0.0163229893945 -0.0391751745468 0.882 1.04793289045e-38
0.0179552883339 -0.0391751745468 0.882 1.57416222249e-38
-0.0467925695976 -0.038436753598 0.903 1.7127430736e-38
-0.0450214697279 -0.0383516223608 0.901 1.758948228e-38
-0.0432096549187 -0.038223925505 0.898 1.79582479839e-38
-0.0414552111606 -0.0381387942678 0.896 1.38094810738e-38
-0.0397970027142 -0.0381387942678 0.896 5.41829427332e-39
-0.0381387942678 -0.0381387942678 0.896 9.93515706662e-39
-0.0364805858214 -0.0381387942678 0.896 1.92522476235e-38
-0.0348223773749 -0.0381387942678 0.896 1.45473992399e-38
-0.0331641689285 -0.0381387942678 0.896 1.50130465157e-38
-0.0314356346774 -0.0380536630306 0.894 1.47357491678e-38
-0.0296811909194 -0.0379259661748 0.891 1.51052603624e-38
-0.0280322358683 -0.0379259661748 0.891 1.26113120322e-38
-0.0263832808172 -0.0379259661748 0.891 1.16878703572e-38
-0.0247343257662 -0.0379259661748 0.891 1.86046711693e-38
-0.023163099236 -0.0380536630306 0.894 1.75909242161e-38
-0.021436415664 -0.0379259661748 0.891 1.81433749253e-38
-0.0197874606129 -0.0379259661748 0.891 1.8234851689e-38
-0.0181385055618 -0.0379259661748 0.891 1.6944484215e-38
-0.0164895505108 -0.0379259661748 0.891 1.57466612942e-38
-0.0148072832364 -0.0378408349376 0.889 1.68504907192e-38
-0.0131620295435 -0.0378408349376 0.889 1.70337525324e-38
-0.0115167758506 -0.0378408349376 0.889 1.79563506257e-38
-0.00987152215763 -0.0378408349376 0.889 1.72202863775e-38
-0.00822626846469 -0.0378408349376 0.889 1.83258688269e-38
-0.00656620933919 -0.0377557037004 0.887 1.39927162623e-38
-0.00492465700439 -0.0377557037004 0.887 1.75844053756e-38
-0.0032831046696 -0.0377557037004 0.887 1.8510632832e-38
-0.0016415523348 -0.0377557037004 0.887 1.51945048577e-38
0.0 -0.0377557037004 0.887 1.40921846312e-38
0.0016415523348 -0.0377557037004 0.887 1.41843956753e-38
0.0032831046696 -0.0377557037004 0.887 1.45538886531e-38
0.00491355292998 -0.0376705724632 0.885 1.3171667466e-38
0.00655140390664 -0.0376705724632 0.885 9.57494628987e-39
0.00818925488329 -0.0376705724632 0.885 1.47386456517e-38
0.0097937936367 -0.0375428756073 0.882 1.53815109404e-38
0.0114260925761 -0.0375428756073 0.882 1.9070768262e-38
0.0130583915156 -0.0375428756073 0.882 4.40810381558e-39
0.014690690455 -0.0375428756073 0.882 4.68361030406e-39
0.0163229893945 -0.0375428756073 0.882 1.20452098734e-38
0.0179552883339 -0.0375428756073 0.882 1.55572281626e-38
0.0202094154408 -0.0387347129282 0.91 2.21006572028e-38
0.0218935333942 -0.0387347129282 0.91 1.3991640065e-38
0.0235776513476 -0.0387347129282 0.91 1.81376492198e-38
0.025261769301 -0.0387347129282 0.91 2.13630347107e-38
-0.0467925695976 -0.0367655903981 0.903 1.7035229501e-38
-0.0448715647232 -0.0365620157004 0.898 1.62069009592e-38
-0.0432096549187 -0.0365620157004 0.898 1.70348847816e-38
-0.0415477451141 -0.0365620157004 0.898 1.41782621919e-38
-0.0397970027142 -0.0364805858214 0.896 5.23462328101e-39
-0.0381387942678 -0.0364805858214 0.896 1.00273526965e-38
-0.0364805858214 -0.0364805858214 0.896 1.94359284249e-38
-0.0348223773749 -0.0364805858214 0.896 1.31662780721e-38
-0.0331641689285 -0.0364805858214 0.896 1.30772493768e-38
-0.0315059604821 -0.0364805858214 0.896 1.65752504775e-38
-0.0297811275891 -0.0363991559423 0.894 1.3161892008e-38
-0.0281266205009 -0.0363991559423 0.894 1.45467140049e-38
-0.0264721134126 -0.0363991559423 0.894 1.8141617697e-38
-0.0248176063243 -0.0363991559423 0.894 1.64838577916e-38
-0.023163099236 -0.0363991559423 0.894 1.62065632463e-38
-0.0215085921477 -0.0363991559423 0.894 1.66668225295e-38
-0.0198540850594 -0.0363991559423 0.894 1.72206997605e-38
-0.0181385055618 -0.0362770111237 0.891 1.7035980597e-38
-0.0164895505108 -0.0362770111237 0.891 1.74054595618e-38
-0.0148405954597 -0.0362770111237 0.891 1.76827527058e-38
-0.0131916404086 -0.0362770111237 0.891 1.76812659281e-38
-0.0115426853575 -0.0362770111237 0.891 1.69436798697e-38
-0.00987152215763 -0.0361955812446 0.889 1.77741467929e-38
-0.00822626846469 -0.0361955812446 0.889 1.59309474566e-38
-0.00658101477175 -0.0361955812446 0.889 1.45483927605e-38
-0.00492465700439 -0.0361141513656 0.887 1.66634832353e-38
-0.0032831046696 -0.0361141513656 0.887 1.82325857894e-38
-0.0016415523348 -0.0361141513656 0.887 1.53785415889e-38
0.0 -0.0361141513656 0.887 1.44606042143e-38
0.0016415523348 -0.0361141513656 0.887 1.51067036998e-38
0.0032831046696 -0.0361141513656 0.887 1.48301126064e-38
0.00492465700439 -0.0361141513656 0.887 1.34475312856e-38
0.00656620933919 -0.0361141513656 0.887 1.21568345065e-38
0.00820776167399 -0.0361141513656 0.887 1.54769337606e-38
0.00982710585995 -0.0360327214865 0.885 1.60279369285e-38
0.0114649568366 -0.0360327214865 0.885 1.86083215518e-38
0.0131028078133 -0.0360327214865 0.885 5.32645877716e-39
0.0147406587899 -0.0360327214865 0.885 3.85709083864e-39
0.0168966999061 -0.0371727397934 0.913 1.43500978174e-38
0.0185863698967 -0.0371727397934 0.913 1.44516064769e-38
0.0202094154408 -0.0370505949748 0.91 2.0996054261e-38
0.0218935333942 -0.0370505949748 0.91 1.39945393516e-38
0.0235776513476 -0.0370505949748 0.91 1.4083925378e-38
0.025261769301 -0.0370505949748 0.91 2.25623205871e-38
-0.0448715647232 -0.0349001058959 0.898 1.63920124864e-38
-0.0432096549187 -0.0349001058959 0.898 1.65767596759e-38
-0.0415477451141 -0.0349001058959 0.898 1.25190981855e-38
-0.0397970027142 -0.0348223773749 0.896 5.23462328101e-39
-0.0381387942678 -0.0348223773749 0.896 1.04883308458e-38
-0.0364805858214 -0.0348223773749 0.896 1.96210287416e-38
-0.0348223773749 -0.0348223773749 0.896 1.30694133158e-38
-0.0331641689285 -0.0348223773749 0.896 1.28853429534e-38
-0.0315059604821 -0.0348223773749 0.896 1.75865493623e-38
-0.0298477520357 -0.0348223773749 0.896 1.19676998515e-38
-0.0281895435892 -0.0348223773749 0.896 1.63945922769e-38
-0.0264721134126 -0.034744648854 0.894 1.75909214135e-38
-0.0248176063243 -0.034744648854 0.894 1.69451876669e-38
-0.023163099236 -0.034744648854 0.894 1.7498361446e-38
-0.0215567098035 -0.0348223773749 0.896 1.74983558408e-38
-0.0198985013571 -0.0348223773749 0.896 1.73132485176e-38
-0.0181995779711 -0.034744648854 0.894 1.758948228e-38
-0.0165450708829 -0.034744648854 0.894 1.73128953904e-38
-0.0148905637946 -0.034744648854 0.894 1.71284719008e-38
-0.0132360567063 -0.034744648854 0.894 1.44533468896e-38
-0.0115426853575 -0.0346280560726 0.891 1.67593138334e-38
-0.00989373030646 -0.0346280560726 0.891 1.70376509447e-38
-0.00824477525538 -0.0346280560726 0.891 1.50986882726e-38
-0.00658101477175 -0.0345503275517 0.889 1.79564052764e-38
-0.00493576107881 -0.0345503275517 0.889 1.75890086411e-38
-0.00329050738588 -0.0345503275517 0.889 1.91545378841e-38
-0.0016415523348 -0.0344725990308 0.887 1.54721903653e-38
0.0 -0.0344725990308 0.887 1.46468031491e-38
0.0016415523348 -0.0344725990308 0.887 1.4738661066e-38
0.0032831046696 -0.0344725990308 0.887 1.24334241987e-38
0.00492465700439 -0.0344725990308 0.887 1.31742164279e-38
0.00656620933919 -0.0344725990308 0.887 1.20692883849e-38
0.00820776167399 -0.0344725990308 0.887 1.37280852512e-38
0.00982710585995 -0.0343948705098 0.885 1.53821975766e-38
0.0114649568366 -0.0343948705098 0.885 1.86079684246e-38
0.0131028078133 -0.0343948705098 0.885 6.06114274643e-39
0.0147406587899 -0.0343948705098 0.885 4.31626831943e-39
0.0168966999061 -0.0354830698028 0.913 1.44415745812e-38
0.0185863698967 -0.0354830698028 0.913 1.51884498471e-38
0.0202094154408 -0.0353664770214 0.91 2.12733446025e-38
0.0218935333942 -0.0353664770214 0.91 1.79560815764e-38
0.0235776513476 -0.0353664770214 0.91 2.07194491546e-38
0.025261769301 -0.0353664770214 0.91 2.05368865893e-38
-0.0467925695976 -0.0334232639983 0.903 1.48247077982e-38
-0.0451214063976 -0.0334232639983 0.903 1.51002226945e-38
-0.0432096549187 -0.0332381960913 0.898 1.66668099178e-38
-0.0415477451141 -0.0332381960913 0.898 1.21499583349e-38
-0.0398858353096 -0.0332381960913 0.898 5.51012976948e-39
-0.038223925505 -0.0332381960913 0.898 1.24244390729e-38
-0.0365620157004 -0.0332381960913 0.898 1.86998137299e-38
-0.0349001058959 -0.0332381960913 0.898 1.27931417184e-38
-0.0332381960913 -0.0332381960913 0.898 1.5095553568e-38
-0.0315762862867 -0.0332381960913 0.898 1.73121793269e-38
-0.0298477520357 -0.0331641689285 0.896 1.26163735223e-38
-0.0281895435892 -0.0331641689285 0.896 1.71350103594e-38
-0.0265313351428 -0.0331641689285 0.896 1.73146904537e-38
-0.0248731266964 -0.0331641689285 0.896 1.73128925878e-38
-0.02321491825 -0.0331641689285 0.896 1.72217759578e-38
-0.0215567098035 -0.0331641689285 0.896 1.82355705551e-38
-0.0198985013571 -0.0331641689285 0.896 1.68515641139e-38
-0.0182402929107 -0.0331641689285 0.896 1.74958545231e-38
-0.0165820844643 -0.0331641689285 0.896 1.6759020962e-38
-0.0149238760178 -0.0331641689285 0.896 1.83281249174e-38
-0.0132656675714 -0.0331641689285 0.896 1.33477153947e-38
-0.011581549618 -0.0330901417657 0.894 1.63887110272e-38
-0.00992704252972 -0.0330901417657 0.894 1.20573549272e-38
-0.00824477525538 -0.0329791010215 0.891 1.97966899119e-38
-0.00659582020431 -0.0329791010215 0.891 1.37100407308e-38
-0.00494686515323 -0.0329791010215 0.891 1.55589699766e-38
-0.00329050738588 -0.0329050738588 0.889 1.55589727792e-38
-0.00164525369294 -0.0329050738588 0.889 1.39034395371e-38
0.0 -0.0329050738588 0.889 1.37230643988e-38
0.00164525369294 -0.0329050738588 0.889 1.51081288204e-38
0.0032831046696 -0.032831046696 0.887 1.31705982753e-38
0.00492465700439 -0.032831046696 0.887 1.28032562907e-38
0.00656620933919 -0.032831046696 0.887 1.19720761066e-38
0.00820776167399 -0.032831046696 0.887 1.5937146801e-38
0.00982710585995 -0.0327570195332 0.885 1.64881793961e-38
0.0114649568366 -0.0327570195332 0.885 1.71335488051e-38
0.0131028078133 -0.0327570195332 0.885 5.87747175411e-39
0.0147406587899 -0.0327570195332 0.885 4.5917762092e-39
0.0168966999061 -0.0337933998122 0.913 1.60092464096e-38
0.0185863698967 -0.0337933998122 0.913 1.46356348003e-38
0.0202094154408 -0.033682359068 0.91 2.17328808157e-38
0.0218935333942 -0.033682359068 0.91 1.9519472438e-38
0.0235776513476 -0.033682359068 0.91 2.30218147613e-38
0.025261769301 -0.033682359068 0.91 1.65720667274e-38
-0.0467925695976 -0.0317521007983 0.903 1.53778815774e-38
-0.0451214063976 -0.0317521007983 0.903 1.51934903176e-38
-0.0434502431977 -0.0317521007983 0.903 1.65746100841e-38
-0.0417790799978 -0.0317521007983 0.903 1.18730253246e-38
-0.0400190842026 -0.0316817749937 0.901 5.05095228869e-39
-0.0383516223608 -0.0316817749937 0.901 1.21474920496e-38
-0.036684160519 -0.0316817749937 0.901 1.92522504261e-38
-0.0350166986772 -0.0316817749937 0.901 1.37172462075e-38
-0.0332381960913 -0.0315762862867 0.898 1.44581183108e-38
-0.0315762862867 -0.0315762862867 0.898 1.6673674879e-38
-0.0299143764822 -0.0315762862867 0.898 1.33525036316e-38
-0.0281895435892 -0.0315059604821 0.896 1.71346306076e-38
-0.0265313351428 -0.0315059604821 0.896 1.72217969772e-38
-0.0248731266964 -0.0315059604821 0.896 1.74050882177e-38
-0.02321491825 -0.0315059604821 0.896 1.74050938229e-38
-0.0215567098035 -0.0315059604821 0.896 1.72210781111e-38
-0.0198985013571 -0.0315059604821 0.896 1.78660691696e-38
-0.0182402929107 -0.0315059604821 0.896 1.75902067513e-38
-0.0165820844643 -0.0315059604821 0.896 1.78660649657e-38
-0.0149238760178 -0.0315059604821 0.896 1.84203163434e-38
-0.0132656675714 -0.0315059604821 0.896 1.39008807661e-38
-0.011607459125 -0.0315059604821 0.896 1.53695844892e-38
-0.00994925067855 -0.0315059604821 0.896 1.41789053879e-38
-0.00827253544143 -0.0314356346774 0.894 1.85085252791e-38
-0.00661802835314 -0.0314356346774 0.894 1.42693059544e-38
-0.00496352126486 -0.0314356346774 0.894 1.42786442074e-38
-0.00329791010215 -0.0313301459705 0.891 1.68590526529e-38
-0.00164525369294 -0.0312598201658 0.889 1.54772238294e-38
0.0 -0.0312598201658 0.889 1.15118154221e-38
0.00164525369294 -0.0312598201658 0.889 1.41836740066e-38
0.00329050738588 -0.0312598201658 0.889 1.30769116639e-38
0.00492465700439 -0.0311894943612 0.887 1.18816727374e-38
0.00656620933919 -0.0311894943612 0.887 1.11394231578e-38
0.00820776167399 -0.0311894943612 0.887 1.25220353071e-38
0.00984931400879 -0.0311894943612 0.887 1.75002013509e-38
0.0114908663436 -0.0311894943612 0.887 1.66714944586e-38
0.0131324186784 -0.0311894943612 0.887 5.51012976948e-39
0.0147739710132 -0.0311894943612 0.887 4.13259732711e-39
0.0169892338596 -0.0322795443332 0.918 1.54557068915e-38
0.0186881572455 -0.0322795443332 0.918 1.60185818599e-38
0.0203870806315 -0.0322795443332 0.918 2.34881823045e-38
0.0218935333942 -0.0319982411146 0.91 1.84138087133e-38
0.0235776513476 -0.0319982411146 0.91 2.19176378143e-38
0.0254005702312 -0.0321740556262 0.915 1.51883713743e-38
-0.0467925695976 -0.0300809375984 0.903 1.51002198919e-38
-0.0451214063976 -0.0300809375984 0.903 1.47314303659e-38
-0.0434502431977 -0.0300809375984 0.903 1.61140018776e-38
-0.0417790799978 -0.0300809375984 0.903 1.12280062402e-38
-0.0401079167979 -0.0300809375984 0.903 4.86728129637e-39
-0.038436753598 -0.0300809375984 0.903 1.30680092147e-38
-0.0367655903981 -0.0300809375984 0.903 1.9067871778e-38
-0.0350944271982 -0.0300809375984 0.903 1.46432004107e-38
-0.0334232639983 -0.0300809375984 0.903 1.29912825186e-38
-0.0317521007983 -0.0300809375984 0.903 1.60304410488e-38
-0.0300143131519 -0.0300143131519 0.901 1.35343249099e-38
-0.0283468513102 -0.0300143131519 0.901 1.84210352095e-38
-0.026590556873 -0.0299143764822 0.898 1.72221318876e-38
-0.0249286470685 -0.0299143764822 0.898 1.80504576267e-38
-0.0232667372639 -0.0299143764822 0.898 1.74969139047e-38
-0.0216048274593 -0.0299143764822 0.898 1.77738665332e-38
-0.0199429176548 -0.0299143764822 0.898 1.71292272007e-38
-0.0182810078502 -0.0299143764822 0.898 1.70370315708e-38
-0.0166190980456 -0.0299143764822 0.898 1.74965635801e-38
-0.0149571882411 -0.0299143764822 0.898 1.8234851689e-38
-0.0132952784365 -0.0299143764822 0.898 1.24279255035e-38
-0.011633368632 -0.0299143764822 0.898 1.72167172703e-38
-0.00994925067855 -0.0298477520357 0.896 1.33538362664e-38
-0.00829104223213 -0.0298477520357 0.896 1.90677947066e-38
-0.0066328337857 -0.0298477520357 0.896 1.4913250243e-38
-0.00496352126486 -0.0297811275891 0.894 1.38105376528e-38
-0.00330901417657 -0.0297811275891 0.894 1.70413531753e-38
-0.00164895505108 -0.0296811909194 0.891 1.46499798927e-38
0.0 -0.0296811909194 0.891 1.19720578897e-38
0.00164895505108 -0.0296811909194 0.891 1.42765730883e-38
0.00329050738588 -0.0296145664729 0.889 1.22525908358e-38
0.00493576107881 -0.0296145664729 0.889 1.19792451495e-38
0.00658101477175 -0.0296145664729 0.889 1.31742290396e-38
0.00820776167399 -0.0295479420264 0.887 1.17012443498e-38
0.00984931400879 -0.0295479420264 0.887 1.83324997712e-38
0.0114908663436 -0.0295479420264 0.887 1.53807654496e-38
0.0131324186784 -0.0295479420264 0.887 4.95911679253e-39
0.0147739710132 -0.0295479420264 0.887 4.22443282327e-39
0.0164895505108 -0.0296811909194 0.891 1.71202602918e-38
0.0186881572455 -0.0305806209472 0.918 1.52813671456e-38
0.0203870806315 -0.0305806209472 0.918 2.05371794607e-38
0.0220138275337 -0.0304806842775 0.915 1.76769709483e-38
0.0237071988825 -0.0304806842775 0.915 1.95169192722e-38
0.0254005702312 -0.0304806842775 0.915 1.73024837428e-38
0.02709394158 -0.0304806842775 0.915 1.72178256974e-38
0.0287873129287 -0.0304806842775 0.915 1.76795353245e-38
-0.0467925695976 -0.0284097743985 0.903 1.45484712332e-38
-0.0450214697279 -0.0283468513102 0.901 1.45484684306e-38
-0.0433540078861 -0.0283468513102 0.901 1.53768025775e-38
-0.0417790799978 -0.0284097743985 0.903 1.10443282414e-38
-0.0401079167979 -0.0284097743985 0.903 4.86728129637e-39
-0.038436753598 -0.0284097743985 0.903 1.35300663639e-38
-0.0367655903981 -0.0284097743985 0.903 1.88831105755e-38
-0.0350944271982 -0.0284097743985 0.903 1.39956898176e-38
-0.0334232639983 -0.0284097743985 0.903 1.17901931711e-38
-0.0317521007983 -0.0284097743985 0.903 1.5744124944e-38
-0.0300809375984 -0.0284097743985 0.903 1.24207816839e-38
-0.0284097743985 -0.0284097743985 0.903 1.33441897278e-38
-0.0266793894684 -0.0283468513102 0.901 1.53771949411e-38
-0.0249286470685 -0.0282524666776 0.898 1.50123402613e-38
-0.0232667372639 -0.0282524666776 0.898 1.7041323748e-38
-0.0216048274593 -0.0282524666776 0.898 1.71306523212e-38
-0.0199429176548 -0.0282524666776 0.898 1.81430063838e-38
-0.0182810078502 -0.0282524666776 0.898 1.74976425799e-38
-0.0166190980456 -0.0282524666776 0.898 1.72214284357e-38
-0.0149571882411 -0.0282524666776 0.898 1.86972549589e-38
-0.0132952784365 -0.0282524666776 0.898 1.16028409677e-38
-0.011633368632 -0.0282524666776 0.898 1.76863274182e-38
-0.00997145882739 -0.0282524666776 0.898 1.24300778979e-38
-0.00830954902282 -0.0282524666776 0.898 1.83284346044e-38
-0.0066328337857 -0.0281895435892 0.896 1.38973032511e-38
-0.00497462533928 -0.0281895435892 0.896 1.35310374637e-38
-0.00331641689285 -0.0281895435892 0.896 1.76813051645e-38
-0.00165820844643 -0.0281895435892 0.896 1.44627397932e-38
0.0 -0.0281895435892 0.896 1.30787655818e-38
0.00165450708829 -0.0281266205009 0.894 1.39131981796e-38
0.00330901417657 -0.0281266205009 0.894 1.19750020178e-38
0.00496352126486 -0.0281266205009 0.894 1.20704024172e-38
0.00659582020431 -0.0280322358683 0.891 1.17001779616e-38
0.00822626846469 -0.0279693127799 0.889 1.25310092224e-38
0.00987152215763 -0.0279693127799 0.889 1.87916590351e-38
0.0115167758506 -0.0279693127799 0.889 1.41811278473e-38
0.0131620295435 -0.0279693127799 0.889 4.77544580022e-39
0.0148072832364 -0.0279693127799 0.889 4.5917748079e-39
0.0164895505108 -0.0280322358683 0.891 1.73050018761e-38
0.0183420802595 -0.0283468513102 0.901 1.2790290076e-38
0.0203870806315 -0.0288816975613 0.918 2.21956694426e-38
0.0220138275337 -0.0287873129287 0.915 1.64802606585e-38
0.0237071988825 -0.0287873129287 0.915 1.66574548493e-38
0.0254005702312 -0.0287873129287 0.915 1.89641560735e-38
0.02709394158 -0.0287873129287 0.915 1.93365105027e-38
0.0287873129287 -0.0287873129287 0.915 1.71270621945e-38
-0.0467925695976 -0.0267386111986 0.903 1.4180764911e-38
-0.0450214697279 -0.0266793894684 0.901 1.44562728008e-38
-0.0433540078861 -0.0266793894684 0.901 1.49165278801e-38
-0.0417790799978 -0.0267386111986 0.903 1.07659490911e-38
-0.0401079167979 -0.0267386111986 0.903 5.14278778485e-39
-0.038436753598 -0.0267386111986 0.903 1.41736351044e-38
-0.0367655903981 -0.0267386111986 0.903 1.87001668571e-38
-0.0350944271982 -0.0267386111986 0.903 1.42668845107e-38
-0.0334232639983 -0.0267386111986 0.903 1.25165800521e-38
-0.0317521007983 -0.0267386111986 0.903 1.75869263116e-38
-0.0300809375984 -0.0267386111986 0.903 1.5187688942e-38
-0.0284097743985 -0.0267386111986 0.903 1.80483374621e-38
-0.0266793894684 -0.0266793894684 0.901 1.63041356584e-38
-0.0250119276266 -0.0266793894684 0.901 1.40925349558e-38
-0.0233444657848 -0.0266793894684 0.901 1.22435608684e-38
-0.0216770039431 -0.0266793894684 0.901 1.76838036796e-38
-0.0200095421013 -0.0266793894684 0.901 1.74965579749e-38
-0.0183420802595 -0.0266793894684 0.901 1.7683105833e-38
-0.0166190980456 -0.026590556873 0.898 1.79582647994e-38
-0.0149571882411 -0.026590556873 0.898 1.85128679031e-38
-0.0132952784365 -0.026590556873 0.898 1.33548900429e-38
-0.011633368632 -0.026590556873 0.898 1.7501577426e-38
-0.00997145882739 -0.026590556873 0.898 1.26105202986e-38
-0.00830954902282 -0.026590556873 0.898 1.78649383217e-38
-0.00664763921826 -0.026590556873 0.898 1.49114299562e-38
-0.00498572941369 -0.026590556873 0.898 1.48246167138e-38
-0.00332381960913 -0.026590556873 0.898 1.70365691423e-38
-0.00166190980456 -0.026590556873 0.898 1.5840950464e-38
0.0 -0.0265313351428 0.896 1.31710102571e-38
0.00165820844643 -0.0265313351428 0.896 1.29933928741e-38
0.00331641689285 -0.0265313351428 0.896 1.28071813277e-38
0.00497462533928 -0.0265313351428 0.896 1.22504342374e-38
0.00661802835314 -0.0264721134126 0.894 1.23408334026e-38
0.00824477525538 -0.0263832808172 0.891 1.32649378918e-38
0.00989373030646 -0.0263832808172 0.891 1.89764048234e-38
0.0115167758506 -0.026324059087 0.889 1.16000033383e-38
0.0131620295435 -0.026324059087 0.889 4.86728129637e-39
0.0149238760178 -0.0265313351428 0.896 4.68361030406e-39
0.0166190980456 -0.026590556873 0.898 1.84120809123e-38
0.0183420802595 -0.0266793894684 0.901 1.45441524313e-38
0.0202094154408 -0.0269458872544 0.91 2.3023635048e-38
0.0220138275337 -0.02709394158 0.915 1.45405230683e-38
0.0237071988825 -0.02709394158 0.915 1.51869882928e-38
0.0254005702312 -0.02709394158 0.915 1.93354763445e-38
0.02709394158 -0.02709394158 0.915 1.56476315317e-38
-0.0467925695976 -0.0250674479987 0.903 1.44555539346e-38
-0.0451214063976 -0.0250674479987 0.903 1.35343249099e-38
-0.0434502431977 -0.0250674479987 0.903 1.50090962553e-38
-0.0417790799978 -0.0250674479987 0.903 1.04882888068e-38
-0.0401079167979 -0.0250674479987 0.903 4.86728129637e-39
-0.038436753598 -0.0250674479987 0.903 1.4820805182e-38
-0.0368877352167 -0.0251507285568 0.906 1.81469776636e-38
-0.0352110199796 -0.0251507285568 0.906 1.445375747e-38
-0.0334232639983 -0.0250674479987 0.903 1.69441338904e-38
-0.0317521007983 -0.0250674479987 0.903 1.48275790587e-38
-0.0300809375984 -0.0250674479987 0.903 1.62044150558e-38
-0.0284097743985 -0.0250674479987 0.903 1.72192760413e-38
-0.0267386111986 -0.0250674479987 0.903 1.76820114189e-38
-0.0250119276266 -0.0250119276266 0.901 1.78664152903e-38
-0.0233444657848 -0.0250119276266 0.901 1.82359433005e-38
-0.0216770039431 -0.0250119276266 0.901 1.77746176292e-38
-0.0200095421013 -0.0250119276266 0.901 1.74976425799e-38
-0.0183420802595 -0.0250119276266 0.901 1.77738693358e-38
-0.0166746184177 -0.0250119276266 0.901 1.74962356763e-38
-0.015007156576 -0.0250119276266 0.901 1.81423085371e-38
-0.0132952784365 -0.0249286470685 0.898 1.40884978149e-38
-0.011633368632 -0.0249286470685 0.898 1.80493071607e-38
-0.00997145882739 -0.0249286470685 0.898 1.29800146777e-38
-0.00830954902282 -0.0249286470685 0.898 1.78648976841e-38
-0.00664763921826 -0.0249286470685 0.898 1.46330690228e-38
-0.00498572941369 -0.0249286470685 0.898 1.33509439864e-38
-0.00332381960913 -0.0249286470685 0.898 1.65770679616e-38
-0.00166190980456 -0.0249286470685 0.898 1.65788882483e-38
0.0 -0.0248731266964 0.896 1.20664395452e-38
0.00165820844643 -0.0248731266964 0.896 1.25277455983e-38
0.00331641689285 -0.0248731266964 0.896 1.44598853482e-38
0.00497462533928 -0.0248731266964 0.896 1.13277576714e-38
0.0066328337857 -0.0248731266964 0.896 1.21528646279e-38
0.00827253544143 -0.0248176063243 0.894 1.27975151709e-38
0.00992704252972 -0.0248176063243 0.894 2.04500327092e-38
0.011581549618 -0.0248176063243 0.894 9.47806892184e-39
0.0132360567063 -0.0248176063243 0.894 5.05095228869e-39
0.0149238760178 -0.0248731266964 0.896 4.95911679253e-39
0.0166190980456 -0.0249286470685 0.898 1.7398296124e-38
0.0183420802595 -0.0250119276266 0.901 1.39902331614e-38
0.0202094154408 -0.025261769301 0.91 2.34871215216e-38
0.0220860040175 -0.0254838507894 0.918 1.51863002552e-38
0.0237849274034 -0.0254838507894 0.918 1.82304810391e-38
-0.0452713114023 -0.0234740133197 0.906 1.38105348502e-38
-0.0435945961652 -0.0234740133197 0.906 1.473357155e-38
-0.041917880928 -0.0234740133197 0.906 1.00280309249e-38
-0.0402411656909 -0.0234740133197 0.906 4.77544580022e-39
-0.0385644504538 -0.0234740133197 0.906 1.59246318044e-38
-0.0368877352167 -0.0234740133197 0.906 1.80547792312e-38
-0.0352110199796 -0.0234740133197 0.906 1.39992659313e-38
-0.0335343047424 -0.0234740133197 0.906 1.40979804016e-38
-0.0318575895053 -0.0234740133197 0.906 1.47389987789e-38
-0.0301808742682 -0.0234740133197 0.906 1.75923269159e-38
-0.0284097743985 -0.0233962847988 0.903 1.74065161408e-38
-0.0267386111986 -0.0233962847988 0.903 1.74058070838e-38
-0.0250674479987 -0.0233962847988 0.903 1.74980083188e-38
-0.0233962847988 -0.0233962847988 0.903 1.7312898193e-38
-0.0217251215989 -0.0233962847988 0.903 1.66675231788e-38
-0.020053958399 -0.0233962847988 0.903 1.73117659438e-38
-0.018382795199 -0.0233962847988 0.903 1.69433898009e-38
-0.0167116319991 -0.0233962847988 0.903 1.79561096024e-38
-0.015007156576 -0.0233444657848 0.901 1.80497387606e-38
-0.0133396947342 -0.0233444657848 0.901 1.48231817842e-38
-0.011633368632 -0.0232667372639 0.898 1.76790827051e-38
-0.00997145882739 -0.0232667372639 0.898 1.32566183828e-38
-0.00830954902282 -0.0232667372639 0.898 1.71330989883e-38
-0.00664763921826 -0.0232667372639 0.898 1.40849371155e-38
-0.00498572941369 -0.0232667372639 0.898 1.35396512454e-38
-0.00332381960913 -0.0232667372639 0.898 1.78724534854e-38
-0.00166190980456 -0.0232667372639 0.898 1.55662188936e-38
0.0 -0.0232667372639 0.898 1.16040264662e-38
0.00166190980456 -0.0232667372639 0.898 1.16954667962e-38
0.00331641689285 -0.02321491825 0.896 1.574881509e-38
0.00497462533928 -0.02321491825 0.896 1.16957989039e-38
0.0066328337857 -0.02321491825 0.896 1.22478768677e-38
0.00829104223213 -0.02321491825 0.896 1.29826351058e-38
0.00994925067855 -0.02321491825 0.896 2.10936154627e-38
0.011607459125 -0.02321491825 0.896 7.17285447531e-39
0.0132656675714 -0.02321491825 0.896 5.23462328101e-39
0.0149571882411 -0.0232667372639 0.898 5.41829427332e-39
0.0166190980456 -0.0232667372639 0.898 1.74025756895e-38
0.0182810078502 -0.0232667372639 0.898 1.50033355173e-38
0.0199429176548 -0.0232667372639 0.898 2.21038213347e-38
-0.0452713114023 -0.0217972980826 0.906 1.40871427593e-38
-0.0435945961652 -0.0217972980826 0.906 1.45474020425e-38
-0.0422417497652 -0.0219657098779 0.913 1.01187832174e-38
-0.0404188308816 -0.0218935333942 0.91 5.05095228869e-39
-0.0387347129282 -0.0218935333942 0.91 1.73050467177e-38
-0.0368877352167 -0.0217972980826 0.906 1.68566242026e-38
-0.0352110199796 -0.0217972980826 0.906 1.34464620949e-38
-0.0335343047424 -0.0217972980826 0.906 1.39996190585e-38
-0.0318575895053 -0.0217972980826 0.906 1.62051030933e-38
-0.0301808742682 -0.0217972980826 0.906 1.77753056667e-38
-0.0284097743985 -0.0217251215989 0.903 1.77760189277e-38
-0.0267386111986 -0.0217251215989 0.903 1.75909102031e-38
-0.0251507285568 -0.0217972980826 0.906 1.75902067513e-38
-0.0234740133197 -0.0217972980826 0.906 1.76809968788e-38
-0.0217972980826 -0.0217972980826 0.906 1.80504632319e-38
-0.0201205828455 -0.0217972980826 0.906 1.86032614631e-38
-0.0184438676083 -0.0217972980826 0.906 1.74047589125e-38
-0.0167116319991 -0.0217251215989 0.903 1.76806017126e-38
-0.0150404687992 -0.0217251215989 0.903 1.72199794931e-38
-0.0133396947342 -0.0216770039431 0.901 1.77716426726e-38
-0.011633368632 -0.0216048274593 0.898 1.8043881333e-38
-0.00997145882739 -0.0216048274593 0.898 1.52817076612e-38
-0.00830954902282 -0.0216048274593 0.898 1.57512883818e-38
-0.00664763921826 -0.0216048274593 0.898 1.67610836733e-38
-0.00498572941369 -0.0216048274593 0.898 1.43661679082e-38
-0.00332381960913 -0.0216048274593 0.898 1.74983404266e-38
-0.00166190980456 -0.0216048274593 0.898 1.52896081819e-38
0.0 -0.0216048274593 0.898 1.29858524871e-38
0.00166190980456 -0.0216048274593 0.898 1.25269846932e-38
0.00332381960913 -0.0216048274593 0.898 1.60261642859e-38
0.00498572941369 -0.0216048274593 0.898 1.13285157738e-38
0.0066328337857 -0.0215567098035 0.896 1.24388149939e-38
0.00829104223213 -0.0215567098035 0.896 1.28972834176e-38
0.00994925067855 -0.0215567098035 0.896 2.13695213213e-38
0.011607459125 -0.0215567098035 0.896 6.61825417429e-39
0.0132656675714 -0.0215567098035 0.896 4.5917748079e-39
0.0149571882411 -0.0216048274593 0.898 5.87747175411e-39
0.0166190980456 -0.0216048274593 0.898 1.76773422924e-38
0.0182810078502 -0.0216048274593 0.898 1.6110783095e-38
0.0199429176548 -0.0216048274593 0.898 2.20122590918e-38
-0.0473107597371 -0.0202760398873 0.913 1.39020326334e-38
-0.0456210897465 -0.0202760398873 0.913 1.41800474462e-38
-0.0439314197559 -0.0202760398873 0.913 1.44552064126e-38
-0.0422417497652 -0.0202760398873 0.913 9.29009874583e-39
-0.0404188308816 -0.0202094154408 0.91 5.23462328101e-39
-0.0387347129282 -0.0202094154408 0.91 1.75809105373e-38
-0.0369691650957 -0.0201649991431 0.908 1.71346334102e-38
-0.0352887485005 -0.0201649991431 0.908 1.14145414866e-38
-0.0336083319052 -0.0201649991431 0.908 1.92460749037e-38
-0.0318575895053 -0.0201205828455 0.906 1.29778889079e-38
-0.0301808742682 -0.0201205828455 0.906 1.52838684634e-38
-0.0284097743985 -0.020053958399 0.903 1.53811185768e-38
-0.0267386111986 -0.020053958399 0.903 1.50126933885e-38
-0.0251507285568 -0.0201205828455 0.906 1.74976397773e-38
-0.0234740133197 -0.0201205828455 0.906 1.81430091864e-38
-0.0217972980826 -0.0201205828455 0.906 1.79568186594e-38
-0.0201205828455 -0.0201205828455 0.906 1.87858744751e-38
-0.0184438676083 -0.0201205828455 0.906 1.81426588618e-38
-0.0167671523712 -0.0201205828455 0.906 1.80504576267e-38
-0.0150404687992 -0.020053958399 0.903 1.76813444008e-38
-0.0133396947342 -0.0200095421013 0.901 1.75904996227e-38
-0.0116722328924 -0.0200095421013 0.901 1.86939044543e-38
-0.0100047710506 -0.0200095421013 0.901 1.23296622513e-38
-0.00833730920887 -0.0200095421013 0.901 1.59292000374e-38
-0.00666984736709 -0.0200095421013 0.901 1.49107124914e-38
-0.00498572941369 -0.0199429176548 0.898 1.41764068728e-38
-0.00332381960913 -0.0199429176548 0.898 1.74954719686e-38
-0.00166190980456 -0.0199429176548 0.898 1.56558557524e-38
0.0 -0.0199429176548 0.898 1.27125096034e-38
0.00166190980456 -0.0199429176548 0.898 1.19799668182e-38
0.00332381960913 -0.0199429176548 0.898 1.48304685362e-38
0.00498572941369 -0.0199429176548 0.898 1.30791215116e-38
0.0066328337857 -0.0198985013571 0.896 1.22526006448e-38
0.00829104223213 -0.0198985013571 0.896 1.40039672876e-38
0.00994925067855 -0.0198985013571 0.896 2.1369895468e-38
0.011607459125 -0.0198985013571 0.896 4.40810381558e-39
0.0132656675714 -0.0198985013571 0.896 3.94892633479e-39
0.0149571882411 -0.0199429176548 0.898 6.42848473106e-39
0.0166190980456 -0.0199429176548 0.898 1.74025911038e-38
0.0182810078502 -0.0199429176548 0.898 1.50040445744e-38
0.0200095421013 -0.0200095421013 0.901 1.92439813638e-38
-0.0473107597371 -0.0185863698967 0.913 1.3809834201e-38
-0.0456210897465 -0.0185863698967 0.913 1.34406943504e-38
-0.0439314197559 -0.0185863698967 0.913 1.41789628412e-38
-0.0422417497652 -0.0185863698967 0.913 9.28973440823e-39
-0.0405520797746 -0.0185863698967 0.913 4.95911679253e-39
-0.038862409784 -0.0185863698967 0.913 1.82255610802e-38
-0.0370505949748 -0.0185252974874 0.91 1.68559039352e-38
-0.0353664770214 -0.0185252974874 0.91 1.53753802596e-38
-0.0336083319052 -0.0184845825479 0.908 1.47289150352e-38
-0.03192791531 -0.0184845825479 0.908 1.56555600785e-38
-0.0302474987147 -0.0184845825479 0.908 1.49234068542e-38
-0.0285041590311 -0.0184438676083 0.906 1.48311944088e-38
-0.026827443794 -0.0184438676083 0.906 1.42747612094e-38
-0.0251507285568 -0.0184438676083 0.906 1.38962803032e-38
-0.0234740133197 -0.0184438676083 0.906 1.44469205348e-38
-0.0217972980826 -0.0184438676083 0.906 1.77684841458e-38
-0.0201205828455 -0.0184438676083 0.906 1.48189022186e-38
-0.0184438676083 -0.0184438676083 0.906 1.47328624929e-38
-0.0167671523712 -0.0184438676083 0.906 1.49205159755e-38
-0.0150904371341 -0.0184438676083 0.906 1.63945474353e-38
-0.0133693055993 -0.018382795199 0.903 1.72242366379e-38
-0.0116981423994 -0.018382795199 0.903 1.66685012851e-38
-0.0100269791995 -0.018382795199 0.903 1.84191840942e-38
-0.00835581599956 -0.018382795199 0.903 1.77745545708e-38
-0.00666984736709 -0.0183420802595 0.901 1.87861281101e-38
-0.00500238552532 -0.0183420802595 0.901 1.74064404707e-38
-0.00332381960913 -0.0182810078502 0.898 1.91588959224e-38
-0.00166190980456 -0.0182810078502 0.898 1.44588161575e-38
0.0 -0.0182810078502 0.898 1.19767578447e-38
0.00166190980456 -0.0182810078502 0.898 1.13320918875e-38
0.00332381960913 -0.0182810078502 0.898 1.64867304535e-38
0.00498572941369 -0.0182810078502 0.898 1.34442970888e-38
0.0066328337857 -0.0182402929107 0.896 1.13255926652e-38
0.00829104223213 -0.0182402929107 0.896 1.38130726017e-38
0.00994925067855 -0.0182402929107 0.896 2.19230454251e-38
0.011633368632 -0.0182810078502 0.898 3.94892633479e-39
0.0132952784365 -0.0182810078502 0.898 4.5917748079e-39
0.0149571882411 -0.0182810078502 0.898 8.17443535528e-39
0.0166190980456 -0.0182810078502 0.898 1.82341075995e-38
0.0183420802595 -0.0183420802595 0.901 1.50980520831e-38
0.0200095421013 -0.0183420802595 0.901 1.39016795062e-38
-0.0456210897465 -0.0168966999061 0.913 1.34406915478e-38
-0.0439314197559 -0.0168966999061 0.913 1.42711640762e-38
-0.0422417497652 -0.0168966999061 0.913 9.56525490969e-39
-0.0405520797746 -0.0168966999061 0.913 5.23462328101e-39
-0.038862409784 -0.0168966999061 0.913 1.850106897e-38
-0.0371727397934 -0.0168966999061 0.913 1.63941999133e-38
-0.0353664770214 -0.016841179534 0.91 1.69462596602e-38
-0.033682359068 -0.016841179534 0.91 1.7594168222e-38
-0.03192791531 -0.0168041659526 0.908 1.50151947062e-38
-0.0302474987147 -0.0168041659526 0.908 1.61197247805e-38
-0.0285670821194 -0.0168041659526 0.908 1.27949746168e-38
-0.0268866655242 -0.0168041659526 0.908 1.76795030946e-38
-0.0251507285568 -0.0167671523712 0.906 1.39920170143e-38
-0.0234740133197 -0.0167671523712 0.906 1.44487169994e-38
-0.0218454157384 -0.0168041659526 0.908 1.62962827818e-38
-0.0201649991431 -0.0168041659526 0.908 1.58414156951e-38
-0.0184438676083 -0.0167671523712 0.906 1.46471562763e-38
-0.0167671523712 -0.0167671523712 0.906 1.50134150572e-38
-0.0150904371341 -0.0167671523712 0.906 1.44559224761e-38
-0.013413721897 -0.0167671523712 0.906 1.60235760877e-38
-0.0116981423994 -0.0167116319991 0.903 1.41720824657e-38
-0.0100269791995 -0.0167116319991 0.903 1.74940398416e-38
-0.00835581599956 -0.0167116319991 0.903 1.51941755526e-38
-0.00668465279965 -0.0167116319991 0.903 1.5009780089e-38
-0.00501348959974 -0.0167116319991 0.903 1.76812603229e-38
-0.00333492368355 -0.0166746184177 0.901 1.83240989869e-38
-0.00166746184177 -0.0166746184177 0.901 1.40860609569e-38
0.0 -0.0166746184177 0.901 1.17841073319e-38
0.00166746184177 -0.0166746184177 0.901 1.08592615558e-38
0.00333492368355 -0.0166746184177 0.901 1.72171250481e-38
0.00498572941369 -0.0166190980456 0.898 9.93978695674e-39
0.00664763921826 -0.0166190980456 0.898 1.22485621027e-38
0.00830954902282 -0.0166190980456 0.898 1.16918962877e-38
0.00997145882739 -0.0166190980456 0.898 2.15553222872e-38
0.011633368632 -0.0166190980456 0.898 3.85709083864e-39
0.0132952784365 -0.0166190980456 0.898 5.14278778485e-39
0.015007156576 -0.0166746184177 0.901 8.91128152808e-39
0.0166746184177 -0.0166746184177 0.901 1.80493491996e-38
0.0183420802595 -0.0166746184177 0.901 1.76784535221e-38
-0.0456210897465 -0.0152070299155 0.913 1.3441044675e-38
-0.0439314197559 -0.0152070299155 0.913 1.45477523671e-38
-0.0422417497652 -0.0152070299155 0.913 8.64401607587e-39
-0.0405520797746 -0.0152070299155 0.913 5.05095228869e-39
-0.038862409784 -0.0152070299155 0.913 1.95144978285e-38
-0.0371727397934 -0.0152070299155 0.913 1.67665739607e-38
-0.0354830698028 -0.0152070299155 0.913 1.32620638287e-38
-0.0337933998122 -0.0152070299155 0.913 1.5193487515e-38
-0.0319982411146 -0.0151570615806 0.91 1.52856284943e-38
-0.0303141231612 -0.0151570615806 0.91 1.51005309801e-38
-0.0285670821194 -0.0151237493574 0.908 1.62990965891e-38
-0.0268866655242 -0.0151237493574 0.908 1.70395104678e-38
-0.0252062489289 -0.0151237493574 0.908 1.65814470193e-38
-0.0235258323337 -0.0151237493574 0.908 1.78689180094e-38
-0.0218454157384 -0.0151237493574 0.908 1.7316861065e-38
-0.0201649991431 -0.0151237493574 0.908 1.47356763003e-38
-0.0184845825479 -0.0151237493574 0.908 1.56523202764e-38
-0.0168041659526 -0.0151237493574 0.908 1.49111454927e-38
-0.0150904371341 -0.0150904371341 0.906 1.45394833049e-38
-0.013413721897 -0.0150904371341 0.906 1.58381408606e-38
-0.0117370066599 -0.0150904371341 0.906 1.54708002772e-38
-0.0100269791995 -0.0150404687992 0.903 1.61201353609e-38
-0.00835581599956 -0.0150404687992 0.903 1.52921305191e-38
-0.00668465279965 -0.0150404687992 0.903 1.63931097031e-38
-0.00501348959974 -0.0150404687992 0.903 1.7867150972e-38
-0.00334232639983 -0.0150404687992 0.903 1.86025776294e-38
-0.00167116319991 -0.0150404687992 0.903 1.8511463802e-38
0.0 -0.0150404687992 0.903 1.8605434877e-38
0.00167116319991 -0.0150404687992 0.903 1.75912731394e-38
0.00334232639983 -0.0150404687992 0.903 1.80497387606e-38
0.00500238552532 -0.015007156576 0.901 1.69454805382e-38
0.00664763921826 -0.0149571882411 0.898 1.51045092665e-38
0.00830954902282 -0.0149571882411 0.898 1.63938439835e-38
0.00997145882739 -0.0149571882411 0.898 2.0542246556e-38
0.0116722328924 -0.015007156576 0.901 3.489748854e-39
0.0133396947342 -0.015007156576 0.901 4.77544580022e-39
0.015007156576 -0.015007156576 0.901 1.06626383618e-38
0.0166746184177 -0.015007156576 0.901 1.78642488829e-38
0.0183420802595 -0.015007156576 0.901 1.50951808226e-38
-0.0457210264162 -0.01354697079 0.915 1.3440697153e-38
-0.0440276550675 -0.01354697079 0.915 1.42712033126e-38
-0.0423342837187 -0.01354697079 0.915 8.91880509953e-39
-0.04064091237 -0.01354697079 0.915 5.32645877716e-39
-0.0389475410212 -0.01354697079 0.915 2.1445565585e-38
-0.0371727397934 -0.0135173599249 0.913 1.65836120254e-38
-0.0354830698028 -0.0135173599249 0.913 1.41861921399e-38
-0.0337933998122 -0.0135173599249 0.913 1.48265252823e-38
-0.0321037298216 -0.0135173599249 0.913 1.60232509864e-38
-0.0303141231612 -0.0134729436272 0.91 1.63956278364e-38
-0.0286300052078 -0.0134729436272 0.91 1.53825507038e-38
-0.0269458872544 -0.0134729436272 0.91 1.63938313718e-38
-0.0252062489289 -0.0134433327621 0.908 1.25187422557e-38
-0.0235258323337 -0.0134433327621 0.908 1.73114338361e-38
-0.0218935333942 -0.0134729436272 0.91 1.44537126285e-38
-0.0202094154408 -0.0134729436272 0.91 1.57441011219e-38
-0.0184845825479 -0.0134433327621 0.908 1.63924062513e-38
-0.0168041659526 -0.0134433327621 0.908 1.67618698018e-38
-0.0150904371341 -0.013413721897 0.906 1.84210380121e-38
-0.013413721897 -0.013413721897 0.906 1.67640404131e-38
-0.0117370066599 -0.013413721897 0.906 1.64878416832e-38
-0.0100602914227 -0.013413721897 0.906 1.5014841579e-38
-0.00838357618561 -0.013413721897 0.906 1.86061509405e-38
-0.00670686094849 -0.013413721897 0.906 1.84199267824e-38
-0.00503014571137 -0.013413721897 0.906 1.78664180929e-38
-0.00335343047424 -0.013413721897 0.906 1.78649929724e-38
-0.00167671523712 -0.013413721897 0.906 1.83259739243e-38
0.0 -0.013413721897 0.906 1.82341258164e-38
0.00167671523712 -0.013413721897 0.906 1.84195918721e-38
0.00334232639983 -0.0133693055993 0.903 1.89698887855e-38
0.00501348959974 -0.0133693055993 0.903 1.88780701049e-38
0.00666984736709 -0.0133396947342 0.901 1.91571835356e-38
0.00833730920887 -0.0133396947342 0.901 1.83266773761e-38
0.0100047710506 -0.0133396947342 0.901 2.04486258056e-38
0.0116722328924 -0.0133396947342 0.901 3.76525534248e-39
0.0133396947342 -0.0133396947342 0.901 4.68361030406e-39
0.0150404687992 -0.0133693055993 0.903 1.06626383618e-38
