# .PCD v0.7 - Point Cloud Data file format
VERSION 0.7
FIELDS x y z rgb
SIZE 4 4 4 4
TYPE F F F F
COUNT 1 1 1 1
WIDTH 839
HEIGHT 1
VIEWPOINT 0 0 0 1 0 0 0
POINTS 839
DATA ascii
0.03485198824 -0.0221785379709 0.856 5.14637510892e-39
0.0364361695237 -0.0221785379709 0.856 1.13069161593e-38
0.037798269319 -0.0220489904361 0.851 2.34882047253e-38
0.0393731972073 -0.0220489904361 0.851 2.34878515981e-38
0.0409481250955 -0.0220489904361 0.851 1.59306041384e-38
0.0425230529838 -0.0220489904361 0.851 5.6938007618e-39
0.0440979808721 -0.0220489904361 0.851 5.69882301549e-39
0.0456729087604 -0.0220489904361 0.851 1.31511888903e-38
0.0472478366487 -0.0220489904361 0.851 2.24726136633e-38
0.048822764537 -0.0220489904361 0.851 9.28582478552e-39
0.0503976924253 -0.0220489904361 0.851 9.55196779765e-39
0.051850475495 -0.0219971714221 0.849 1.14819719687e-38
0.0532958558484 -0.0219453524082 0.847 1.34202283863e-38
0.0548633810204 -0.0219453524082 0.847 1.51841170322e-38
0.0562976572994 -0.0218935333942 0.845 1.34327882245e-38
0.0578614811133 -0.0218935333942 0.845 7.53660913587e-39
0.0594253049271 -0.0218935333942 0.845 6.53252553684e-39
0.0608447757736 -0.0218417143803 0.843 8.55218057971e-39
0.0624048982293 -0.0218417143803 0.843 2.34860046867e-38
0.063965020685 -0.0218417143803 0.843 4.86728129637e-39
0.0655251431408 -0.0218417143803 0.843 7.54236707126e-39
0.0669261071965 -0.0217898953663 0.841 8.55434558584e-39
0.0684825282941 -0.0217898953663 0.841 2.07190722053e-38
0.0700389493917 -0.0217898953663 0.841 2.13604731371e-38
0.0715953704893 -0.0217898953663 0.841 4.04076183095e-39
0.0731517915869 -0.0217898953663 0.841 2.11221641163e-39
0.0745305474938 -0.0217380763524 0.839 6.52391876167e-39
0.0760832672332 -0.0217380763524 0.839 2.34864152672e-38
0.0776359869727 -0.0217380763524 0.839 2.26537553119e-38
0.0791887067122 -0.0217380763524 0.839 2.34845991844e-38
0.0807414264516 -0.0217380763524 0.839 1.13904713828e-38
0.0822941461911 -0.0217380763524 0.839 2.20556432922e-38
0.0838468659305 -0.0217380763524 0.839 2.02360950714e-38
0.0851960109723 -0.0216862573384 0.837 1.93123591237e-38
0.0867450293536 -0.0216862573384 0.837 1.80241510506e-38
0.0882940477349 -0.0216862573384 0.837 1.86677281989e-38
0.0898430661163 -0.0216862573384 0.837 1.97855622008e-38
0.0913920844976 -0.0216862573384 0.837 1.8588795859e-38
0.0927190213905 -0.0216344383245 0.835 9.55376145969e-39
0.0942643384137 -0.0216344383245 0.835 1.19486590079e-38
0.0958096554369 -0.0216344383245 0.835 1.73856395963e-38
0.09735497246 -0.0216344383245 0.835 1.84033830527e-38
0.0989002894832 -0.0216344383245 0.835 1.00100690812e-38
0.100445606506 -0.0216344383245 0.835 2.34763693585e-38
-0.03192791531 -0.0218454157384 0.908 5.05095228869e-39
-0.0300809375984 -0.0217251215989 0.903 1.02931369762e-38
-0.0283468513102 -0.0216770039431 0.901 9.56418431766e-39
-0.026590556873 -0.0216048274593 0.898 9.10428236557e-39
-0.0249286470685 -0.0216048274593 0.898 9.65675549552e-39
-0.0232667372639 -0.0216048274593 0.898 9.56273677635e-39
-0.0215567098035 -0.0215567098035 0.896 8.82732833578e-39
-0.0198540850594 -0.0215085921477 0.894 9.10428236557e-39
-0.0181385055618 -0.021436415664 0.891 9.19467032041e-39
-0.0164895505108 -0.021436415664 0.891 9.01028746848e-39
-0.0148072832364 -0.0213882980082 0.889 8.82517594134e-39
-0.0131620295435 -0.0213882980082 0.889 5.05095228869e-39
-0.0115167758506 -0.0213882980082 0.889 9.92435445676e-39
-0.00987152215763 -0.0213882980082 0.889 2.19190222972e-38
-0.00822626846469 -0.0213882980082 0.889 2.25658784839e-38
-0.00658101477175 -0.0213882980082 0.889 1.17689340721e-38
-0.00492465700439 -0.0213401803524 0.887 1.5617415333e-38
-0.0032831046696 -0.0213401803524 0.887 2.21798740063e-38
-0.0016415523348 -0.0213401803524 0.887 2.30238676636e-38
0.0 -0.0213401803524 0.887 2.22856566261e-38
0.00163229893945 -0.0212198862128 0.882 2.1825754674e-38
0.0032645978789 -0.0212198862128 0.882 2.17314164588e-38
0.00489689681835 -0.0212198862128 0.882 2.21006025522e-38
0.0065291957578 -0.0212198862128 0.882 2.2655183235e-38
0.00816149469725 -0.0212198862128 0.882 2.15481336261e-38
0.00977158548786 -0.021171768557 0.88 2.17335842675e-38
0.0113742735622 -0.0211236509012 0.878 2.15480887846e-38
0.0129991697854 -0.0211236509012 0.878 2.2745928521e-38
0.0146240660085 -0.0211236509012 0.878 1.60185426236e-38
0.0162489622317 -0.0211236509012 0.878 6.70399121953e-39
0.0178738584549 -0.0211236509012 0.878 3.67341984632e-39
0.0194987546781 -0.0211236509012 0.878 1.7111650714e-38
0.021171768557 -0.021171768557 0.88 2.34888703421e-38
0.0227485471244 -0.0211236509012 0.878 2.30235874039e-38
0.0243734433476 -0.0211236509012 0.878 2.12722305702e-38
0.0259983395707 -0.0211236509012 0.878 1.79567612062e-38
0.0276232357939 -0.0211236509012 0.878 1.86000202597e-38
0.0292481320171 -0.0211236509012 0.878 2.34873667488e-38
0.0308730282403 -0.0211236509012 0.878 2.28399416349e-38
0.0324979244634 -0.0211236509012 0.878 6.15297824259e-39
0.0341228206866 -0.0211236509012 0.878 6.3416714886e-39
0.0360327214865 -0.0212920626966 0.885 9.20366805785e-39
0.0374577443701 -0.021171768557 0.88 5.51048850189e-39
0.037931518212 -0.0205462390315 0.854 6.88766221185e-39
0.0395119981375 -0.0205462390315 0.854 9.73456259275e-39
0.041092478063 -0.0205462390315 0.854 4.86728129637e-39
0.0426729579885 -0.0205462390315 0.854 5.97291559382e-39
0.0440979808721 -0.0204740625478 0.851 3.94892633479e-39
0.0456729087604 -0.0204740625478 0.851 2.09006356447e-38
0.047414397765 -0.0205462390315 0.854 8.45891015393e-39
0.048822764537 -0.0204740625478 0.851 5.78563625795e-39
0.0503976924253 -0.0204740625478 0.851 4.86943369081e-39
0.0519726203136 -0.0204740625478 0.851 1.40802497721e-38
0.0534217020251 -0.020425944892 0.849 1.58280417025e-38
0.0549929285553 -0.020425944892 0.849 1.61053068206e-38
0.0564309061924 -0.0203778272361 0.847 8.55218057971e-39
0.0578614811133 -0.0203297095803 0.845 8.36599846055e-39
0.0594253049271 -0.0203297095803 0.845 2.93873587706e-39
0.060989128741 -0.0203297095803 0.845 1.85874968554e-38
0.0625529525549 -0.0203297095803 0.845 2.3491700965e-38
0.0641167763688 -0.0203297095803 0.845 5.41829427332e-39
0.0655251431408 -0.0202815919245 0.843 4.68361030406e-39
0.0670852655965 -0.0202815919245 0.843 6.15405443981e-39
0.0686453880522 -0.0202815919245 0.843 1.64762375306e-38
0.070205510508 -0.0202815919245 0.843 2.32108373125e-38
0.0715953704893 -0.0202334742687 0.841 2.00827327635e-38
0.0731517915869 -0.0202334742687 0.841 1.63005189071e-38
0.0748858778752 -0.0202815919245 0.843 1.2878166904e-38
0.0762646337821 -0.0202334742687 0.841 2.24590126604e-38
0.0778210548797 -0.0202334742687 0.841 2.34842320442e-38
0.0795662452424 -0.0202815919245 0.843 2.24711647207e-38
0.0811263676981 -0.0202815919245 0.843 1.18474964692e-38
0.0826864901538 -0.0202815919245 0.843 2.31652138371e-38
0.0842466126096 -0.0202815919245 0.843 1.83943628945e-38
0.0858067350653 -0.0202815919245 0.843 2.07017297355e-38
0.0871595814652 -0.0202334742687 0.841 2.02429109871e-38
0.0887160025628 -0.0202334742687 0.841 1.13022232108e-38
0.0902724236604 -0.0202334742687 0.841 1.51762038998e-38
0.0916104646278 -0.0201853566129 0.839 1.14858942031e-38
0.0929411028789 -0.0201372389571 0.837 1.30553933247e-38
0.0944901212602 -0.0201372389571 0.837 1.73942435688e-38
0.0960391396415 -0.0201372389571 0.837 1.41638316203e-38
0.0975881580228 -0.0201372389571 0.837 8.63253663885e-39
0.0991371764041 -0.0201372389571 0.837 1.76605014875e-38
0.100686194785 -0.0201372389571 0.837 2.34889698343e-38
-0.03192791531 -0.0201649991431 0.908 5.0513110211e-39
-0.0302474987147 -0.0201649991431 0.908 1.02027392123e-38
-0.0285041590311 -0.0201205828455 0.906 9.47340820314e-39
-0.0267386111986 -0.020053958399 0.903 9.28759742807e-39
-0.0250674479987 -0.020053958399 0.903 9.37907138923e-39
-0.0233444657848 -0.0200095421013 0.901 9.28722608398e-39
-0.0216048274593 -0.0199429176548 0.898 9.01279299013e-39
-0.0199429176548 -0.0199429176548 0.898 9.47341380834e-39
-0.0182402929107 -0.0198985013571 0.896 9.28794775269e-39
-0.0165450708829 -0.0198540850594 0.894 9.28759742807e-39
-0.0148905637946 -0.0198540850594 0.894 9.74713644387e-39
-0.0132360567063 -0.0198540850594 0.894 9.56309270616e-39
-0.011581549618 -0.0198540850594 0.894 8.08798084523e-39
-0.00992704252972 -0.0198540850594 0.894 5.41829427332e-39
-0.00824477525538 -0.0197874606129 0.891 9.73492132515e-39
-0.00659582020431 -0.0197874606129 0.891 2.12715271184e-38
-0.00493576107881 -0.0197430443153 0.889 2.24733171151e-38
-0.00329050738588 -0.0197430443153 0.889 1.54588556091e-38
-0.00164525369294 -0.0197430443153 0.889 1.35005354e-38
0.0 -0.0196986280176 0.887 2.19901297864e-38
0.00163785097666 -0.0196542117199 0.885 2.24678576563e-38
0.00327570195332 -0.0196542117199 0.885 2.33887769941e-38
0.00489689681835 -0.0195875872734 0.882 1.38768456948e-38
0.0065291957578 -0.0195875872734 0.882 1.9317036658e-38
0.00816149469725 -0.0195875872734 0.882 1.99678599206e-38
0.0097937936367 -0.0195875872734 0.882 2.12668383737e-38
0.0114001830692 -0.0195431709757 0.88 2.25600953251e-38
0.0130287806505 -0.0195431709757 0.88 2.27455655847e-38
0.0146573782318 -0.0195431709757 0.88 2.34856417504e-38
0.0162859758131 -0.0195431709757 0.88 2.06297310204e-38
0.0179145733944 -0.0195431709757 0.88 1.70369194669e-38
0.0195431709757 -0.0195431709757 0.88 1.72131019203e-38
0.021171768557 -0.0195431709757 0.88 2.30203728252e-38
0.0227485471244 -0.0194987546781 0.878 2.18239806301e-38
0.0243734433476 -0.0194987546781 0.878 2.21009402651e-38
0.0259983395707 -0.0194987546781 0.878 2.34842138273e-38
0.0276861588823 -0.0195431709757 0.88 2.26548118909e-38
0.0292481320171 -0.0194987546781 0.878 2.33001813e-38
0.0308730282403 -0.0194987546781 0.878 1.63891146012e-38
0.0324979244634 -0.0194987546781 0.878 5.96930725027e-39
0.0343948705098 -0.0196542117199 0.885 3.12240686937e-39
0.0413811839978 -0.019099007999 0.86 7.07133320417e-39
0.0429727679978 -0.019099007999 0.86 9.45905610427e-39
0.0445643519977 -0.019099007999 0.86 1.81271871254e-38
0.0461559359976 -0.019099007999 0.86 2.34874228008e-38
0.0476364792533 -0.0190545917013 0.858 7.81606168082e-39
0.0491096197928 -0.0190101754037 0.856 5.05202848591e-39
0.0506938010764 -0.0190101754037 0.856 4.13259732711e-39
0.0521558375415 -0.018965759106 0.854 2.18154243017e-38
0.0535475482019 -0.0188991346595 0.851 2.34940285217e-38
0.0551224760902 -0.0188991346595 0.851 2.34889530187e-38
0.0565641550854 -0.0188547183618 0.849 5.69523569142e-39
0.0579984313644 -0.0188103020641 0.847 8.18232746823e-39
0.0595659565364 -0.0188103020641 0.847 4.95983425735e-39
0.060989128741 -0.0187658857665 0.845 2.31047351966e-38
0.0625529525549 -0.0187658857665 0.845 2.3487841789e-38
0.0641167763688 -0.0187658857665 0.845 2.34921521831e-38
0.0656806001826 -0.0187658857665 0.845 1.39924009701e-38
0.0672444239965 -0.0187658857665 0.845 1.03853031788e-38
0.0688082478104 -0.0187658857665 0.845 5.23462328101e-39
0.0703720716242 -0.0187658857665 0.845 4.31626831943e-39
0.0719358954381 -0.0187658857665 0.845 9.18534327783e-39
0.073499719252 -0.0187658857665 0.845 2.0535467074e-38
0.0750635430659 -0.0187658857665 0.845 2.34904131717e-38
0.0766273668797 -0.0187658857665 0.845 2.34838522923e-38
0.0781911906936 -0.0187658857665 0.845 2.30207483732e-38
0.0799437837726 -0.0188103020641 0.847 2.21012905897e-38
0.0813188383213 -0.0187658857665 0.845 1.29488049583e-38
0.0828826621352 -0.0187658857665 0.845 2.316450478e-38
0.0844464859491 -0.0187658857665 0.845 2.29205765525e-38
0.0858067350653 -0.0187214694688 0.843 1.99714304291e-38
0.087366857521 -0.0187214694688 0.843 1.2214120989e-38
0.0889269799768 -0.0187214694688 0.843 1.03813893522e-38
0.0904871024325 -0.0187214694688 0.843 1.06601244323e-38
0.091828844758 -0.0186770531711 0.841 1.72012427314e-38
0.0931631843672 -0.0186326368734 0.839 1.61892642168e-38
0.0947159041067 -0.0186326368734 0.839 1.13008050967e-38
0.0962686238461 -0.0186326368734 0.839 1.72034133427e-38
0.0978213435856 -0.0186326368734 0.839 2.08064795983e-38
0.0993740633251 -0.0186326368734 0.839 1.89622951491e-38
0.100926783065 -0.0186326368734 0.839 2.34886279174e-38
-0.0337933998122 -0.0185863698967 0.913 2.34950304501e-38
-0.0321037298216 -0.0185863698967 0.913 8.37066198184e-39
-0.0303141231612 -0.0185252974874 0.91 9.09387492187e-39
-0.0285670821194 -0.0184845825479 0.908 1.03013738086e-38
-0.0268866655242 -0.0184845825479 0.908 1.01176986124e-38
-0.0251507285568 -0.0184438676083 0.906 9.83823625833e-39
-0.0234740133197 -0.0184438676083 0.906 9.84003272296e-39
-0.0217251215989 -0.018382795199 0.903 9.84003272296e-39
-0.020053958399 -0.018382795199 0.903 9.65564146324e-39
-0.0183420802595 -0.0183420802595 0.901 9.6538478012e-39
-0.0166190980456 -0.0182810078502 0.898 1.0207371905e-38
-0.0149571882411 -0.0182810078502 0.898 9.28471215454e-39
-0.0132952784365 -0.0182810078502 0.898 9.74604202977e-39
-0.011607459125 -0.0182402929107 0.896 9.37834131273e-39
-0.00994925067855 -0.0182402929107 0.896 9.84075158908e-39
-0.00827253544143 -0.0181995779711 0.894 8.08941577485e-39
-0.00661802835314 -0.0181995779711 0.894 5.51012976948e-39
-0.00494686515323 -0.0181385055618 0.891 7.62234618111e-39
-0.00329791010215 -0.0181385055618 0.891 1.92368487546e-38
-0.00165450708829 -0.0181995779711 0.894 2.2013776698e-38
0.0 -0.0180977906223 0.889 1.93361797963e-38
0.0016415523348 -0.0180570756828 0.887 1.22223718344e-38
0.0032831046696 -0.0180570756828 0.887 1.76478407558e-38
0.00491355292998 -0.0180163607432 0.885 1.89285154483e-38
0.00655140390664 -0.0180163607432 0.885 2.31038019319e-38
0.00818925488329 -0.0180163607432 0.885 2.20042871048e-38
0.0097937936367 -0.0179552883339 0.882 2.03447909907e-38
0.0114260925761 -0.0179552883339 0.882 1.55384942035e-38
0.0130583915156 -0.0179552883339 0.882 1.80191287969e-38
0.014690690455 -0.0179552883339 0.882 2.02439871843e-38
0.0162859758131 -0.0179145733944 0.88 2.3483433304e-38
0.0179145733944 -0.0179145733944 0.88 2.29310134234e-38
0.0195431709757 -0.0179145733944 0.88 2.33005526441e-38
0.0212198862128 -0.0179552883339 0.882 2.26544769806e-38
0.0228521851523 -0.0179552883339 0.882 2.2469344434e-38
0.0244289637197 -0.0179145733944 0.88 2.19150790433e-38
0.026057561301 -0.0179145733944 0.88 2.26533657509e-38
0.0276861588823 -0.0179145733944 0.88 2.1823275777e-38
0.0292481320171 -0.0178738584549 0.878 2.34867193489e-38
0.0308730282403 -0.0178738584549 0.878 6.33987782656e-39
0.0327570195332 -0.0180163607432 0.885 5.78563625795e-39
0.0343948705098 -0.0180163607432 0.885 3.94892633479e-39
0.0358291467888 -0.0179145733944 0.88 2.13415135689e-38
0.0374577443701 -0.0179145733944 0.88 2.34852619985e-38
0.0390863419515 -0.0179145733944 0.88 2.34885494447e-38
0.0407149395328 -0.0179145733944 0.88 2.09066458138e-38
0.0413811839978 -0.0175074239991 0.86 1.92446708027e-38
0.0429727679978 -0.0175074239991 0.86 2.1823571451e-38
0.0445643519977 -0.0175074239991 0.86 2.34816998978e-38
0.0461559359976 -0.0175074239991 0.86 2.34852914258e-38
0.0477475199975 -0.0175074239991 0.86 2.21956288049e-38
0.0493391039974 -0.0175074239991 0.86 6.97949770801e-39
0.0509306879973 -0.0175074239991 0.86 5.6938007618e-39
0.0522779823601 -0.01742599412 0.856 6.24481373874e-39
0.0538621636437 -0.01742599412 0.856 8.72437213501e-39
0.0554463449273 -0.01742599412 0.856 9.91823358506e-39
0.057030526211 -0.01742599412 0.856 7.4386751888e-39
0.0584777572435 -0.0173852791805 0.854 4.87158608526e-39
0.059847259755 -0.0173242067712 0.851 1.23232260874e-38
0.0614221876433 -0.0173242067712 0.851 2.34855842972e-38
0.0636633599967 -0.0175074239991 0.86 6.52032022722e-39
0.0644202877362 -0.0172834918317 0.849 9.92110764821e-39
0.0658360572245 -0.0172427768921 0.847 2.21835173823e-38
0.0674035823965 -0.0172427768921 0.847 2.13630921639e-38
0.0689711075685 -0.0172427768921 0.847 2.14524025202e-38
0.0705386327405 -0.0172427768921 0.847 7.45087209063e-39
0.0721061579125 -0.0172427768921 0.847 6.98703108855e-39
0.0736736830845 -0.0172427768921 0.847 2.38772290011e-39
0.0754188734472 -0.0172834918317 0.849 2.31968873863e-38
0.0769900999774 -0.0172834918317 0.849 2.30232398819e-38
0.0785613265075 -0.0172834918317 0.849 2.34831306236e-38
0.0801325530377 -0.0172834918317 0.849 2.14541205121e-38
0.0815113089446 -0.0172427768921 0.847 1.46936793853e-38
0.0830788341166 -0.0172427768921 0.847 2.34547823556e-38
0.0844464859491 -0.0172020619526 0.845 2.34917976546e-38
0.086010309763 -0.0172020619526 0.845 1.92421540706e-38
0.087366857521 -0.0171613470131 0.843 9.27538511196e-39
0.0889269799768 -0.0171613470131 0.843 1.36089006129e-38
0.0907017812046 -0.0172020619526 0.845 1.91459409181e-38
0.0922656050184 -0.0172020619526 0.845 1.37925435792e-38
0.0938294288323 -0.0172020619526 0.845 9.09171411964e-39
0.0953932526462 -0.0172020619526 0.845 1.97803017264e-38
0.0964981080508 -0.0171206320735 0.841 1.94102930708e-38
0.0980545291484 -0.0171206320735 0.841 1.94024009578e-38
0.099610950246 -0.0171206320735 0.841 1.92273395433e-38
-0.0337933998122 -0.0168966999061 0.913 2.34917822403e-38
-0.0321037298216 -0.0168966999061 0.913 1.3165521371e-38
-0.030414059831 -0.0168966999061 0.913 9.1835496158e-39
-0.0287243898404 -0.0168966999061 0.913 1.0022641531e-38
-0.0270347198498 -0.0168966999061 0.913 1.15002434993e-38
-0.025261769301 -0.016841179534 0.91 1.17761087202e-38
-0.0235776513476 -0.016841179534 0.91 1.15917286709e-38
-0.0218454157384 -0.0168041659526 0.908 1.01126665496e-38
-0.0201649991431 -0.0168041659526 0.908 9.92648443042e-39
-0.018382795199 -0.0167116319991 0.903 1.03874555732e-38
-0.0167116319991 -0.0167116319991 0.903 1.02941893514e-38
-0.0150404687992 -0.0167116319991 0.903 1.011123162e-38
-0.0133396947342 -0.0166746184177 0.901 9.46802441444e-39
-0.011633368632 -0.0166190980456 0.898 9.19323539078e-39
-0.00997145882739 -0.0166190980456 0.898 9.4708942737e-39
-0.00829104223213 -0.0165820844643 0.896 9.65493520881e-39
-0.0066328337857 -0.0165820844643 0.896 1.0024063849e-38
-0.00497462533928 -0.0165820844643 0.896 8.82553467375e-39
-0.00330901417657 -0.0165450708829 0.894 6.15297824259e-39
-0.00165450708829 -0.0165450708829 0.894 6.06114274643e-39
0.0 -0.0165820844643 0.896 1.4437935409e-38
0.00164895505108 -0.0164895505108 0.891 2.18283260567e-38
0.00329050738588 -0.0164525369294 0.889 1.76745256825e-38
0.00493576107881 -0.0164525369294 0.889 1.83850358519e-38
0.00656620933919 -0.016415523348 0.887 2.29244357284e-38
0.00820776167399 -0.016415523348 0.887 2.17294980812e-38
0.00984931400879 -0.016415523348 0.887 2.12681682059e-38
0.0114649568366 -0.0163785097666 0.885 2.33872005333e-38
0.0131028078133 -0.0163785097666 0.885 2.24656169801e-38
0.0147406587899 -0.0163785097666 0.885 2.19131690735e-38
0.0163785097666 -0.0163785097666 0.885 1.65601640982e-38
0.0179552883339 -0.0163229893945 0.882 1.78458610444e-38
0.0195875872734 -0.0163229893945 0.882 1.73827375072e-38
0.0212920626966 -0.0163785097666 0.885 1.73827375072e-38
0.0229299136732 -0.0163785097666 0.885 2.21794634258e-38
0.0244844840917 -0.0163229893945 0.882 2.29271023994e-38
0.026057561301 -0.0162859758131 0.88 2.27455655847e-38
0.0276861588823 -0.0162859758131 0.88 2.30232398819e-38
0.0293813809101 -0.0163229893945 0.882 2.34827746938e-38
0.0310136798495 -0.0163229893945 0.882 2.24686479886e-38
0.0327570195332 -0.0163785097666 0.885 2.08101762236e-38
0.0342782777284 -0.0163229893945 0.882 1.68468403367e-38
0.0358291467888 -0.0162859758131 0.88 2.12650250935e-38
0.0374577443701 -0.0162859758131 0.88 2.34845711584e-38
0.0390863419515 -0.0162859758131 0.88 2.16392208289e-38
0.0407149395328 -0.0162859758131 0.88 2.26537609171e-38
0.0422473018025 -0.0162489622317 0.878 2.30210958952e-38
0.0434224830117 -0.0160824011154 0.869 2.21920568951e-38
0.0450307231232 -0.0160824011154 0.869 2.28381269534e-38
0.0463706147697 -0.015989867162 0.864 2.16392152237e-38
0.0478585607417 -0.0159528535806 0.862 2.34863522087e-38
0.0494538460997 -0.0159528535806 0.862 2.32998491922e-38
0.0510491314578 -0.0159528535806 0.862 1.82326460452e-38
0.0524001271787 -0.0158788264178 0.858 1.6017760699e-38
0.0539880098204 -0.0158788264178 0.858 1.58313011228e-38
0.0557054399971 -0.0159158399992 0.86 1.83198404409e-38
0.057297023997 -0.0159158399992 0.86 1.01069926921e-38
0.0587516577458 -0.0158788264178 0.858 9.55089160043e-39
0.0603395403876 -0.0158788264178 0.858 1.75625493235e-38
0.0620717759968 -0.0159158399992 0.86 2.34931737297e-38
0.0636633599967 -0.0159158399992 0.86 9.1053459511e-39
0.0652549439966 -0.0159158399992 0.86 3.12240686937e-39
0.0668465279965 -0.0159158399992 0.86 4.13259732711e-39
0.0684381119964 -0.0159158399992 0.86 1.97048670274e-38
0.069541116722 -0.015804799255 0.854 2.09950032872e-38
0.0711215966475 -0.015804799255 0.854 7.2664836335e-39
0.0724466828613 -0.0157492788829 0.851 6.89307122392e-39
0.0740216107496 -0.0157492788829 0.851 4.13259732711e-39
0.0755965386379 -0.0157492788829 0.851 2.08923707864e-38
0.0771714665262 -0.0157492788829 0.851 2.3483141834e-38
0.0787463944145 -0.0157492788829 0.851 2.34802439487e-38
0.0803213223028 -0.0157492788829 0.851 2.05307222774e-38
0.0817037795678 -0.0157122653015 0.849 1.52446923622e-38
0.083275006098 -0.0157122653015 0.849 2.34666079134e-38
0.0846463592886 -0.0156752517201 0.847 2.34911068144e-38
0.0862138844606 -0.0156752517201 0.847 1.52762874387e-38
0.0875741335768 -0.0156382381387 0.845 1.36834889275e-38
0.0891379573907 -0.0156382381387 0.845 1.75808110451e-38
0.0909164599767 -0.0156752517201 0.847 1.12179210951e-38
0.0922656050184 -0.0156382381387 0.845 1.36056439953e-38
0.0938294288323 -0.0156382381387 0.845 1.96051338131e-38
0.0953932526462 -0.0156382381387 0.845 2.28268983488e-38
0.0962686238461 -0.0155271973945 0.839 2.11674568853e-38
0.0978213435856 -0.0155271973945 0.839 1.48888312159e-38
0.099610950246 -0.0155642109759 0.841 2.19029115687e-38
0.101167371344 -0.0155642109759 0.841 2.34910745846e-38
-0.033867426975 -0.0152403421387 0.915 2.34863732282e-38
-0.0321740556262 -0.0152403421387 0.915 1.8233419562e-38
-0.0304806842775 -0.0152403421387 0.915 9.27538511196e-39
-0.0287873129287 -0.0152403421387 0.915 1.08495029133e-38
-0.0270347198498 -0.0152070299155 0.913 1.16817803141e-38
-0.025261769301 -0.0151570615806 0.91 1.25097164923e-38
-0.0235776513476 -0.0151570615806 0.91 1.4624125936e-38
-0.0218935333942 -0.0151570615806 0.91 1.16738699843e-38
-0.0202094154408 -0.0151570615806 0.91 1.74800576855e-38
-0.0184845825479 -0.0151237493574 0.908 1.3706806534e-38
-0.0168041659526 -0.0151237493574 0.908 1.22270353557e-38
-0.0150904371341 -0.0150904371341 0.906 1.50904766636e-38
-0.0133693055993 -0.0150404687992 0.903 1.36081551221e-38
-0.0116722328924 -0.015007156576 0.901 1.21355585919e-38
-0.00997145882739 -0.0149571882411 0.898 9.45977356909e-39
-0.00830954902282 -0.0149571882411 0.898 9.46336089316e-39
-0.00664763921826 -0.0149571882411 0.898 9.83464893426e-39
-0.00498572941369 -0.0149571882411 0.898 1.00219254675e-38
-0.00332381960913 -0.0149571882411 0.898 9.83933207373e-39
-0.00166190980456 -0.0149571882411 0.898 9.37942731904e-39
0.0 -0.0149238760178 0.896 7.53553293865e-39
0.00165450708829 -0.0148905637946 0.894 5.6938007618e-39
0.00329791010215 -0.0148405954597 0.891 1.83861793115e-38
0.00494686515323 -0.0148405954597 0.891 2.20750008292e-38
0.00658101477175 -0.0148072832364 0.889 2.26500054372e-38
0.00822626846469 -0.0148072832364 0.889 2.3112770242e-38
0.00984931400879 -0.0147739710132 0.887 1.8315441765e-38
0.0114908663436 -0.0147739710132 0.887 1.63467183161e-38
0.0131324186784 -0.0147739710132 0.887 2.34748041081e-38
0.0147739710132 -0.0147739710132 0.887 2.21011448547e-38
0.0163785097666 -0.0147406587899 0.885 2.19167563975e-38
0.0180163607432 -0.0147406587899 0.885 2.17309330108e-38
0.0196542117199 -0.0147406587899 0.885 2.32953650371e-38
0.0212920626966 -0.0147406587899 0.885 2.3203529541e-38
0.0229299136732 -0.0147406587899 0.885 2.08986738269e-38
0.0245677646499 -0.0147406587899 0.885 1.50811103847e-38
0.0261167830312 -0.014690690455 0.882 2.34697636375e-38
0.0277490819706 -0.014690690455 0.882 1.61943004835e-38
0.0294813175799 -0.0147406587899 0.885 1.80044207683e-38
0.0311191685565 -0.0147406587899 0.885 2.05166238135e-38
0.0327570195332 -0.0147406587899 0.885 1.95997037816e-38
0.0342782777284 -0.014690690455 0.882 1.83064734548e-38
0.0358291467888 -0.0146573782318 0.88 2.21786324559e-38
0.0374577443701 -0.0146573782318 0.88 2.34798880189e-38
0.0390863419515 -0.0146573782318 0.88 2.34834977638e-38
0.0406224055793 -0.0146240660085 0.878 2.21005436976e-38
0.0422473018025 -0.0146240660085 0.878 2.23764075172e-38
0.0438721980256 -0.0146240660085 0.878 2.21009122391e-38
0.0450307231232 -0.0144741610039 0.869 2.22871434037e-38
0.0466389632348 -0.0144741610039 0.869 2.21945427986e-38
0.0479696014859 -0.0143908804458 0.864 2.21002087873e-38
0.0495685882021 -0.0143908804458 0.864 2.31158152636e-38
0.0511675749183 -0.0143908804458 0.864 2.29303197807e-38
0.0526444168159 -0.0143575682225 0.862 2.34831600508e-38
0.0542397021739 -0.0143575682225 0.862 2.34853180505e-38
0.0559645350669 -0.0143908804458 0.864 2.32991303261e-38
0.057563521783 -0.0143908804458 0.864 2.34856711777e-38
0.0588886079969 -0.0143242559993 0.86 2.29296191315e-38
0.0604801919968 -0.0143242559993 0.86 2.10875058014e-38
0.0622161289642 -0.0143575682225 0.862 2.3391325956e-38
0.0638114143223 -0.0143575682225 0.862 2.34867459736e-38
0.0652549439966 -0.0143242559993 0.86 1.61118088455e-38
0.0668465279965 -0.0143242559993 0.86 8.82015368764e-39
0.0684381119964 -0.0143242559993 0.86 8.26519465422e-39
0.0701925557545 -0.0143575682225 0.862 5.87747175411e-39
0.07145471888 -0.014290943776 0.858 7.4386751888e-39
0.072702076573 -0.0142243193295 0.854 9.45905610427e-39
0.0742825564985 -0.0142243193295 0.854 1.70136719254e-38
0.075863036424 -0.0142243193295 0.854 2.34799538799e-38
0.0774435163495 -0.0142243193295 0.854 2.34849425025e-38
0.079023996275 -0.0142243193295 0.854 2.34806545292e-38
0.0806044762005 -0.0142243193295 0.854 1.88683268767e-38
0.0818962501911 -0.0141743509946 0.851 1.51528568661e-38
0.0834711780794 -0.0141743509946 0.851 2.34760050209e-38
0.0848462326281 -0.0141410387714 0.849 2.34900180055e-38
0.0864174591583 -0.0141410387714 0.849 1.40795491229e-38
0.0877814096326 -0.0141077265481 0.847 1.41473313309e-38
0.0893489348046 -0.0141077265481 0.847 9.92504950079e-39
0.0909164599767 -0.0141077265481 0.847 1.25951340415e-38
0.0924839851487 -0.0141077265481 0.847 1.99635439214e-38
0.0938294288323 -0.0140744143248 0.845 1.96807773055e-38
0.0953932526462 -0.0140744143248 0.845 1.7645329629e-38
0.0962686238461 -0.0139744776551 0.839 2.31030998813e-38
0.0978213435856 -0.0139744776551 0.839 1.57253937874e-38
0.0993740633251 -0.0139744776551 0.839 2.03225986269e-38
0.100926783065 -0.0139744776551 0.839 2.34979255328e-38
-0.0340524948819 -0.0136209979528 0.92 2.30232244676e-38
-0.0323498701378 -0.0136209979528 0.92 2.10900267374e-38
-0.0306472453938 -0.0136209979528 0.92 7.98968816575e-39
-0.0289446206497 -0.0136209979528 0.92 1.12154099683e-38
-0.0271827741753 -0.0135913870877 0.918 1.03889031146e-38
-0.0254005702312 -0.01354697079 0.915 1.26887239633e-38
-0.0237071988825 -0.01354697079 0.915 2.13647372883e-38
-0.0220138275337 -0.01354697079 0.915 1.57394740344e-38
-0.020320456185 -0.01354697079 0.915 2.23739314228e-38
-0.0185863698967 -0.0135173599249 0.913 2.00715377901e-38
-0.0168966999061 -0.0135173599249 0.913 1.81389860585e-38
-0.0151237493574 -0.0134433327621 0.908 1.72112844361e-38
-0.0134433327621 -0.0134433327621 0.908 1.4348264919e-38
-0.0117370066599 -0.013413721897 0.906 2.18201144477e-38
-0.0100269791995 -0.0133693055993 0.903 1.93411810305e-38
-0.00833730920887 -0.0133396947342 0.901 1.37147252716e-38
-0.00666984736709 -0.0133396947342 0.901 1.42628739945e-38
-0.00500238552532 -0.0133396947342 0.901 1.18618457655e-38
-0.00333492368355 -0.0133396947342 0.901 1.08412520679e-38
-0.00166746184177 -0.0133396947342 0.901 1.1305830153e-38
0.0 -0.0132952784365 0.898 1.02934704852e-38
0.00165820844643 -0.0132656675714 0.896 6.52032022722e-39
0.00330901417657 -0.0132360567063 0.894 1.95893523898e-38
0.00494686515323 -0.0131916404086 0.891 2.34701952374e-38
0.00659582020431 -0.0131916404086 0.891 2.31120555798e-38
0.00822626846469 -0.0131620295435 0.889 2.2284815847e-38
0.00987152215763 -0.0131620295435 0.889 1.66537932564e-38
0.0115167758506 -0.0131620295435 0.889 1.75473956819e-38
0.0131620295435 -0.0131620295435 0.889 2.34744439744e-38
0.0147739710132 -0.0131324186784 0.887 2.12713967976e-38
0.016415523348 -0.0131324186784 0.887 2.3390429125e-38
0.0180570756828 -0.0131324186784 0.887 1.34259190594e-38
0.0196542117199 -0.0131028078133 0.885 2.077924256e-38
0.0212920626966 -0.0131028078133 0.885 2.32928539103e-38
0.0229299136732 -0.0131028078133 0.885 2.17298568136e-38
0.0245677646499 -0.0131028078133 0.885 2.30198585487e-38
0.0261167830312 -0.0130583915156 0.882 1.4802734037e-38
0.0277490819706 -0.0130583915156 0.882 2.06906146361e-38
0.0294813175799 -0.0131028078133 0.885 2.13313149186e-38
0.0311191685565 -0.0131028078133 0.885 2.34779696413e-38
0.0327570195332 -0.0131028078133 0.885 2.29265881229e-38
0.0342782777284 -0.0130583915156 0.882 2.34819058887e-38
0.0359105766679 -0.0130583915156 0.882 1.67384541044e-38
0.0374577443701 -0.0130287806505 0.88 2.13388553057e-38
0.0390863419515 -0.0130287806505 0.88 2.33848393454e-38
0.0406224055793 -0.0129991697854 0.878 2.34798669994e-38
0.0422473018025 -0.0129991697854 0.878 2.34805886682e-38
0.0438721980256 -0.0129991697854 0.878 2.34806012798e-38
0.045237999179 -0.0129251426226 0.873 2.34856529608e-38
0.0467463026208 -0.0128955317575 0.871 2.30239405311e-38
0.0482472033463 -0.0128659208924 0.869 2.26537188781e-38
0.0498554434579 -0.0128659208924 0.869 2.21005436976e-38
0.0514636835694 -0.0128659208924 0.869 2.32990882872e-38
0.053071923681 -0.0128659208924 0.869 2.26522937576e-38
0.0546801637925 -0.0128659208924 0.869 2.25590443513e-38
0.056288403904 -0.0128659208924 0.869 2.34831194132e-38
0.0578966440156 -0.0128659208924 0.869 2.27430418461e-38
0.0595048841271 -0.0128659208924 0.869 2.29281421629e-38
0.0611131242387 -0.0128659208924 0.869 2.29292660042e-38
0.0627213643502 -0.0128659208924 0.869 2.27455599795e-38
0.0639594686478 -0.0127918937296 0.864 2.28381241508e-38
0.0654066996803 -0.0127622828645 0.862 2.30236140285e-38
0.0670019850384 -0.0127622828645 0.862 2.34874788527e-38
0.0685972703964 -0.0127622828645 0.862 2.17332283377e-38
0.0707625649079 -0.0128659208924 0.869 2.04432083857e-38
0.0717878411125 -0.0127622828645 0.862 1.96137980415e-38
0.0732128639962 -0.0127326719993 0.86 2.07197728545e-38
0.074456520331 -0.0126734502691 0.856 2.34885102084e-38
0.0760407016146 -0.0126734502691 0.856 2.27434131902e-38
0.0776248828983 -0.0126734502691 0.856 2.34842152286e-38
0.0792090641819 -0.0126734502691 0.856 2.34835229871e-38
0.0807932454656 -0.0126734502691 0.856 1.70240611522e-38
0.082184956126 -0.012643839404 0.854 1.58875408353e-38
0.0834711780794 -0.0125994231063 0.851 2.34756126573e-38
0.0850461059677 -0.0125994231063 0.851 2.07118667286e-38
0.086621033856 -0.0125994231063 0.851 1.00161675321e-38
0.0879886856884 -0.0125698122412 0.849 8.17335915806e-39
0.0895599122186 -0.0125698122412 0.849 1.59123213974e-38
0.0911311387487 -0.0125698122412 0.849 2.02422747976e-38
0.0927023652789 -0.0125698122412 0.849 2.13452956734e-38
0.094273591809 -0.0125698122412 0.849 2.17133551229e-38
0.0956190354927 -0.0125402013761 0.847 1.48838145674e-38
0.0969570764601 -0.012510590511 0.845 2.34690363636e-38
0.0985209002739 -0.012510590511 0.845 2.16276671231e-38
0.100084724088 -0.012510590511 0.845 2.19060911149e-38
-0.0341635356261 -0.0119572374691 0.923 2.25615442677e-38
-0.0324553588448 -0.0119572374691 0.923 2.31168872569e-38
-0.0307471820635 -0.0119572374691 0.923 6.97949770801e-39
-0.0289446206497 -0.0119183732087 0.92 1.1954039994e-38
-0.0272419959056 -0.0119183732087 0.92 1.09406363589e-38
-0.0255393711615 -0.0119183732087 0.92 1.27791343389e-38
-0.0238367464174 -0.0119183732087 0.92 1.80406695569e-38
-0.0220860040175 -0.0118924637017 0.918 1.79524676277e-38
-0.0203870806315 -0.0118924637017 0.918 2.28338333749e-38
-0.0186270848362 -0.0118535994412 0.915 1.82284001109e-38
-0.0169337134875 -0.0118535994412 0.915 1.8136434294e-38
-0.0152070299155 -0.0118276899343 0.913 1.58279912558e-38
-0.0134729436272 -0.0117888256738 0.91 1.60149665099e-38
-0.0117888256738 -0.0117888256738 0.91 1.79525418965e-38
-0.0100824995716 -0.0117629161668 0.908 1.46398695242e-38
-0.00838357618561 -0.0117370066599 0.906 1.51869588655e-38
-0.00670686094849 -0.0117370066599 0.906 2.11810845129e-38
-0.00501348959974 -0.0116981423994 0.903 1.94298005467e-38
-0.00334232639983 -0.0116981423994 0.903 1.10299789451e-38
-0.00167116319991 -0.0116981423994 0.903 1.4444005834e-38
0.0 -0.011633368632 0.898 1.26869303013e-38
0.00166190980456 -0.011633368632 0.898 9.45905610427e-39
0.00332381960913 -0.011633368632 0.898 1.36899461109e-38
0.00498572941369 -0.011633368632 0.898 1.74688332848e-38
0.00661802835314 -0.011581549618 0.894 1.66498471999e-38
0.00824477525538 -0.0115426853575 0.891 1.95093186293e-38
0.00989373030646 -0.0115426853575 0.891 1.60037701352e-38
0.0115426853575 -0.0115426853575 0.891 2.09629079472e-38
0.0131916404086 -0.0115426853575 0.891 2.34787025204e-38
0.0148072832364 -0.0115167758506 0.889 2.2652516564e-38
0.0164525369294 -0.0115167758506 0.889 2.21894378683e-38
0.0180977906223 -0.0115167758506 0.889 1.4889188547e-38
0.0197430443153 -0.0115167758506 0.889 1.95731617874e-38
0.0213401803524 -0.0114908663436 0.887 2.34758102404e-38
0.0229817326872 -0.0114908663436 0.887 2.19149627355e-38
0.024623285022 -0.0114908663436 0.887 2.3297876164e-38
0.0262056156265 -0.0114649568366 0.885 1.54520396934e-38
0.0278434666032 -0.0114649568366 0.885 1.92058155989e-38
0.0295479420264 -0.0114908663436 0.887 2.34611722766e-38
0.0311894943612 -0.0114908663436 0.887 2.15404461027e-38
0.032831046696 -0.0114908663436 0.887 2.11720279209e-38
0.0344725990308 -0.0114908663436 0.887 1.9786962098e-38
0.0359105766679 -0.0114260925761 0.882 1.77400349844e-38
0.0375428756073 -0.0114260925761 0.882 1.80083668247e-38
0.0391751745468 -0.0114260925761 0.882 2.22629429793e-38
0.0408074734862 -0.0114260925761 0.882 1.9964175907e-38
0.0422473018025 -0.0113742735622 0.878 1.93180988422e-38
0.0438721980256 -0.0113742735622 0.878 1.57203715337e-38
0.0453416372069 -0.0113354093017 0.875 1.97769175906e-38
0.0469609813929 -0.0113354093017 0.875 2.12575001207e-38
0.0484692848347 -0.0113094997948 0.873 2.24635654791e-38
0.0499701855602 -0.0112835902878 0.871 2.30214266016e-38
0.0515821270299 -0.0112835902878 0.871 2.3114713843e-38
0.0531940684996 -0.0112835902878 0.871 2.29306757105e-38
0.054931856146 -0.0113094997948 0.873 2.28349025657e-38
0.0565474989738 -0.0113094997948 0.873 2.34795348917e-38
0.0580298929086 -0.0112835902878 0.871 2.34766566247e-38
0.0596418343783 -0.0112835902878 0.871 2.3480620898e-38
0.061253775848 -0.0112835902878 0.871 2.34813565797e-38
0.0628657173177 -0.0112835902878 0.871 2.33902147263e-38
0.0644776587873 -0.0112835902878 0.871 2.24682920588e-38
0.066089600257 -0.0112835902878 0.871 2.292925059e-38
0.0677015417267 -0.0112835902878 0.871 2.25608590328e-38
0.0696317999964 -0.0113354093017 0.875 2.30218175639e-38
0.0712511441823 -0.0113354093017 0.875 2.34853040375e-38
0.0717878411125 -0.0111669975064 0.862 2.34813551784e-38
0.0732128639962 -0.0111410879994 0.86 2.28381493742e-38
0.0746304841636 -0.0111151784924 0.858 2.31140145951e-38
0.0762183668053 -0.0111151784924 0.858 2.33887797967e-38
0.0778062494471 -0.0111151784924 0.858 2.34809754265e-38
0.0793941320889 -0.0111151784924 0.858 2.34860523309e-38
0.0809820147307 -0.0111151784924 0.858 1.31504125709e-38
0.0823774267492 -0.0110892689855 0.856 1.625488282e-38
0.0837654360515 -0.0110633594785 0.854 2.34626156141e-38
0.0853459159769 -0.0110633594785 0.854 2.34885354317e-38
0.086621033856 -0.011024495218 0.851 5.96930725027e-39
0.0881959617442 -0.011024495218 0.851 1.48906515026e-38
0.0897708896325 -0.011024495218 0.851 2.27325531271e-38
0.0916678356789 -0.0110633594785 0.854 2.00524240791e-38
0.0932483156044 -0.0110633594785 0.854 1.78333054102e-38
0.0948287955299 -0.0110633594785 0.854 2.33689416143e-38
0.0964092754554 -0.0110633594785 0.854 1.97809084886e-38
0.0979897553809 -0.0110633594785 0.854 1.90368932729e-38
0.0995702353064 -0.0110633594785 0.854 1.74778352261e-38
0.102098262916 -0.0111669975064 0.862 2.34763287208e-38
-0.0342375627889 -0.0102712688367 0.925 2.10857541783e-38
-0.0325256846495 -0.0102712688367 0.925 2.28392185649e-38
-0.03081380651 -0.0102712688367 0.925 6.70578488157e-39
-0.0291019283706 -0.0102712688367 0.925 1.3697496307e-38
-0.0273308285009 -0.0102490606878 0.923 1.18615164603e-38
-0.0256226517196 -0.0102490606878 0.923 1.03853129879e-38
-0.0239144749383 -0.0102490606878 0.923 1.56368079024e-38
-0.022206298157 -0.0102490606878 0.923 1.91542716374e-38
-0.0204314969292 -0.0102157484646 0.92 1.81397497661e-38
-0.0186881572455 -0.0101935403157 0.918 1.6015967037e-38
-0.0169892338596 -0.0101935403157 0.918 1.68378524084e-38
-0.0152403421387 -0.0101602280925 0.915 1.49925539269e-38
-0.0135173599249 -0.0101380199437 0.913 1.19461478811e-38
-0.0118276899343 -0.0101380199437 0.913 1.86728625565e-38
-0.0101380199437 -0.0101380199437 0.913 1.56432776974e-38
-0.00844834995305 -0.0101380199437 0.913 2.06286590271e-38
-0.0067364718136 -0.0101047077204 0.91 1.78616887106e-38
-0.00504124978578 -0.0100824995716 0.908 1.87775577687e-38
-0.00336083319052 -0.0100824995716 0.908 1.44433472237e-38
-0.00168041659526 -0.0100824995716 0.908 1.85110658332e-38
0.0 -0.0100824995716 0.908 1.86003551701e-38
0.0016841179534 -0.0101047077204 0.91 2.10878743429e-38
0.00336083319052 -0.0100824995716 0.908 1.28781697066e-38
0.00501348959974 -0.0100269791995 0.903 1.57358292571e-38
0.0066328337857 -0.00994925067855 0.896 1.41584786602e-38
0.00827253544143 -0.00992704252972 0.894 1.1020259539e-38
0.00989373030646 -0.00989373030646 0.891 1.29502398879e-38
0.0115426853575 -0.00989373030646 0.891 1.67313046797e-38
0.0132360567063 -0.00992704252972 0.894 1.59083473149e-38
0.0148405954597 -0.00989373030646 0.891 1.77558612493e-38
0.0164895505108 -0.00989373030646 0.891 1.95100206799e-38
0.0181385055618 -0.00989373030646 0.891 1.81159865468e-38
0.0197874606129 -0.00989373030646 0.891 2.33639193606e-38
0.0213882980082 -0.00987152215763 0.889 2.3385457318e-38
0.0230335517011 -0.00987152215763 0.889 2.3390429125e-38
0.0246788053941 -0.00987152215763 0.889 2.24670519097e-38
0.026324059087 -0.00987152215763 0.889 1.60880722508e-38
0.0279693127799 -0.00987152215763 0.889 2.01320738838e-38
0.0296145664729 -0.00987152215763 0.889 2.34741090641e-38
0.0312598201658 -0.00987152215763 0.889 2.20997099251e-38
0.0329050738588 -0.00987152215763 0.889 2.26528752964e-38
0.0344725990308 -0.00984931400879 0.887 1.95118143419e-38
0.0361141513656 -0.00984931400879 0.887 1.86562375515e-38
0.0376705724632 -0.00982710585995 0.885 2.03142987361e-38
0.0393084234398 -0.00982710585995 0.885 2.34797605008e-38
0.0408074734862 -0.0097937936367 0.882 2.32028120762e-38
0.0424397724257 -0.0097937936367 0.882 2.29287405173e-38
0.0439721346954 -0.00977158548786 0.88 2.31124115096e-38
0.0454970942488 -0.00974937733903 0.878 2.31102591152e-38
0.047121990472 -0.00974937733903 0.878 2.24656169801e-38
0.0485803255789 -0.00971606511577 0.875 2.11741803153e-38
0.0500849276625 -0.00969385696694 0.873 1.60044876e-38
0.0517005704903 -0.00969385696694 0.873 2.30941680049e-38
0.0534383581368 -0.00971606511577 0.875 2.34777594466e-38
0.0550577023227 -0.00971606511577 0.875 1.63668073309e-38
0.0566770465087 -0.00971606511577 0.875 1.95896592742e-38
0.0581631418016 -0.00969385696694 0.873 2.06081005773e-38
0.0597787846294 -0.00969385696694 0.873 1.82128442966e-38
0.0613944274573 -0.00969385696694 0.873 1.77497207594e-38
0.0630100702851 -0.00969385696694 0.873 2.34752048795e-38
0.0646257131129 -0.00969385696694 0.873 2.28377990496e-38
0.0663931116244 -0.00971606511577 0.875 2.2743407585e-38
0.0680124558104 -0.00971606511577 0.875 2.3480996446e-38
0.0696317999964 -0.00971606511577 0.875 2.2745928521e-38
0.0714954338195 -0.00974937733903 0.878 2.27455655847e-38
0.0731203300427 -0.00974937733903 0.878 2.29274513227e-38
0.0747452262659 -0.00974937733903 0.878 2.3480634911e-38
0.0748044479961 -0.0095495039995 0.86 2.3480648924e-38
0.076396031996 -0.0095495039995 0.86 2.32990882872e-38
0.0779876159959 -0.0095495039995 0.86 2.33909293885e-38
0.0795791999959 -0.0095495039995 0.86 2.34874830566e-38
0.0811707839958 -0.0095495039995 0.86 1.08455568568e-38
0.0827623679957 -0.0095495039995 0.86 1.92015416385e-38
0.0841577800142 -0.00952729585067 0.858 2.34882187383e-38
0.085745662656 -0.00952729585067 0.858 2.34838494897e-38
0.0871299706001 -0.00950508770183 0.856 1.31536453665e-38
0.0885068758279 -0.00948287955299 0.854 1.89518736924e-38
0.0900873557534 -0.00948287955299 0.854 1.94985426442e-38
0.0920971932231 -0.00952729585067 0.858 2.06974249466e-38
0.0936850758649 -0.00952729585067 0.858 1.51625426411e-38
0.0952729585067 -0.00952729585067 0.858 2.34611526585e-38
0.0968608411484 -0.00952729585067 0.858 2.25467913975e-38
0.0986782079949 -0.0095495039995 0.86 1.14819481466e-38
0.100502977558 -0.00957171214834 0.862 1.03774110659e-38
0.102098262916 -0.00957171214834 0.862 2.34907971275e-38
-0.0343486035331 -0.00858715088327 0.928 2.09023970769e-38
-0.0326311733564 -0.00858715088327 0.928 2.22878496582e-38
-0.0309137431798 -0.00858715088327 0.928 8.92024002916e-39
-0.0291963130031 -0.00858715088327 0.928 1.36024322192e-38
-0.0273900502311 -0.00855939069723 0.925 1.23242518379e-38
-0.0256781720917 -0.00855939069723 0.925 1.26926868354e-38
-0.0239662939522 -0.00855939069723 0.925 9.92576696561e-39
-0.0222544158128 -0.00855939069723 0.925 1.60127832869e-38
-0.0205425376733 -0.00855939069723 0.925 1.71206106164e-38
-0.0187899445944 -0.00854088390653 0.923 2.01619145346e-38
-0.0170817678131 -0.00854088390653 0.923 1.94225768531e-38
-0.0152903104736 -0.00849461692979 0.918 2.08087314849e-38
-0.0135913870877 -0.00849461692979 0.918 1.86879209098e-38
-0.0118924637017 -0.00849461692979 0.918 1.28799283362e-38
-0.0101602280925 -0.00846685674374 0.915 2.2839120474e-38
-0.00846685674374 -0.00846685674374 0.915 1.71284452761e-38
-0.006773485395 -0.00846685674374 0.915 2.06304765112e-38
-0.00508011404625 -0.00846685674374 0.915 2.23771684223e-38
-0.00337933998122 -0.00844834995305 0.913 2.00729965418e-38
-0.00168966999061 -0.00844834995305 0.913 1.31572747295e-38
0.0 -0.00844834995305 0.913 1.26969832164e-38
0.00168966999061 -0.00844834995305 0.913 1.84927676779e-38
0.00337933998122 -0.00844834995305 0.913 1.30635993285e-38
0.0050523538602 -0.008420589767 0.91 1.60138678919e-38
0.00672166638105 -0.00840208297631 0.908 2.03423036859e-38
0.00835581599956 -0.00835581599956 0.903 1.49003092516e-38
0.00997145882739 -0.00830954902282 0.898 1.10270754547e-38
0.011633368632 -0.00830954902282 0.898 1.09388398943e-38
0.0132952784365 -0.00830954902282 0.898 1.10263579899e-38
0.0149238760178 -0.00829104223213 0.896 1.09334462965e-38
0.0165820844643 -0.00829104223213 0.896 1.21244378873e-38
0.0181995779711 -0.00827253544143 0.894 1.6268183945e-38
0.0198540850594 -0.00827253544143 0.894 1.81167166233e-38
0.021436415664 -0.00824477525538 0.891 1.70197003114e-38
0.0230335517011 -0.00822626846469 0.889 1.88635848827e-38
0.0246788053941 -0.00822626846469 0.889 1.73866835636e-38
0.026324059087 -0.00822626846469 0.889 1.93109297993e-38
0.0279693127799 -0.00822626846469 0.889 2.04176248796e-38
0.0296145664729 -0.00822626846469 0.889 2.32020946114e-38
0.0312598201658 -0.00822626846469 0.889 2.23762926107e-38
0.0329050738588 -0.00822626846469 0.889 2.3482644373e-38
0.0345503275517 -0.00822626846469 0.889 1.79420013295e-38
0.0361141513656 -0.00820776167399 0.887 1.91143388351e-38
0.0377557037004 -0.00820776167399 0.887 2.29911963899e-38
0.0393972560352 -0.00820776167399 0.887 2.33868418009e-38
0.0409462744165 -0.00818925488329 0.885 2.18220510421e-38
0.0425841253931 -0.00818925488329 0.885 2.3112770242e-38
0.0440720713651 -0.00816149469725 0.882 1.5720372935e-38
0.0457043703046 -0.00816149469725 0.882 2.03254278485e-38
0.047121990472 -0.00812448111586 0.878 2.34769382857e-38
0.0487468866951 -0.00812448111586 0.878 2.34829820859e-38
0.0503717829183 -0.00812448111586 0.878 2.33893529277e-38
0.0519966791415 -0.00812448111586 0.878 1.64654587428e-38
0.0534383581368 -0.00809672092981 0.875 2.31809532214e-38
0.0550577023227 -0.00809672092981 0.875 1.77393175196e-38
0.056871367811 -0.00812448111586 0.878 2.3469451148e-38
0.0584962640342 -0.00812448111586 0.878 2.34808296915e-38
0.0601211602573 -0.00812448111586 0.878 2.33868474061e-38
0.0617460564805 -0.00812448111586 0.878 2.34783185646e-38
0.0633709527037 -0.00812448111586 0.878 1.44221189533e-38
0.0649958489268 -0.00812448111586 0.878 2.34798193553e-38
0.0663931116244 -0.00809672092981 0.875 2.33902287393e-38
0.0680124558104 -0.00809672092981 0.875 2.32051270212e-38
0.0698705375964 -0.00812448111586 0.878 2.2468645186e-38
0.0714954338195 -0.00812448111586 0.878 2.34809796304e-38
0.0731203300427 -0.00812448111586 0.878 2.34809754265e-38
0.0747452262659 -0.00812448111586 0.878 2.34853068401e-38
0.076370122489 -0.00812448111586 0.878 2.3485311044e-38
0.0767513623774 -0.00799493358098 0.864 2.34860243049e-38
0.0783503490936 -0.00799493358098 0.864 2.3481705503e-38
0.0797642679028 -0.00797642679028 0.862 1.80370654173e-38
0.0811707839958 -0.00795791999959 0.86 1.30445865109e-38
0.0827623679957 -0.00795791999959 0.86 2.34450657521e-38
0.0843539519956 -0.00795791999959 0.86 2.34817307264e-38
0.086145409335 -0.00797642679028 0.862 1.95136080039e-38
0.0877406946931 -0.00797642679028 0.862 2.24584437332e-38
0.0893359800512 -0.00797642679028 0.862 1.85844910702e-38
0.0909312654092 -0.00797642679028 0.862 2.05098205095e-38
0.0925265507673 -0.00797642679028 0.862 2.24546364053e-38
0.0941218361253 -0.00797642679028 0.862 1.88593039159e-38
0.0957171214834 -0.00797642679028 0.862 1.9591822879e-38
0.0973124068414 -0.00797642679028 0.862 1.62803654325e-38
0.0989076921995 -0.00797642679028 0.862 1.00176024618e-38
0.100502977558 -0.00797642679028 0.862 7.98968816575e-39
-0.0327014991611 -0.00688452613918 0.93 2.13658877543e-38
-0.0309137431798 -0.00686972070662 0.928 1.32541044534e-38
-0.0291963130031 -0.00686972070662 0.928 1.32329322349e-38
-0.0274788828265 -0.00686972070662 0.928 1.31543684365e-38
-0.0256781720917 -0.00684751255778 0.925 1.08534489698e-38
-0.0239662939522 -0.00684751255778 0.925 1.07555220292e-38
-0.0223265922965 -0.00686972070662 0.928 1.4533690337e-38
-0.0205425376733 -0.00684751255778 0.925 2.03513630805e-38
-0.0188306595339 -0.00684751255778 0.925 1.53691865204e-38
-0.0170817678131 -0.00683270712523 0.923 2.07098138263e-38
-0.0153735910318 -0.00683270712523 0.923 1.97949172694e-38
-0.0136209979528 -0.00681049897639 0.92 1.62886050675e-38
-0.0118924637017 -0.00679569354383 0.918 1.94276145211e-38
-0.0101935403157 -0.00679569354383 0.918 1.50980576883e-38
-0.00849461692979 -0.00679569354383 0.918 1.10428596806e-38
-0.006773485395 -0.006773485395 0.915 1.57498240249e-38
-0.00508011404625 -0.006773485395 0.915 2.07219658866e-38
-0.0033867426975 -0.006773485395 0.915 1.7122716768e-38
-0.00169337134875 -0.006773485395 0.915 1.05610820582e-38
0.0 -0.006773485395 0.915 1.5264823416e-38
0.00169337134875 -0.006773485395 0.915 1.73986492512e-38
0.0033867426975 -0.006773485395 0.915 1.34363601343e-38
0.00506900997183 -0.00675867996244 0.913 1.78596049798e-38
0.00675867996244 -0.00675867996244 0.913 1.8964135054e-38
0.00840208297631 -0.00672166638105 0.908 2.13553808185e-38
0.0100602914227 -0.00670686094849 0.906 1.04778659489e-38
0.0116981423994 -0.00668465279965 0.903 1.2595822079e-38
0.0133693055993 -0.00668465279965 0.903 1.25043355062e-38
0.0150404687992 -0.00668465279965 0.903 1.26876477661e-38
0.0166190980456 -0.00664763921826 0.898 1.23206799281e-38
0.0182810078502 -0.00664763921826 0.898 8.81764256079e-39
0.0199429176548 -0.00664763921826 0.898 1.92191797823e-38
0.0215567098035 -0.0066328337857 0.896 1.87717956294e-38
