# .PCD v0.7 - Point Cloud Data file format
VERSION 0.7
FIELDS x y z rgb
SIZE 4 4 4 4
TYPE F F F F
COUNT 1 1 1 1
WIDTH 838
HEIGHT 1
VIEWPOINT 0 0 0 1 0 0 0
POINTS 838
DATA ascii
0.0229576738593 -0.0489763708998 0.827 1.92403520008e-38
0.0244881854499 -0.0489763708998 0.827 1.92392772049e-38
0.0260186970405 -0.0489763708998 0.827 1.99750205558e-38
0.0275492086311 -0.0489763708998 0.827 2.03455252711e-38
0.0290797202217 -0.0489763708998 0.827 1.95172639916e-38
0.0306102318124 -0.0489763708998 0.827 1.98864248617e-38
0.0319075578402 -0.0486210405184 0.821 1.84112751657e-38
0.0334269653564 -0.0486210405184 0.821 2.0160878975e-38
0.0350315041098 -0.0487394839789 0.823 2.06232864488e-38
0.0365546129841 -0.0487394839789 0.823 1.94240173879e-38
0.0380777218585 -0.0487394839789 0.823 1.59180723263e-38
0.0396008307328 -0.0487394839789 0.823 1.71187202648e-38
0.0411239396072 -0.0487394839789 0.823 1.71180322272e-38
0.0426470484815 -0.0487394839789 0.823 1.71166127119e-38
0.0440628179698 -0.0486210405184 0.821 1.63765267371e-38
0.045582225486 -0.0486210405184 0.821 1.85020106425e-38
0.0471016330022 -0.0486210405184 0.821 1.69322046366e-38
0.0485025970579 -0.0485025970579 0.819 1.46262769291e-38
0.050018303216 -0.0485025970579 0.819 1.79467012845e-38
0.0515340093741 -0.0485025970579 0.819 1.61978737945e-38
0.0530497155321 -0.0485025970579 0.819 1.59202107077e-38
0.0545654216902 -0.0485025970579 0.819 1.55535609645e-38
0.0560811278482 -0.0485025970579 0.819 1.50007823515e-38
0.0575968340063 -0.0485025970579 0.819 1.42625110582e-38
0.0591125401644 -0.0485025970579 0.819 1.64776850719e-38
0.0606282463224 -0.0485025970579 0.819 1.21506463725e-38
0.0621439524805 -0.0485025970579 0.819 1.06845140321e-38
0.0636596586385 -0.0485025970579 0.819 9.94445748452e-39
0.0651753647966 -0.0485025970579 0.819 1.03142741622e-38
0.0666910709547 -0.0485025970579 0.819 9.84576963888e-39
0.0680402159965 -0.0483841535975 0.817 1.50883214666e-38
0.0695522207964 -0.0483841535975 0.817 1.67471169315e-38
0.0710642255963 -0.0483841535975 0.817 2.05245593667e-38
0.0725762303962 -0.0483841535975 0.817 1.75822571851e-38
0.0740882351961 -0.0483841535975 0.817 1.4448719802e-38
0.0756002399961 -0.0483841535975 0.817 1.62882547429e-38
0.0773010140611 -0.0485025970579 0.819 1.61042530441e-38
0.0788167202191 -0.0485025970579 0.819 1.60106378989e-38
0.0803324263772 -0.0485025970579 0.819 1.50876180148e-38
0.0816482591957 -0.0483841535975 0.817 1.46262741265e-38
0.0831602639957 -0.0483841535975 0.817 1.52698036307e-38
0.0846722687956 -0.0483841535975 0.817 1.61942962796e-38
0.0861842735955 -0.0483841535975 0.817 1.81246115388e-38
0.0876962783954 -0.0483841535975 0.817 2.3480301402e-38
0.0892082831954 -0.0483841535975 0.817 2.35098197541e-38
-0.0544747384158 -0.0482490540254 0.841 2.34903683301e-38
-0.0529183173182 -0.0482490540254 0.841 2.34964751888e-38
-0.0513618962206 -0.0482490540254 0.841 2.35055009523e-38
-0.049805475123 -0.0482490540254 0.841 1.12132575739e-38
-0.0481343119231 -0.0481343119231 0.839 1.80324103038e-38
-0.0465815921836 -0.0481343119231 0.839 1.72988109395e-38
-0.0450288724442 -0.0481343119231 0.839 1.73892087035e-38
-0.0434761527047 -0.0481343119231 0.839 1.81278485383e-38
-0.0419234329653 -0.0481343119231 0.839 1.74832050019e-38
-0.0403707132258 -0.0481343119231 0.839 1.71162203483e-38
-0.0387254595329 -0.0480195698208 0.837 1.81307576339e-38
-0.0371764411516 -0.0480195698208 0.837 1.65631040224e-38
-0.0356274227702 -0.0480195698208 0.837 1.76680236576e-38
-0.0339969745099 -0.0479048277184 0.835 1.84066480782e-38
-0.0324516574867 -0.0479048277184 0.835 1.67485532625e-38
-0.0309063404635 -0.0479048277184 0.835 1.79470361948e-38
-0.0293610234403 -0.0479048277184 0.835 1.79492446412e-38
-0.0278157064172 -0.0479048277184 0.835 1.71198469088e-38
-0.0262074663056 -0.0477900856161 0.833 1.76715815544e-38
-0.0246658506406 -0.0477900856161 0.833 1.49046560795e-38
-0.0231242349755 -0.0477900856161 0.833 1.7485022486e-38
-0.0216344383245 -0.0479048277184 0.835 1.68393195679e-38
-0.0200891213013 -0.0479048277184 0.835 1.77616416054e-38
-0.0185438042781 -0.0479048277184 0.835 1.67503665427e-38
-0.0169984872549 -0.0479048277184 0.835 1.66567205689e-38
-0.0154531702318 -0.0479048277184 0.835 1.74854148495e-38
-0.0139078532086 -0.0479048277184 0.835 1.68421894271e-38
-0.0123329253203 -0.0477900856161 0.833 1.8964135054e-38
-0.0107913096553 -0.0477900856161 0.833 1.9242127446e-38
-0.00924969399022 -0.0477900856161 0.833 1.77677022213e-38
-0.00770807832518 -0.0477900856161 0.833 1.60146189879e-38
-0.00616646266014 -0.0477900856161 0.833 1.90577712187e-38
-0.00462484699511 -0.0477900856161 0.833 1.97956739705e-38
-0.00308323133007 -0.0477900856161 0.833 1.94261697824e-38
-0.0015379143069 -0.0476753435138 0.831 1.73946415376e-38
0.0 -0.0476753435138 0.831 2.05289398257e-38
0.0015379143069 -0.0476753435138 0.831 1.85049547706e-38
0.00306842589751 -0.0475606014115 0.829 1.76726731659e-38
0.00460263884627 -0.0475606014115 0.829 1.6746053346e-38
0.00615165722759 -0.0476753435138 0.831 1.68425243375e-38
0.00768957153448 -0.0476753435138 0.831 1.66563562313e-38
0.00920527769254 -0.0475606014115 0.829 1.74843162315e-38
0.0107394906413 -0.0475606014115 0.829 1.62879590689e-38
0.0122737035901 -0.0475606014115 0.829 1.80404019089e-38
0.0138079165388 -0.0475606014115 0.829 1.72102698961e-38
0.0153421294876 -0.0475606014115 0.829 1.99754003077e-38
0.0168763424363 -0.0475606014115 0.829 1.89623357868e-38
0.0183661390874 -0.0474458593092 0.827 1.88701373543e-38
0.019896650678 -0.0474458593092 0.827 1.97917265128e-38
0.0214789812826 -0.0475606014115 0.829 1.91481409567e-38
0.0230131942314 -0.0475606014115 0.829 1.90545328179e-38
0.0245474071801 -0.0475606014115 0.829 2.03452352023e-38
0.0260816201289 -0.0475606014115 0.829 2.00682755673e-38
0.0276158330776 -0.0475606014115 0.829 1.98853108294e-38
0.0291500460264 -0.0475606014115 0.829 1.95169038579e-38
0.0306842589751 -0.0475606014115 0.829 1.85953203047e-38
0.032140743403 -0.0474458593092 0.827 2.02536771632e-38
0.0336712549936 -0.0474458593092 0.827 1.97005636399e-38
0.0352017665842 -0.0474458593092 0.827 2.04367245777e-38
0.0366434455795 -0.0473311172068 0.825 1.95158598906e-38
0.038170255812 -0.0473311172068 0.825 1.5270945689e-38
0.0396970660444 -0.0473311172068 0.825 1.55456688516e-38
0.0412238762769 -0.0473311172068 0.825 1.69300480383e-38
0.0427506865094 -0.0473311172068 0.825 1.81296912458e-38
0.0442774967419 -0.0473311172068 0.825 1.60984754906e-38
0.0458043069744 -0.0473311172068 0.825 1.60056114413e-38
0.0473311172068 -0.0473311172068 0.825 1.71130127761e-38
0.0487394839789 -0.0472163751045 0.823 1.51797758096e-38
0.0502625928532 -0.0472163751045 0.823 1.37990175781e-38
0.0517857017275 -0.0472163751045 0.823 1.24150111369e-38
0.0533088106019 -0.0472163751045 0.823 1.25108263207e-38
0.0549651683692 -0.0473311172068 0.825 1.34305825807e-38
0.0563550283506 -0.0472163751045 0.823 1.35231733767e-38
0.0577374856156 -0.0471016330022 0.821 1.50908269882e-38
0.0592568931318 -0.0471016330022 0.821 1.00251358423e-38
0.060776300648 -0.0471016330022 0.821 8.9238567805e-39
0.0624474638479 -0.0472163751045 0.823 1.01270817069e-38
0.0639705727222 -0.0472163751045 0.823 9.94372460543e-39
0.0654936815966 -0.0472163751045 0.823 9.75934035219e-39
0.0670167904709 -0.0472163751045 0.823 9.57531763396e-39
0.0685398993453 -0.0472163751045 0.823 8.55756156582e-39
0.0698927457452 -0.0471016330022 0.821 2.26569979165e-38
0.0714121532614 -0.0471016330022 0.821 2.18232911913e-38
0.0729315607776 -0.0471016330022 0.821 1.33416337594e-38
0.0744509682938 -0.0471016330022 0.821 1.19612146422e-38
0.07597037581 -0.0471016330022 0.821 1.28774172093e-38
0.0774897833262 -0.0471016330022 0.821 1.70244324963e-38
0.0790091908424 -0.0471016330022 0.821 1.70222646876e-38
0.0805285983586 -0.0471016330022 0.821 1.80392626533e-38
0.0820480058748 -0.0471016330022 0.821 1.73027794168e-38
0.083567413391 -0.0471016330022 0.821 1.8408731809e-38
0.0850868209072 -0.0471016330022 0.821 1.85013043881e-38
0.0866062284234 -0.0471016330022 0.821 1.55431577247e-38
0.0881256359396 -0.0471016330022 0.821 2.34903991587e-38
0.0903001838465 -0.0474458593092 0.827 2.35098323658e-38
0.0918306954371 -0.0474458593092 0.827 2.35098267606e-38
-0.0547338334855 -0.0469147144162 0.845 2.34939346347e-38
-0.0531700096716 -0.0469147144162 0.845 2.34943171892e-38
-0.0516061858578 -0.0469147144162 0.845 2.35044065382e-38
-0.0499239185834 -0.046803673672 0.843 1.15027546262e-38
-0.0482490540254 -0.0466926329278 0.841 1.83065042834e-38
-0.0466926329278 -0.0466926329278 0.841 1.70225995979e-38
-0.0451362118302 -0.0466926329278 0.841 1.64694047993e-38
-0.0435797907326 -0.0466926329278 0.841 1.67452896383e-38
-0.042023369635 -0.0466926329278 0.841 1.60992195801e-38
-0.0403707132258 -0.0465815921836 0.839 1.66534891746e-38
-0.0388179934863 -0.0465815921836 0.839 1.96984014363e-38
-0.0372652737469 -0.0465815921836 0.839 1.90584984926e-38
-0.0357125540074 -0.0465815921836 0.839 1.83180201542e-38
-0.034159834268 -0.0465815921836 0.839 1.99764498802e-38
-0.0326071145285 -0.0465815921836 0.839 1.6563454347e-38
-0.0309803676263 -0.0464705514394 0.837 1.67482183521e-38
-0.029431349245 -0.0464705514394 0.837 1.7579754466e-38
-0.0278823308637 -0.0464705514394 0.837 1.66567205689e-38
-0.0263333124823 -0.0464705514394 0.837 1.66560017028e-38
-0.024784294101 -0.0464705514394 0.837 1.91488542176e-38
-0.0232352757197 -0.0464705514394 0.837 1.97016776721e-38
-0.0216862573384 -0.0464705514394 0.837 1.97924089451e-38
-0.0201372389571 -0.0464705514394 0.837 1.60117042871e-38
-0.0185882205758 -0.0464705514394 0.837 1.61039447585e-38
-0.0170392021945 -0.0464705514394 0.837 1.60124511791e-38
-0.0154901838131 -0.0464705514394 0.837 1.5274828687e-38
-0.0139411654318 -0.0464705514394 0.837 1.97906937558e-38
-0.0123921470505 -0.0464705514394 0.837 1.81322247934e-38
-0.0108431286692 -0.0464705514394 0.837 1.89663028627e-38
-0.00929411028789 -0.0464705514394 0.837 1.47252716592e-38
-0.00774509190657 -0.0464705514394 0.837 1.9702418959e-38
-0.0061812680927 -0.0463595106953 0.835 1.81354870162e-38
-0.00463595106953 -0.0463595106953 0.835 1.69326096118e-38
-0.00309063404635 -0.0463595106953 0.835 1.76683375485e-38
-0.00154161566504 -0.0462484699511 0.833 1.96970309664e-38
0.0 -0.0462484699511 0.833 2.06214689646e-38
0.00154161566504 -0.0462484699511 0.833 1.73046123152e-38
0.00307582861379 -0.0461374292069 0.831 1.67507196699e-38
0.00461374292069 -0.0461374292069 0.831 1.84105857268e-38
0.00615165722759 -0.0461374292069 0.831 1.69376290629e-38
0.00770807832518 -0.0462484699511 0.833 1.89612413727e-38
0.00924969399022 -0.0462484699511 0.833 1.66556513782e-38
0.0107913096553 -0.0462484699511 0.833 1.94208196248e-38
0.0123033144552 -0.0461374292069 0.831 1.979352578e-38
0.0138412287621 -0.0461374292069 0.831 1.90577403901e-38
0.015379143069 -0.0461374292069 0.831 1.93303938349e-38
0.0169170573759 -0.0461374292069 0.831 1.83173741556e-38
0.0184549716828 -0.0461374292069 0.831 1.85017275803e-38
0.0199928859897 -0.0461374292069 0.831 1.98835704167e-38
0.0215308002966 -0.0461374292069 0.831 1.94243705151e-38
0.0230687146034 -0.0461374292069 0.831 1.93296931857e-38
0.0246066289103 -0.0461374292069 0.831 2.04349267118e-38
0.0261445432172 -0.0461374292069 0.831 1.9605499552e-38
0.0276824575241 -0.0461374292069 0.831 2.04345988079e-38
0.029220371831 -0.0461374292069 0.831 1.98842738685e-38
0.0307582861379 -0.0461374292069 0.831 2.01615796242e-38
0.0322184719239 -0.0460263884627 0.829 2.01601152673e-38
0.0337526848727 -0.0460263884627 0.829 2.01590460766e-38
0.0352868978214 -0.0460263884627 0.829 2.03434569545e-38
0.0368211107702 -0.0460263884627 0.829 2.05303999787e-38
0.0382627897654 -0.0459153477185 0.827 2.20076460172e-38
0.0397933013561 -0.0459153477185 0.827 1.67521419878e-38
0.0413238129467 -0.0459153477185 0.827 1.76693913249e-38
0.0428543245373 -0.0459153477185 0.827 1.64708649523e-38
0.0443848361279 -0.0459153477185 0.827 1.80406947803e-38
0.0459153477185 -0.0459153477185 0.827 1.89637244736e-38
0.0474458593092 -0.0459153477185 0.827 1.62864512718e-38
0.0488579274393 -0.0458043069744 0.825 1.57304258502e-38
0.0503847376718 -0.0458043069744 0.825 1.40720241501e-38
0.052037394081 -0.0459153477185 0.827 1.58226242827e-38
0.0535679056716 -0.0459153477185 0.827 1.54577906223e-38
0.0550984172622 -0.0459153477185 0.827 1.56407329394e-38
0.0566289288529 -0.0459153477185 0.827 1.4995014607e-38
0.0581594404435 -0.0459153477185 0.827 2.02569295769e-38
0.0596899520341 -0.0459153477185 0.827 1.00269295043e-38
0.0612204636247 -0.0459153477185 0.827 9.66897481812e-39
0.0627509752153 -0.0459153477185 0.827 9.02107186146e-39
0.0641260297641 -0.0458043069744 0.825 9.66535946809e-39
0.0656528399966 -0.0458043069744 0.825 1.00366236871e-38
0.0673425099872 -0.0459153477185 0.827 9.02177251069e-39
0.0687064604615 -0.0458043069744 0.825 7.81893154008e-39
0.070233270694 -0.0458043069744 0.825 2.18294050565e-38
0.071934044759 -0.0459153477185 0.827 1.8780841011e-38
0.073286891159 -0.0458043069744 0.825 1.56397198006e-38
0.0748137013915 -0.0458043069744 0.825 1.87873220164e-38
0.0763405116239 -0.0458043069744 0.825 1.30725676386e-38
0.0778673218564 -0.0458043069744 0.825 1.92241992334e-38
0.0793941320889 -0.0458043069744 0.825 1.71987091837e-38
0.08072477034 -0.0456932662302 0.823 1.7377760095e-38
0.0822478792143 -0.0456932662302 0.823 1.58068470633e-38
0.0839745627863 -0.0458043069744 0.825 1.80180932374e-38
0.0855013730188 -0.0458043069744 0.825 1.79298646835e-38
0.0870281832513 -0.0458043069744 0.825 1.42345019045e-38
0.0887696722558 -0.0459153477185 0.827 2.34896887004e-38
0.0903001838465 -0.0459153477185 0.827 2.35098225567e-38
0.0918306954371 -0.0459153477185 0.827 2.35083876271e-38
-0.0535475482019 -0.0456729087604 0.851 2.34968353225e-38
-0.0519726203136 -0.0456729087604 0.851 2.35036610474e-38
-0.0501608055044 -0.0454582299883 0.847 1.38119599707e-38
-0.04847853823 -0.0453508906023 0.845 1.72873497194e-38
-0.0469147144162 -0.0453508906023 0.845 1.66556121418e-38
-0.0453508906023 -0.0453508906023 0.845 1.60098769939e-38
-0.0437870667884 -0.0453508906023 0.845 1.63779364433e-38
-0.0421233063048 -0.0452435512162 0.843 1.65634137093e-38
-0.0404669485374 -0.0451362118302 0.841 1.58244445694e-38
-0.0389105274398 -0.0451362118302 0.841 1.4347166301e-38
-0.0373541063422 -0.0451362118302 0.841 1.69261426194e-38
-0.0357976852446 -0.0451362118302 0.841 1.78542127833e-38
-0.0342412641471 -0.0451362118302 0.841 1.73935429196e-38
-0.0326848430495 -0.0451362118302 0.841 1.85009722804e-38
-0.0311284219519 -0.0451362118302 0.841 1.6200026189e-38
-0.0295720008543 -0.0451362118302 0.841 1.58284046388e-38
-0.0280155797567 -0.0451362118302 0.841 1.58237355124e-38
-0.0263962355707 -0.0450288724442 0.839 1.78487505219e-38
-0.0248435158313 -0.0450288724442 0.839 2.02527116686e-38
-0.0232907960918 -0.0450288724442 0.839 1.96069484947e-38
-0.0217380763524 -0.0450288724442 0.839 1.88683240741e-38
-0.0201372389571 -0.0449215330581 0.837 1.69282361593e-38
-0.0185882205758 -0.0449215330581 0.837 2.00689762165e-38
-0.0170392021945 -0.0449215330581 0.837 1.81332057023e-38
-0.0155271973945 -0.0450288724442 0.839 1.4998258613e-38
-0.0139744776551 -0.0450288724442 0.839 1.78578281333e-38
-0.0124217579156 -0.0450288724442 0.839 1.89677279833e-38
-0.0108690381762 -0.0450288724442 0.839 1.26912547083e-38
-0.00931631843672 -0.0450288724442 0.839 1.87765250117e-38
-0.00776359869727 -0.0450288724442 0.839 1.66595904281e-38
-0.00619607352526 -0.0449215330581 0.837 1.71188183557e-38
-0.00464705514394 -0.0449215330581 0.837 1.84102382048e-38
-0.00309063404635 -0.0448141936721 0.835 1.87797297813e-38
-0.00154531702318 -0.0448141936721 0.835 2.05299922009e-38
0.0 -0.0448141936721 0.835 2.01619621787e-38
0.00154531702318 -0.0448141936721 0.835 1.65648738623e-38
0.00309063404635 -0.0448141936721 0.835 1.73028396726e-38
0.00463595106953 -0.0448141936721 0.835 1.46313159984e-38
0.0061812680927 -0.0448141936721 0.835 1.2324289673e-38
0.00772658511588 -0.0448141936721 0.835 1.79464056105e-38
0.00927190213905 -0.0448141936721 0.835 1.77645002543e-38
0.0108172191622 -0.0448141936721 0.835 1.86857741206e-38
0.0123329253203 -0.044706854286 0.833 1.79485383868e-38
0.0138745409853 -0.044706854286 0.833 1.97020307994e-38
0.0154161566504 -0.044706854286 0.833 1.88701373543e-38
0.0169577723154 -0.044706854286 0.833 1.87797465969e-38
0.0184993879804 -0.044706854286 0.833 1.85020835101e-38
0.0200410036455 -0.044706854286 0.833 1.93296511467e-38
0.0215826193105 -0.044706854286 0.833 2.07122170532e-38
0.0231242349755 -0.044706854286 0.833 1.97895825261e-38
0.0246658506406 -0.044706854286 0.833 2.03449072984e-38
0.0262074663056 -0.044706854286 0.833 1.94250711644e-38
0.0277490819706 -0.044706854286 0.833 2.08069518359e-38
0.0292906976357 -0.044706854286 0.833 1.96069639089e-38
0.0308323133007 -0.044706854286 0.833 2.135904101e-38
0.0323739289658 -0.044706854286 0.833 2.07147534034e-38
0.0339155446308 -0.044706854286 0.833 2.02555801265e-38
0.0354571602958 -0.044706854286 0.833 1.88766113532e-38
0.0369987759609 -0.044706854286 0.833 1.76787688142e-38
0.0384478576724 -0.0445995149 0.831 1.70312946549e-38
0.0398895366677 -0.044492175514 0.829 1.69387458978e-38
0.0414237496164 -0.044492175514 0.829 1.85031372865e-38
0.0429579625652 -0.044492175514 0.829 1.59166373966e-38
0.044492175514 -0.044492175514 0.829 1.77630064701e-38
0.0460263884627 -0.044492175514 0.829 1.9608396036e-38
0.0475606014115 -0.044492175514 0.829 1.83151909326e-38
0.0489763708998 -0.0443848361279 0.827 1.8312281837e-38
0.0505068824904 -0.0443848361279 0.827 1.84984499432e-38
0.0521632402577 -0.044492175514 0.829 1.68397105302e-38
0.0536974532065 -0.044492175514 0.829 1.91449165689e-38
0.0552316661553 -0.044492175514 0.829 1.92392575867e-38
0.056765879104 -0.044492175514 0.829 2.24653815619e-38
0.0583000920528 -0.044492175514 0.829 1.87830032145e-38
0.0598343050015 -0.044492175514 0.829 1.10364024973e-38
0.0613685179503 -0.044492175514 0.829 9.39130192222e-39
0.062902730899 -0.044492175514 0.829 1.03099735773e-38
0.064281486806 -0.0443848361279 0.827 9.11432407036e-39
0.0658119983966 -0.0443848361279 0.827 9.20830215187e-39
0.0673425099872 -0.0443848361279 0.827 8.09946028225e-39
0.0688730215778 -0.0443848361279 0.827 8.46250028059e-39
0.0704035331684 -0.0443848361279 0.827 2.21049031372e-38
0.071934044759 -0.0443848361279 0.827 2.01623433319e-38
0.0736422215403 -0.044492175514 0.829 9.83429020186e-39
0.0751764344891 -0.044492175514 0.829 1.62988065203e-38
0.0765255795309 -0.0443848361279 0.827 1.57433696441e-38
0.0780560911215 -0.0443848361279 0.827 2.0522729271e-38
0.0795866027121 -0.0443848361279 0.827 1.78415562555e-38
0.0811171143028 -0.0443848361279 0.827 1.64543380382e-38
0.0826476258934 -0.0443848361279 0.827 1.68137879099e-38
0.084178137484 -0.0443848361279 0.827 1.77274793502e-38
0.0857086490746 -0.0443848361279 0.827 1.625488282e-38
0.0872391606652 -0.0443848361279 0.827 1.53365278584e-38
0.0887696722558 -0.0443848361279 0.827 2.34969264069e-38
0.0903001838465 -0.0443848361279 0.827 2.35083722128e-38
0.0918306954371 -0.0443848361279 0.827 2.35080457103e-38
-0.0538621636437 -0.0443570759419 0.856 2.34975738068e-38
-0.0522779823601 -0.0443570759419 0.856 2.35015156594e-38
-0.0503976924253 -0.0440979808721 0.851 2.12841275941e-38
-0.048822764537 -0.0440979808721 0.851 1.05610820582e-38
-0.0471367959045 -0.0439943428442 0.849 1.58258388614e-38
-0.0455655693744 -0.0439943428442 0.849 1.58254801289e-38
-0.0438907048163 -0.0438907048163 0.847 1.49932419645e-38
-0.0422232429745 -0.0437870667884 0.845 1.5087567568e-38
-0.040563183849 -0.0436834287605 0.843 1.85960181513e-38
-0.0390030613933 -0.0436834287605 0.843 1.73060458435e-38
-0.0374429389376 -0.0436834287605 0.843 1.86903171302e-38
-0.0358828164819 -0.0436834287605 0.843 1.85988403664e-38
-0.0343226940261 -0.0436834287605 0.843 2.06260582171e-38
-0.0327625715704 -0.0436834287605 0.843 2.01672184493e-38
-0.0312024491147 -0.0436834287605 0.843 1.80471099247e-38
-0.0296423266589 -0.0436834287605 0.843 1.77669399149e-38
-0.0280822042032 -0.0436834287605 0.843 1.99789133629e-38
-0.0264591586591 -0.0435797907326 0.841 2.03456079477e-38
-0.0249027375615 -0.0435797907326 0.841 1.96087463606e-38
-0.0233463164639 -0.0435797907326 0.841 2.00693685801e-38
-0.0217898953663 -0.0435797907326 0.841 1.88697716154e-38
-0.0201853566129 -0.0434761527047 0.839 2.07129359193e-38
-0.0186326368734 -0.0434761527047 0.839 2.12657285453e-38
-0.017079917134 -0.0434761527047 0.839 1.83169537661e-38
-0.0155642109759 -0.0435797907326 0.841 1.462731389e-38
-0.0140077898783 -0.0435797907326 0.841 1.38887245019e-38
-0.0124513687807 -0.0435797907326 0.841 1.27813007463e-38
-0.0108690381762 -0.0434761527047 0.839 1.48106611824e-38
-0.00931631843672 -0.0434761527047 0.839 1.64712433029e-38
-0.00776359869727 -0.0434761527047 0.839 1.84045124993e-38
-0.00621087895782 -0.0434761527047 0.839 1.8134021258e-38
-0.00464705514394 -0.0433725146768 0.837 1.94272641965e-38
-0.00309803676263 -0.0433725146768 0.837 2.12712188327e-38
-0.00154901838131 -0.0433725146768 0.837 1.90609801922e-38
0.0 -0.0433725146768 0.837 1.71237999717e-38
0.00154901838131 -0.0433725146768 0.837 1.37111379475e-38
0.00309803676263 -0.0433725146768 0.837 1.54584968767e-38
0.00464705514394 -0.0433725146768 0.837 1.40795645372e-38
0.00619607352526 -0.0433725146768 0.837 1.72142103473e-38
0.00774509190657 -0.0433725146768 0.837 1.64751865567e-38
0.00929411028789 -0.0433725146768 0.837 1.50918933764e-38
0.0108431286692 -0.0433725146768 0.837 1.81321883596e-38
0.0123625361854 -0.0432688766489 0.835 1.85939105984e-38
0.0139078532086 -0.0432688766489 0.835 1.97002553542e-38
0.0154531702318 -0.0432688766489 0.835 2.11750351074e-38
0.0169984872549 -0.0432688766489 0.835 2.03466967566e-38
0.0185438042781 -0.0432688766489 0.835 1.85006317649e-38
0.0200891213013 -0.0432688766489 0.835 1.87804472461e-38
0.0216344383245 -0.0432688766489 0.835 1.79503012203e-38
0.0231797553476 -0.0432688766489 0.835 1.75761082874e-38
0.0247250723708 -0.0432688766489 0.835 1.87764227169e-38
0.026270389394 -0.0432688766489 0.835 1.20469671017e-38
0.0278157064172 -0.0432688766489 0.835 1.89587624757e-38
0.0293610234403 -0.0432688766489 0.835 1.7303522105e-38
0.0309063404635 -0.0432688766489 0.835 1.63812505142e-38
0.0324516574867 -0.0432688766489 0.835 1.55508046105e-38
0.0339155446308 -0.043165238621 0.833 1.33409975699e-38
0.0354571602958 -0.043165238621 0.833 1.10404508485e-38
0.0369987759609 -0.043165238621 0.833 1.17819213063e-38
0.0385403916259 -0.043165238621 0.833 1.13198697623e-38
0.0400820072909 -0.043165238621 0.833 1.03000117465e-38
0.041623622956 -0.043165238621 0.833 1.57395188759e-38
0.043165238621 -0.043165238621 0.833 1.87772438778e-38
0.044706854286 -0.043165238621 0.833 1.87765194065e-38
0.0461374292069 -0.0430616005931 0.831 1.84065878223e-38
0.0476753435138 -0.0430616005931 0.831 1.80367066849e-38
0.0492132578207 -0.0430616005931 0.831 1.63797483222e-38
0.0507511721276 -0.0430616005931 0.831 1.6656312791e-38
0.0522890864345 -0.0430616005931 0.831 1.48131372768e-38
0.0538270007414 -0.0430616005931 0.831 1.57326342966e-38
0.0553649150483 -0.0430616005931 0.831 1.65620320291e-38
0.0569028293552 -0.0430616005931 0.831 1.91484912813e-38
0.0584407436621 -0.0430616005931 0.831 1.87855073349e-38
0.059978657969 -0.0430616005931 0.831 6.70399121953e-39
0.0613685179503 -0.0429579625652 0.829 8.9277776136e-39
0.062902730899 -0.0429579625652 0.829 9.48132694077e-39
0.0644369438478 -0.0429579625652 0.829 9.38804950849e-39
0.0659711567966 -0.0429579625652 0.829 9.20473724858e-39
0.0675053697453 -0.0429579625652 0.829 7.45339022397e-39
0.0690395826941 -0.0429579625652 0.829 1.06780722631e-38
0.0705737956428 -0.0429579625652 0.829 2.13691527798e-38
0.0721080085916 -0.0429579625652 0.829 2.08080504539e-38
0.0736422215403 -0.0429579625652 0.829 1.38059063614e-38
0.0751764344891 -0.0429579625652 0.829 4.04076183095e-39
0.0767106474379 -0.0429579625652 0.829 1.55439648727e-38
0.0782448603866 -0.0429579625652 0.829 2.30264838878e-38
0.0797790733354 -0.0429579625652 0.829 2.34806082863e-38
0.0813132862841 -0.0429579625652 0.829 2.33891581473e-38
0.0828474992329 -0.0429579625652 0.829 2.31110886839e-38
0.0843817121817 -0.0429579625652 0.829 2.34812612914e-38
0.0859159251304 -0.0429579625652 0.829 2.34776781712e-38
0.0874501380792 -0.0429579625652 0.829 2.18167345158e-38
0.0887696722558 -0.0428543245373 0.827 2.35048255264e-38
0.0903001838465 -0.0428543245373 0.827 2.35083806206e-38
-0.0538621636437 -0.0427728946582 0.856 2.34950430618e-38
-0.0522779823601 -0.0427728946582 0.856 2.34961220616e-38
-0.0506938010764 -0.0427728946582 0.856 2.35047512576e-38
-0.0489948776905 -0.0426729579885 0.854 8.0815236619e-39
-0.0472478366487 -0.0425230529838 0.851 1.39780138388e-38
-0.0456729087604 -0.0425230529838 0.851 1.43482354917e-38
-0.0439943428442 -0.0424231163141 0.849 2.00639567654e-38
-0.0423231796443 -0.0423231796443 0.847 1.61993059216e-38
-0.0407556544723 -0.0423231796443 0.847 1.59201854844e-38
-0.0391881293003 -0.0423231796443 0.847 1.88714769957e-38
-0.0376206041283 -0.0423231796443 0.847 1.92402539099e-38
-0.0359679477191 -0.0422232429745 0.845 1.97934234852e-38
-0.0344041239052 -0.0422232429745 0.845 1.91487771462e-38
-0.0328403000913 -0.0422232429745 0.845 1.98877687069e-38
-0.0312764762774 -0.0422232429745 0.845 1.97952227524e-38
-0.0297126524636 -0.0422232429745 0.845 2.03463113995e-38
-0.0281488286497 -0.0422232429745 0.845 1.90544963842e-38
-0.0265850048358 -0.0422232429745 0.845 1.9791342557e-38
-0.025021181022 -0.0422232429745 0.845 1.96065953674e-38
-0.0234573572081 -0.0422232429745 0.845 1.97917209076e-38
-0.0218935333942 -0.0422232429745 0.845 1.96062604571e-38
-0.0203297095803 -0.0422232429745 0.845 1.96066360051e-38
-0.0187658857665 -0.0422232429745 0.845 2.03430645909e-38
-0.0172020619526 -0.0422232429745 0.845 1.67453036513e-38
-0.0156382381387 -0.0422232429745 0.845 2.08072419047e-38
-0.0140411021016 -0.0421233063048 0.843 1.85938307244e-38
-0.0124809796459 -0.0421233063048 0.843 1.61038845026e-38
-0.0109208571901 -0.0421233063048 0.843 1.74915090966e-38
-0.00933852658556 -0.042023369635 0.841 1.85060309678e-38
-0.00778210548797 -0.042023369635 0.841 1.73982386708e-38
-0.00622568439037 -0.042023369635 0.841 1.66584791985e-38
-0.00465815921836 -0.0419234329653 0.839 1.70265652726e-38
-0.00310543947891 -0.0419234329653 0.839 1.40684536417e-38
-0.00155271973945 -0.0419234329653 0.839 1.38861951582e-38
0.0 -0.0419234329653 0.839 1.37057401459e-38
0.00155271973945 -0.0419234329653 0.839 1.30651253425e-38
0.00311284219519 -0.042023369635 0.841 1.28767473886e-38
0.00465815921836 -0.0419234329653 0.839 1.38901342082e-38
0.00621087895782 -0.0419234329653 0.839 1.48128261885e-38
0.00776359869727 -0.0419234329653 0.839 1.16763811111e-38
0.00931631843672 -0.0419234329653 0.839 1.36081551221e-38
0.0108690381762 -0.0419234329653 0.839 1.48113618316e-38
0.0124217579156 -0.0419234329653 0.839 1.60999342423e-38
0.0139744776551 -0.0419234329653 0.839 1.73931589638e-38
0.0155271973945 -0.0419234329653 0.839 1.60992195801e-38
0.017079917134 -0.0419234329653 0.839 1.56371456153e-38
0.0186326368734 -0.0419234329653 0.839 1.33276263799e-38
0.0201372389571 -0.0418234962955 0.837 9.27538511196e-39
0.0216862573384 -0.0418234962955 0.837 1.59923523553e-38
0.0232352757197 -0.0418234962955 0.837 1.88676066093e-38
0.024784294101 -0.0418234962955 0.837 9.37331905903e-39
0.0263333124823 -0.0418234962955 0.837 1.36081789442e-38
0.0278823308637 -0.0418234962955 0.837 1.23192295842e-38
0.029431349245 -0.0418234962955 0.837 1.26055709124e-38
0.0309803676263 -0.0418234962955 0.837 1.02120900769e-38
0.0324516574867 -0.0417235596257 0.835 1.05815830547e-38
0.0339969745099 -0.0417235596257 0.835 1.13202355012e-38
0.035542291533 -0.0417235596257 0.835 1.03964883431e-38
0.0370876085562 -0.0417235596257 0.835 1.03078996555e-38
0.0386329255794 -0.0417235596257 0.835 1.14135297491e-38
0.0401782426026 -0.0417235596257 0.835 1.15979182062e-38
0.0417235596257 -0.0417235596257 0.835 8.73699923547e-39
0.0432688766489 -0.0417235596257 0.835 1.43611512597e-38
0.0448141936721 -0.0417235596257 0.835 1.58330373316e-38
0.0463595106953 -0.0417235596257 0.835 1.28828234188e-38
0.0479048277184 -0.0417235596257 0.835 1.25097725442e-38
0.0494501447416 -0.0417235596257 0.835 1.40748771938e-38
0.0509954617648 -0.0417235596257 0.835 1.61028461405e-38
0.0524149326112 -0.041623622956 0.833 1.59187883898e-38
0.0539565482763 -0.041623622956 0.833 1.62861485913e-38
0.0556314128343 -0.0417235596257 0.835 1.75815691476e-38
0.0570397796063 -0.041623622956 0.833 1.03954163498e-38
0.0585813952714 -0.041623622956 0.833 1.4913353939e-38
0.0602673639038 -0.0417235596257 0.835 1.18709149691e-38
0.0616646266014 -0.041623622956 0.833 8.83020940542e-39
0.0630544865828 -0.0415236862862 0.831 1.12251097563e-38
0.0645924008897 -0.0415236862862 0.831 1.048754752e-38
0.0661303151966 -0.0415236862862 0.831 9.57242815653e-39
0.0676682295035 -0.0415236862862 0.831 8.19021958118e-39
0.0692061438103 -0.0415236862862 0.831 7.35365560837e-39
0.0707440581172 -0.0415236862862 0.831 2.28442828576e-38
0.0722819724241 -0.0415236862862 0.831 1.99797163069e-38
0.073819886731 -0.0415236862862 0.831 1.32498445061e-38
0.0753578010379 -0.0415236862862 0.831 5.32645877716e-39
0.0768957153448 -0.0415236862862 0.831 1.31508385657e-38
0.0786223989168 -0.041623622956 0.833 2.30275026318e-38
0.0801640145819 -0.041623622956 0.833 2.29277918383e-38
0.0817056302469 -0.041623622956 0.833 2.29281421629e-38
0.0830473725724 -0.0415236862862 0.831 1.98835507985e-38
0.0843817121817 -0.0414237496164 0.829 1.9974289078e-38
0.0859159251304 -0.0414237496164 0.829 1.95089528904e-38
0.0876611154931 -0.0415236862862 0.831 1.68302896006e-38
0.0891990298 -0.0415236862862 0.831 2.35084016401e-38
-0.0539880098204 -0.0412849486862 0.858 2.34964878005e-38
-0.0524001271787 -0.0412849486862 0.858 2.34986331885e-38
-0.0508122445369 -0.0412849486862 0.858 2.35044121433e-38
-0.0492243618951 -0.0412849486862 0.858 1.19509038881e-38
-0.0476364792533 -0.0412849486862 0.858 1.57254498394e-38
-0.0459412572255 -0.0411887133746 0.856 1.48091954242e-38
-0.044253437914 -0.041092478063 0.854 2.21859500364e-38
-0.0426729579885 -0.041092478063 0.854 1.94297851324e-38
-0.0409481250955 -0.0409481250955 0.851 1.37932638466e-38
-0.0393731972073 -0.0409481250955 0.851 1.82229406521e-38
-0.0377094367236 -0.0408518897839 0.849 1.89633349126e-38
-0.0361382101935 -0.0408518897839 0.849 1.96062030039e-38
-0.0345669836633 -0.0408518897839 0.849 2.0804708357e-38
-0.0329180286122 -0.0407556544723 0.847 2.0069386797e-38
-0.0313505034402 -0.0407556544723 0.847 1.97009167671e-38
-0.0297829782682 -0.0407556544723 0.847 1.97931306138e-38
-0.0282154530962 -0.0407556544723 0.847 1.942114893e-38
-0.0266479279242 -0.0407556544723 0.847 2.04356301636e-38
-0.0250804027522 -0.0407556544723 0.847 1.99742442364e-38
-0.0235128775802 -0.0407556544723 0.847 2.00661469949e-38
-0.0219453524082 -0.0407556544723 0.847 1.96984378701e-38
-0.0203778272361 -0.0407556544723 0.847 1.97909866272e-38
-0.0188103020641 -0.0407556544723 0.847 1.90519754482e-38
-0.0172427768921 -0.0407556544723 0.847 1.73874542778e-38
-0.0156382381387 -0.0406594191607 0.845 2.02522576479e-38
-0.0140744143248 -0.0406594191607 0.845 1.6747781147e-38
-0.012510590511 -0.0406594191607 0.845 1.63746994439e-38
-0.0109467666971 -0.0406594191607 0.845 1.22288290177e-38
-0.0093607347344 -0.040563183849 0.843 1.37057303368e-38
-0.00780061227866 -0.040563183849 0.843 1.34262777918e-38
-0.00624048982293 -0.040563183849 0.843 1.05610820582e-38
-0.00466926329278 -0.0404669485374 0.841 1.94057710806e-38
-0.00311284219519 -0.0404669485374 0.841 1.52734161781e-38
-0.00155642109759 -0.0404669485374 0.841 1.79466886728e-38
0.0 -0.0404669485374 0.841 1.70240051003e-38
0.00155642109759 -0.0404669485374 0.841 1.65623571303e-38
0.00312024491147 -0.040563183849 0.843 1.50832627791e-38
0.00466926329278 -0.0404669485374 0.841 1.53637915213e-38
0.00622568439037 -0.0404669485374 0.841 1.65637514223e-38
0.00778210548797 -0.0404669485374 0.841 1.75764740263e-38
0.00933852658556 -0.0404669485374 0.841 1.70236505718e-38
0.0108949476832 -0.0404669485374 0.841 1.56407567615e-38
0.0124513687807 -0.0404669485374 0.841 1.527234979e-38
0.0140077898783 -0.0404669485374 0.841 1.51848358983e-38
0.0155642109759 -0.0404669485374 0.841 1.40730933409e-38
0.0171206320735 -0.0404669485374 0.841 1.49914440986e-38
0.0186326368734 -0.0403707132258 0.839 1.27812769243e-38
0.0201853566129 -0.0403707132258 0.839 1.46309082206e-38
0.0217380763524 -0.0403707132258 0.839 2.06189101937e-38
0.0232907960918 -0.0403707132258 0.839 1.96134280988e-38
0.0248435158313 -0.0403707132258 0.839 1.92428729367e-38
0.0263962355707 -0.0403707132258 0.839 1.80453681107e-38
0.0278823308637 -0.0402744779142 0.837 1.29717638323e-38
0.029431349245 -0.0402744779142 0.837 1.01109135252e-38
0.0309803676263 -0.0402744779142 0.837 8.45285234067e-39
0.0325293860076 -0.0402744779142 0.837 1.37087066947e-38
0.0340784043889 -0.0402744779142 0.837 9.83686999233e-39
0.0356274227702 -0.0402744779142 0.837 9.0096260556e-39
0.0371764411516 -0.0402744779142 0.837 9.29408403867e-39
0.0387254595329 -0.0402744779142 0.837 1.13209627751e-38
0.0402744779142 -0.0402744779142 0.837 1.0493012584e-38
0.0418234962955 -0.0402744779142 0.837 1.14110060105e-38
0.0433725146768 -0.0402744779142 0.837 1.0669475297e-38
0.0450288724442 -0.0403707132258 0.839 1.02988977142e-38
0.0465815921836 -0.0403707132258 0.839 1.12226883125e-38
0.0481343119231 -0.0403707132258 0.839 1.06737786846e-38
0.0496870316625 -0.0403707132258 0.839 1.18691002876e-38
0.0511176065834 -0.0402744779142 0.837 1.46306279609e-38
0.0526666249647 -0.0402744779142 0.837 1.4444808778e-38
0.054215643346 -0.0402744779142 0.837 1.37061885614e-38
0.0557646617273 -0.0402744779142 0.837 1.30644387063e-38
0.0573136801086 -0.0402744779142 0.837 1.27935915352e-38
0.05886269849 -0.0402744779142 0.837 1.28864962221e-38
0.0602673639038 -0.0401782426026 0.835 1.39013600102e-38
0.061812680927 -0.0401782426026 0.835 1.43648632993e-38
0.0633579979502 -0.0401782426026 0.835 1.66686778487e-38
0.0647478579315 -0.0400820072909 0.833 1.03964883431e-38
0.0661303151966 -0.0399857719793 0.831 1.03024359928e-38
0.0676682295035 -0.0399857719793 0.831 6.71260640249e-39
0.0692061438103 -0.0399857719793 0.831 1.21424179479e-38
0.0707440581172 -0.0399857719793 0.831 2.19194524958e-38
0.0722819724241 -0.0399857719793 0.831 1.63822818698e-38
0.073819886731 -0.0399857719793 0.831 1.34281064863e-38
0.0755391675868 -0.0400820072909 0.833 1.90607097416e-38
0.0772658511588 -0.0401782426026 0.835 1.70358909139e-38
0.078999937447 -0.0402744779142 0.837 2.2469236534e-38
0.0805489558284 -0.0402744779142 0.837 2.19085377821e-38
0.0819018022283 -0.0401782426026 0.835 2.18163841911e-38
0.0834471192515 -0.0401782426026 0.835 1.91419612304e-38
0.0849924362746 -0.0401782426026 0.835 2.34845809675e-38
0.086330477242 -0.0400820072909 0.833 1.8136190468e-38
0.0878720929071 -0.0400820072909 0.833 1.89563172099e-38
0.0894137085721 -0.0400820072909 0.833 2.35098267606e-38
-0.0525222719973 -0.0397895999979 0.86 2.34935969218e-38
-0.0509306879973 -0.0397895999979 0.86 2.3502241532e-38
-0.0493391039974 -0.0397895999979 0.86 1.55557694109e-38
-0.0477475199975 -0.0397895999979 0.86 2.14530246967e-38
-0.0461559359976 -0.0397895999979 0.86 2.06265262508e-38
-0.0444607139698 -0.0396970660444 0.858 2.01659012287e-38
-0.0427728946582 -0.039604532091 0.856 1.64784067406e-38
-0.0411887133746 -0.039604532091 0.856 1.61024986185e-38
-0.0395119981375 -0.0395119981375 0.854 1.51776472372e-38
-0.037931518212 -0.0395119981375 0.854 1.52669547909e-38
-0.0362233414307 -0.0393731972073 0.851 1.76625543897e-38
-0.0346484135424 -0.0393731972073 0.851 1.9049105589e-38
-0.0329957571332 -0.0392806632538 0.849 1.87797241761e-38
-0.031424530603 -0.0392806632538 0.849 2.03466645267e-38
-0.0298533040729 -0.0392806632538 0.849 2.11742896166e-38
-0.0282820775427 -0.0392806632538 0.849 2.00683330205e-38
-0.0267108510126 -0.0392806632538 0.849 2.06193025572e-38
-0.0251396244824 -0.0392806632538 0.849 2.03416394704e-38
-0.0235683979523 -0.0392806632538 0.849 2.0344201044e-38
-0.0219971714221 -0.0392806632538 0.849 1.93307301466e-38
-0.020425944892 -0.0392806632538 0.849 1.81307604365e-38
-0.0188547183618 -0.0392806632538 0.849 1.95140297948e-38
-0.0172834918317 -0.0392806632538 0.849 1.78527274069e-38
-0.0157122653015 -0.0392806632538 0.849 1.66549058874e-38
-0.0141410387714 -0.0392806632538 0.849 1.83133412186e-38
-0.0125698122412 -0.0392806632538 0.849 1.88700799011e-38
-0.0109726762041 -0.0391881293003 0.847 9.46802441444e-39
-0.00940515103207 -0.0391881293003 0.847 1.65667333854e-38
-0.00783762586006 -0.0391881293003 0.847 1.51880448718e-38
-0.00627010068805 -0.0391881293003 0.847 1.53666683871e-38
-0.00469147144162 -0.0390955953468 0.845 1.65623823537e-38
-0.00312764762774 -0.0390955953468 0.845 1.8503092445e-38
-0.00156382381387 -0.0390955953468 0.845 2.12657313479e-38
0.0 -0.0390955953468 0.845 1.94240019736e-38
0.00156382381387 -0.0390955953468 0.845 2.19114216543e-38
0.00312764762774 -0.0390955953468 0.845 2.18221645473e-38
0.00469147144162 -0.0390955953468 0.845 1.81353707084e-38
0.00625529525549 -0.0390955953468 0.845 1.78555874571e-38
0.00781911906936 -0.0390955953468 0.845 2.01600452024e-38
0.00938294288323 -0.0390955953468 0.845 1.96075958945e-38
0.0109208571901 -0.0390030613933 0.843 1.95179127928e-38
0.0124809796459 -0.0390030613933 0.843 1.82275663383e-38
0.0140411021016 -0.0390030613933 0.843 1.6662782586e-38
0.0156012245573 -0.0390030613933 0.843 1.453515049e-38
0.0171613470131 -0.0390030613933 0.843 1.50829040467e-38
0.0186770531711 -0.0389105274398 0.841 1.70211702735e-38
0.0202334742687 -0.0389105274398 0.841 1.92335150656e-38
0.0217898953663 -0.0389105274398 0.841 2.03484792082e-38
0.0233463164639 -0.0389105274398 0.841 1.89641504683e-38
0.0249027375615 -0.0389105274398 0.841 2.00657938677e-38
0.0263962355707 -0.0388179934863 0.839 2.20061956733e-38
0.0279489553102 -0.0388179934863 0.839 2.02569870302e-38
0.0295016750496 -0.0388179934863 0.839 1.91513765548e-38
0.0310543947891 -0.0388179934863 0.839 1.74014784728e-38
0.0326071145285 -0.0388179934863 0.839 1.87801375592e-38
0.034159834268 -0.0388179934863 0.839 1.88737597109e-38
0.0357125540074 -0.0388179934863 0.839 1.45438021067e-38
0.0372652737469 -0.0388179934863 0.839 1.19504708868e-38
0.0388179934863 -0.0388179934863 0.839 1.2044503619e-38
0.0404669485374 -0.0389105274398 0.841 1.0291713257e-38
0.042023369635 -0.0389105274398 0.841 1.72042415101e-38
0.0435797907326 -0.0389105274398 0.841 1.72102909155e-38
0.0451362118302 -0.0389105274398 0.841 1.41721287085e-38
0.0466926329278 -0.0389105274398 0.841 1.51855589683e-38
0.0482490540254 -0.0389105274398 0.841 1.37133632095e-38
0.049805475123 -0.0389105274398 0.841 1.32545500663e-38
0.051239751402 -0.0388179934863 0.839 1.40828814106e-38
0.0527924711414 -0.0388179934863 0.839 1.3896678272e-38
0.0543451908809 -0.0388179934863 0.839 1.25162843782e-38
0.0558979106203 -0.0388179934863 0.839 1.18748806438e-38
0.0574506303598 -0.0388179934863 0.839 1.26124232619e-38
0.05886269849 -0.0387254595329 0.837 1.30708776727e-38
0.0602673639038 -0.0386329255794 0.835 1.22439910671e-38
0.061812680927 -0.0386329255794 0.835 1.11362338025e-38
0.0633579979502 -0.0386329255794 0.835 1.32553109714e-38
0.0647478579315 -0.0385403916259 0.833 1.40832373405e-38
0.0662894735965 -0.0385403916259 0.833 1.17783690147e-38
0.0678310892616 -0.0385403916259 0.833 6.43027839309e-39
0.0693727049266 -0.0385403916259 0.833 7.81321143975e-39
0.0709143205917 -0.0385403916259 0.833 2.19219734317e-38
0.0724559362567 -0.0385403916259 0.833 1.72152669264e-38
0.0741752171124 -0.0386329255794 0.835 1.12997120839e-38
0.0759019006844 -0.0387254595329 0.837 1.53736230313e-38
0.0774509190657 -0.0387254595329 0.837 1.30650973165e-38
0.0791887067122 -0.0388179934863 0.839 1.54283633545e-38
0.0809338970749 -0.0389105274398 0.841 1.73569087739e-38
0.0822941461911 -0.0388179934863 0.839 1.71732377815e-38
0.0838468659305 -0.0388179934863 0.839 2.34583178317e-38
0.08539958567 -0.0388179934863 0.839 2.34871313307e-38
0.0867450293536 -0.0387254595329 0.837 6.15297824259e-39
0.0882940477349 -0.0387254595329 0.837 1.95177054007e-38
0.0898430661163 -0.0387254595329 0.837 2.35097875243e-38
-0.0527665616345 -0.0383756811887 0.864 2.34943143866e-38
-0.0510491314578 -0.0382868485934 0.862 2.34993828832e-38
-0.0493391039974 -0.038198015998 0.86 1.94333976798e-38
-0.0477475199975 -0.038198015998 0.86 1.95147486609e-38
-0.0461559359976 -0.038198015998 0.86 2.03477729538e-38
-0.0445643519977 -0.038198015998 0.86 2.07158352058e-38
-0.042872831328 -0.0381091834027 0.858 2.04431929714e-38
-0.0412849486862 -0.0381091834027 0.858 1.90624277335e-38
-0.039604532091 -0.0380203508073 0.856 2.0444280379e-38
-0.0380203508073 -0.0380203508073 0.856 2.07198176961e-38
-0.0364361695237 -0.0380203508073 0.856 1.70248220573e-38
-0.034770558361 -0.037931518212 0.854 1.68388991783e-38
-0.0331900784355 -0.037931518212 0.854 1.54567032147e-38
-0.0314985577658 -0.037798269319 0.851 1.60087923889e-38
-0.0299236298775 -0.037798269319 0.851 1.94175181656e-38
-0.0283487019892 -0.037798269319 0.851 1.93324481385e-38
-0.0267737741009 -0.037798269319 0.851 1.96065813545e-38
-0.0251988462126 -0.037798269319 0.851 2.20007880626e-38
-0.0236239183244 -0.037798269319 0.851 1.97909866272e-38
-0.022126718957 -0.037931518212 0.854 2.02530017373e-38
-0.0205462390315 -0.037931518212 0.854 1.85938685595e-38
-0.018965759106 -0.037931518212 0.854 1.9884257053e-38
-0.0173852791805 -0.037931518212 0.854 1.73964015685e-38
-0.0157492788829 -0.037798269319 0.851 1.93317586996e-38
-0.0141743509946 -0.037798269319 0.851 1.93320894061e-38
-0.0125994231063 -0.037798269319 0.851 1.38897600615e-38
-0.011024495218 -0.037798269319 0.851 1.53627657708e-38
-0.00944956732974 -0.037798269319 0.851 1.53631132928e-38
-0.00785613265075 -0.0377094367236 0.849 1.83187264086e-38
-0.0062849061206 -0.0377094367236 0.849 1.80450121809e-38
-0.00471367959045 -0.0377094367236 0.849 1.66638910131e-38
-0.0031424530603 -0.0377094367236 0.849 1.7306761907e-38
-0.00157122653015 -0.0377094367236 0.849 1.76740576488e-38
0.0 -0.0377094367236 0.849 1.82268783008e-38
0.00157122653015 -0.0377094367236 0.849 1.748860981e-38
0.0031424530603 -0.0377094367236 0.849 1.78555818519e-38
0.00471367959045 -0.0377094367236 0.849 1.84102227905e-38
0.0062849061206 -0.0377094367236 0.849 1.85906189483e-38
0.00783762586006 -0.0376206041283 0.847 2.00686230893e-38
0.00940515103207 -0.0376206041283 0.847 1.89619672453e-38
0.0109467666971 -0.0375317715329 0.845 1.81343323463e-38
0.012510590511 -0.0375317715329 0.845 1.76711583623e-38
0.0140744143248 -0.0375317715329 0.845 1.69340291272e-38
0.0156382381387 -0.0375317715329 0.845 1.62897162972e-38
0.0172020619526 -0.0375317715329 0.845 1.72102306597e-38
0.0187214694688 -0.0374429389376 0.843 1.628542412e-38
0.0202815919245 -0.0374429389376 0.843 1.87740208914e-38
0.0218417143803 -0.0374429389376 0.843 1.77645030569e-38
0.023401836836 -0.0374429389376 0.843 1.86835474573e-38
0.0249619592917 -0.0374429389376 0.843 2.20943962013e-38
0.0265220817475 -0.0374429389376 0.843 2.16371076708e-38
0.0280822042032 -0.0374429389376 0.843 2.20058131189e-38
0.0296423266589 -0.0374429389376 0.843 1.97024063473e-38
0.0312024491147 -0.0374429389376 0.843 1.97917209076e-38
0.0326848430495 -0.0373541063422 0.841 2.07140345373e-38
0.0342412641471 -0.0373541063422 0.841 2.00704629942e-38
0.0358828164819 -0.0374429389376 0.843 2.21012905897e-38
0.0374429389376 -0.0374429389376 0.843 2.1823275777e-38
0.0390030613933 -0.0374429389376 0.843 2.19143910057e-38
0.040563183849 -0.0374429389376 0.843 2.21012877871e-38
0.0422232429745 -0.0375317715329 0.845 2.1639230638e-38
0.0437870667884 -0.0375317715329 0.845 2.20069439667e-38
0.0453508906023 -0.0375317715329 0.845 2.05339620794e-38
0.0469147144162 -0.0375317715329 0.845 1.86000020429e-38
0.0483637961277 -0.0374429389376 0.843 1.5367447509e-38
0.0499239185834 -0.0374429389376 0.843 1.53685279101e-38
0.0513618962206 -0.0373541063422 0.841 1.63819567686e-38
0.0529183173182 -0.0373541063422 0.841 1.54596851778e-38
0.0544747384158 -0.0373541063422 0.841 1.27831574668e-38
0.0560311595134 -0.0373541063422 0.841 1.14160450798e-38
0.057587580611 -0.0373541063422 0.841 9.6632519152e-39
0.0591440017085 -0.0373541063422 0.841 8.36097620685e-39
0.0605560698387 -0.0372652737469 0.839 1.06597516869e-38
0.0621087895782 -0.0372652737469 0.839 1.37922577143e-38
0.0636615093176 -0.0372652737469 0.839 1.3058287006e-38
0.0652142290571 -0.0372652737469 0.839 1.57244226876e-38
0.0666077903965 -0.0371764411516 0.837 2.11752859398e-38
0.0681568087778 -0.0371764411516 0.837 1.73077624341e-38
0.0697058271592 -0.0371764411516 0.837 1.58279912558e-38
0.0712548455405 -0.0371764411516 0.837 2.14516416152e-38
0.0728038639218 -0.0371764411516 0.837 2.00690308672e-38
0.0743528823031 -0.0371764411516 0.837 2.12654062467e-38
0.0762646337821 -0.0373541063422 0.841 1.63797216976e-38
0.0778210548797 -0.0373541063422 0.841 1.33304962392e-38
0.0795662452424 -0.0374429389376 0.843 1.65307480408e-38
0.0811263676981 -0.0374429389376 0.843 1.76324152623e-38
0.0826864901538 -0.0374429389376 0.843 1.77242507585e-38
0.0842466126096 -0.0374429389376 0.843 2.27232793339e-38
0.0858067350653 -0.0374429389376 0.843 1.68393602055e-38
0.0871595814652 -0.0373541063422 0.841 9.93652893781e-39
0.0887160025628 -0.0373541063422 0.841 2.05307797306e-38
0.0902724236604 -0.0373541063422 0.841 2.35098183528e-38
-0.0527665616345 -0.0367766944725 0.864 2.34946759216e-38
-0.0511675749183 -0.0367766944725 0.864 2.34986219781e-38
-0.0494538460997 -0.0366915632353 0.862 2.29393525506e-38
-0.0478585607417 -0.0366915632353 0.862 1.88664967809e-38
-0.0462632753836 -0.0366915632353 0.862 2.07161995434e-38
-0.0445643519977 -0.0366064319981 0.86 2.080949239e-38
-0.0429727679978 -0.0366064319981 0.86 2.01655298846e-38
-0.0413811839978 -0.0366064319981 0.86 2.00740559235e-38
-0.0397895999979 -0.0366064319981 0.86 1.86900312653e-38
-0.038198015998 -0.0366064319981 0.86 1.94250963877e-38
-0.0365213007609 -0.0365213007609 0.858 2.05310487799e-38
-0.03485198824 -0.0364361695237 0.856 1.76722625855e-38
-0.0332678069564 -0.0364361695237 0.856 1.86864201192e-38
-0.03160959851 -0.0363510382865 0.854 1.76758597186e-38
-0.0300291185845 -0.0363510382865 0.854 1.70344713985e-38
-0.0285152631055 -0.0364361695237 0.856 1.74039825932e-38
-0.0269310818219 -0.0364361695237 0.856 1.76805260425e-38
-0.0253469005382 -0.0364361695237 0.856 1.77708999844e-38
-0.0237071988825 -0.0363510382865 0.854 1.80511092305e-38
-0.022126718957 -0.0363510382865 0.854 1.61157717175e-38
-0.0205943566873 -0.0364361695237 0.856 1.49161074905e-38
-0.0190101754037 -0.0364361695237 0.856 1.61117906286e-38
-0.01742599412 -0.0364361695237 0.856 1.43600792664e-38
-0.0158418128364 -0.0364361695237 0.856 1.33417010217e-38
-0.0142243193295 -0.0363510382865 0.854 1.30658428073e-38
-0.012643839404 -0.0363510382865 0.854 1.37101135984e-38
-0.0110633594785 -0.0363510382865 0.854 1.31547593988e-38
-0.00948287955299 -0.0363510382865 0.854 1.37079303754e-38
-0.0079023996275 -0.0363510382865 0.854 1.19583868219e-38
-0.006321919702 -0.0363510382865 0.854 1.23289195631e-38
-0.0047414397765 -0.0363510382865 0.854 1.09449257335e-38
-0.003160959851 -0.0363510382865 0.854 1.0113039295e-38
-0.00157492788829 -0.0362233414307 0.851 1.1589273596e-38
0.0 -0.0362233414307 0.851 1.17729333779e-38
0.00157492788829 -0.0362233414307 0.851 9.91823358506e-39
0.00314985577658 -0.0362233414307 0.851 1.10364109051e-38
0.00472478366487 -0.0362233414307 0.851 1.34313000455e-38
0.00629971155316 -0.0362233414307 0.851 1.42596552119e-38
0.00785613265075 -0.0361382101935 0.849 1.34295260017e-38
0.0094273591809 -0.0361382101935 0.849 1.31594061045e-38
0.0109726762041 -0.0360530789563 0.847 1.50061353117e-38
0.0125402013761 -0.0360530789563 0.847 1.54678239193e-38
