# .PCD v0.7 - Point Cloud Data file format
VERSION 0.7
FIELDS x y z rgb
SIZE 4 4 4 4
TYPE F F F F
COUNT 1 1 1 1
WIDTH 858
HEIGHT 1
VIEWPOINT 0 0 0 1 0 0 0
POINTS 858
DATA ascii
0.017690641227 -0.138308649593 0.869 1.70279875905e-38
0.0193432976362 -0.138626966393 0.871 2.09953283884e-38
0.0209552391059 -0.138626966393 0.871 1.98922444542e-38
0.0226189995895 -0.138945283193 0.873 2.04479195511e-38
0.0242901627894 -0.139263599993 0.875 6.42848473106e-39
0.0259983395707 -0.139741075193 0.878 1.82161051182e-38
0.0276232357939 -0.139741075193 0.878 1.43277723303e-38
0.0293147564636 -0.140059391993 0.88 2.08130825167e-38
0.0309433540449 -0.140059391993 0.88 1.01019045774e-38
0.032645978789 -0.140377708793 0.882 1.34187836476e-38
0.0343948705098 -0.140855183993 0.885 2.06244999732e-38
0.0361141513656 -0.141173500793 0.887 1.82327063011e-38
0.0377557037004 -0.141173500793 0.887 1.81423085371e-38
0.0393972560352 -0.141173500793 0.887 1.81416050853e-38
0.04103880837 -0.141173500793 0.887 1.8142302932e-38
0.0427765960164 -0.141491817593 0.889 1.84199688214e-38
0.0446716913837 -0.142287609593 0.894 1.81437308551e-38
0.0464298364999 -0.142605926393 0.896 1.81423211488e-38
0.0480880449463 -0.142605926393 0.896 1.79568396789e-38
0.0498572941369 -0.142924243193 0.898 1.84178164269e-38
0.051691317095 -0.143401718393 0.901 1.86025622152e-38
0.0533587789368 -0.143401718393 0.901 1.77731897061e-38
0.0550262407785 -0.143401718393 0.901 1.84185324904e-38
0.056819548797 -0.143720035193 0.903 1.75894850826e-38
0.0586850332993 -0.144197510392 0.906 1.95256059214e-38
0.0604949974294 -0.144515827192 0.908 8.63253663885e-39
0.0621754140247 -0.144515827192 0.908 2.11693150071e-38
0.0639964822292 -0.144834143992 0.91 1.10299453139e-38
0.0656806001826 -0.144834143992 0.91 1.5249001355e-38
0.0675867996244 -0.145311619192 0.913 1.02898803586e-38
0.069276469615 -0.145311619192 0.913 7.80601717343e-39
0.0709661396056 -0.145311619192 0.913 5.05095228869e-39
0.0726558095962 -0.145311619192 0.913 1.03846095361e-38
0.074508339345 -0.145629935992 0.915 2.34874157943e-38
-0.0714954338195 -0.13811617897 0.878 1.82272132111e-38
-0.0696317999964 -0.137644255807 0.875 4.68361030406e-39
-0.0678569987686 -0.137329640365 0.873 1.14274964909e-38
-0.0662413559407 -0.137329640365 0.873 6.07371799885e-39
-0.0643296044618 -0.136700409481 0.869 8.10630142135e-39
-0.0627213643502 -0.136700409481 0.869 7.17647543054e-39
-0.0607614952154 -0.135913870877 0.864 9.38955450304e-39
-0.0588886079969 -0.135284639993 0.86 4.69401354386e-39
-0.057163775104 -0.134970024551 0.858 9.76336908528e-39
-0.0554463449273 -0.134655409109 0.856 1.04093971046e-38
-0.053736317467 -0.134340793667 0.854 1.10525973036e-38
-0.0519726203136 -0.133868870505 0.851 8.84279446693e-39
-0.0503976924253 -0.133868870505 0.851 9.85659046562e-39
-0.0487080224347 -0.133554255063 0.849 8.01058993364e-39
-0.0470257551603 -0.133239639621 0.847 6.44678008381e-39
-0.0453508906023 -0.132925024179 0.845 9.02400057525e-39
-0.0435797907326 -0.132295793295 0.841 6.44464870885e-39
-0.0419234329653 -0.131981177854 0.839 9.85409054916e-39
-0.0402744779142 -0.131666562412 0.837 4.31632857526e-39
-0.0386329255794 -0.13135194697 0.835 1.38159676844e-38
-0.0370876085562 -0.13135194697 0.835 1.19386145005e-39
-0.035542291533 -0.13135194697 0.835 1.744874427e-39
-0.0339969745099 -0.13135194697 0.835 3.30607786169e-39
-0.0324516574867 -0.13135194697 0.835 3.489748854e-39
-0.0309063404635 -0.13135194697 0.835 3.30607786169e-39
-0.0293610234403 -0.13135194697 0.835 3.39791335785e-39
-0.0278157064172 -0.13135194697 0.835 3.76525534248e-39
-0.0263333124823 -0.131666562412 0.837 3.85709083864e-39
-0.024784294101 -0.131666562412 0.837 4.04076183095e-39
-0.0232352757197 -0.131666562412 0.837 3.67341984632e-39
-0.0218417143803 -0.132610408737 0.843 3.67341984632e-39
-0.0202815919245 -0.132610408737 0.843 3.76525534248e-39
-0.0187658857665 -0.132925024179 0.845 3.94892633479e-39
-0.0172020619526 -0.132925024179 0.845 3.67341984632e-39
-0.0156752517201 -0.133239639621 0.847 4.13259732711e-39
-0.0141410387714 -0.133554255063 0.849 3.85709083864e-39
-0.0125698122412 -0.133554255063 0.849 3.76525534248e-39
-0.0109985857111 -0.133554255063 0.849 4.31626831943e-39
-0.00944956732974 -0.133868870505 0.851 4.04076183095e-39
-0.00787463944145 -0.133868870505 0.851 2.29588740395e-39
-0.00629971155316 -0.133868870505 0.851 4.95911679253e-39
-0.0047414397765 -0.134340793667 0.854 1.80432703669e-38
-0.00316836256728 -0.134655409109 0.856 1.93458837882e-38
-0.00158788264178 -0.134970024551 0.858 1.20517062931e-38
0.0 -0.134970024551 0.858 1.05610820582e-38
0.00159158399992 -0.135284639993 0.86 1.94269236809e-38
0.00318316799983 -0.135284639993 0.86 1.1020259539e-38
0.00478585607417 -0.135599255435 0.862 1.9213459682e-38
0.00638114143223 -0.135599255435 0.862 1.19386145005e-38
0.00797642679028 -0.135599255435 0.862 1.00100690812e-38
0.00957171214834 -0.135599255435 0.862 1.76515009474e-38
0.0111929070134 -0.135913870877 0.864 2.01677187128e-38
0.0127918937296 -0.135913870877 0.864 1.95205136028e-38
0.0144408487806 -0.136385794039 0.867 1.95227234505e-38
0.0160824011154 -0.136700409481 0.869 1.91535835999e-38
0.0177313561665 -0.137015024923 0.871 1.82348544916e-38
0.0193877139339 -0.137329640365 0.873 1.78653489022e-38
0.0210033567617 -0.137329640365 0.873 1.85082141909e-38
0.0226708186035 -0.137644255807 0.875 1.82355901733e-38
0.0243734433476 -0.13811617897 0.878 9.09171411964e-39
0.0259983395707 -0.13811617897 0.878 8.81620763117e-39
0.0276861588823 -0.138430794411 0.88 2.24604433861e-38
0.0293147564636 -0.138430794411 0.88 2.00776712735e-38
0.0309433540449 -0.138430794411 0.88 1.85103679866e-38
0.0327570195332 -0.139217333016 0.885 2.03532085905e-38
0.0343948705098 -0.139217333016 0.885 1.91542842491e-38
0.0361141513656 -0.139531948458 0.887 1.86958452526e-38
0.0377557037004 -0.139531948458 0.887 1.83259739243e-38
0.0393972560352 -0.139531948458 0.887 1.79575417294e-38
0.04103880837 -0.139531948458 0.887 1.82345013644e-38
0.0427765960164 -0.1398465639 0.889 1.8050125519e-38
0.0446716913837 -0.140633102504 0.894 1.79578976592e-38
0.0464298364999 -0.140947717946 0.896 1.82345013644e-38
0.0480880449463 -0.140947717946 0.896 1.81423085371e-38
0.0498572941369 -0.141262333388 0.898 1.82348671033e-38
0.051691317095 -0.141734256551 0.901 1.83259683191e-38
0.0533587789368 -0.141734256551 0.901 1.85107183112e-38
0.0551483855971 -0.142048871993 0.903 1.79568396789e-38
0.0570083180621 -0.142520795155 0.906 1.58352878169e-38
0.0586850332993 -0.142520795155 0.906 1.86969242524e-38
0.0604949974294 -0.142835410597 0.908 1.02855755697e-38
0.0621754140247 -0.142835410597 0.908 1.57268413287e-38
0.0639964822292 -0.143150026039 0.91 1.30438690461e-38
0.0656806001826 -0.143150026039 0.91 1.25875614246e-38
0.0675867996244 -0.143621949202 0.913 6.42848473106e-39
0.069276469615 -0.143621949202 0.913 1.31465197638e-38
0.0707329540428 -0.143150026039 0.91 7.98968816575e-39
0.0724170719962 -0.143150026039 0.91 1.93268639641e-38
0.074508339345 -0.143936564644 0.915 1.96083133594e-38
-0.0714954338195 -0.136491282746 0.878 1.85953175021e-38
-0.0698705375964 -0.136491282746 0.878 3.94892633479e-39
-0.0680124558104 -0.136024911621 0.875 1.10594370414e-38
-0.0663931116244 -0.136024911621 0.875 5.9826041714e-39
-0.0646257131129 -0.135713997537 0.873 7.82653218295e-39
-0.0628657173177 -0.135403083453 0.871 6.81304587122e-39
-0.0611131242387 -0.13509216937 0.869 7.82260154075e-39
-0.0590255582481 -0.134003970077 0.862 7.18543393162e-39
-0.057297023997 -0.133693055993 0.86 7.36305271587e-39
-0.0555758924622 -0.133382141909 0.858 8.65769695278e-39
-0.0538621636437 -0.133071227826 0.856 1.02228744699e-38
-0.0521558375415 -0.132760313742 0.854 1.05916373712e-38
-0.0503976924253 -0.132293942616 0.851 1.12366732712e-38
-0.048822764537 -0.132293942616 0.851 7.45630212218e-39
-0.0471367959045 -0.131983028533 0.849 7.82903069811e-39
-0.0454582299883 -0.131672114449 0.847 6.99214022275e-39
-0.0436834287605 -0.131050286282 0.843 6.63009234372e-39
-0.042023369635 -0.130739372198 0.841 1.07717869005e-38
-0.0402744779142 -0.13011754403 0.837 1.04090832137e-38
-0.0387254595329 -0.13011754403 0.837 1.3356064331e-38
-0.0370876085562 -0.129806629947 0.835 1.19386145005e-39
-0.035542291533 -0.129806629947 0.835 1.28569694621e-39
-0.0339969745099 -0.129806629947 0.835 3.76525534248e-39
-0.0324516574867 -0.129806629947 0.835 3.76525534248e-39
-0.0309063404635 -0.129806629947 0.835 3.67341984632e-39
-0.0293610234403 -0.129806629947 0.835 3.76525534248e-39
-0.0278157064172 -0.129806629947 0.835 3.67341984632e-39
-0.0263333124823 -0.13011754403 0.837 3.67341984632e-39
-0.0248435158313 -0.130428458114 0.839 3.94892633479e-39
-0.0232907960918 -0.130428458114 0.839 3.85709083864e-39
-0.0218417143803 -0.131050286282 0.843 3.67341984632e-39
-0.0203297095803 -0.131361200365 0.845 4.04076183095e-39
-0.0187658857665 -0.131361200365 0.845 4.31626831943e-39
-0.0172427768921 -0.131672114449 0.847 4.04076183095e-39
-0.0156752517201 -0.131672114449 0.847 4.13259732711e-39
-0.0141410387714 -0.131983028533 0.849 4.40810381558e-39
-0.0125698122412 -0.131983028533 0.849 4.31626831943e-39
-0.011024495218 -0.132293942616 0.851 3.03057137321e-39
-0.00944956732974 -0.132293942616 0.851 2.57139389242e-39
-0.00787463944145 -0.132293942616 0.851 1.36132320264e-38
-0.006321919702 -0.132760313742 0.854 2.03539372657e-38
-0.0047414397765 -0.132760313742 0.854 2.0355346972e-38
-0.00316836256728 -0.133071227826 0.856 1.62994791436e-38
-0.00158788264178 -0.133382141909 0.858 1.03774110659e-38
0.0 -0.133693055993 0.86 2.26268223554e-38
0.00159158399992 -0.133693055993 0.86 8.6400700194e-39
0.00319057071611 -0.134003970077 0.862 1.02855755697e-38
0.00478585607417 -0.134003970077 0.862 2.00736327313e-38
0.00639594686478 -0.13431488416 0.864 1.74936867144e-38
0.00799493358098 -0.13431488416 0.864 2.00743880312e-38
0.00959392029717 -0.13431488416 0.864 1.98014711423e-38
0.0112317712738 -0.134781255286 0.867 1.84181541398e-38
0.0128363100272 -0.134781255286 0.867 1.81426560592e-38
0.0144741610039 -0.13509216937 0.869 1.82330594283e-38
0.0160824011154 -0.13509216937 0.869 1.80494094555e-38
0.0177313561665 -0.135403083453 0.871 1.82355761603e-38
0.0193877139339 -0.135713997537 0.873 1.85107603502e-38
0.0210514744175 -0.136024911621 0.875 1.85089204453e-38
0.0227485471244 -0.136491282746 0.878 1.83274228669e-38
0.0243734433476 -0.136491282746 0.878 1.37994449742e-38
0.0259983395707 -0.136491282746 0.878 2.13637227482e-38
0.0276861588823 -0.13680219683 0.88 1.91561045358e-38
0.0293147564636 -0.13680219683 0.88 1.76813051645e-38
0.0310136798495 -0.137113110914 0.882 1.88784386464e-38
0.0327570195332 -0.137579482039 0.885 1.76817129423e-38
0.0343948705098 -0.137579482039 0.885 1.82334251672e-38
0.0361141513656 -0.137890396123 0.887 1.84178192295e-38
0.0377557037004 -0.137890396123 0.887 1.83259739243e-38
0.0393972560352 -0.137890396123 0.887 1.81419526073e-38
0.0411313423234 -0.138201310207 0.889 1.84192415475e-38
0.042872831328 -0.13851222429 0.891 1.83256179945e-38
0.0447716280535 -0.1392895095 0.896 1.86007629479e-38
0.0464298364999 -0.1392895095 0.896 1.84181695541e-38
0.0481953843324 -0.139600423583 0.898 1.81426588618e-38
0.0498572941369 -0.139600423583 0.898 1.8695494928e-38
0.051691317095 -0.140066794709 0.901 1.9066801186e-38
0.0533587789368 -0.140066794709 0.901 1.82399089752e-38
0.0551483855971 -0.140377708793 0.903 1.8421779299e-38
0.0570083180621 -0.140844079918 0.906 1.80497387606e-38
0.0588145808341 -0.141154994002 0.908 1.80522779134e-38
0.0604949974294 -0.141154994002 0.908 1.0469246562e-38
0.0621754140247 -0.141154994002 0.908 1.56321247629e-38
0.0639964822292 -0.141465908086 0.91 1.83111481865e-38
0.0658971296338 -0.141932279211 0.913 6.15297824259e-39
0.0675867996244 -0.141932279211 0.913 4.40810381558e-39
0.069276469615 -0.141932279211 0.913 6.3366492349e-39
0.0707329540428 -0.141465908086 0.91 2.05128052752e-38
0.0724170719962 -0.141465908086 0.91 1.49021029137e-38
0.074508339345 -0.142243193295 0.915 1.9145931109e-38
-0.0737032939496 -0.135941631063 0.885 1.71179929909e-38
-0.0716582935777 -0.135173599249 0.88 1.93339545343e-38
-0.0698705375964 -0.134866386523 0.878 3.21424236553e-39
-0.0682456413732 -0.134866386523 0.878 4.41820297362e-39
-0.0663931116244 -0.134405567435 0.875 9.38918876414e-39
-0.0646257131129 -0.134098354709 0.873 9.76473114739e-39
-0.0628657173177 -0.133791141984 0.871 7.18075219345e-39
-0.0611131242387 -0.133483929258 0.869 7.63497328158e-39
-0.0590255582481 -0.132408684719 0.862 8.66051776659e-39
-0.057297023997 -0.132101471993 0.86 8.37933321674e-39
-0.0557054399971 -0.132101471993 0.86 1.13298806385e-38
-0.0539880098204 -0.131794259268 0.858 6.06905167496e-39
-0.0521558375415 -0.131179833816 0.854 9.39204180781e-39
-0.050575357616 -0.131179833816 0.854 1.03172112838e-38
-0.048822764537 -0.130719014728 0.851 1.06838358036e-38
-0.0472478366487 -0.130719014728 0.851 1.02242967879e-38
-0.0455655693744 -0.130411802003 0.849 9.94627076474e-39
-0.0436834287605 -0.129490163826 0.843 1.14206595557e-38
-0.042023369635 -0.1291829511 0.841 4.78118551873e-39
-0.0403707132258 -0.128875738375 0.839 9.85473794905e-39
-0.0387254595329 -0.128568525649 0.837 1.34478816102e-38
-0.0371764411516 -0.128568525649 0.837 1.19386145005e-39
-0.0356274227702 -0.128568525649 0.837 1.19386145005e-39
-0.0340784043889 -0.128568525649 0.837 3.30607786169e-39
-0.0325293860076 -0.128568525649 0.837 3.39791335785e-39
-0.0309803676263 -0.128568525649 0.837 3.489748854e-39
-0.029431349245 -0.128568525649 0.837 3.67341984632e-39
-0.0279489553102 -0.128875738375 0.839 3.489748854e-39
-0.0263962355707 -0.128875738375 0.839 3.67341984632e-39
-0.0249027375615 -0.1291829511 0.841 3.67341984632e-39
-0.0233463164639 -0.1291829511 0.841 4.22443282327e-39
-0.0218935333942 -0.129797376551 0.845 4.13259732711e-39
-0.0203297095803 -0.129797376551 0.845 3.67341984632e-39
-0.0188103020641 -0.130104589277 0.847 3.76525534248e-39
-0.0172834918317 -0.130411802003 0.849 4.04076183095e-39
-0.0157122653015 -0.130411802003 0.849 4.04076183095e-39
-0.0141743509946 -0.130719014728 0.851 3.76525534248e-39
-0.0125994231063 -0.130719014728 0.851 2.57139389242e-39
-0.011024495218 -0.130719014728 0.851 5.23462328101e-39
-0.00944956732974 -0.130719014728 0.851 1.92468358088e-38
-0.0079023996275 -0.131179833816 0.854 1.98968925612e-38
-0.006321919702 -0.131179833816 0.854 1.74069239186e-38
-0.00475254385092 -0.131487046542 0.856 1.84116395033e-38
-0.00317576528356 -0.131794259268 0.858 8.17335915806e-39
-0.00158788264178 -0.131794259268 0.858 8.81620763117e-39
0.0 -0.132101471993 0.86 2.34760414546e-38
0.00159528535806 -0.132408684719 0.862 7.34827462227e-39
0.00319057071611 -0.132408684719 0.862 9.91823358506e-39
0.00479696014859 -0.132715897444 0.864 2.09921040007e-38
0.00639594686478 -0.132715897444 0.864 1.84189122423e-38
0.00799493358098 -0.132715897444 0.864 1.80501129073e-38
0.00959392029717 -0.132715897444 0.864 1.8233419562e-38
0.0112317712738 -0.133176716533 0.867 1.78653629151e-38
0.0128363100272 -0.133176716533 0.867 1.87880408825e-38
0.0144741610039 -0.133483929258 0.869 1.80483080349e-38
0.0160824011154 -0.133483929258 0.869 1.84185324904e-38
0.0177313561665 -0.133791141984 0.871 1.76820478526e-38
0.0194321302315 -0.134405567435 0.875 1.81423057345e-38
0.0210514744175 -0.134405567435 0.875 1.80504422124e-38
0.0227485471244 -0.134866386523 0.878 1.84188884202e-38
0.0243734433476 -0.134866386523 0.878 1.86947788645e-38
0.026057561301 -0.135173599249 0.88 1.8878788971e-38
0.0276861588823 -0.135173599249 0.88 1.86951081696e-38
0.0293147564636 -0.135173599249 0.88 1.82359236824e-38
0.0310136798495 -0.135480811974 0.882 1.80504576267e-38
0.0327570195332 -0.135941631063 0.885 1.85121672538e-38
0.0343948705098 -0.135941631063 0.885 1.76809548398e-38
0.0361141513656 -0.136248843788 0.887 1.83256179945e-38
0.0378408349376 -0.136556056514 0.889 1.83241410259e-38
0.0394860886305 -0.136556056514 0.889 1.82337726892e-38
0.0412238762769 -0.136863269239 0.891 1.84185226813e-38
0.0430171842954 -0.137324088328 0.894 1.76798828465e-38
0.0447716280535 -0.137631301053 0.896 1.86000594961e-38
0.0465334745278 -0.137938513779 0.898 1.80483528764e-38
0.0481953843324 -0.137938513779 0.898 2.05365180478e-38
0.0500238552532 -0.138399332867 0.901 1.52878691705e-38
0.051691317095 -0.138399332867 0.901 2.75511112759e-39
0.0533587789368 -0.138399332867 0.901 4.5917748079e-40
0.0551483855971 -0.138706545593 0.903 1.98866196422e-38
0.0570083180621 -0.139167364681 0.906 1.9158603051e-38
0.0588145808341 -0.139474577407 0.908 1.72207249839e-38
0.0606282463224 -0.139781790132 0.91 1.09284240428e-38
0.0623123642758 -0.139781790132 0.91 1.70139675994e-38
0.0642074596432 -0.140242609221 0.913 1.33340835633e-38
0.0658971296338 -0.140242609221 0.913 5.60196526564e-39
0.06773485395 -0.140549821946 0.915 1.23207205658e-38
0.069276469615 -0.140242609221 0.913 7.07133320417e-39
0.0707329540428 -0.139781790132 0.91 1.17646292832e-38
0.0724170719962 -0.139781790132 0.91 2.07900451699e-38
-0.0737032939496 -0.134303780086 0.885 1.68396166432e-38
-0.0718211533358 -0.133848513035 0.882 1.87782794374e-38
-0.0700296959964 -0.133545001667 0.88 3.30607786169e-39
-0.068401098415 -0.133545001667 0.88 8.56837258347e-39
-0.06662074515 -0.1332414903 0.878 1.46936793853e-39
-0.0647737674385 -0.132786223249 0.875 7.63456270113e-39
-0.0630100702851 -0.132482711881 0.873 1.10480010447e-38
-0.0611131242387 -0.131875689147 0.869 5.98293908173e-39
-0.0591625084992 -0.131116910728 0.864 8.38007590492e-39
-0.05743027289 -0.130813399361 0.862 5.70779132566e-39
-0.0557054399971 -0.130509887993 0.86 9.76368858133e-39
-0.0539880098204 -0.130206376626 0.858 1.18827293165e-38
-0.0522779823601 -0.129902865258 0.856 8.74878135296e-39
-0.050575357616 -0.129599353891 0.854 4.96844383511e-39
-0.048822764537 -0.12914408684 0.851 1.04033631134e-38
-0.0472478366487 -0.12914408684 0.851 1.16079248785e-38
-0.0455655693744 -0.128840575472 0.849 1.04990914167e-38
-0.0437870667884 -0.128233552738 0.845 1.02221738207e-38
-0.042023369635 -0.127626530003 0.841 1.10515463298e-38
-0.0404669485374 -0.127626530003 0.841 1.01302892791e-38
-0.0388179934863 -0.127323018635 0.839 1.3264553936e-38
-0.0372652737469 -0.127323018635 0.839 1.56120343469e-39
-0.0357125540074 -0.127323018635 0.839 3.95216473554e-39
-0.034159834268 -0.127323018635 0.839 4.77546681969e-39
-0.0326071145285 -0.127323018635 0.839 3.76525534248e-39
-0.0310543947891 -0.127323018635 0.839 3.30607786169e-39
-0.0295016750496 -0.127323018635 0.839 3.30607786169e-39
-0.0279489553102 -0.127323018635 0.839 3.76525534248e-39
-0.0264591586591 -0.127626530003 0.841 3.67341984632e-39
-0.0249027375615 -0.127626530003 0.841 3.67341984632e-39
-0.023401836836 -0.12793004137 0.843 4.13259732711e-39
-0.0218935333942 -0.128233552738 0.845 3.94892633479e-39
-0.0203297095803 -0.128233552738 0.845 3.489748854e-39
-0.0188103020641 -0.128537064105 0.847 3.76525534248e-39
-0.0172834918317 -0.128840575472 0.849 4.13259732711e-39
-0.0157492788829 -0.12914408684 0.851 3.67341984632e-39
-0.0141743509946 -0.12914408684 0.851 1.19386145005e-39
-0.0125994231063 -0.12914408684 0.851 9.37838335168e-39
-0.0110633594785 -0.129599353891 0.854 2.06298122957e-38
-0.00948287955299 -0.129599353891 0.854 2.05386718436e-38
-0.00792090641819 -0.129902865258 0.856 1.38051622719e-38
-0.00635153056711 -0.130206376626 0.858 1.00100690812e-38
-0.00476364792533 -0.130206376626 0.858 2.31825156692e-38
-0.00318316799983 -0.130509887993 0.86 9.73456259275e-39
-0.00159158399992 -0.130509887993 0.86 2.22609293134e-38
0.0 -0.130813399361 0.862 1.97103727291e-38
0.00159528535806 -0.130813399361 0.862 7.44333871009e-39
0.00319797343239 -0.131116910728 0.864 1.00100690812e-38
0.00479696014859 -0.131116910728 0.864 2.09874797157e-38
0.00641815501362 -0.131572177779 0.867 1.78671607811e-38
0.00802269376702 -0.131572177779 0.867 1.78649985775e-38
0.00962723252043 -0.131572177779 0.867 1.8140157544e-38
0.0112576807808 -0.131875689147 0.869 1.79571956087e-38
0.0128659208924 -0.131875689147 0.869 1.86032810813e-38
0.0145074732272 -0.132179200514 0.871 1.80494066529e-38
0.0161194146968 -0.132179200514 0.871 1.85114371773e-38
0.0177720711061 -0.132482711881 0.873 1.84181695541e-38
0.0194321302315 -0.132786223249 0.875 1.85085645155e-38
0.0211236509012 -0.1332414903 0.878 1.94305432349e-38
0.0227485471244 -0.1332414903 0.878 1.81430246007e-38
0.0244289637197 -0.133545001667 0.88 1.82341664541e-38
0.026057561301 -0.133545001667 0.88 1.82334223646e-38
0.0276861588823 -0.133545001667 0.88 1.81426588618e-38
0.0293813809101 -0.133848513035 0.882 1.80504632319e-38
0.0311191685565 -0.134303780086 0.885 1.83259739243e-38
0.032831046696 -0.134607291453 0.887 1.80504632319e-38
0.0344725990308 -0.134607291453 0.887 1.80504632319e-38
0.0361955812446 -0.134910802821 0.889 1.83249019309e-38
0.0378408349376 -0.134910802821 0.889 1.91557542112e-38
0.0394860886305 -0.134910802821 0.889 1.88805896396e-38
0.0413626772071 -0.135669581239 0.894 1.93412118591e-38
0.0431134196071 -0.135973092607 0.896 1.95259590486e-38
0.0447716280535 -0.135973092607 0.896 1.83274228669e-38
0.0465334745278 -0.136276603974 0.898 1.98032718108e-38
0.0481953843324 -0.136276603974 0.898 1.14149184359e-38
0.0500238552532 -0.136731871025 0.901 0.0
0.051691317095 -0.136731871025 0.901 0.0
0.0533587789368 -0.136731871025 0.901 0.0
0.0551483855971 -0.137035382393 0.903 6.90494582711e-39
0.0571341642389 -0.137794160811 0.908 2.05430046584e-38
0.058944128369 -0.138097672179 0.91 1.60203965414e-38
0.0606282463224 -0.138097672179 0.91 1.12957660274e-38
0.0625177896526 -0.13855293923 0.913 1.73755824772e-38
0.0642074596432 -0.13855293923 0.913 5.78563625795e-39
0.0660414826012 -0.138856450597 0.915 3.03057137321e-39
0.06773485395 -0.138856450597 0.915 7.71454040968e-39
0.069276469615 -0.13855293923 0.913 1.15770388591e-38
0.0707329540428 -0.138097672179 0.91 1.12121813766e-38
0.0724170719962 -0.138097672179 0.91 2.17119916594e-38
-0.0755114074007 -0.132965739119 0.887 1.80399352765e-38
-0.0737032939496 -0.132665929109 0.885 1.83158004974e-38
-0.0718211533358 -0.132216214095 0.882 2.11760524501e-38
-0.0701888543963 -0.132216214095 0.882 3.85709083864e-39
-0.068401098415 -0.131916404086 0.88 1.01342395394e-38
-0.06662074515 -0.131616594077 0.878 1.03149930284e-38
-0.0647737674385 -0.131166879063 0.875 4.60002565326e-39
-0.0630100702851 -0.130867069054 0.873 5.60198067992e-39
-0.0611131242387 -0.130267449035 0.869 1.08678108777e-38
-0.0591625084992 -0.129517924012 0.864 1.03154554568e-38
-0.057563521783 -0.129517924012 0.864 6.99635813113e-39
-0.055834987532 -0.129218114003 0.862 6.99534218974e-39
-0.0541138559972 -0.128918303993 0.86 7.09321588098e-39
-0.0524001271787 -0.128618493984 0.858 1.13278151246e-38
-0.0506938010764 -0.128318683975 0.856 1.15139818295e-38
-0.0489948776905 -0.128018873965 0.854 6.44283402733e-39
-0.0472478366487 -0.127569158951 0.851 8.01049464534e-39
-0.0455655693744 -0.127269348942 0.849 9.48783316954e-39
-0.0438907048163 -0.126969538933 0.847 1.05015969384e-38
-0.0421233063048 -0.126369918914 0.843 1.03143442272e-38
-0.0404669485374 -0.126070108905 0.841 1.013067884e-38
-0.0389105274398 -0.126070108905 0.841 1.30794578232e-38
-0.0373541063422 -0.126070108905 0.841 1.56120343469e-39
-0.0357125540074 -0.125770298896 0.839 5.33185938144e-39
-0.034159834268 -0.125770298896 0.839 4.68368036898e-39
-0.0326071145285 -0.125770298896 0.839 3.85709083864e-39
-0.0310543947891 -0.125770298896 0.839 3.67341984632e-39
-0.0295016750496 -0.125770298896 0.839 3.76525534248e-39
-0.0279489553102 -0.125770298896 0.839 3.76525534248e-39
-0.0264591586591 -0.126070108905 0.841 4.31626831943e-39
-0.0249027375615 -0.126070108905 0.841 3.94892633479e-39
-0.023401836836 -0.126369918914 0.843 3.85709083864e-39
-0.0218935333942 -0.126669728924 0.845 3.85709083864e-39
-0.0203297095803 -0.126669728924 0.845 3.76525534248e-39
-0.0188103020641 -0.126969538933 0.847 4.22443282327e-39
-0.0172834918317 -0.127269348942 0.849 3.12240686937e-39
-0.0157492788829 -0.127569158951 0.851 1.19386145005e-39
-0.0142243193295 -0.128018873965 0.854 1.62940743354e-38
-0.012643839404 -0.128018873965 0.854 2.04468657747e-38
-0.0110633594785 -0.128018873965 0.854 1.88798861877e-38
-0.00950508770183 -0.128318683975 0.856 7.43867799139e-39
-0.00793941320889 -0.128618493984 0.858 8.90804312733e-39
-0.00635153056711 -0.128618493984 0.858 1.7927364767e-38
-0.00477475199975 -0.128918303993 0.86 1.9975880953e-38
-0.00318316799983 -0.128918303993 0.86 1.90639075047e-38
-0.00159158399992 -0.128918303993 0.86 1.82348671033e-38
0.0 -0.129218114003 0.862 1.77731504697e-38
0.0015989867162 -0.129517924012 0.864 1.93408307059e-38
0.00319797343239 -0.129517924012 0.864 1.90649851032e-38
0.00481361626021 -0.129967639026 0.867 1.82362964277e-38
0.00641815501362 -0.129967639026 0.867 1.7866441915e-38
0.00802269376702 -0.129967639026 0.867 1.78653909411e-38
0.00964944066926 -0.130267449035 0.869 1.7864995775e-38
0.0112835902878 -0.130567259044 0.871 1.76809520372e-38
0.0128955317575 -0.130567259044 0.871 1.77745966097e-38
0.0145407854504 -0.130867069054 0.873 1.80501101047e-38
0.0161564282782 -0.130867069054 0.873 1.80501101047e-38
0.0178127860456 -0.131166879063 0.875 1.77731925087e-38
0.0194987546781 -0.131616594077 0.878 1.85078456494e-38
0.0211236509012 -0.131616594077 0.878 1.83230998611e-38
0.0228003661383 -0.131916404086 0.88 1.86011160751e-38
0.0244289637197 -0.131916404086 0.88 1.88780701049e-38
0.026057561301 -0.131916404086 0.88 1.90642396124e-38
0.0277490819706 -0.132216214095 0.882 1.78657132398e-38
0.0294813175799 -0.132665929109 0.885 1.84178136243e-38
0.0311894943612 -0.132965739119 0.887 1.86954795137e-38
0.032831046696 -0.132965739119 0.887 1.80497723918e-38
0.0345503275517 -0.133265549128 0.889 1.8787672341e-38
0.0362770111237 -0.133565359137 0.891 1.89713433333e-38
0.0379259661748 -0.133565359137 0.891 1.94337900434e-38
0.0397081701189 -0.134015074151 0.894 1.49201278158e-38
0.0414552111606 -0.13431488416 0.896 5.51264089633e-39
0.0432096549187 -0.13461469417 0.898 1.14974801388e-38
0.0448715647232 -0.13461469417 0.898 2.10008032615e-38
0.0465334745278 -0.13461469417 0.898 1.95270156277e-38
0.0481953843324 -0.13461469417 0.898 2.20405190779e-39
0.0500238552532 -0.135064409184 0.901 0.0
0.0518060591973 -0.135364219193 0.903 5.41865300573e-39
0.0534772223972 -0.135364219193 0.903 8.26519465422e-40
0.055331602825 -0.135813934207 0.906 1.28569694621e-39
0.0571341642389 -0.136113744216 0.908 2.09132319166e-38
0.058944128369 -0.136413554225 0.91 1.43615436233e-38
0.0606282463224 -0.136413554225 0.91 1.03774110659e-38
0.0625177896526 -0.136863269239 0.913 2.22848803067e-38
0.0643481112525 -0.137163079249 0.915 3.489748854e-39
0.0660414826012 -0.137163079249 0.915 9.47562085342e-39
0.06773485395 -0.137163079249 0.915 4.22443282327e-39
0.069276469615 -0.136863269239 0.913 1.95969894665e-38
0.0707329540428 -0.136413554225 0.91 9.6484668151e-39
0.0724170719962 -0.136413554225 0.91 2.24405995986e-38
-0.0755114074007 -0.131324186784 0.887 1.84094352608e-38
-0.0737032939496 -0.131028078133 0.885 1.93295908909e-38
-0.072065442973 -0.131028078133 0.885 2.1636671867e-38
-0.0701888543963 -0.130583915156 0.882 3.489748854e-39
-0.0685565554569 -0.130583915156 0.882 1.01371262143e-38
-0.0667725008337 -0.130287806505 0.88 1.01253244786e-38
-0.0649958489268 -0.129991697854 0.878 1.07756404712e-38
-0.0630100702851 -0.129251426226 0.873 6.43781177364e-39
-0.061253775848 -0.128955317575 0.871 3.21424236553e-39
-0.0591625084992 -0.127918937296 0.864 5.6941594942e-39
-0.057563521783 -0.127918937296 0.864 1.21539632459e-38
-0.055834987532 -0.127622828645 0.862 8.19488310247e-39
-0.0541138559972 -0.127326719993 0.86 9.94839373191e-39
-0.0524001271787 -0.127030611342 0.858 6.44357531422e-39
-0.0508122445369 -0.127030611342 0.858 1.00399083307e-38
-0.0491096197928 -0.126734502691 0.856 1.1881985227e-38
-0.047414397765 -0.12643839404 0.854 1.04076412776e-38
-0.0456729087604 -0.125994231063 0.851 6.25988470373e-39
-0.0438907048163 -0.125402013761 0.847 9.02499269456e-39
-0.0422232429745 -0.12510590511 0.845 1.04097614422e-38
-0.040563183849 -0.124809796459 0.843 1.0219977986e-38
-0.0389105274398 -0.124513687807 0.841 1.47368281676e-38
-0.0373541063422 -0.124513687807 0.841 1.19386145005e-39
-0.0357976852446 -0.124513687807 0.841 1.744874427e-39
-0.0342412641471 -0.124513687807 0.841 3.30607786169e-39
-0.0326071145285 -0.124217579156 0.839 3.39791335785e-39
-0.0310543947891 -0.124217579156 0.839 4.04076183095e-39
-0.0295720008543 -0.124513687807 0.841 3.94892633479e-39
-0.0280155797567 -0.124513687807 0.841 3.67341984632e-39
-0.0264591586591 -0.124513687807 0.841 4.04076183095e-39
-0.0249027375615 -0.124513687807 0.841 3.85709083864e-39
-0.023401836836 -0.124809796459 0.843 3.85709083864e-39
-0.0218935333942 -0.12510590511 0.845 3.76525534248e-39
-0.0203778272361 -0.125402013761 0.847 3.94892633479e-39
-0.0188547183618 -0.125698122412 0.849 3.12240686937e-39
-0.0173242067712 -0.125994231063 0.851 1.19386145005e-39
-0.015804799255 -0.12643839404 0.854 1.75908891836e-38
-0.0142243193295 -0.12643839404 0.854 2.04483007043e-38
-0.012643839404 -0.12643839404 0.854 1.71277936723e-38
-0.0110633594785 -0.12643839404 0.854 8.17335915806e-39
-0.00950508770183 -0.126734502691 0.856 9.36722060812e-39
-0.00793941320889 -0.127030611342 0.858 2.06200690675e-38
-0.00636633599967 -0.127326719993 0.86 1.86976305069e-38
-0.00477475199975 -0.127326719993 0.86 1.77731476671e-38
-0.00318316799983 -0.127326719993 0.86 1.78649929724e-38
-0.00159528535806 -0.127622828645 0.862 1.86032810813e-38
0.0 -0.127622828645 0.862 1.80500946904e-38
0.0015989867162 -0.127918937296 0.864 1.75894850826e-38
0.00319797343239 -0.127918937296 0.864 1.75902011461e-38
0.00481361626021 -0.128363100272 0.867 1.74972866501e-38
0.00641815501362 -0.128363100272 0.867 1.90635361606e-38
0.00804120055772 -0.128659208924 0.869 1.74972866501e-38
0.00964944066926 -0.128659208924 0.869 1.84181695541e-38
0.0112835902878 -0.128955317575 0.871 1.77746022149e-38
0.0129251426226 -0.129251426226 0.873 1.80497751944e-38
0.0145740976737 -0.129547534877 0.875 1.80493940412e-38
0.0161934418596 -0.129547534877 0.875 1.79568396789e-38
0.0178738584549 -0.129991697854 0.878 1.83256179945e-38
0.0195431709757 -0.130287806505 0.88 1.86021544373e-38
0.021171768557 -0.130287806505 0.88 1.89702447153e-38
0.0228003661383 -0.130287806505 0.88 1.89705978425e-38
0.0244844840917 -0.130583915156 0.882 1.85110714384e-38
0.0261167830312 -0.130583915156 0.882 1.79579116722e-38
0.0278434666032 -0.131028078133 0.885 1.90638892878e-38
0.0294813175799 -0.131028078133 0.885 1.82348544916e-38
0.0311894943612 -0.131324186784 0.887 1.84188856176e-38
0.0329050738588 -0.131620295435 0.889 1.8142302932e-38
0.0345503275517 -0.131620295435 0.889 1.86029139411e-38
0.0362770111237 -0.131916404086 0.891 2.02635465083e-38
0.0380536630306 -0.132360567063 0.894 3.58158435016e-39
0.0397081701189 -0.132360567063 0.894 9.1835496158e-41
0.0414552111606 -0.132656675714 0.896 0.0
0.0432096549187 -0.132952784365 0.898 0.0
0.0448715647232 -0.132952784365 0.898 2.20945307259e-38
0.0465334745278 -0.132952784365 0.898 9.20368347213e-39
0.0481953843324 -0.132952784365 0.898 9.1835496158e-40
0.0500238552532 -0.133396947342 0.901 1.39002908194e-38
0.0518060591973 -0.133693055993 0.903 1.86979401938e-38
0.0536548875879 -0.13413721897 0.906 6.24481373874e-39
0.0554537476436 -0.134433327621 0.908 9.562054344e-39
0.0572600104156 -0.134729436272 0.91 2.0447937768e-38
0.0591384496713 -0.135173599249 0.913 1.1044664553e-38
0.0608281196619 -0.135173599249 0.913 1.31439988279e-38
0.0626547399037 -0.1354697079 0.915 2.2106733233e-38
0.0643481112525 -0.1354697079 0.915 4.5917748079e-39
0.0662580120524 -0.135913870877 0.918 1.35185420853e-38
0.0679569354383 -0.135913870877 0.918 9.1835496158e-39
0.0696558588243 -0.135913870877 0.918 1.61924858019e-38
0.0713547822102 -0.135913870877 0.918 1.07447530505e-38
0.0740086559961 -0.137690522784 0.93 2.20664459021e-38
-0.0755114074007 -0.129682634449 0.887 1.85905895211e-38
-0.0737032939496 -0.129390227156 0.885 1.91423704096e-38
-0.072065442973 -0.129390227156 0.885 2.12682480799e-38
-0.0704275919963 -0.129390227156 0.885 3.30607786169e-39
-0.0685565554569 -0.128951616217 0.882 1.17037078325e-38
-0.0667725008337 -0.128659208924 0.88 8.18558268457e-39
-0.0649958489268 -0.128366801631 0.878 1.09589947701e-38
-0.0631544232525 -0.127928190691 0.875 8.83593791354e-39
-0.061253775848 -0.127343376105 0.871 1.08634948785e-38
-0.0595048841271 -0.127050968812 0.869 6.16732753886e-39
-0.057563521783 -0.126319950579 0.864 7.26114889025e-39
-0.055834987532 -0.126027543286 0.862 9.39450108662e-39
-0.0541138559972 -0.125735135993 0.86 1.03161841321e-38
-0.0524001271787 -0.1254427287 0.858 6.44139909771e-39
-0.0508122445369 -0.1254427287 0.858 8.0069759849e-39
-0.0491096197928 -0.125150321407 0.856 6.72049291025e-39
-0.047414397765 -0.124857914114 0.854 9.94558132589e-39
-0.0456729087604 -0.124419303175 0.851 1.14242468797e-38
-0.0439943428442 -0.124126895882 0.849 6.62939029319e-39
-0.0423231796443 -0.123834488589 0.847 5.3350963809e-39
-0.040563183849 -0.123249674003 0.843 1.13177159666e-38
-0.0390030613933 -0.123249674003 0.843 1.39063794613e-38
-0.0373541063422 -0.12295726671 0.841 1.28569694621e-39
-0.0357976852446 -0.12295726671 0.841 1.65303893084e-39
-0.0342412641471 -0.12295726671 0.841 3.94892633479e-39
-0.0326848430495 -0.12295726671 0.841 3.489748854e-39
-0.0311284219519 -0.12295726671 0.841 4.04076183095e-39
-0.0295720008543 -0.12295726671 0.841 3.94892633479e-39
-0.0280155797567 -0.12295726671 0.841 4.04076183095e-39
-0.0264591586591 -0.12295726671 0.841 3.94892633479e-39
-0.0249619592917 -0.123249674003 0.843 3.94892633479e-39
-0.023401836836 -0.123249674003 0.843 4.13259732711e-39
-0.0218935333942 -0.123542081296 0.845 4.13259732711e-39
-0.0203778272361 -0.123834488589 0.847 3.76525534248e-39
-0.0188547183618 -0.124126895882 0.849 5.51012976948e-40
-0.0173242067712 -0.124419303175 0.851 1.81469300195e-38
-0.015804799255 -0.124857914114 0.854 2.07262846885e-38
-0.0142243193295 -0.124857914114 0.854 1.32531053276e-38
-0.012643839404 -0.124857914114 0.854 8.90804312733e-39
-0.0110892689855 -0.125150321407 0.856 1.43342561383e-38
-0.00952729585067 -0.1254427287 0.858 2.14534605006e-38
-0.00793941320889 -0.1254427287 0.858 1.80508289708e-38
-0.00636633599967 -0.125735135993 0.86 1.75894850826e-38
-0.00477475199975 -0.125735135993 0.86 1.758948228e-38
-0.00318316799983 -0.125735135993 0.86 1.76820478526e-38
-0.00159528535806 -0.126027543286 0.862 1.79578948566e-38
0.0 -0.126027543286 0.862 1.81430063838e-38
0.0015989867162 -0.126319950579 0.864 1.77746176292e-38
0.00319797343239 -0.126319950579 0.864 1.81437308551e-38
0.00482472033463 -0.127050968812 0.869 1.75894878852e-38
0.00643296044618 -0.127050968812 0.869 1.75887536048e-38
0.00804120055772 -0.127050968812 0.869 1.79575417294e-38
0.0096716488181 -0.127343376105 0.871 1.79575487359e-38
0.0112835902878 -0.127343376105 0.871 1.82352230331e-38
0.0129251426226 -0.127635783398 0.873 1.77742462851e-38
0.0145740976737 -0.127928190691 0.875 1.77731630814e-38
0.0161934418596 -0.127928190691 0.875 1.86940333737e-38
0.0178738584549 -0.128366801631 0.878 1.75894850826e-38
0.0194987546781 -0.128366801631 0.878 1.85128707056e-38
0.0211236509012 -0.128366801631 0.878 1.8234128619e-38
0.0228003661383 -0.128659208924 0.88 1.88780701049e-38
0.0244844840917 -0.128951616217 0.882 1.84185170761e-38
0.0261167830312 -0.128951616217 0.882 1.9064284454e-38
0.0278434666032 -0.129390227156 0.885 1.92504511588e-38
0.0295479420264 -0.129682634449 0.887 1.48304531219e-38
0.0311894943612 -0.129682634449 0.887 1.92536573297e-38
0.0329050738588 -0.129975041742 0.889 1.84185324904e-38
0.0346280560726 -0.130267449035 0.891 2.06319380655e-38
0.0363991559423 -0.130706059975 0.894 4.13510845396e-39
0.0380536630306 -0.130706059975 0.894 1.83670992316e-40
0.0397970027142 -0.130998467268 0.896 5.51012976948e-40
0.0415477451141 -0.131290874561 0.898 1.46936793853e-39
0.0432096549187 -0.131290874561 0.898 0.0
0.0448715647232 -0.131290874561 0.898 1.84071006976e-38
0.0465334745278 -0.131290874561 0.898 1.65303893084e-39
0.0481953843324 -0.131290874561 0.898 0.0
0.0500238552532 -0.1317294855 0.901 2.12604540579e-38
0.0519781723508 -0.132460503733 0.906 2.07245260589e-38
0.0537733310484 -0.132752911026 0.908 1.63876978884e-38
0.0557591096901 -0.133483929258 0.913 2.03545888695e-38
0.0574487796807 -0.133483929258 0.913 1.93415677889e-38
0.0592679972062 -0.133776336551 0.915 7.17106081327e-39
0.060961368555 -0.133776336551 0.915 1.59113068573e-38
0.0626547399037 -0.133776336551 0.915 2.07266728482e-38
0.0645590886664 -0.134214947491 0.918 4.95911679253e-39
0.0662580120524 -0.134214947491 0.918 5.41829427332e-39
0.0681049897639 -0.134507354784 0.92 1.58147938269e-38
0.069807614508 -0.134507354784 0.92 1.14826656114e-38
0.0718988818567 -0.135238373016 0.925 1.84083534584e-38
0.0740086559961 -0.135969391249 0.93 1.85866434646e-38
-0.0755114074007 -0.128041082114 0.887 1.90533669376e-38
-0.0737032939496 -0.127752376179 0.885 1.86827837496e-38
-0.072065442973 -0.127752376179 0.885 2.16363089307e-38
-0.0704275919963 -0.127752376179 0.885 2.93873587706e-39
-0.0687897410197 -0.127752376179 0.885 1.06870728031e-38
-0.0669242565174 -0.127319317277 0.882 9.20327989818e-39
-0.0649958489268 -0.126741905407 0.878 8.46579333198e-39
-0.0631544232525 -0.126308846505 0.875 1.12348137481e-38
-0.0613944274573 -0.12602014057 0.873 1.04926244243e-38
-0.0595048841271 -0.1254427287 0.869 1.11451460607e-38
-0.0577633951226 -0.125154022766 0.867 7.35942055025e-39
-0.0559645350669 -0.124720963863 0.864 1.19386145005e-39
-0.0542397021739 -0.124432257928 0.862 7.54203216093e-39
-0.0525222719973 -0.124143551994 0.86 1.32612903119e-38
-0.0508122445369 -0.123854846059 0.858 9.57672033373e-39
-0.0491096197928 -0.123566140124 0.856 9.48421081301e-39
-0.047414397765 -0.123277434189 0.854 7.91299930469e-39
-0.0456729087604 -0.122844375287 0.851 8.37968634395e-39
-0.0439943428442 -0.122555669352 0.849 1.05923856646e-38
-0.0424231163141 -0.122555669352 0.849 1.1053373623e-38
-0.0406594191607 -0.121978257482 0.845 6.99278341875e-39
-0.0390030613933 -0.121689551547 0.843 1.36276289669e-38
-0.0374429389376 -0.121689551547 0.843 1.28569694621e-39
-0.0358828164819 -0.121689551547 0.843 1.83670992316e-39
-0.0343226940261 -0.121689551547 0.843 4.13259732711e-39
-0.0326848430495 -0.121400845612 0.841 3.67341984632e-39
-0.0311284219519 -0.121400845612 0.841 3.76525534248e-39
-0.0295720008543 -0.121400845612 0.841 3.85709083864e-39
-0.0280822042032 -0.121689551547 0.843 4.04076183095e-39
-0.0265220817475 -0.121689551547 0.843 3.94892633479e-39
-0.0249619592917 -0.121689551547 0.843 3.94892633479e-39
-0.0234573572081 -0.121978257482 0.845 4.04076183095e-39
-0.0219453524082 -0.122266963417 0.847 3.76525534248e-39
-0.0203778272361 -0.122266963417 0.847 5.51012976948e-40
-0.0188547183618 -0.122555669352 0.849 1.83241760583e-38
-0.0173242067712 -0.122844375287 0.851 1.98968897586e-38
-0.015804799255 -0.123277434189 0.854 1.17779710459e-38
-0.0142243193295 -0.123277434189 0.854 7.53051068496e-39
-0.0126734502691 -0.123566140124 0.856 1.95879594992e-38
-0.0111151784924 -0.123854846059 0.858 2.08109721612e-38
-0.00952729585067 -0.123854846059 0.858 1.77720938907e-38
-0.00795791999959 -0.124143551994 0.86 1.77738665332e-38
-0.00636633599967 -0.124143551994 0.86 1.81430246007e-38
-0.00477475199975 -0.124143551994 0.86 1.86961955772e-38
-0.00319057071611 -0.124432257928 0.862 1.86997983156e-38
-0.00159528535806 -0.124432257928 0.862 1.63981473711e-38
0.0 -0.124720963863 0.864 1.8328864803e-38
0.0015989867162 -0.124720963863 0.864 1.80501073021e-38
0.00320907750681 -0.125154022766 0.867 1.81423057345e-38
0.00482472033463 -0.1254427287 0.869 1.76820478526e-38
0.00643296044618 -0.1254427287 0.869 1.78657132398e-38
0.00805970734842 -0.125731434635 0.871 1.80497443658e-38
0.0096716488181 -0.125731434635 0.871 1.76820478526e-38
0.0113094997948 -0.12602014057 0.873 1.77742462851e-38
0.0129547534877 -0.126308846505 0.875 1.77742462851e-38
0.0145740976737 -0.126308846505 0.875 1.83270697397e-38
0.0161934418596 -0.126308846505 0.875 1.8418873006e-38
0.0178738584549 -0.126741905407 0.878 1.82355579435e-38
0.0194987546781 -0.126741905407 0.878 1.82355705551e-38
0.0211236509012 -0.126741905407 0.878 1.86036314059e-38
0.0227485471244 -0.126741905407 0.878 1.96188805511e-38
0.0244844840917 -0.127319317277 0.882 1.77782147624e-38
0.0262056156265 -0.127752376179 0.885 2.04514956648e-38
0.0278434666032 -0.127752376179 0.885 3.85709083864e-39
0.0295479420264 -0.128041082114 0.887 0.0
0.0312598201658 -0.128329788049 0.889 7.36809038385e-39
0.0329050738588 -0.128329788049 0.889 2.06348107273e-38
0.034744648854 -0.129051552886 0.894 2.03560742459e-38
0.0363991559423 -0.129051552886 0.894 1.37753244237e-39
0.0380536630306 -0.129051552886 0.894 0.0
0.0398858353096 -0.129628964756 0.898 1.70380433083e-38
0.0415477451141 -0.129628964756 0.898 4.04076183095e-39
0.0432096549187 -0.129628964756 0.898 0.0
0.0448715647232 -0.129628964756 0.898 2.04299717204e-38
0.0465334745278 -0.129628964756 0.898 2.20405190779e-39
0.0481953843324 -0.129628964756 0.898 0.0
0.0500238552532 -0.130062023658 0.901 5.05095228869e-39
0.0519781723508 -0.130783788496 0.906 1.06719808186e-38
0.0537733310484 -0.13107249443 0.908 1.76864269103e-38
0.0557591096901 -0.131794259268 0.913 1.87927128116e-38
0.0574487796807 -0.131794259268 0.913 1.94334130941e-38
0.0592679972062 -0.132082965202 0.915 6.61502558263e-39
0.060961368555 -0.132082965202 0.915 1.74789912974e-38
0.0626547399037 -0.132082965202 0.915 1.88842190026e-38
0.0645590886664 -0.132516024105 0.918 7.53051068496e-39
0.0664023650198 -0.13280473004 0.92 3.58158435016e-39
0.0681049897639 -0.13280473004 0.92 1.61821161933e-38
0.069807614508 -0.13280473004 0.92 1.32300511653e-38
0.0718988818567 -0.133526494877 0.925 1.64751445178e-38
0.0740086559961 -0.134248259714 0.93 1.96015184631e-38
-0.0738698550659 -0.126399529779 0.887 1.89611657026e-38
-0.072065442973 -0.126114525203 0.885 2.10831323489e-38
-0.0704275919963 -0.126114525203 0.885 3.21424236553e-39
-0.0687897410197 -0.126114525203 0.885 1.14217679827e-38
-0.0669242565174 -0.125687018338 0.882 1.09560464381e-38
-0.065291957578 -0.125687018338 0.882 8.92205751327e-39
-0.0633709527037 -0.125117009184 0.878 1.03135679078e-38
-0.0613944274573 -0.124404497742 0.873 8.00475492683e-39
-0.0596418343783 -0.124119493166 0.871 1.03111072277e-38
-0.0577633951226 -0.123549484012 0.867 1.0775287344e-38
-0.0559645350669 -0.123121977147 0.864 1.18809118324e-38
-0.0542397021739 -0.12283697257 0.862 5.60770498415e-39
-0.0525222719973 -0.122551967994 0.86 8.27240853871e-39
-0.0508122445369 -0.122266963417 0.858 9.38591392963e-39
-0.0491096197928 -0.12198195884 0.856 1.20614565278e-38
-0.047414397765 -0.121696954263 0.854 7.54808997419e-39
-0.0456729087604 -0.121269447398 0.851 9.02470542838e-39
-0.0439943428442 -0.120984442822 0.849 6.62365758117e-39
-0.0424231163141 -0.120984442822 0.849 9.66219533615e-39
-0.0407556544723 -0.120699438245 0.847 1.10508162533e-38
-0.0390955953468 -0.120414433668 0.845 1.46432424497e-38
-0.0374429389376 -0.120129429091 0.843 1.46936793853e-39
-0.0358828164819 -0.120129429091 0.843 2.11221641163e-39
-0.0343226940261 -0.120129429091 0.843 3.85709083864e-39
-0.0327625715704 -0.120129429091 0.843 3.67341984632e-39
-0.0312024491147 -0.120129429091 0.843 3.76525534248e-39
-0.0296423266589 -0.120129429091 0.843 3.94892633479e-39
-0.0280822042032 -0.120129429091 0.843 3.67341984632e-39
-0.0265220817475 -0.120129429091 0.843 3.94892633479e-39
-0.025021181022 -0.120414433668 0.845 4.31626831943e-39
-0.0234573572081 -0.120414433668 0.845 4.31626831943e-39
-0.0219453524082 -0.120699438245 0.847 2.57139389242e-39
-0.020425944892 -0.120984442822 0.849 1.37133786238e-38
-0.018965759106 -0.121696954263 0.854 2.05401488122e-38
-0.0173852791805 -0.121696954263 0.854 1.35336200568e-38
-0.015804799255 -0.121696954263 0.854 7.25500419648e-39
-0.0142576315527 -0.12198195884 0.856 1.99657075262e-38
-0.0127030611342 -0.122266963417 0.858 1.99847932113e-38
-0.0111151784924 -0.122266963417 0.858 1.86028887177e-38
-0.0095495039995 -0.122551967994 0.86 1.97110607667e-38
-0.00795791999959 -0.122551967994 0.86 1.83313591143e-38
-0.00636633599967 -0.122551967994 0.86 1.6582905771e-38
-0.00478585607417 -0.12283697257 0.862 1.33581872981e-38
-0.00319057071611 -0.12283697257 0.862 3.58158435016e-39
-0.00159528535806 -0.12283697257 0.862 1.83670992316e-40
0.0 -0.123121977147 0.864 1.61065035295e-38
0.0016045387534 -0.123549484012 0.867 1.86929585778e-38
0.00321648022309 -0.123834488589 0.869 1.79575459333e-38
0.00483582440905 -0.124119493166 0.871 1.88802561305e-38
0.00644776587873 -0.124119493166 0.871 1.76820478526e-38
0.00805970734842 -0.124119493166 0.871 1.84181695541e-38
0.00969385696694 -0.124404497742 0.873 1.76820506552e-38
0.0113354093017 -0.124689502319 0.875 1.8050125519e-38
0.0129547534877 -0.124689502319 0.875 1.76831226486e-38
0.0146240660085 -0.125117009184 0.878 1.85128805147e-38
0.0162489622317 -0.125117009184 0.878 1.86068838196e-38
0.0179145733944 -0.125402013761 0.88 1.8606881017e-38
0.0194987546781 -0.125117009184 0.878 1.79586725773e-38
0.0211236509012 -0.125117009184 0.878 1.98954800524e-38
0.0227485471244 -0.125117009184 0.878 4.31631175968e-39
0.0244844840917 -0.125687018338 0.882 1.83670992316e-40
0.0262056156265 -0.126114525203 0.885 5.6938007618e-39
0.0278434666032 -0.126114525203 0.885 1.65303893084e-39
0.0295479420264 -0.126399529779 0.887 0.0
0.0312598201658 -0.126684534356 0.889 0.0
0.0329050738588 -0.126684534356 0.889 2.29382006833e-38
0.0346280560726 -0.126969538933 0.891 1.45506362393e-38
0.0363991559423 -0.127397045798 0.894 9.1835496158e-40
0.0380536630306 -0.127397045798 0.894 1.06781269137e-38
0.0398858353096 -0.127967054951 0.898 2.34931625193e-38
0.0415477451141 -0.127967054951 0.898 3.21424236553e-39
0.0432096549187 -0.127967054951 0.898 4.5917748079e-40
0.0448715647232 -0.127967054951 0.898 2.2642309506e-38
0.0465334745278 -0.127967054951 0.898 2.75506488474e-39
0.0483563934114 -0.128394561817 0.901 0.0
0.0500238552532 -0.128394561817 0.901 0.0
0.0520929144531 -0.129392077835 0.908 0.0
0.0540694396995 -0.130104589277 0.913 0.0
0.0558812545087 -0.130389593854 0.915 1.99933887761e-38
0.0575746258575 -0.130389593854 0.915 1.86043754954e-38
0.0592679972062 -0.130389593854 0.915 6.33772543212e-39
0.0611612418945 -0.130817100719 0.918 2.05210883505e-38
0.0628601652804 -0.130817100719 0.918 1.8329949408e-38
0.0646997402757 -0.131102105295 0.92 6.79582671569e-39
0.0664023650198 -0.131102105295 0.92 7.07133320417e-39
0.0683270712523 -0.131529612161 0.923 1.9239944223e-38
0.0701870037173 -0.131814616737 0.925 1.0469246562e-38
0.0721320674195 -0.132242123602 0.928 1.6923211103e-38
0.0740086559961 -0.132527128179 0.93 2.08000966838e-38
-0.0738698550659 -0.124757977445 0.887 1.9146278631e-38
-0.0722283027311 -0.124757977445 0.887 2.09906018087e-38
-0.0705867503963 -0.124757977445 0.887 3.21424236553e-39
-0.0687897410197 -0.124476674226 0.885 8.46968894172e-39
-0.067151890043 -0.124476674226 0.885 9.3930563479e-39
-0.065291957578 -0.124054719398 0.882 9.48421081301e-39
-0.0635153056711 -0.12377341618 0.88 1.08624789371e-38
-0.0615350790666 -0.123070158133 0.875 1.04036139458e-38
-0.0596418343783 -0.122507551696 0.871 9.56888847661e-39
-0.0578966440156 -0.122226248477 0.869 9.6696320271e-39
-0.0561588563692 -0.121944945259 0.867 1.03979484961e-38
-0.0542397021739 -0.121241687212 0.862 1.16007095927e-38
-0.0525222719973 -0.120960383994 0.86 9.56847789616e-39
-0.0509306879973 -0.120960383994 0.86 7.73068336799e-39
-0.0492243618951 -0.120679080775 0.858 3.21424236553e-39
-0.0475254385092 -0.120397777557 0.856 1.08700067124e-38
-0.0456729087604 -0.11969451951 0.851 1.07764195932e-38
-0.0439943428442 -0.119413216291 0.849 9.85438342054e-39
-0.0424231163141 -0.119413216291 0.849 9.48205001077e-39
