# .PCD v0.7 - Point Cloud Data file format
VERSION 0.7
FIELDS x y z rgb
SIZE 4 4 4 4
TYPE F F F F
COUNT 1 1 1 1
WIDTH 835
HEIGHT 1
VIEWPOINT 0 0 0 1 0 0 0
POINTS 835
DATA ascii
0.012112694511 -0.0294165438124 0.935 2.04367063608e-38
0.0138430794411 -0.0294165438124 0.935 5.60196526564e-39
0.0156567449294 -0.0295738515333 0.94 9.85016130826e-39
0.0175074239991 -0.0297626207984 0.946 7.08713424565e-39
0.0192988813385 -0.0298255438868 0.948 1.69423780634e-38
0.0210533250966 -0.0298255438868 0.948 1.49198097211e-38
0.0228077688546 -0.0298255438868 0.948 1.44566231254e-38
0.0245622126127 -0.0298255438868 0.948 1.04029118953e-38
0.0263166563707 -0.0298255438868 0.948 1.16897228738e-38
0.0281599327241 -0.0299199285194 0.951 8.55224083555e-39
0.0300772362403 -0.0300772362403 0.956 1.37159219805e-38
0.0319464221007 -0.0301716208728 0.959 1.08646313315e-38
0.0338970378401 -0.0303289285938 0.964 9.75720477333e-39
0.0359031739516 -0.0305176978589 0.97 9.11256403949e-39
0.0378149254306 -0.0306120824914 0.973 5.88536386706e-39
0.039819210863 -0.0307693902124 0.978 1.73100395441e-38
0.041756871849 -0.0308637748449 0.981 1.18740945153e-38
0.0438388858024 -0.03105254411 0.987 1.44571163824e-38
0.0457580399976 -0.0311154671984 0.989 9.39924728452e-39
0.047732714565 -0.0312098518309 0.992 1.58493484457e-38
0.0497184932067 -0.0313042364635 0.995 1.78704398195e-38
-0.0667632474384 -0.0273900502311 0.925 1.63913146397e-38
-0.0650513692989 -0.0273900502311 0.925 1.67593740892e-38
-0.0633394911595 -0.0273900502311 0.925 1.83263214463e-38
-0.06162761302 -0.0273900502311 0.925 5.51479329077e-39
-0.0599157348806 -0.0273900502311 0.925 4.40810381558e-39
-0.0582038567412 -0.0273900502311 0.925 1.70413629844e-38
-0.0563698337831 -0.0273308285009 0.923 1.35365081329e-38
-0.0546616570018 -0.0273308285009 0.923 1.30761927978e-38
-0.052781367067 -0.0272419959056 0.92 1.35372480185e-38
-0.0510787423229 -0.0272419959056 0.92 1.29872565881e-38
-0.0492687781928 -0.0271827741753 0.918 1.40863818542e-38
-0.047414397765 -0.02709394158 0.915 1.33506763384e-38
-0.0456210897465 -0.0270347198498 0.913 1.6303039843e-38
-0.0437870667884 -0.0269458872544 0.91 1.6853339559e-38
-0.0420104148815 -0.0268866655242 0.908 1.63927201421e-38
-0.0402411656909 -0.026827443794 0.906 1.61154466163e-38
-0.0385644504538 -0.026827443794 0.906 1.6576379924e-38
-0.0368877352167 -0.026827443794 0.906 1.43654798707e-38
-0.0352110199796 -0.026827443794 0.906 1.27102479077e-38
-0.0335343047424 -0.026827443794 0.906 1.51973579014e-38
-0.0317521007983 -0.0267386111986 0.903 1.30696977794e-38
-0.0300809375984 -0.0267386111986 0.903 1.41738761277e-38
-0.0284097743985 -0.0267386111986 0.903 1.6945127411e-38
-0.0267386111986 -0.0267386111986 0.903 1.01284731963e-38
-0.0249286470685 -0.026590556873 0.898 1.34468250312e-38
-0.0232667372639 -0.026590556873 0.898 1.38138335068e-38
-0.0215567098035 -0.0265313351428 0.896 9.94628758032e-39
-0.0198985013571 -0.0265313351428 0.896 9.85442545949e-39
-0.0182402929107 -0.0265313351428 0.896 1.40003379246e-38
-0.0165820844643 -0.0265313351428 0.896 1.70435307931e-38
-0.0149238760178 -0.0265313351428 0.896 4.31626831943e-39
-0.0132656675714 -0.0265313351428 0.896 4.04076183095e-39
-0.011607459125 -0.0265313351428 0.896 1.22371162968e-38
-0.00997145882739 -0.026590556873 0.898 1.16806859e-38
-0.00830954902282 -0.026590556873 0.898 1.17718221482e-38
-0.00666984736709 -0.0266793894684 0.901 6.61610177985e-39
-0.00501348959974 -0.0267386111986 0.903 1.56519447284e-38
-0.00334232639983 -0.0267386111986 0.903 1.78603841017e-38
-0.00167671523712 -0.026827443794 0.906 2.1275492793e-38
0.0 -0.0268866655242 0.908 1.87869142385e-38
0.0016841179534 -0.0269458872544 0.91 7.71705153653e-39
0.00337933998122 -0.0270347198498 0.913 1.1035701848e-38
0.00515229052996 -0.0274788828265 0.928 1.15938726575e-38
0.00686972070662 -0.0274788828265 0.928 1.42624942426e-38
0.00858715088327 -0.0274788828265 0.928 7.62844463203e-39
0.0103267892088 -0.0275381045567 0.93 1.16792607795e-38
0.012086785004 -0.027626937152 0.933 2.00736425404e-38
0.0138430794411 -0.0276861588823 0.935 4.77544580022e-39
0.0156567449294 -0.0278342132079 0.94 1.28979728565e-38
0.0175074239991 -0.0280118783985 0.946 6.99313374336e-39
0.0192988813385 -0.0280711001288 0.948 1.48172052462e-38
0.0210533250966 -0.0280711001288 0.948 1.32494913789e-38
0.0228077688546 -0.0280711001288 0.948 1.23350698621e-38
0.0246399411336 -0.0281599327241 0.951 8.92888884328e-39
0.0263999369289 -0.0281599327241 0.951 1.1963082573e-38
0.0283079870497 -0.0283079870497 0.956 1.48239693139e-38
0.0303289285938 -0.0285448739706 0.964 1.6297654653e-38
0.0322129198867 -0.028633706566 0.967 9.84688507245e-39
0.0340025265471 -0.028633706566 0.967 9.75649151242e-39
0.0359031739516 -0.0287225391613 0.97 9.48062769283e-39
0.0378149254306 -0.0288113717566 0.973 5.14853450985e-39
0.0399413556816 -0.0290482586776 0.981 2.04482880926e-38
0.0420122655606 -0.0292259238682 0.987 1.62138079594e-38
0.0440609672907 -0.0293739781938 0.992 7.00143783806e-39
0.0458968409278 -0.0293739781938 0.992 1.2260258741e-38
0.0478770675324 -0.0294628107892 0.995 2.01739096494e-38
0.0497184932067 -0.0294628107892 0.995 1.32484221881e-38
-0.0667632474384 -0.0256781720917 0.925 1.65739038297e-38
-0.0650513692989 -0.0256781720917 0.925 1.64817110024e-38
-0.0633394911595 -0.0256781720917 0.925 1.85107155086e-38
-0.06162761302 -0.0256781720917 0.925 5.51586948799e-39
-0.0599157348806 -0.0256781720917 0.925 4.95911679253e-39
-0.0582038567412 -0.0256781720917 0.925 1.66736594647e-38
-0.0563698337831 -0.0256226517196 0.923 1.34464200559e-38
-0.0546616570018 -0.0256226517196 0.923 1.6120440844e-38
-0.0529534802205 -0.0256226517196 0.923 1.34446572225e-38
-0.0510787423229 -0.0255393711615 0.92 1.12315935643e-38
-0.0493761175788 -0.0255393711615 0.92 1.54733198119e-38
-0.047414397765 -0.0254005702312 0.915 1.33507043643e-38
-0.0456210897465 -0.0253450498591 0.913 1.32577170008e-38
-0.0437870667884 -0.025261769301 0.91 1.24251425248e-38
-0.0420104148815 -0.0252062489289 0.908 1.46403739917e-38
-0.0403299982863 -0.0252062489289 0.908 1.58417281846e-38
-0.0385644504538 -0.0251507285568 0.906 1.60246354693e-38
-0.0368877352167 -0.0251507285568 0.906 1.46452785363e-38
-0.0352110199796 -0.0251507285568 0.906 1.17861532276e-38
-0.0335343047424 -0.0251507285568 0.906 1.60206473739e-38
-0.0318575895053 -0.0251507285568 0.906 1.38065341431e-38
-0.0301808742682 -0.0251507285568 0.906 1.43633414892e-38
-0.0284097743985 -0.0250674479987 0.903 1.55665117649e-38
-0.0267386111986 -0.0250674479987 0.903 1.25266343686e-38
-0.0249286470685 -0.0249286470685 0.898 1.22540257654e-38
-0.0232667372639 -0.0249286470685 0.898 1.30802285374e-38
-0.0216048274593 -0.0249286470685 0.898 1.0866446013e-38
-0.0199429176548 -0.0249286470685 0.898 1.06845532685e-38
-0.0182402929107 -0.0248731266964 0.896 1.38177431295e-38
-0.0165820844643 -0.0248731266964 0.896 1.56602460205e-38
-0.0149238760178 -0.0248731266964 0.896 3.94892633479e-39
-0.0132952784365 -0.0249286470685 0.898 4.77544580022e-39
-0.011633368632 -0.0249286470685 0.898 1.28828388331e-38
-0.00997145882739 -0.0249286470685 0.898 1.02077586634e-38
-0.00833730920887 -0.0250119276266 0.901 1.52709400838e-38
-0.00668465279965 -0.0250674479987 0.903 6.06329514087e-39
-0.00501348959974 -0.0250674479987 0.903 1.40766960792e-38
-0.00335343047424 -0.0251507285568 0.906 2.34778379193e-38
-0.00167671523712 -0.0251507285568 0.906 1.72210753085e-38
0.0 -0.0252062489289 0.908 1.28731124204e-38
0.0016841179534 -0.025261769301 0.91 8.91270664861e-39
0.0033867426975 -0.0254005702312 0.915 1.30686524107e-38
0.00512453034392 -0.0256226517196 0.923 8.74159129054e-39
0.00686972070662 -0.0257614526498 0.928 7.5398657535e-39
0.00858715088327 -0.0257614526498 0.928 5.97217710952e-39
0.0103267892088 -0.0258169730219 0.93 1.58219460542e-38
0.012086785004 -0.02590025358 0.933 1.82290713329e-38
0.0138874957388 -0.0260390545103 0.938 9.09568820209e-39
0.0156567449294 -0.0260945748824 0.94 1.40003953778e-38
0.017451903627 -0.0261778554405 0.943 9.10719146118e-39
0.019258166399 -0.0262611359986 0.946 1.33506469111e-38
0.0210533250966 -0.0263166563707 0.948 1.15035295442e-38
0.0228077688546 -0.0263166563707 0.948 8.64836150241e-39
0.0246399411336 -0.0263999369289 0.951 9.8418235824e-39
0.0263999369289 -0.0263999369289 0.951 1.86919188143e-38
0.0285448739706 -0.0267608193474 0.964 1.42733711213e-38
0.0304233132263 -0.0268440999056 0.967 1.10446533426e-38
0.0322129198867 -0.0268440999056 0.967 9.84471866503e-39
0.034108015254 -0.0269273804637 0.97 9.7565041241e-39
0.0360142146958 -0.0270106610218 0.973 8.74378152004e-39
0.0380092467329 -0.0271494619521 0.978 1.14135115322e-38
0.0400635005002 -0.0273160230683 0.984 1.28029606167e-38
0.0420973967978 -0.0274548239986 0.989 1.17935002355e-38
0.0440609672907 -0.0275381045567 0.992 1.71411466454e-38
0.0458968409278 -0.0275381045567 0.992 1.70464300796e-38
-0.0652623467129 -0.0240440224732 0.928 1.63888119207e-38
-0.0633394911595 -0.0239662939522 0.925 1.841707514e-38
-0.06162761302 -0.0239662939522 0.925 5.60878118137e-39
-0.0599157348806 -0.0239662939522 0.925 5.14278778485e-39
-0.0582038567412 -0.0239662939522 0.925 1.61183178768e-38
-0.0564919786017 -0.0239662939522 0.925 1.27095836922e-38
-0.0546616570018 -0.0239144749383 0.923 1.58435288532e-38
-0.0529534802205 -0.0239144749383 0.923 1.21502932453e-38
-0.0512453034392 -0.0239144749383 0.923 1.56530587607e-38
-0.0493761175788 -0.0238367464174 0.92 1.56595131414e-38
-0.0475698548068 -0.0237849274034 0.918 1.14127660414e-38
-0.0457210264162 -0.0237071988825 0.915 1.29789594999e-38
-0.0439314197559 -0.0236553798685 0.913 1.41826230327e-38
-0.042102948835 -0.0235776513476 0.91 1.13256052769e-38
-0.0403299982863 -0.0235258323337 0.908 1.3809834201e-38
-0.038649581691 -0.0235258323337 0.908 1.53785878318e-38
-0.0368877352167 -0.0234740133197 0.906 1.55643635744e-38
-0.0352110199796 -0.0234740133197 0.906 1.65781245406e-38
-0.0335343047424 -0.0234740133197 0.906 1.62061694814e-38
-0.0318575895053 -0.0234740133197 0.906 1.5931306189e-38
-0.0301808742682 -0.0234740133197 0.906 1.44597886586e-38
-0.0284097743985 -0.0233962847988 0.903 1.50126513495e-38
-0.0267386111986 -0.0233962847988 0.903 1.18802125844e-38
-0.0250674479987 -0.0233962847988 0.903 1.21564421429e-38
-0.0233444657848 -0.0233444657848 0.901 1.3814871869e-38
-0.0216048274593 -0.0232667372639 0.898 8.46859592891e-39
-0.0199429176548 -0.0232667372639 0.898 1.03179441629e-38
-0.0182810078502 -0.0232667372639 0.898 1.40035959435e-38
-0.0165820844643 -0.02321491825 0.896 1.55676776453e-38
-0.0149238760178 -0.02321491825 0.896 4.68361030406e-39
-0.0132952784365 -0.0232667372639 0.898 4.95911679253e-39
-0.011633368632 -0.0232667372639 0.898 1.25126115749e-38
-0.00997145882739 -0.0232667372639 0.898 1.11268030638e-38
-0.00833730920887 -0.0233444657848 0.901 1.60110008352e-38
-0.00668465279965 -0.0233962847988 0.903 8.73800396647e-39
-0.00503014571137 -0.0234740133197 0.906 1.15845568253e-38
-0.00335343047424 -0.0234740133197 0.906 2.34913828702e-38
-0.00168041659526 -0.0235258323337 0.908 1.44548112465e-38
0.0 -0.0235776513476 0.91 1.90638864852e-38
0.00168966999061 -0.0236553798685 0.913 1.38929900544e-38
0.0033867426975 -0.0237071988825 0.915 8.82627175674e-39
0.00512453034392 -0.0239144749383 0.923 7.355090538e-39
0.00686972070662 -0.0240440224732 0.928 1.34366936433e-38
0.00858715088327 -0.0240440224732 0.928 1.34348873696e-38
0.010360101432 -0.024173570008 0.933 1.50818923092e-38
0.012112694511 -0.024225389022 0.935 1.6017760699e-38
0.0139171066039 -0.0243549365569 0.94 7.07133320417e-39
0.0157067132643 -0.0244326650778 0.943 1.00305504596e-38
0.017451903627 -0.0244326650778 0.943 9.93656397027e-39
0.019258166399 -0.0245103935987 0.946 1.07692113139e-38
0.0210533250966 -0.0245622126127 0.948 1.00269645368e-38
0.0228077688546 -0.0245622126127 0.948 1.38945076607e-38
0.0247694886685 -0.0247694886685 0.956 1.70363715592e-38
0.0265387378591 -0.0247694886685 0.956 1.18723344845e-38
0.0285448739706 -0.0249767647243 0.964 1.0674484939e-38
0.0304233132263 -0.0250544932452 0.967 1.02120872743e-38
0.0322129198867 -0.0250544932452 0.967 1.02152962478e-38
0.034108015254 -0.0251322217661 0.97 1.00312805361e-38
0.0360142146958 -0.0252099502871 0.973 6.71618812137e-39
0.0380092467329 -0.0253394978219 0.978 1.62080332084e-38
0.0400635005002 -0.0254949548638 0.984 7.91765301689e-39
0.0420973967978 -0.0256245023987 0.989 1.49267293329e-38
0.0440609672907 -0.0257022309196 0.992 1.95331463084e-38
0.0458968409278 -0.0257022309196 0.992 1.34424361644e-38
-0.0656139757361 -0.022446886436 0.933 1.6204768183e-38
-0.0636818667874 -0.0223747099523 0.93 1.82341230138e-38
-0.0618274863596 -0.0223265922965 0.928 5.97719936322e-39
-0.0601100561829 -0.0223265922965 0.928 5.97074498249e-39
-0.0582038567412 -0.0222544158128 0.925 1.52889621833e-38
-0.0564919786017 -0.0222544158128 0.925 1.24308626251e-38
-0.0546616570018 -0.022206298157 0.923 1.22468230913e-38
-0.0529534802205 -0.022206298157 0.923 1.48254336708e-38
-0.0512453034392 -0.022206298157 0.923 1.49172887851e-38
-0.0495371266579 -0.022206298157 0.923 1.23361222372e-38
-0.0476734928347 -0.0221341216733 0.92 1.48275790587e-38
-0.0457210264162 -0.0220138275337 0.915 1.55680153582e-38
-0.0440276550675 -0.0220138275337 0.915 1.33520958537e-38
-0.0423342837187 -0.0220138275337 0.915 1.35321136609e-38
-0.0405520797746 -0.0219657098779 0.913 1.39034675631e-38
-0.0387347129282 -0.0218935333942 0.91 1.62105317236e-38
-0.0369691650957 -0.0218454157384 0.908 9.94047499429e-39
-0.0352110199796 -0.0217972980826 0.906 1.55604231231e-38
-0.0335343047424 -0.0217972980826 0.906 1.47299688116e-38
-0.0318575895053 -0.0217972980826 0.906 1.64845037902e-38
-0.0301808742682 -0.0217972980826 0.906 1.70358937165e-38
-0.0285041590311 -0.0217972980826 0.906 1.60257116665e-38
-0.026827443794 -0.0217972980826 0.906 1.09597164388e-38
-0.0250674479987 -0.0217251215989 0.903 1.14171044615e-38
-0.0233962847988 -0.0217251215989 0.903 1.49180244668e-38
-0.0216770039431 -0.0216770039431 0.901 1.25252470832e-38
-0.0199429176548 -0.0216048274593 0.898 1.14210645309e-38
-0.0182810078502 -0.0216048274593 0.898 1.52925621191e-38
-0.0166190980456 -0.0216048274593 0.898 1.45539012648e-38
-0.0149571882411 -0.0216048274593 0.898 4.04076183095e-39
-0.0132952784365 -0.0216048274593 0.898 5.23462328101e-39
-0.011633368632 -0.0216048274593 0.898 1.22360204814e-38
-0.00997145882739 -0.0216048274593 0.898 1.30621686027e-38
-0.00833730920887 -0.0216770039431 0.901 8.17443535528e-39
-0.00668465279965 -0.0217251215989 0.903 1.33455728094e-38
-0.00503014571137 -0.0217972980826 0.906 1.34305825807e-38
-0.00336083319052 -0.0218454157384 0.908 1.71270748062e-38
-0.00168041659526 -0.0218454157384 0.908 2.12725963091e-38
0.0 -0.0219657098779 0.913 1.86072649728e-38
0.00169892338596 -0.0220860040175 0.918 7.80601717343e-39
0.00340524948819 -0.0221341216733 0.92 7.25968453335e-39
0.00512453034392 -0.022206298157 0.923 7.8985701344e-39
0.00686972070662 -0.0223265922965 0.928 2.04417888704e-38
0.00858715088327 -0.0223265922965 0.928 1.83245095674e-38
0.010360101432 -0.022446886436 0.933 1.64644245845e-38
0.0121515587715 -0.0225671805756 0.938 1.26098042351e-38
0.0139171066039 -0.0226152982314 0.94 9.10139989463e-39
0.0157067132643 -0.0226874747151 0.943 8.563689444e-39
0.017451903627 -0.0226874747151 0.943 8.65267750168e-39
0.019258166399 -0.0227596511988 0.946 1.1415637302e-38
0.0210533250966 -0.0228077688546 0.948 1.65767302487e-38
0.0228799453383 -0.0228799453383 0.951 1.8143279637e-38
0.0247694886685 -0.0230002394779 0.956 1.2148536017e-38
0.0266220184172 -0.0230724159616 0.959 1.63899231504e-38
0.028633706566 -0.0232648865848 0.967 1.39952428034e-38
0.0304233132263 -0.0232648865848 0.967 9.75146645612e-39
0.0323128565565 -0.0233370630686 0.97 9.11113191246e-39
0.034213503961 -0.0234092395523 0.973 6.62220863856e-39
0.0360882418586 -0.0234573572081 0.975 1.22406741936e-38
0.0381258395143 -0.0236017101755 0.981 1.70341210739e-38
0.0400635005002 -0.0236738866592 0.984 2.00845054061e-38
0.0420973967978 -0.0237941807988 0.989 1.60294026867e-38
-0.0656139757361 -0.020720202864 0.933 1.59285372232e-38
-0.0638872921641 -0.020720202864 0.933 1.73125254476e-38
-0.0619607352526 -0.0206535784175 0.93 5.88392893744e-39
-0.0601100561829 -0.0206091621199 0.928 5.32645877716e-39
-0.0582038567412 -0.0205425376733 0.925 1.33546167896e-38
-0.0564919786017 -0.0205425376733 0.925 3.12240686937e-39
-0.0547801004623 -0.0205425376733 0.925 4.22443282327e-39
-0.0529534802205 -0.0204981213757 0.923 1.31665877591e-38
-0.0512453034392 -0.0204981213757 0.923 1.16003844915e-38
-0.0495371266579 -0.0204981213757 0.923 1.71291851617e-38
-0.0476734928347 -0.0204314969292 0.92 1.48271740835e-38
-0.0458709314209 -0.0203870806315 0.918 1.19670118139e-38
-0.0440276550675 -0.020320456185 0.915 1.41779090647e-38
-0.0423342837187 -0.020320456185 0.915 1.62108414105e-38
-0.0405520797746 -0.0202760398873 0.913 1.39092353075e-38
-0.0387347129282 -0.0202094154408 0.91 1.25197988347e-38
-0.0370505949748 -0.0202094154408 0.91 1.39030990216e-38
-0.0352887485005 -0.0201649991431 0.908 1.44598853482e-38
-0.0336083319052 -0.0201649991431 0.908 1.30747858941e-38
-0.0318575895053 -0.0201205828455 0.906 1.50050689235e-38
-0.0301808742682 -0.0201205828455 0.906 1.63891594427e-38
-0.0285041590311 -0.0201205828455 0.906 1.51019925344e-38
-0.026827443794 -0.0201205828455 0.906 1.03061003883e-38
-0.0251507285568 -0.0201205828455 0.906 1.10465240761e-38
-0.0234740133197 -0.0201205828455 0.906 1.51027786628e-38
-0.0216770039431 -0.0200095421013 0.901 1.0866446013e-38
-0.0200095421013 -0.0200095421013 0.901 9.48346952612e-39
-0.0183420802595 -0.0200095421013 0.901 1.57502766443e-38
-0.0166746184177 -0.0200095421013 0.901 1.46457073337e-38
-0.015007156576 -0.0200095421013 0.901 4.22443282327e-39
-0.0132952784365 -0.0199429176548 0.898 5.14278778485e-39
-0.011633368632 -0.0199429176548 0.898 1.28831709408e-38
-0.0100047710506 -0.0200095421013 0.901 1.34341797139e-38
-0.00833730920887 -0.0200095421013 0.901 7.9039511205e-39
-0.00670686094849 -0.0201205828455 0.906 1.16817747089e-38
-0.00503014571137 -0.0201205828455 0.906 1.11314665851e-38
-0.00336083319052 -0.0201649991431 0.908 7.89785266959e-39
-0.0016841179534 -0.0202094154408 0.91 2.32152261793e-38
0.0 -0.020320456185 0.915 4.5917748079e-39
0.00169892338596 -0.0203870806315 0.918 9.19323539078e-39
0.00340524948819 -0.0204314969292 0.92 1.50933829566e-38
0.00513563441834 -0.0205425376733 0.925 1.71287927982e-38
0.00686972070662 -0.0206091621199 0.928 1.7769827991e-38
0.00860565767397 -0.0206535784175 0.93 1.86936045764e-38
0.010360101432 -0.020720202864 0.933 1.42628445672e-38
0.0121515587715 -0.0208312436082 0.938 9.29224553508e-39
0.0139615229016 -0.0209422843524 0.943 9.65636032935e-39
0.0157067132643 -0.0209422843524 0.943 8.4689700756e-39
0.017451903627 -0.0209422843524 0.943 1.02178129799e-38
0.019258166399 -0.0210089087989 0.946 1.84221520444e-38
0.0210533250966 -0.0210533250966 0.948 1.12291356868e-38
0.0228799453383 -0.0211199495431 0.951 1.33506763384e-38
0.0248472171894 -0.0212976147338 0.959 1.17801206377e-38
0.0267608193474 -0.021408655478 0.964 1.72228633654e-38
0.0287225391613 -0.021541904371 0.97 1.26194886088e-38
0.0305176978589 -0.021541904371 0.97 6.62149958154e-39
0.0324127932262 -0.0216085288175 0.973 8.0919269017e-39
0.0342838297657 -0.0216529451152 0.975 1.52816754313e-38
0.0361992826028 -0.0217195695617 0.978 1.76766584587e-38
0.0382424322957 -0.0218528184547 0.984 2.00726462172e-38
-0.0638872921641 -0.018993519292 0.933 1.77742196604e-38
-0.0619607352526 -0.0189324468827 0.93 6.34597627748e-39
-0.0602396037178 -0.0189324468827 0.93 4.95911679253e-39
-0.0583926260063 -0.0188917319432 0.928 1.7039182564e-38
-0.0566751958296 -0.0188917319432 0.928 1.49175816565e-38
-0.0547801004623 -0.0188306595339 0.925 6.90380517016e-39
-0.0530682223228 -0.0188306595339 0.925 4.5917748079e-39
-0.0512453034392 -0.0187899445944 0.923 3.94892633479e-39
-0.0495371266579 -0.0187899445944 0.923 1.15853051187e-38
-0.0478289498766 -0.0187899445944 0.923 1.57470942954e-38
-0.0458709314209 -0.0186881572455 0.918 1.21535582707e-38
-0.0440276550675 -0.0186270848362 0.915 1.44609419272e-38
-0.0423342837187 -0.0186270848362 0.915 1.30776977923e-38
-0.0405520797746 -0.0185863698967 0.913 1.41818341017e-38
-0.038862409784 -0.0185863698967 0.913 1.72228087147e-38
-0.0370505949748 -0.0185252974874 0.91 1.40939376555e-38
-0.0353664770214 -0.0185252974874 0.91 1.30802005114e-38
-0.0336083319052 -0.0184845825479 0.908 1.69466071822e-38
-0.03192791531 -0.0184845825479 0.908 1.69451876669e-38
-0.0302474987147 -0.0184845825479 0.908 1.63927313525e-38
-0.0285041590311 -0.0184438676083 0.906 1.6761875407e-38
-0.026827443794 -0.0184438676083 0.906 1.7590191337e-38
-0.0251507285568 -0.0184438676083 0.906 1.39967463966e-38
-0.0234740133197 -0.0184438676083 0.906 1.56525725101e-38
-0.0217251215989 -0.018382795199 0.903 9.84577244147e-39
-0.020053958399 -0.018382795199 0.903 9.57496170415e-39
-0.018382795199 -0.018382795199 0.903 1.62119358246e-38
-0.0166746184177 -0.0183420802595 0.901 1.30769537028e-38
-0.015007156576 -0.0183420802595 0.901 4.31626831943e-39
-0.0133396947342 -0.0183420802595 0.901 5.96931005287e-39
-0.0116722328924 -0.0183420802595 0.901 1.28817374125e-38
-0.0100269791995 -0.018382795199 0.903 1.25125863515e-38
-0.00835581599956 -0.018382795199 0.903 1.35278004643e-38
-0.00672166638105 -0.0184845825479 0.908 1.12218671516e-38
-0.00504124978578 -0.0184845825479 0.908 1.10360577778e-38
-0.0033682359068 -0.0185252974874 0.91 1.20520468086e-38
-0.00169337134875 -0.0186270848362 0.915 1.29804224555e-38
0.0 -0.0186270848362 0.915 5.6938007618e-39
0.0017026247441 -0.0187288721851 0.92 6.7126007973e-39
0.00341635356261 -0.0187899445944 0.923 1.85939077958e-38
0.00513563441834 -0.0188306595339 0.925 1.69386828394e-38
0.00688452613918 -0.0189324468827 0.93 1.76751170304e-38
0.00860565767397 -0.0189324468827 0.93 1.85060043432e-38
0.010360101432 -0.018993519292 0.933 1.52759819556e-38
0.0121515587715 -0.0190953066409 0.938 7.7263785791e-39
0.0139615229016 -0.0191970939897 0.943 8.55614625437e-39
0.0157566815992 -0.019258166399 0.946 9.11470522355e-39
0.0175074239991 -0.019258166399 0.946 1.26170867832e-38
0.0192988813385 -0.0192988813385 0.948 1.11386958839e-38
0.0211199495431 -0.0193599537478 0.951 1.42740549549e-38
0.0229521218221 -0.0194210261571 0.954 1.62137378945e-38
0.0249249457103 -0.0195838859153 0.962 1.09507116949e-38
0.0267608193474 -0.0196246008548 0.964 1.03996903101e-38
0.0287225391613 -0.0197467456734 0.97 7.17719709925e-39
0.0305176978589 -0.0197467456734 0.97 1.09488815991e-38
0.0324127932262 -0.0198078180827 0.973 1.85113236721e-38
0.0343893184726 -0.0199096054315 0.978 1.79549437221e-38
0.0363103233469 -0.0199706778408 0.981 1.09424146067e-38
-0.0638872921641 -0.01726683572 0.933 1.76820086163e-38
-0.0621606085921 -0.01726683572 0.933 5.33112229845e-39
-0.0604339250201 -0.01726683572 0.933 4.86728129637e-39
-0.058518472183 -0.0172113153479 0.93 1.67622425472e-38
-0.0566751958296 -0.0171743017665 0.928 1.6299462328e-38
-0.054957765653 -0.0171743017665 0.928 1.29861902e-38
-0.0530682223228 -0.0171187813945 0.925 1.35354389422e-38
-0.0512453034392 -0.0170817678131 0.923 1.07692323334e-38
-0.0495371266579 -0.0170817678131 0.923 4.04076183095e-39
-0.0478289498766 -0.0170817678131 0.923 9.65249134429e-39
-0.0458709314209 -0.0169892338596 0.918 8.83127439226e-39
-0.0441720080349 -0.0169892338596 0.918 1.26174244961e-38
-0.0423342837187 -0.0169337134875 0.915 1.49212138221e-38
-0.04064091237 -0.0169337134875 0.915 1.43676771066e-38
-0.038862409784 -0.0168966999061 0.913 1.61169263875e-38
-0.0371727397934 -0.0168966999061 0.913 1.15067357151e-38
-0.0353664770214 -0.016841179534 0.91 1.64831305177e-38
-0.033682359068 -0.016841179534 0.91 1.63927145369e-38
-0.03192791531 -0.0168041659526 0.908 1.65778470835e-38
-0.0302474987147 -0.0168041659526 0.908 1.66696769745e-38
-0.0285041590311 -0.0167671523712 0.906 1.65760716384e-38
-0.026827443794 -0.0167671523712 0.906 1.68522675657e-38
-0.0251507285568 -0.0167671523712 0.906 1.70373804941e-38
-0.0234740133197 -0.0167671523712 0.906 1.758948228e-38
-0.0217251215989 -0.0167116319991 0.903 1.73128925878e-38
-0.020053958399 -0.0167116319991 0.903 1.39059702821e-38
-0.018382795199 -0.0167116319991 0.903 1.66711413314e-38
-0.0167116319991 -0.0167116319991 0.903 1.25223183694e-38
-0.0150404687992 -0.0167116319991 0.903 4.49993931174e-39
-0.0133693055993 -0.0167116319991 0.903 5.6938007618e-39
-0.0116981423994 -0.0167116319991 0.903 1.32508800656e-38
-0.0100269791995 -0.0167116319991 0.903 1.25115101543e-38
-0.00838357618561 -0.0167671523712 0.906 1.35234942741e-38
-0.00672166638105 -0.0168041659526 0.908 1.28799283362e-38
-0.0050523538602 -0.016841179534 0.91 1.85056778406e-38
-0.00337933998122 -0.0168966999061 0.913 9.66282872306e-39
-0.00169337134875 -0.0169337134875 0.915 9.19754998876e-39
0.0 -0.017026247441 0.92 1.15013491238e-38
0.00170817678131 -0.0170817678131 0.923 6.79762037773e-39
0.00341635356261 -0.0170817678131 0.923 1.79521341187e-38
0.00515229052996 -0.0171743017665 0.928 1.65691800525e-38
0.00688452613918 -0.0172113153479 0.93 1.70283351125e-38
0.00860565767397 -0.0172113153479 0.93 1.72116529776e-38
0.010360101432 -0.01726683572 0.933 1.91492101474e-38
0.0121515587715 -0.0173593696735 0.938 5.05095228869e-39
0.0139615229016 -0.017451903627 0.943 9.57279389543e-39
0.0157566815992 -0.0175074239991 0.946 8.38003666856e-39
0.0175074239991 -0.0175074239991 0.946 1.21528674305e-38
0.0192988813385 -0.0175444375805 0.948 1.04022518837e-38
0.0211199495431 -0.0175999579526 0.951 1.6032977399e-38
0.0230002394779 -0.0176924919061 0.956 9.7589648042e-39
0.0249249457103 -0.0178035326502 0.962 1.30715629076e-38
0.0268440999056 -0.0178960666037 0.967 5.8821352754e-39
0.0287225391613 -0.0179515869758 0.97 1.33456723016e-38
0.0305176978589 -0.0179515869758 0.97 1.90573900655e-38
0.0324127932262 -0.0180071073479 0.973 1.57383600021e-38
0.0344948071796 -0.0181551616735 0.981 1.09456431983e-38
-0.064229667792 -0.0156234327062 0.938 1.7773137858e-38
-0.0621606085921 -0.015540152148 0.933 6.2530645841e-39
-0.0604339250201 -0.015540152148 0.933 4.86728129637e-39
-0.0587072414481 -0.015540152148 0.933 1.75941738272e-38
-0.0567973406482 -0.0154901838131 0.93 1.45470517179e-38
-0.054957765653 -0.0154568715899 0.928 1.21513652386e-38
-0.0532403354763 -0.0154568715899 0.928 1.47314611945e-38
-0.0513563441834 -0.015406903255 0.925 1.42729983759e-38
-0.0496444660439 -0.015406903255 0.925 1.33528175224e-38
-0.0478289498766 -0.0153735910318 0.923 1.39963694474e-38
-0.0461207730953 -0.0153735910318 0.923 7.7260198467e-39
-0.0441720080349 -0.0152903104736 0.918 9.20041844671e-39
-0.0423342837187 -0.0152403421387 0.915 8.45711649189e-39
-0.04064091237 -0.0152403421387 0.915 1.12294131438e-38
-0.038862409784 -0.0152070299155 0.913 1.18781148406e-38
-0.0371727397934 -0.0152070299155 0.913 1.37183574372e-38
-0.0354830698028 -0.0152070299155 0.913 1.57477178733e-38
-0.033682359068 -0.0151570615806 0.91 1.57470522565e-38
-0.0319982411146 -0.0151570615806 0.91 1.24268605167e-38
-0.0302474987147 -0.0151237493574 0.908 1.39013291816e-38
-0.0285041590311 -0.0150904371341 0.906 1.51971056677e-38
-0.026827443794 -0.0150904371341 0.906 1.67647410623e-38
-0.0251507285568 -0.0150904371341 0.906 1.65771254148e-38
-0.0234740133197 -0.0150904371341 0.906 1.63923810279e-38
-0.0217251215989 -0.0150404687992 0.903 1.69434094191e-38
-0.020053958399 -0.0150404687992 0.903 1.70366966605e-38
-0.018382795199 -0.0150404687992 0.903 1.85121406291e-38
-0.0167116319991 -0.0150404687992 0.903 1.14159904292e-38
-0.0150404687992 -0.0150404687992 0.903 4.13259732711e-39
-0.0133693055993 -0.0150404687992 0.903 6.79619245459e-39
-0.0116981423994 -0.0150404687992 0.903 1.30657853541e-38
-0.0100602914227 -0.0150904371341 0.906 1.28792108713e-38
-0.00840208297631 -0.0151237493574 0.908 1.32476360597e-38
-0.00672166638105 -0.0151237493574 0.908 1.32494339256e-38
-0.0050523538602 -0.0151570615806 0.91 1.52748833376e-38
-0.00337933998122 -0.0152070299155 0.913 7.81785534286e-39
-0.00169337134875 -0.0152403421387 0.915 1.31612179834e-38
0.0 -0.0153735910318 0.923 1.57401046187e-38
0.00171187813945 -0.015406903255 0.925 7.16747348921e-39
0.00342375627889 -0.015406903255 0.925 1.76787267753e-38
0.00515229052996 -0.0154568715899 0.928 1.68449976293e-38
0.00688452613918 -0.0154901838131 0.93 1.70297448188e-38
0.00863341786002 -0.015540152148 0.933 1.63843852188e-38
0.0103823095809 -0.0155734643713 0.935 2.034773652e-38
0.012112694511 -0.0155734643713 0.935 5.32645877716e-39
0.0139615229016 -0.0157067132643 0.943 1.32714665414e-38
0.0157566815992 -0.0157566815992 0.946 7.55564857811e-39
0.0175074239991 -0.0157566815992 0.946 1.44527429299e-38
0.0192988813385 -0.0157899938224 0.948 1.21485514313e-38
0.0210533250966 -0.0157899938224 0.948 1.01310319673e-38
0.0230724159616 -0.0159732110503 0.959 1.07702833072e-38
0.0249767647243 -0.0160564916085 0.964 9.65891629775e-39
0.0268440999056 -0.0161064599433 0.967 1.60246032394e-38
0.0287225391613 -0.0161564282782 0.97 1.8599218717e-38
0.0305176978589 -0.0161564282782 0.97 1.40763023144e-38
0.0324127932262 -0.0162063966131 0.973 1.03892828664e-38
-0.064229667792 -0.0138874957388 0.938 1.73132485176e-38
-0.0622938574851 -0.0138430794411 0.935 6.06939359179e-39
-0.060563472555 -0.0138430794411 0.935 4.13259732711e-39
-0.0587072414481 -0.013813468576 0.933 1.60293564438e-38
-0.0569805578761 -0.013813468576 0.933 1.25187604726e-38
-0.0552538743041 -0.013813468576 0.933 1.26170321326e-38
-0.0532403354763 -0.0137394414132 0.928 1.37202001447e-38
-0.0515229052996 -0.0137394414132 0.928 1.24265648427e-38
-0.0496444660439 -0.0136950251156 0.925 1.47368085494e-38
-0.0479325879045 -0.0136950251156 0.925 1.49198349444e-38
-0.0461207730953 -0.0136654142505 0.923 1.32591267071e-38
-0.0442682433465 -0.0136209979528 0.92 1.45506418445e-38
-0.042473084649 -0.0135913870877 0.918 1.159824611e-38
-0.04064091237 -0.01354697079 0.915 9.28973440823e-39
-0.0389475410212 -0.01354697079 0.915 9.83357273704e-39
-0.0372541696725 -0.01354697079 0.915 1.0671630494e-38
-0.0354830698028 -0.0135173599249 0.913 1.32576903762e-38
-0.0337933998122 -0.0135173599249 0.913 1.3167704594e-38
-0.0319982411146 -0.0134729436272 0.91 1.39020452451e-38
-0.0303141231612 -0.0134729436272 0.91 1.53807556405e-38
-0.0285670821194 -0.0134433327621 0.908 1.20642843481e-38
-0.026827443794 -0.013413721897 0.906 1.15996950527e-38
-0.0251507285568 -0.013413721897 0.906 1.51031317901e-38
-0.0234740133197 -0.013413721897 0.906 1.51959916354e-38
-0.0217972980826 -0.013413721897 0.906 1.70370497877e-38
-0.0201649991431 -0.0134433327621 0.908 1.685228298e-38
-0.0184438676083 -0.013413721897 0.906 1.82341230138e-38
-0.0167671523712 -0.013413721897 0.906 1.05851507606e-38
-0.0150404687992 -0.0133693055993 0.903 3.489748854e-39
-0.0133693055993 -0.0133693055993 0.903 6.61216833506e-39
-0.0116981423994 -0.0133693055993 0.903 1.31579809839e-38
-0.0100602914227 -0.013413721897 0.906 1.2786660713e-38
-0.00840208297631 -0.0134433327621 0.908 1.2972513527e-38
-0.0067364718136 -0.0134729436272 0.91 1.30646755257e-38
-0.00506900997183 -0.0135173599249 0.913 1.27834293187e-38
-0.00339784677192 -0.0135913870877 0.918 1.2972137979e-38
-0.00169892338596 -0.0135913870877 0.918 1.73971582697e-38
0.0 -0.0136654142505 0.923 1.19605069864e-38
0.00171187813945 -0.0136950251156 0.925 1.03027947252e-38
0.00342375627889 -0.0136950251156 0.925 1.7033004239e-38
0.00515229052996 -0.0137394414132 0.928 1.66588155101e-38
0.00688452613918 -0.0137690522784 0.93 1.5460305953e-38
0.00863341786002 -0.013813468576 0.933 1.51851708087e-38
0.0103823095809 -0.0138430794411 0.935 1.93339699486e-38
0.012112694511 -0.0138430794411 0.935 6.06114274643e-39
0.0139171066039 -0.0139171066039 0.94 1.3822759778e-38
0.0157566815992 -0.0140059391993 0.946 7.09070475414e-39
0.0175074239991 -0.0140059391993 0.946 1.27006504145e-38
0.0192988813385 -0.0140355500644 0.948 1.27009615028e-38
0.0210533250966 -0.0140355500644 0.948 1.00351803497e-38
0.0230724159616 -0.0141984098225 0.959 1.16857571991e-38
0.0249767647243 -0.0142724369853 0.964 1.82294020393e-38
0.0268440999056 -0.014316853283 0.967 1.72181606077e-38
0.0287225391613 -0.0143612695806 0.97 1.1220432222e-38
0.0306120824914 -0.0144056858783 0.973 1.16775007486e-38
0.0324127932262 -0.0144056858783 0.973 1.20513153308e-38
-0.064229667792 -0.0121515587715 0.938 1.70359357554e-38
-0.0622938574851 -0.012112694511 0.935 6.89985911368e-39
-0.060563472555 -0.012112694511 0.935 3.67341984632e-39
-0.0588330876248 -0.012112694511 0.935 1.63034350092e-38
-0.0569805578761 -0.012086785004 0.933 1.46438716327e-38
-0.0552538743041 -0.012086785004 0.933 1.37262915891e-38
-0.0533550775786 -0.0120479207436 0.93 1.19687956669e-38
-0.0515229052996 -0.0120220112366 0.928 1.42721688072e-38
-0.049805475123 -0.0120220112366 0.928 1.39110107527e-38
-0.0479325879045 -0.0119831469761 0.925 1.28903764175e-38
-0.046220709765 -0.0119831469761 0.925 1.40835274092e-38
-0.044412596314 -0.0119572374691 0.923 1.60243832356e-38
-0.0427044195327 -0.0119572374691 0.923 1.51016267955e-38
-0.04064091237 -0.0118535994412 0.915 1.50076571218e-38
-0.0389475410212 -0.0118535994412 0.915 1.25230638601e-38
-0.0372541696725 -0.0118535994412 0.915 9.20151566341e-39
-0.0354830698028 -0.0118276899343 0.913 7.99076436297e-39
-0.0337933998122 -0.0118276899343 0.913 9.92757884452e-39
-0.0319982411146 -0.0117888256738 0.91 1.11311246683e-38
-0.0303141231612 -0.0117888256738 0.91 1.44545155725e-38
-0.0285670821194 -0.0117629161668 0.908 1.37183574372e-38
-0.026827443794 -0.0117370066599 0.906 1.76842198653e-38
-0.0251507285568 -0.0117370066599 0.906 1.55665664156e-38
-0.0234740133197 -0.0117370066599 0.906 1.29818868124e-38
-0.0217972980826 -0.0117370066599 0.906 1.65750052502e-38
-0.0201205828455 -0.0117370066599 0.906 1.65771282174e-38
-0.0184438676083 -0.0117370066599 0.906 1.77738721384e-38
-0.0167671523712 -0.0117370066599 0.906 9.84829477871e-39
-0.0150904371341 -0.0117370066599 0.906 4.22443282327e-39
-0.013413721897 -0.0117370066599 0.906 6.42884346347e-39
-0.0117370066599 -0.0117370066599 0.906 1.31594033019e-38
-0.0100602914227 -0.0117370066599 0.906 1.25097164923e-38
-0.00840208297631 -0.0117629161668 0.908 1.34320427337e-38
-0.00675867996244 -0.0118276899343 0.913 1.37096876036e-38
-0.00508011404625 -0.0118535994412 0.915 1.42621242998e-38
-0.00339784677192 -0.0118924637017 0.918 1.46302047687e-38
-0.00170817678131 -0.0119572374691 0.923 1.55514323922e-38
0.0 -0.0119831469761 0.925 9.38013497476e-39
0.00171187813945 -0.0119831469761 0.925 1.20483894196e-38
0.00342375627889 -0.0119831469761 0.925 1.58330191147e-38
0.00515229052996 -0.0120220112366 0.928 1.54595842843e-38
0.00688452613918 -0.0120479207436 0.93 1.54610094049e-38
0.00863341786002 -0.012086785004 0.933 1.46312599465e-38
0.0103823095809 -0.012112694511 0.935 1.74010833066e-38
0.0121515587715 -0.0121515587715 0.938 7.71418167727e-39
0.0139171066039 -0.0121774682784 0.94 7.81964900489e-39
0.0157566815992 -0.0122551967994 0.946 9.48099343173e-39
0.0175074239991 -0.0122551967994 0.946 1.19662929478e-38
0.0192988813385 -0.0122811063063 0.948 8.55218338231e-39
0.0212976147338 -0.0124236085947 0.959 1.29786470104e-38
0.0231927101011 -0.0124883823621 0.964 1.94243396866e-38
0.0250544932452 -0.0125272466226 0.967 1.54620842008e-38
0.0268440999056 -0.0125272466226 0.967 1.04839545907e-38
0.0287225391613 -0.0125661108831 0.97 1.15910434359e-38
0.0306120824914 -0.0126049751435 0.973 1.15939174991e-38
0.0324127932262 -0.0126049751435 0.973 9.74855315661e-39
-0.064229667792 -0.0104156218041 0.938 1.7035229501e-38
-0.0622938574851 -0.0103823095809 0.935 6.6236351604e-39
-0.060563472555 -0.0103823095809 0.935 3.94892633479e-39
-0.0588330876248 -0.0103823095809 0.935 1.62105135067e-38
-0.0571027026947 -0.0103823095809 0.935 1.13205830232e-38
-0.0552538743041 -0.010360101432 0.933 1.12309153358e-38
-0.0535271907321 -0.010360101432 0.933 1.42701046946e-38
-0.0516339460438 -0.0103267892088 0.93 1.47357491678e-38
-0.049805475123 -0.0103045810599 0.928 1.30758550848e-38
-0.0480880449463 -0.0103045810599 0.928 1.42722024384e-38
-0.046220709765 -0.0102712688367 0.925 1.47346827796e-38
-0.0445088316256 -0.0102712688367 0.925 1.36301078638e-38
-0.0427044195327 -0.0102490606878 0.923 1.3531386387e-38
-0.0409962427514 -0.0102490606878 0.923 1.73121793269e-38
-0.0389475410212 -0.0101602280925 0.915 1.32631442298e-38
-0.0372541696725 -0.0101602280925 0.915 1.53803576718e-38
-0.0355607983237 -0.0101602280925 0.915 1.37216070484e-38
-0.033867426975 -0.0101602280925 0.915 1.29808302334e-38
-0.0321037298216 -0.0101380199437 0.913 8.82481720893e-39
-0.0303141231612 -0.0101047077204 0.91 1.09345224937e-38
-0.0286300052078 -0.0101047077204 0.91 5.41829427332e-39
-0.0269458872544 -0.0101047077204 0.91 1.2969659082e-38
-0.0252062489289 -0.0100824995716 0.908 1.63034322066e-38
-0.0234740133197 -0.0100602914227 0.906 1.75941836363e-38
-0.0217972980826 -0.0100602914227 0.906 1.74072616316e-38
-0.0201205828455 -0.0100602914227 0.906 1.69441310878e-38
-0.0184438676083 -0.0100602914227 0.906 1.93408643371e-38
-0.0167671523712 -0.0100602914227 0.906 8.09587295818e-39
-0.0150904371341 -0.0100602914227 0.906 4.13259732711e-39
-0.013413721897 -0.0100602914227 0.906 8.17732903661e-39
-0.0117370066599 -0.0100602914227 0.906 1.2145254176e-38
-0.0100824995716 -0.0100824995716 0.908 1.22320576094e-38
-0.008420589767 -0.0101047077204 0.91 1.3706482834e-38
-0.00675867996244 -0.0101380199437 0.913 1.36167759103e-38
-0.00508011404625 -0.0101602280925 0.915 1.41695713388e-38
-0.00340524948819 -0.0102157484646 0.92 1.42628473698e-38
-0.00170817678131 -0.0102490606878 0.923 1.50922310893e-38
0.0 -0.0102712688367 0.925 1.18683029488e-38
0.00171187813945 -0.0102712688367 0.925 1.36135851536e-38
0.00343486035331 -0.0103045810599 0.928 1.47248919073e-38
0.00516339460438 -0.0103267892088 0.93 1.4261059313e-38
0.00688452613918 -0.0103267892088 0.93 1.40752429327e-38
0.00865192465071 -0.0103823095809 0.935 1.53656160119e-38
0.0103823095809 -0.0103823095809 0.935 1.46380758622e-38
0.0121774682784 -0.0104378299529 0.94 8.36241113648e-39
0.0139615229016 -0.0104711421762 0.943 9.01964253702e-39
0.0157566815992 -0.0105044543995 0.946 8.28245024351e-39
0.0175074239991 -0.0105044543995 0.946 1.03979050559e-38
0.0193599537478 -0.0105599747715 0.951 1.61139416217e-38
0.0213642391803 -0.0106821195901 0.962 1.84159008519e-38
0.0232648865848 -0.0107376399622 0.967 1.32454766588e-38
0.0250544932452 -0.0107376399622 0.967 1.10317557916e-38
0.0269273804637 -0.0107709521855 0.97 1.1314083801e-38
0.0287225391613 -0.0107709521855 0.97 1.16843110591e-38
-0.0663172337826 -0.0087259518135 0.943 1.55582819391e-38
-0.0643666180432 -0.00869819162745 0.94 1.62987238437e-38
-0.0624937308247 -0.00867968483676 0.938 6.06867612697e-39
-0.0607577938573 -0.00867968483676 0.938 4.13259732711e-39
-0.0588330876248 -0.00865192465071 0.935 1.7316861065e-38
-0.0571027026947 -0.00865192465071 0.935 1.55601022258e-38
-0.0553723177646 -0.00865192465071 0.935 1.3165183658e-38
-0.0535271907321 -0.00863341786002 0.933 1.2981476232e-38
-0.0516339460438 -0.00860565767397 0.93 1.04937188384e-38
-0.049912814509 -0.00860565767397 0.93 1.28904338707e-38
-0.0480880449463 -0.00858715088327 0.928 1.59321245473e-38
-0.046220709765 -0.00855939069723 0.925 1.2341929218e-38
-0.0445088316256 -0.00855939069723 0.925 1.24297696123e-38
-0.0427969534861 -0.00855939069723 0.925 1.62079575383e-38
-0.0408629938583 -0.00851312372049 0.92 1.51017024656e-38
-0.039075237877 -0.00849461692979 0.918 1.32559359505e-38
-0.0372541696725 -0.00846685674374 0.915 1.36236114442e-38
-0.0355607983237 -0.00846685674374 0.915 1.39982261678e-38
-0.033867426975 -0.00846685674374 0.915 1.5106709305e-38
-0.0321037298216 -0.00844834995305 0.913 1.45455565324e-38
-0.030414059831 -0.00844834995305 0.913 1.5101995337e-38
-0.0286300052078 -0.008420589767 0.91 8.65160550835e-39
-0.0269458872544 -0.008420589767 0.91 5.05097751206e-39
-0.0252062489289 -0.00840208297631 0.908 2.57139389242e-39
-0.0235258323337 -0.00840208297631 0.908 5.32645877716e-39
-0.0218454157384 -0.00840208297631 0.908 1.38930825401e-38
-0.0201649991431 -0.00840208297631 0.908 1.6580332987e-38
-0.0184845825479 -0.00840208297631 0.908 2.04511425376e-38
-0.0168041659526 -0.00840208297631 0.908 7.72853097355e-39
-0.0151237493574 -0.00840208297631 0.908 3.30607786169e-39
-0.0134433327621 -0.00840208297631 0.908 8.54609193789e-39
-0.0117629161668 -0.00840208297631 0.908 1.15910027983e-38
-0.0100824995716 -0.00840208297631 0.908 1.28788535402e-38
-0.008420589767 -0.008420589767 0.91 1.31540153093e-38
-0.00675867996244 -0.00844834995305 0.913 1.34331385491e-38
-0.00508011404625 -0.00846685674374 0.915 1.34323804466e-38
-0.00340524948819 -0.00851312372049 0.92 1.39862590789e-38
-0.00170817678131 -0.00854088390653 0.923 1.35256466685e-38
0.0 -0.00855939069723 0.925 1.22349274686e-38
0.00171743017665 -0.00858715088327 0.928 1.40755988625e-38
0.00343486035331 -0.00858715088327 0.928 1.31572382958e-38
0.00518005071601 -0.00863341786002 0.933 1.36167731077e-38
0.00690673428801 -0.00863341786002 0.933 1.26941049494e-38
0.00865192465071 -0.00865192465071 0.935 1.68425635738e-38
0.0103823095809 -0.00865192465071 0.935 9.29260426749e-39
0.0121515587715 -0.00867968483676 0.938 8.64401607587e-39
0.0140059391993 -0.00875371199954 0.946 6.43962925775e-39
0.0157899938224 -0.00877221879024 0.948 1.09457160659e-38
0.0175999579526 -0.00879997897629 0.951 1.86903815899e-38
0.0195838859153 -0.00890176632512 0.962 1.71277628438e-38
0.0214752799245 -0.00894803330186 0.967 1.03931952918e-38
0.0232648865848 -0.00894803330186 0.967 1.14030648521e-38
0.0250544932452 -0.00894803330186 0.967 1.11311372799e-38
-0.0663172337826 -0.0069807614508 0.943 1.53739159027e-38
-0.0645720434199 -0.0069807614508 0.943 1.71277838633e-38
-0.0624937308247 -0.00694374786941 0.938 6.99061841262e-39
-0.0607577938573 -0.00694374786941 0.938 3.76525534248e-39
-0.0590218568899 -0.00694374786941 0.938 1.71339173466e-38
-0.0571027026947 -0.00692153972057 0.935 1.69451848643e-38
-0.0553723177646 -0.00692153972057 0.935 1.47335659448e-38
-0.0535271907321 -0.00690673428801 0.933 1.46428192575e-38
-0.0518005071601 -0.00690673428801 0.933 1.28911177044e-38
-0.049912814509 -0.00688452613918 0.93 1.23343313778e-38
-0.0480880449463 -0.00686972070662 0.928 1.36258465152e-38
-0.046220709765 -0.00684751255778 0.925 1.01281060561e-38
-0.0445088316256 -0.00684751255778 0.925 1.58395603759e-38
-0.0427969534861 -0.00684751255778 0.925 1.51956413108e-38
-0.0408629938583 -0.00681049897639 0.92 1.39971149381e-38
-0.0391603691142 -0.00681049897639 0.92 1.3626845641e-38
-0.0373763144911 -0.00679569354383 0.918 1.46446521559e-38
-0.0356773911051 -0.00679569354383 0.918 1.27103389921e-38
-0.033867426975 -0.006773485395 0.915 1.44562756033e-38
-0.0321740556262 -0.006773485395 0.915 1.45459559025e-38
-0.030414059831 -0.00675867996244 0.913 1.48293937402e-38
-0.0287243898404 -0.00675867996244 0.913 1.32603080017e-38
-0.0269458872544 -0.0067364718136 0.91 1.76834757758e-38
-0.025261769301 -0.0067364718136 0.91 1.19706215588e-38
-0.0235258323337 -0.00672166638105 0.908 6.98810728577e-39
-0.0218454157384 -0.00672166638105 0.908 4.95911679253e-39
-0.0201649991431 -0.00672166638105 0.908 3.03057137321e-39
-0.0184845825479 -0.00672166638105 0.908 2.07083564759e-38
-0.0168041659526 -0.00672166638105 0.908 7.45194828785e-39
-0.0151237493574 -0.00672166638105 0.908 3.58158435016e-39
-0.0134433327621 -0.00672166638105 0.908 8.45320827048e-39
-0.0117629161668 -0.00672166638105 0.908 1.27895445852e-38
-0.0100824995716 -0.00672166638105 0.908 1.21412983104e-38
-0.008420589767 -0.0067364718136 0.91 1.23260525064e-38
-0.00675867996244 -0.00675867996244 0.913 1.29685478523e-38
-0.00508011404625 -0.006773485395 0.915 1.32462081366e-38
-0.00340524948819 -0.00681049897639 0.92 1.33401820142e-38
-0.00170817678131 -0.00683270712523 0.923 1.34348957774e-38
0.0 -0.00684751255778 0.925 1.16789230665e-38
0.00171743017665 -0.00686972070662 0.928 1.27888285217e-38
0.00344226306959 -0.00688452613918 0.93 1.30639706726e-38
0.00518005071601 -0.00690673428801 0.933 1.31561663024e-38
0.00690673428801 -0.00690673428801 0.933 1.03892534392e-38
0.00865192465071 -0.00692153972057 0.935 1.85914092807e-38
0.0104156218041 -0.00694374786941 0.938 6.71008967045e-39
0.0121515587715 -0.00694374786941 0.938 7.82039589697e-39
0.0140355500644 -0.00701777503219 0.948 1.32577198034e-38
0.0157899938224 -0.00701777503219 0.948 1.94271815199e-38
0.0178405462316 -0.00713621849265 0.964 1.42606893702e-38
0.0196246008548 -0.00713621849265 0.964 9.6538478012e-39
-0.0663172337826 -0.0052355710881 0.943 1.53753676479e-38
-0.0645720434199 -0.0052355710881 0.943 1.6481727818e-38
-0.0626269797177 -0.00521891497647 0.94 7.72745477633e-39
-0.0608873413922 -0.00521891497647 0.94 3.76525534248e-39
-0.0591477030667 -0.00521891497647 0.94 1.70420538245e-38
-0.0572859199226 -0.00520781090205 0.938 1.5931423898e-38
-0.0553723177646 -0.00519115479043 0.935 1.57480962238e-38
-0.0536419328344 -0.00519115479043 0.935 1.39023983723e-38
-0.0519115479043 -0.00519115479043 0.935 1.24276018036e-38
-0.0500738235881 -0.00518005071601 0.933 1.43615842609e-38
-0.0481916829742 -0.00516339460438 0.93 1.13216816412e-38
-0.0464705514394 -0.00516339460438 0.93 1.20581550686e-38
-0.0447494199046 -0.00516339460438 0.93 1.72203438307e-38
-0.0429357544164 -0.00515229052996 0.928 1.65767358538e-38
-0.0408629938583 -0.00510787423229 0.92 1.18754860047e-38
-0.0391603691142 -0.00510787423229 0.92 1.40936321725e-38
-0.0373763144911 -0.00509677015787 0.918 1.34489606101e-38
-0.0356773911051 -0.00509677015787 0.918 1.29785895571e-38
-0.033867426975 -0.00508011404625 0.915 1.55633069954e-38
-0.0321740556262 -0.00508011404625 0.915 1.62116051182e-38
-0.030414059831 -0.00506900997183 0.913 1.16929472616e-38
-0.0287243898404 -0.00506900997183 0.913 1.52856887501e-38
-0.0270347198498 -0.00506900997183 0.913 1.40853420908e-38
-0.025261769301 -0.0050523538602 0.91 1.64853207472e-38
-0.0235776513476 -0.0050523538602 0.91 1.5196355973e-38
-0.0218935333942 -0.0050523538602 0.91 1.34464200559e-38
-0.0202094154408 -0.0050523538602 0.91 1.04954788693e-38
-0.0185252974874 -0.0050523538602 0.91 1.82366299368e-38
-0.0168041659526 -0.00504124978578 0.908 5.60949864618e-39
-0.0151237493574 -0.00504124978578 0.908 4.31626831943e-39
-0.0134433327621 -0.00504124978578 0.908 9.28296893925e-39
-0.0117629161668 -0.00504124978578 0.908 1.19594405983e-38
-0.0101047077204 -0.0050523538602 0.91 1.20498215467e-38
-0.00844834995305 -0.00506900997183 0.913 1.20508977439e-38
-0.006773485395 -0.00508011404625 0.915 1.2877777343e-38
-0.00509677015787 -0.00509677015787 0.918 1.2786660713e-38
-0.00341635356261 -0.00512453034392 0.923 1.27870236493e-38
-0.00171187813945 -0.00513563441834 0.925 1.20487453494e-38
0.0 -0.00515229052996 0.928 1.55507471572e-38
0.00171743017665 -0.00515229052996 0.928 1.18643737079e-38
0.00344226306959 -0.00516339460438 0.93 1.26040813322e-38
0.00519115479043 -0.00519115479043 0.935 1.14952212457e-38
0.00692153972057 -0.00519115479043 0.935 8.91485904306e-39
0.00865192465071 -0.00519115479043 0.935 1.91442285313e-38
0.0104156218041 -0.00520781090205 0.938 8.17838141176e-39
0.0121515587715 -0.00520781090205 0.938 1.70309163043e-38
0.0140799663621 -0.00527998738577 0.951 1.74946732285e-38
0.0158399621573 -0.00527998738577 0.951 1.14030270171e-38
-0.0663172337826 -0.0034903807254 0.943 1.50055033261e-38
-0.0645720434199 -0.0034903807254 0.943 1.66653707843e-38
-0.0626269797177 -0.00347927665098 0.94 5.97540570119e-39
-0.0608873413922 -0.00347927665098 0.94 3.94892633479e-39
-0.0591477030667 -0.00347927665098 0.94 1.71339117414e-38
-0.0574080647412 -0.00347927665098 0.94 1.61154241955e-38
-0.0555499829552 -0.0034718739347 0.938 1.60246705018e-38
-0.0536419328344 -0.00346076986028 0.935 1.63005217096e-38
