# .PCD v0.7 - Point Cloud Data file format
VERSION 0.7
FIELDS x y z rgb
SIZE 4 4 4 4
TYPE F F F F
COUNT 1 1 1 1
WIDTH 841
HEIGHT 1
VIEWPOINT 0 0 0 1 0 0 0
POINTS 841
DATA ascii
0.0701944064336 -0.0925968765719 0.807 1.23167366743e-38
0.0716879044428 -0.0925968765719 0.807 1.22213166566e-38
0.073181402452 -0.0925968765719 0.807 1.32286708863e-38
0.0746749004612 -0.0925968765719 0.807 1.41498410565e-38
0.0761683984705 -0.0925968765719 0.807 1.45204214419e-38
-0.0394083601096 -0.0924580756417 0.819 2.35044191498e-38
-0.037800119998 -0.0922322927952 0.817 3.21424236553e-39
-0.0362881151981 -0.0922322927952 0.817 8.75533802847e-39
-0.034690979161 -0.0920065099487 0.815 5.1600812092e-39
-0.0331826757192 -0.0920065099487 0.815 2.06350573559e-38
-0.0315966437565 -0.0917807271022 0.813 2.05370813698e-38
-0.0300920416729 -0.0917807271022 0.813 5.5216092065e-39
-0.0286577653939 -0.0920065099487 0.815 8.94371738363e-39
-0.0271494619521 -0.0920065099487 0.815 6.3582740728e-39
-0.0256411585103 -0.0920065099487 0.815 4.31949691109e-39
-0.0241328550685 -0.0920065099487 0.815 7.62234618111e-39
-0.0226800719988 -0.0922322927952 0.817 8.90804312733e-39
-0.0211680671989 -0.0922322927952 0.817 9.45905610427e-39
-0.019656062399 -0.0922322927952 0.817 1.00100690812e-38
-0.0180996413014 -0.0920065099487 0.815 9.27538511196e-39
-0.0165913378596 -0.0920065099487 0.815 9.643085829e-39
-0.0150830344178 -0.0920065099487 0.815 9.73529407055e-39
-0.0135414187528 -0.0917807271022 0.813 9.73635625478e-39
-0.0120368166691 -0.0917807271022 0.813 9.55089160043e-39
-0.0105322145855 -0.0917807271022 0.813 9.55125033284e-39
-0.00902761250186 -0.0917807271022 0.813 1.01937400735e-38
-0.00750450362752 -0.0915549442557 0.811 9.643085829e-39
-0.00600360290201 -0.0915549442557 0.811 9.82819175094e-39
-0.00450270217651 -0.0915549442557 0.811 9.64380329381e-39
-0.00300180145101 -0.0915549442557 0.811 1.05610890647e-38
-0.0015009007255 -0.0915549442557 0.811 1.04696052944e-38
0.0 -0.0915549442557 0.811 1.06547112164e-38
0.0015009007255 -0.0915549442557 0.811 1.0748699107e-38
0.00300180145101 -0.0915549442557 0.811 1.08398171383e-38
0.00450270217651 -0.0915549442557 0.811 1.11178347536e-38
0.00600360290201 -0.0915549442557 0.811 9.55089160043e-39
0.00750450362752 -0.0915549442557 0.811 1.57193135534e-38
0.00900540435302 -0.0915549442557 0.811 1.3506633851e-38
0.0104803955715 -0.0913291614092 0.809 1.11120950351e-38
0.0119775949389 -0.0913291614092 0.809 1.22245564587e-38
0.0134747943063 -0.0913291614092 0.809 1.21319922873e-38
0.0149349800922 -0.0911033785627 0.807 1.18568347222e-38
0.0164284781015 -0.0911033785627 0.807 1.20408532365e-38
0.0179219761107 -0.0911033785627 0.807 1.25021831117e-38
0.0194154741199 -0.0911033785627 0.807 1.24092714183e-38
0.0209089721291 -0.0911033785627 0.807 1.28695250964e-38
0.0224024701384 -0.0911033785627 0.807 1.24111001128e-38
0.0238959681476 -0.0911033785627 0.807 1.25968884671e-38
0.0253894661568 -0.0911033785627 0.807 1.24121412776e-38
0.026882964166 -0.0911033785627 0.807 1.27794846635e-38
0.0283764621753 -0.0911033785627 0.807 1.30567834127e-38
0.0298699601845 -0.0911033785627 0.807 1.31486231128e-38
0.0313634581937 -0.0911033785627 0.807 1.3239036291e-38
0.0327755263239 -0.0908775957162 0.805 1.11185522184e-38
0.034265322975 -0.0908775957162 0.805 2.08934245628e-38
0.035755119626 -0.0908775957162 0.805 1.32383020106e-38
0.0372449162771 -0.0908775957162 0.805 1.12039305313e-38
0.0387347129282 -0.0908775957162 0.805 1.34144480302e-38
0.0402245095793 -0.0908775957162 0.805 1.76665775176e-38
0.0417143062304 -0.0908775957162 0.805 1.8867215647e-38
0.0432041028815 -0.0908775957162 0.805 1.28720362232e-38
0.0446938995326 -0.0908775957162 0.805 1.52644730913e-38
0.0461836961836 -0.0908775957162 0.805 1.96070059479e-38
0.0476734928347 -0.0908775957162 0.805 1.6011356765e-38
0.0491632894858 -0.0908775957162 0.805 1.12154099683e-38
0.0506530861369 -0.0908775957162 0.805 1.27737435437e-38
0.052142882788 -0.0908775957162 0.805 1.22223718344e-38
0.0536326794391 -0.0908775957162 0.805 1.25007678003e-38
0.0551224760902 -0.0908775957162 0.805 1.1856106047e-38
0.0566122727412 -0.0908775957162 0.805 1.22248829612e-38
0.0581020693923 -0.0908775957162 0.805 1.20379833772e-38
0.0595918660434 -0.0908775957162 0.805 1.27730260789e-38
0.0610816626945 -0.0908775957162 0.805 1.18518110672e-38
0.0625714593456 -0.0908775957162 0.805 1.15766857319e-38
0.0640612559967 -0.0908775957162 0.805 1.2310988548e-38
0.0655510526477 -0.0908775957162 0.805 1.24978867306e-38
0.0670408492988 -0.0908775957162 0.805 1.24982510682e-38
0.0685306459499 -0.0908775957162 0.805 1.16699379408e-38
0.0701944064336 -0.0911033785627 0.807 8.81620763117e-39
0.0716879044428 -0.0911033785627 0.807 1.14794370197e-38
0.0730000359032 -0.0908775957162 0.805 1.88345527811e-38
0.0744898325543 -0.0908775957162 0.805 1.74563140843e-38
0.0759796292053 -0.0908775957162 0.805 1.65336179001e-38
0.0774694258564 -0.0908775957162 0.805 1.38671599199e-38
-0.0412238762769 -0.0916086139487 0.825 2.34936109348e-38
-0.0395045954212 -0.091164450972 0.821 2.35047750796e-38
-0.0378926539515 -0.0909423694836 0.819 3.30607786169e-39
-0.0362881151981 -0.0907202879953 0.817 8.84572598332e-39
-0.0347761103982 -0.0907202879953 0.817 4.60726335983e-39
-0.0332641055983 -0.0907202879953 0.817 1.9619621838e-38
-0.0316743722774 -0.0904982065069 0.815 2.05360275934e-38
-0.0301660688356 -0.0904982065069 0.815 1.6204660283e-38
-0.0286577653939 -0.0904982065069 0.815 7.82723283218e-39
-0.0271494619521 -0.0904982065069 0.815 6.27291257555e-39
-0.0256411585103 -0.0904982065069 0.815 8.94441803286e-39
-0.0241328550685 -0.0904982065069 0.815 4.87996444877e-39
-0.0226800719988 -0.0907202879953 0.817 5.41829427332e-39
-0.0211680671989 -0.0907202879953 0.817 8.44886564654e-39
-0.019656062399 -0.0907202879953 0.817 1.02855755697e-38
-0.0180996413014 -0.0904982065069 0.815 9.82639808891e-39
-0.0165913378596 -0.0904982065069 0.815 9.27538511196e-39
-0.0150460208364 -0.0902761250186 0.813 9.45905610427e-39
-0.0135414187528 -0.0902761250186 0.813 9.45905610427e-39
-0.0120368166691 -0.0902761250186 0.813 1.00100690812e-38
-0.0105322145855 -0.0902761250186 0.813 1.00100690812e-38
-0.00902761250186 -0.0902761250186 0.813 1.02855755697e-38
-0.00750450362752 -0.0900540435302 0.811 9.45905610427e-39
-0.00600360290201 -0.0900540435302 0.811 9.82711555372e-39
-0.00450270217651 -0.0900540435302 0.811 1.01937400735e-38
-0.00300180145101 -0.0900540435302 0.811 9.91823358506e-39
-0.0015009007255 -0.0900540435302 0.811 1.02855755697e-38
0.0 -0.0900540435302 0.811 1.02855755697e-38
0.0015009007255 -0.0900540435302 0.811 9.55268526247e-39
0.00300180145101 -0.0900540435302 0.811 1.0469246562e-38
0.00450270217651 -0.0900540435302 0.811 1.19450828943e-38
0.00600360290201 -0.0900540435302 0.811 8.63253663885e-39
0.00750450362752 -0.0900540435302 0.811 2.18982858825e-38
0.00898319620418 -0.0898319620418 0.809 1.9882191539e-38
0.0104803955715 -0.0898319620418 0.809 1.17560197054e-38
0.0119775949389 -0.0898319620418 0.809 1.02855755697e-38
0.013441482083 -0.0896098805535 0.807 1.1849312552e-38
0.0149349800922 -0.0896098805535 0.807 1.2498606998e-38
0.0164284781015 -0.0896098805535 0.807 1.25911529525e-38
0.0179219761107 -0.0896098805535 0.807 1.26851492509e-38
0.0194154741199 -0.0896098805535 0.807 1.22249067833e-38
0.0208571531152 -0.0893877990651 0.805 1.25029005765e-38
0.0223469497663 -0.0893877990651 0.805 1.24110650804e-38
0.0238367464174 -0.0893877990651 0.805 1.24110650804e-38
0.0253265430684 -0.0893877990651 0.805 1.26872890337e-38
0.026882964166 -0.0896098805535 0.807 1.3517052505e-38
0.0283764621753 -0.0896098805535 0.807 1.32418921373e-38
0.0298699601845 -0.0896098805535 0.807 1.36092355232e-38
0.0313634581937 -0.0896098805535 0.807 1.35163336389e-38
0.0327755263239 -0.0893877990651 0.805 1.22259605597e-38
0.034265322975 -0.0893877990651 0.805 1.59079885825e-38
0.035755119626 -0.0893877990651 0.805 2.03374019439e-38
0.0372449162771 -0.0893877990651 0.805 1.93278757016e-38
0.0387347129282 -0.0893877990651 0.805 1.47152033297e-38
0.0402245095793 -0.0893877990651 0.805 1.23095676313e-38
0.0417143062304 -0.0893877990651 0.805 1.60924541111e-38
0.0432041028815 -0.0893877990651 0.805 1.96962854757e-38
0.0446938995326 -0.0893877990651 0.805 1.63791023236e-38
0.0460689540813 -0.0891657175768 0.803 1.3698914421e-38
0.0475550493743 -0.0891657175768 0.803 1.77537522951e-38
0.0490411446672 -0.0891657175768 0.803 1.54578873119e-38
0.0505272399602 -0.0891657175768 0.803 1.42582356966e-38
0.0520133352531 -0.0891657175768 0.803 1.33290613096e-38
0.0534994305461 -0.0891657175768 0.803 1.29509573527e-38
0.054985525839 -0.0891657175768 0.803 1.2405335171e-38
0.0564716211319 -0.0891657175768 0.803 1.26840674485e-38
0.0581020693923 -0.0893877990651 0.805 1.25007579912e-38
0.0595918660434 -0.0893877990651 0.805 1.22245242288e-38
0.0610816626945 -0.0893877990651 0.805 1.18518110672e-38
0.0625714593456 -0.0893877990651 0.805 1.17614119019e-38
0.0639020975967 -0.0891657175768 0.803 1.14851767383e-38
0.0653881928896 -0.0891657175768 0.803 1.23116962037e-38
0.0670408492988 -0.0893877990651 0.805 1.25882844946e-38
0.0685306459499 -0.0893877990651 0.805 8.54070114269e-39
0.070020442601 -0.0893877990651 0.805 1.52529726349e-38
0.0715102392521 -0.0893877990651 0.805 2.35039595239e-38
0.0730000359032 -0.0893877990651 0.805 2.34760036196e-38
0.0744898325543 -0.0893877990651 0.805 2.2556470166e-38
0.0759796292053 -0.0893877990651 0.805 2.34806391149e-38
0.0776618964797 -0.0896098805535 0.807 2.34907032405e-38
0.0791553944889 -0.0896098805535 0.807 2.34871229229e-38
0.0806488924981 -0.0896098805535 0.807 2.11609884916e-38
-0.0412238762769 -0.0900818037162 0.825 2.34954158072e-38
-0.0395045954212 -0.0896450434558 0.821 2.35029744111e-38
-0.037985187905 -0.0896450434558 0.821 3.489748854e-39
-0.0363769477935 -0.0894266633256 0.819 1.04040693678e-38
-0.0347761103982 -0.0892082831954 0.817 4.97637518442e-39
-0.0332641055983 -0.0892082831954 0.817 1.9250874351e-38
-0.0316743722774 -0.0889899030651 0.815 1.86949806515e-38
-0.0301660688356 -0.0889899030651 0.815 2.15501444894e-38
-0.0286577653939 -0.0889899030651 0.815 1.22410259195e-38
-0.0271494619521 -0.0889899030651 0.815 7.73151994317e-39
-0.0256411585103 -0.0889899030651 0.815 6.17819881235e-39
-0.0241328550685 -0.0889899030651 0.815 1.2896585571e-38
-0.0226800719988 -0.0892082831954 0.817 1.09601214141e-38
-0.0211680671989 -0.0892082831954 0.817 3.03315536758e-39
-0.019656062399 -0.0892082831954 0.817 6.3366492349e-39
-0.0180996413014 -0.0889899030651 0.815 8.54070114269e-39
-0.0165913378596 -0.0889899030651 0.815 9.09171411964e-39
-0.0150460208364 -0.0887715229349 0.813 9.643085829e-39
-0.0135414187528 -0.0887715229349 0.813 9.55160906524e-39
-0.0120368166691 -0.0887715229349 0.813 1.03774110659e-38
-0.0105322145855 -0.0887715229349 0.813 1.01019045774e-38
-0.00902761250186 -0.0887715229349 0.813 9.55089160043e-39
-0.00750450362752 -0.0885531428047 0.811 9.91823358506e-39
-0.00600360290201 -0.0885531428047 0.811 1.01937400735e-38
-0.00450270217651 -0.0885531428047 0.811 1.03774110659e-38
-0.00300180145101 -0.0885531428047 0.811 1.03774110659e-38
-0.0015009007255 -0.0885531428047 0.811 1.02859343021e-38
0.0 -0.0883347626745 0.809 1.05621582554e-38
0.00149719936736 -0.0883347626745 0.809 9.73744226109e-39
0.00300180145101 -0.0885531428047 0.811 1.07465467125e-38
0.00450270217651 -0.0885531428047 0.811 9.09171411964e-39
0.00600360290201 -0.0885531428047 0.811 2.04399335512e-38
0.00750450362752 -0.0885531428047 0.811 7.71525787449e-39
0.00898319620418 -0.0883347626745 0.809 1.56292577063e-38
0.0104803955715 -0.0883347626745 0.809 2.13629618431e-38
0.0119775949389 -0.0883347626745 0.809 1.59224808112e-38
0.013441482083 -0.0881163825442 0.807 1.25814629736e-38
0.0149349800922 -0.0881163825442 0.807 1.17574546351e-38
0.0164284781015 -0.0881163825442 0.807 1.22223858474e-38
0.0179219761107 -0.0881163825442 0.807 1.22252444962e-38
0.0193673564641 -0.087898002414 0.805 1.23174555404e-38
0.0208571531152 -0.087898002414 0.805 1.28713201597e-38
0.0223469497663 -0.087898002414 0.805 1.27791623649e-38
0.0238367464174 -0.087898002414 0.805 1.25039767738e-38
0.0253265430684 -0.087898002414 0.805 1.31475469156e-38
0.0268163397195 -0.087898002414 0.805 1.31489930556e-38
0.0283061363706 -0.087898002414 0.805 1.27794902687e-38
0.0297959330217 -0.087898002414 0.805 1.29617277327e-38
0.0312857296728 -0.087898002414 0.805 1.30535548211e-38
0.0327755263239 -0.087898002414 0.805 1.29631626623e-38
0.034265322975 -0.087898002414 0.805 1.27773308678e-38
0.035755119626 -0.087898002414 0.805 1.17603244943e-38
0.0372449162771 -0.087898002414 0.805 1.76594322967e-38
0.0386384776166 -0.0876796222838 0.803 1.80314013689e-38
0.0401245729095 -0.0876796222838 0.803 1.32326127389e-38
0.0416106682025 -0.0876796222838 0.803 1.24096539728e-38
0.0430967634954 -0.0876796222838 0.803 1.2222013102e-38
0.0445828587884 -0.0876796222838 0.803 1.41530696481e-38
0.0460689540813 -0.0876796222838 0.803 2.12572044467e-38
0.0475550493743 -0.0876796222838 0.803 1.32419355775e-38
0.0490411446672 -0.0876796222838 0.803 1.29596047655e-38
0.0505272399602 -0.0876796222838 0.803 1.62804200832e-38
0.0520133352531 -0.0876796222838 0.803 1.87769748285e-38
0.0534994305461 -0.0876796222838 0.803 1.45340434642e-38
0.054985525839 -0.0876796222838 0.803 1.2214120989e-38
0.0564716211319 -0.0876796222838 0.803 1.24932148016e-38
0.0579577164249 -0.0876796222838 0.803 1.30482004596e-38
0.0594438117178 -0.0876796222838 0.803 1.19483002755e-38
0.0609299070108 -0.0876796222838 0.803 1.20415721026e-38
0.0624160023037 -0.0876796222838 0.803 1.2316359725e-38
0.0639020975967 -0.0876796222838 0.803 1.20401357717e-38
0.0653881928896 -0.0876796222838 0.803 1.24996719849e-38
0.0668742881826 -0.0876796222838 0.803 8.99987862348e-39
0.0683603834755 -0.0876796222838 0.803 9.36722060812e-39
0.070020442601 -0.087898002414 0.805 2.35025358047e-38
0.0715102392521 -0.087898002414 0.805 2.34762432416e-38
0.0730000359032 -0.087898002414 0.805 2.35040842395e-38
0.0744898325543 -0.087898002414 0.805 1.11207046129e-38
0.0759796292053 -0.087898002414 0.805 2.35047722771e-38
0.0774694258564 -0.087898002414 0.805 2.35097931294e-38
0.0789592225075 -0.087898002414 0.805 2.10946720418e-38
0.0804490191586 -0.087898002414 0.805 2.15186825363e-38
0.081735241112 -0.0876796222838 0.803 2.34726292929e-38
-0.0413238129467 -0.0887696722558 0.827 2.34953975903e-38
-0.0396008307328 -0.0883403147117 0.823 2.35044149459e-38
-0.037985187905 -0.0881256359396 0.821 8.64652720272e-39
-0.0364657803888 -0.0881256359396 0.821 1.0216804045e-38
-0.0348612416354 -0.0879109571675 0.819 5.99020201167e-39
-0.0333455354773 -0.0879109571675 0.819 1.76832025226e-38
-0.0317521007983 -0.0876962783954 0.817 2.05389212747e-38
-0.0301660688356 -0.0874815996233 0.815 1.30736438359e-38
-0.0286577653939 -0.0874815996233 0.815 2.02641294485e-38
-0.0271494619521 -0.0874815996233 0.815 7.35975405929e-39
-0.0256411585103 -0.0874815996233 0.815 1.38977418575e-39
-0.0241328550685 -0.0874815996233 0.815 2.06361419609e-38
-0.0226800719988 -0.0876962783954 0.817 1.69425728439e-38
-0.0211162481849 -0.0874815996233 0.815 6.81555699807e-39
-0.0196079447432 -0.0874815996233 0.815 1.04181089772e-38
-0.0180996413014 -0.0874815996233 0.815 3.31111412837e-39
-0.0165913378596 -0.0874815996233 0.815 7.16317850941e-39
-0.0150460208364 -0.0872669208513 0.813 8.72437213501e-39
-0.0135414187528 -0.0872669208513 0.813 9.36722060812e-39
-0.0120368166691 -0.0872669208513 0.813 9.45905610427e-39
-0.0105322145855 -0.0872669208513 0.813 1.00100690812e-38
-0.00900540435302 -0.0870522420792 0.811 1.02855755697e-38
-0.00750450362752 -0.0870522420792 0.811 1.00100690812e-38
-0.00598879746946 -0.0868375633071 0.809 1.05610820582e-38
-0.00449159810209 -0.0868375633071 0.809 1.03774110659e-38
-0.00299439873473 -0.0868375633071 0.809 1.01937400735e-38
-0.00149719936736 -0.0868375633071 0.809 1.02859343021e-38
0.0 -0.0868375633071 0.809 1.00100690812e-38
0.00149719936736 -0.0868375633071 0.809 1.06529175543e-38
0.00299439873473 -0.0868375633071 0.809 1.05610820582e-38
0.00449159810209 -0.0868375633071 0.809 8.90804312733e-39
0.00598879746946 -0.0868375633071 0.809 1.7027271527e-38
0.00748599683682 -0.0868375633071 0.809 1.99811988807e-38
0.00898319620418 -0.0868375633071 0.809 1.0854525167e-38
0.0104803955715 -0.0868375633071 0.809 1.1020259539e-38
0.0119479840738 -0.086622884535 0.807 1.25814629736e-38
0.013441482083 -0.086622884535 0.807 2.22652102802e-38
0.0149349800922 -0.086622884535 0.807 1.48242621853e-38
0.0163877631619 -0.0864082057629 0.805 1.00219072506e-38
0.017877559813 -0.0864082057629 0.805 1.16631080121e-38
0.0193673564641 -0.0864082057629 0.805 1.2401020573e-38
0.0208571531152 -0.0864082057629 0.805 1.28677426447e-38
0.0223469497663 -0.0864082057629 0.805 1.26847779068e-38
0.0238367464174 -0.0864082057629 0.805 1.24110650804e-38
0.0253265430684 -0.0864082057629 0.805 1.29624592105e-38
0.0268163397195 -0.0864082057629 0.805 1.25007678003e-38
0.0283061363706 -0.0864082057629 0.805 1.02855755697e-38
0.0297959330217 -0.0864082057629 0.805 1.07447530505e-38
0.0312857296728 -0.0864082057629 0.805 1.56120343469e-38
0.0327755263239 -0.0864082057629 0.805 1.53365278584e-38
0.034265322975 -0.0864082057629 0.805 1.34241380091e-38
0.035755119626 -0.0864082057629 0.805 1.36081789442e-38
0.0371523823236 -0.0861935269909 0.803 1.30532255159e-38
0.0386384776166 -0.0861935269909 0.803 1.3147220413e-38
0.0401245729095 -0.0861935269909 0.803 1.37925884208e-38
0.0416106682025 -0.0861935269909 0.803 1.25965633659e-38
0.0430967634954 -0.0861935269909 0.803 1.30560799609e-38
0.0445828587884 -0.0861935269909 0.803 1.36967746383e-38
0.0460689540813 -0.0861935269909 0.803 1.16681302658e-38
0.0475550493743 -0.0861935269909 0.803 1.61842994163e-38
0.0490411446672 -0.0861935269909 0.803 1.85034749994e-38
0.0505272399602 -0.0861935269909 0.803 1.43565073566e-38
0.0520133352531 -0.0861935269909 0.803 1.02023678682e-38
0.0534994305461 -0.0861935269909 0.803 2.04341882275e-38
0.054985525839 -0.0861935269909 0.803 1.97905564285e-38
0.0564716211319 -0.0861935269909 0.803 1.23206645139e-38
0.0579577164249 -0.0861935269909 0.803 1.25815008087e-38
0.0594438117178 -0.0861935269909 0.803 1.21276734855e-38
0.0609299070108 -0.0861935269909 0.803 1.20415707013e-38
0.0624160023037 -0.0861935269909 0.803 1.19468653459e-38
0.0638225183967 -0.0860861876048 0.802 1.24996719849e-38
0.0653067630106 -0.0860861876048 0.802 1.01937400735e-38
0.0668742881826 -0.0861935269909 0.803 8.26519465422e-39
0.0683603834755 -0.0861935269909 0.803 2.35014764231e-38
0.070020442601 -0.0864082057629 0.805 1.76640481739e-38
0.0715102392521 -0.0864082057629 0.805 2.35080555194e-38
0.0730000359032 -0.0864082057629 0.805 2.35098043398e-38
0.0744898325543 -0.0864082057629 0.805 4.22448467131e-39
0.0759796292053 -0.0864082057629 0.805 4.86731072364e-39
0.0774694258564 -0.0864082057629 0.805 1.97792031084e-38
0.0789592225075 -0.0864082057629 0.805 2.35093979633e-38
0.0802491458191 -0.0861935269909 0.803 2.35011471179e-38
0.081735241112 -0.0861935269909 0.803 2.34925123168e-38
0.083221336405 -0.0861935269909 0.803 1.77419239347e-38
-0.0414237496164 -0.0874501380792 0.829 2.34914277118e-38
-0.0397933013561 -0.0872391606652 0.827 2.35022499398e-38
-0.038170255812 -0.0870281832513 0.825 1.68558422781e-38
-0.0365546129841 -0.0868172058373 0.823 9.65213821708e-39
-0.0350315041098 -0.0868172058373 0.823 7.09582650002e-39
-0.0333455354773 -0.0863952510095 0.819 1.42762830195e-38
-0.0318298293193 -0.0863952510095 0.819 2.21069280134e-38
-0.0302400959984 -0.0861842735955 0.817 8.56150762229e-39
-0.0287280911985 -0.0861842735955 0.817 1.63989054735e-38
-0.0272160863986 -0.0861842735955 0.817 1.76866651311e-38
-0.0256411585103 -0.0859732961816 0.815 1.46936793853e-39
-0.0241328550685 -0.0859732961816 0.815 1.9346882914e-38
-0.0226245516267 -0.0859732961816 0.815 2.09015436861e-38
-0.0211162481849 -0.0859732961816 0.815 5.23856933748e-39
-0.0196079447432 -0.0859732961816 0.815 2.87033709771e-39
-0.0180996413014 -0.0859732961816 0.815 8.02102260071e-39
-0.0165913378596 -0.0859732961816 0.815 1.01361116742e-38
-0.0150460208364 -0.0857623187676 0.813 3.77063632858e-39
-0.0135414187528 -0.0857623187676 0.813 7.62234618111e-39
-0.0120368166691 -0.0857623187676 0.813 9.1835496158e-39
-0.0105063050785 -0.0855513413537 0.811 9.91823358506e-39
-0.00900540435302 -0.0855513413537 0.811 1.00100690812e-38
-0.00750450362752 -0.0855513413537 0.811 9.91823358506e-39
-0.00598879746946 -0.0853403639397 0.809 1.05610820582e-38
-0.00449159810209 -0.0853403639397 0.809 1.00100690812e-38
-0.00298699601845 -0.0851293865258 0.807 9.82711555372e-39
-0.00149349800922 -0.0851293865258 0.807 1.01940988059e-38
0.0 -0.0851293865258 0.807 1.02855755697e-38
0.00149349800922 -0.0851293865258 0.807 1.05610820582e-38
0.00299439873473 -0.0853403639397 0.809 1.02855755697e-38
0.00449159810209 -0.0853403639397 0.809 9.45977356909e-39
0.00598879746946 -0.0853403639397 0.809 8.0815236619e-39
0.00746749004612 -0.0851293865258 0.807 9.1835496158e-39
0.00896098805535 -0.0851293865258 0.807 1.74804556543e-38
0.0104544860646 -0.0851293865258 0.807 1.73003747886e-38
0.0119479840738 -0.0851293865258 0.807 1.360317771e-38
0.0134081698598 -0.0849184091119 0.805 1.16631080121e-38
0.0148979665109 -0.0849184091119 0.805 1.51845402243e-38
0.0163877631619 -0.0849184091119 0.805 1.84153123066e-38
0.017877559813 -0.0849184091119 0.805 1.77694958833e-38
0.0193673564641 -0.0849184091119 0.805 1.16821208296e-38
0.0208571531152 -0.0849184091119 0.805 1.15712725159e-38
0.0223469497663 -0.0849184091119 0.805 1.25904312838e-38
0.0238367464174 -0.0849184091119 0.805 1.25007678003e-38
0.0253265430684 -0.0849184091119 0.805 1.29624592105e-38
0.026749715273 -0.0847074316979 0.803 1.01937400735e-38
0.028235810566 -0.0847074316979 0.803 2.34850616129e-38
0.0297219058589 -0.0847074316979 0.803 2.3509730071e-38
0.0312080011519 -0.0847074316979 0.803 2.35098211554e-38
0.0326940964448 -0.0847074316979 0.803 1.01019045774e-38
0.0341801917378 -0.0847074316979 0.803 1.54384302827e-38
0.0356662870307 -0.0847074316979 0.803 1.3425935875e-38
0.0371523823236 -0.0847074316979 0.803 1.34259330724e-38
0.0386384776166 -0.0847074316979 0.803 1.31511440487e-38
0.0401245729095 -0.0847074316979 0.803 1.38873049866e-38
0.0416106682025 -0.0847074316979 0.803 1.37965526941e-38
0.0430967634954 -0.0847074316979 0.803 1.37039492864e-38
0.0445273384163 -0.0846019429909 0.802 1.39740874005e-38
0.0460115830302 -0.0846019429909 0.802 1.34241506207e-38
0.047495827644 -0.0846019429909 0.802 1.2686215639e-38
0.0489800722579 -0.0846019429909 0.802 1.21301776058e-38
0.0504643168718 -0.0846019429909 0.802 1.55464675917e-38
0.0519485614857 -0.0846019429909 0.802 1.57333853926e-38
0.0534328060995 -0.0846019429909 0.802 1.50847943984e-38
0.054985525839 -0.0847074316979 0.803 1.23152877316e-38
0.0564716211319 -0.0847074316979 0.803 1.77512972202e-38
0.0578855399412 -0.0846019429909 0.802 1.67452896383e-38
0.059369784555 -0.0846019429909 0.802 1.31543586274e-38
0.0608540291689 -0.0846019429909 0.802 1.09320113669e-38
0.0623382737828 -0.0846019429909 0.802 1.27715911493e-38
0.0636633599967 -0.084390965577 0.8 1.11160410916e-38
0.0651439032524 -0.084390965577 0.8 8.99987862348e-39
0.0666244465082 -0.084390965577 0.8 2.34842460571e-38
0.0682752522383 -0.0846019429909 0.802 1.82090453765e-38
0.0698464787685 -0.0847074316979 0.803 2.35047610667e-38
0.0713325740614 -0.0847074316979 0.803 2.35098085437e-38
0.0728186693543 -0.0847074316979 0.803 8.08188239431e-39
0.0744898325543 -0.0849184091119 0.805 2.34644204865e-38
0.0759796292053 -0.0849184091119 0.805 2.34883014149e-38
0.0772769552332 -0.0847074316979 0.803 2.15625221588e-38
0.0786649645354 -0.0846019429909 0.802 2.35098351684e-38
0.0801492091493 -0.0846019429909 0.802 2.35098169515e-38
0.0816334537632 -0.0846019429909 0.802 2.35090238166e-38
0.0831176983771 -0.0846019429909 0.802 2.35098057411e-38
0.0846019429909 -0.0846019429909 0.802 2.21988938304e-38
0.0858715088327 -0.084390965577 0.8 2.1055103577e-38
0.0873520520885 -0.084390965577 0.8 2.34694945882e-38
-0.0397933013561 -0.0857086490746 0.827 2.34982828639e-38
-0.0382627897654 -0.0857086490746 0.827 2.27567339334e-38
-0.0366434455795 -0.0855013730188 0.825 6.79582671569e-39
-0.0350315041098 -0.085294096963 0.823 1.07764560269e-38
-0.0333455354773 -0.0848795448514 0.819 8.84177572295e-39
-0.0318298293193 -0.0848795448514 0.819 2.13708077133e-38
-0.0302400959984 -0.0846722687956 0.817 1.67596193164e-38
-0.0287280911985 -0.0846722687956 0.817 4.22945507696e-39
-0.0272160863986 -0.0846722687956 0.817 2.02688167918e-38
-0.0256411585103 -0.0844649927398 0.815 8.55253931212e-39
-0.0241328550685 -0.0844649927398 0.815 2.04428734754e-38
-0.0226245516267 -0.0844649927398 0.815 2.12739709829e-38
-0.0211162481849 -0.0844649927398 0.815 6.34776993951e-39
-0.0196079447432 -0.0844649927398 0.815 1.57529208945e-39
-0.0180996413014 -0.0844649927398 0.815 1.25335862103e-38
-0.0165913378596 -0.0844649927398 0.815 1.41857843621e-38
-0.0150460208364 -0.084257716684 0.813 1.00356273639e-38
-0.0135414187528 -0.084257716684 0.813 8.47194082835e-39
-0.012007205804 -0.0840504406282 0.811 5.24108046433e-39
-0.0105063050785 -0.0840504406282 0.811 8.54070114269e-39
-0.00900540435302 -0.0840504406282 0.811 9.27538511196e-39
-0.00748599683682 -0.0838431645724 0.809 9.64272709659e-39
-0.00598879746946 -0.0838431645724 0.809 1.05610848608e-38
-0.00448049402767 -0.0836358885166 0.807 1.01937400735e-38
-0.00298699601845 -0.0836358885166 0.807 1.01019045774e-38
-0.00149349800922 -0.0836358885166 0.807 1.00100690812e-38
0.0 -0.0836358885166 0.807 1.03774110659e-38
0.00149349800922 -0.0836358885166 0.807 1.02855755697e-38
0.00298699601845 -0.0836358885166 0.807 9.91823358506e-39
0.00448049402767 -0.0836358885166 0.807 9.09171411964e-39
0.0059739920369 -0.0836358885166 0.807 9.36793807293e-39
0.00746749004612 -0.0836358885166 0.807 9.1835496158e-39
0.00896098805535 -0.0836358885166 0.807 8.54070114269e-39
0.0104285765576 -0.0834286124608 0.805 1.24903449423e-38
0.0119183732087 -0.0834286124608 0.805 1.45164655763e-38
0.0134081698598 -0.0834286124608 0.805 1.98688301582e-38
0.0148979665109 -0.0834286124608 0.805 1.07540800931e-38
0.0163877631619 -0.0834286124608 0.805 1.13876015236e-38
0.017877559813 -0.0834286124608 0.805 1.68418657272e-38
0.0193673564641 -0.0834286124608 0.805 2.03553918135e-38
0.0208571531152 -0.0834286124608 0.805 1.35189274424e-38
0.0223469497663 -0.0834286124608 0.805 1.11167641616e-38
0.0237775246871 -0.083221336405 0.803 1.32361692344e-38
0.0252636199801 -0.083221336405 0.803 1.24096679858e-38
0.026749715273 -0.083221336405 0.803 1.19472493017e-38
0.028235810566 -0.083221336405 0.803 1.21222854929e-38
0.0297219058589 -0.083221336405 0.803 2.34849439038e-38
0.0312080011519 -0.083221336405 0.803 2.35087421556e-38
0.0326940964448 -0.083221336405 0.803 7.62844463203e-39
0.0341801917378 -0.083221336405 0.803 1.50693016425e-38
0.0356662870307 -0.083221336405 0.803 1.30575008776e-38
0.0371523823236 -0.083221336405 0.803 1.36106662489e-38
0.0386384776166 -0.083221336405 0.803 1.32437054175e-38
0.0401245729095 -0.083221336405 0.803 1.35199195617e-38
0.0416106682025 -0.083221336405 0.803 1.46212154391e-38
0.0430967634954 -0.083221336405 0.803 1.38869084191e-38
0.0445273384163 -0.0831176983771 0.802 1.44422331914e-38
0.0460115830302 -0.0831176983771 0.802 1.40720213476e-38
0.047495827644 -0.0831176983771 0.802 1.37943652672e-38
0.0489800722579 -0.0831176983771 0.802 1.24107105519e-38
0.0504643168718 -0.0831176983771 0.802 1.13876015236e-38
0.0519485614857 -0.0831176983771 0.802 1.25814629736e-38
0.0534328060995 -0.0831176983771 0.802 1.58158195773e-38
0.0549170507134 -0.0831176983771 0.802 1.91481409567e-38
0.0564012953273 -0.0831176983771 0.802 1.24225823525e-38
0.0577411869737 -0.0829104223213 0.8 1.2780228753e-38
0.0592217302295 -0.0829104223213 0.8 1.9331408375e-38
0.0607022734852 -0.0829104223213 0.8 1.52789092681e-38
0.0621828167409 -0.0829104223213 0.8 1.15770122344e-38
0.0636633599967 -0.0829104223213 0.8 9.27538511196e-39
0.0651439032524 -0.0829104223213 0.8 2.34551424893e-38
0.0666244465082 -0.0829104223213 0.8 2.34695534427e-38
0.0681049897639 -0.0829104223213 0.8 2.35067649235e-38
0.0697594968522 -0.0831176983771 0.802 2.3509434397e-38
0.0712437414661 -0.0831176983771 0.802 7.53053590833e-39
0.0727279860799 -0.0831176983771 0.802 2.34573018903e-38
0.0742122306938 -0.0831176983771 0.802 1.11122183494e-38
0.0757908599402 -0.083221336405 0.803 1.89554287867e-38
0.0772769552332 -0.083221336405 0.803 4.40810381558e-39
0.0786649645354 -0.0831176983771 0.802 2.35096151645e-38
0.0801492091493 -0.0831176983771 0.802 2.3506903652e-38
0.0816334537632 -0.0831176983771 0.802 2.35097805178e-38
0.0831176983771 -0.0831176983771 0.802 2.35097777152e-38
0.0846019429909 -0.0831176983771 0.802 2.35097749126e-38
0.0858715088327 -0.0829104223213 0.8 2.22071727017e-38
0.0873520520885 -0.0829104223213 0.8 2.07760784281e-38
0.0888325953442 -0.0829104223213 0.8 2.34482452983e-38
0.0903131385999 -0.0829104223213 0.8 2.34741525043e-38
0.0917936818557 -0.0829104223213 0.8 1.91348328251e-38
-0.0397933013561 -0.084178137484 0.827 2.34954017942e-38
-0.0382627897654 -0.084178137484 0.827 2.35026100735e-38
-0.0367322781748 -0.084178137484 0.827 7.62234618111e-39
-0.035116635347 -0.0839745627863 0.825 9.10323139172e-39
-0.0334269653564 -0.083567413391 0.821 1.01270466744e-38
-0.0318298293193 -0.0833638386933 0.819 1.36269325215e-38
-0.0302400959984 -0.0831602639957 0.817 1.72213990085e-38
-0.0287280911985 -0.0831602639957 0.817 6.99714145697e-39
-0.0272160863986 -0.0831602639957 0.817 1.00399335541e-38
-0.0257040815987 -0.0831602639957 0.817 1.93400880177e-38
-0.0241920767987 -0.0831602639957 0.817 1.8783587556e-38
-0.0226800719988 -0.0831602639957 0.817 2.18256551818e-38
-0.0211162481849 -0.082956689298 0.815 7.36226518613e-39
-0.0196079447432 -0.082956689298 0.815 3.0453620785e-39
-0.0180996413014 -0.082956689298 0.815 1.28022571649e-38
-0.0165913378596 -0.082956689298 0.815 1.96198026055e-38
-0.0150460208364 -0.0827531146003 0.813 1.81421740125e-38
-0.0135081065295 -0.0825495399027 0.811 1.26166187495e-38
-0.012007205804 -0.0825495399027 0.811 1.03150504816e-38
-0.0105063050785 -0.0825495399027 0.811 7.73330519741e-39
-0.00900540435302 -0.0825495399027 0.811 5.23462328101e-39
-0.00748599683682 -0.082345965205 0.809 7.80601717343e-39
-0.0059739920369 -0.0821423905073 0.807 9.45905610427e-39
-0.00448049402767 -0.0821423905073 0.807 1.01937400735e-38
-0.00298699601845 -0.0821423905073 0.807 1.02855755697e-38
-0.00149349800922 -0.0821423905073 0.807 1.01937400735e-38
0.0 -0.0821423905073 0.807 1.0010077489e-38
0.00149349800922 -0.0821423905073 0.807 1.03774110659e-38
0.00298699601845 -0.0821423905073 0.807 1.01937400735e-38
0.00448049402767 -0.0821423905073 0.807 1.00100690812e-38
0.00595918660434 -0.0819388158097 0.805 9.91930978228e-39
0.00744898325543 -0.0819388158097 0.805 1.00136564053e-38
0.00893877990651 -0.0819388158097 0.805 9.27610257677e-39
0.0104285765576 -0.0819388158097 0.805 9.91823358506e-39
0.0119183732087 -0.0819388158097 0.805 9.1835496158e-39
0.0134081698598 -0.0819388158097 0.805 1.36017245634e-38
0.0148979665109 -0.0819388158097 0.805 1.1387612734e-38
0.0163877631619 -0.0819388158097 0.805 2.00728872405e-38
0.017877559813 -0.0819388158097 0.805 1.23292740916e-38
0.0193673564641 -0.0819388158097 0.805 1.07447530505e-38
0.0208571531152 -0.0819388158097 0.805 2.19965869698e-38
0.0223469497663 -0.0819388158097 0.805 2.02574074197e-38
0.0237775246871 -0.081735241112 0.803 1.02956200771e-38
0.0252636199801 -0.081735241112 0.803 1.57200800637e-38
0.026749715273 -0.081735241112 0.803 1.31374982043e-38
0.028235810566 -0.081735241112 0.803 1.2223459242e-38
0.0297219058589 -0.081735241112 0.803 9.36722060812e-39
0.0312080011519 -0.081735241112 0.803 1.47952342876e-38
0.0326940964448 -0.081735241112 0.803 1.53602868738e-38
0.0341801917378 -0.081735241112 0.803 1.41530696481e-38
0.0356662870307 -0.081735241112 0.803 1.35185028489e-38
0.0371061153469 -0.0816334537632 0.802 1.42549678686e-38
0.0385903599608 -0.0816334537632 0.802 1.33352200163e-38
0.0400746045747 -0.0816334537632 0.802 1.37936421972e-38
0.0415588491885 -0.0816334537632 0.802 1.38865440815e-38
0.0430430938024 -0.0816334537632 0.802 1.37043150253e-38
0.0445273384163 -0.0816334537632 0.802 1.40720087359e-38
0.0460115830302 -0.0816334537632 0.802 1.49932363593e-38
0.047495827644 -0.0816334537632 0.802 1.49021127228e-38
0.0489800722579 -0.0816334537632 0.802 1.65641199638e-38
0.0504643168718 -0.0816334537632 0.802 1.76694711989e-38
0.0519485614857 -0.0816334537632 0.802 1.17704755004e-38
0.0534328060995 -0.0816334537632 0.802 1.09330987745e-38
0.0549170507134 -0.0816334537632 0.802 1.27766554419e-38
0.0564012953273 -0.0816334537632 0.802 1.51755579012e-38
0.0577411869737 -0.0814298790655 0.8 1.79510046721e-38
0.0592217302295 -0.0814298790655 0.8 9.1835496158e-39
0.0607022734852 -0.0814298790655 0.8 1.30460214405e-38
0.0621828167409 -0.0814298790655 0.8 1.2129460141e-38
0.0635042015967 -0.0812263043679 0.798 1.02855755697e-38
0.0649810434943 -0.0812263043679 0.798 2.34950584761e-38
0.0664578853919 -0.0812263043679 0.798 2.34912609573e-38
0.0681049897639 -0.0814298790655 0.8 2.35098127476e-38
0.0695855330196 -0.0814298790655 0.8 1.60267682456e-38
0.0710660762754 -0.0814298790655 0.8 2.33732898434e-38
0.0725466195311 -0.0814298790655 0.8 1.44483820891e-38
0.0740271627868 -0.0814298790655 0.8 2.34645045644e-38
0.0756964753077 -0.0816334537632 0.802 2.238505493e-38
0.0771807199216 -0.0816334537632 0.802 7.81211562435e-39
0.0786649645354 -0.0816334537632 0.802 1.58995079242e-38
0.0801492091493 -0.0816334537632 0.802 1.21222854929e-38
0.0814298790655 -0.0814298790655 0.8 1.67372475864e-38
0.0829104223213 -0.0814298790655 0.8 2.35094876464e-38
0.084390965577 -0.0814298790655 0.8 2.35097791165e-38
0.0858715088327 -0.0814298790655 0.8 2.3505081964e-38
0.0873520520885 -0.0814298790655 0.8 2.35004240479e-38
0.0888325953442 -0.0814298790655 0.8 2.03351052157e-38
0.0903131385999 -0.0814298790655 0.8 2.11397588199e-38
0.0917936818557 -0.0814298790655 0.8 2.3463005175e-38
0.0935074106742 -0.0816334537632 0.802 2.34716708047e-38
0.0949916552881 -0.0816334537632 0.802 1.58215340725e-38
-0.0383553237189 -0.0828474992329 0.829 2.35062114106e-38
-0.0368211107702 -0.0828474992329 0.829 5.78567129042e-39
-0.0352017665842 -0.0826476258934 0.827 1.11225291035e-38
-0.0335083952355 -0.0822478792143 0.823 9.65927222756e-39
-0.0319075578402 -0.0820480058748 0.821 8.92098271734e-39
-0.0303141231612 -0.0818481325353 0.819 1.16944270327e-38
-0.0287984170032 -0.0818481325353 0.819 9.76372921898e-39
-0.0272160863986 -0.0816482591957 0.817 5.8976518533e-39
-0.0257040815987 -0.0816482591957 0.817 1.54762429205e-38
-0.0241920767987 -0.0816482591957 0.817 1.90641162981e-38
-0.0226800719988 -0.0816482591957 0.817 2.17327406858e-38
-0.0211680671989 -0.0816482591957 0.817 9.11252059924e-39
-0.0196079447432 -0.0814483858562 0.815 5.25730329665e-39
-0.0180996413014 -0.0814483858562 0.815 1.13328555952e-38
-0.0165913378596 -0.0814483858562 0.815 1.87904034717e-38
-0.0150460208364 -0.0812485125167 0.813 1.81400216181e-38
-0.0135081065295 -0.0810486391772 0.811 1.67606955136e-38
-0.012007205804 -0.0810486391772 0.811 1.77780606195e-38
-0.0105063050785 -0.0810486391772 0.811 1.25197609997e-38
-0.00898319620418 -0.0808487658376 0.809 1.02196879172e-38
-0.00748599683682 -0.0808487658376 0.809 5.8929967398e-39
-0.0059739920369 -0.0806488924981 0.807 5.87747175411e-39
-0.00448049402767 -0.0806488924981 0.807 8.44886564654e-39
-0.00298699601845 -0.0806488924981 0.807 9.36722060812e-39
-0.00149349800922 -0.0806488924981 0.807 1.02855755697e-38
0.0 -0.0806488924981 0.807 1.01937400735e-38
0.00149349800922 -0.0806488924981 0.807 9.55089160043e-39
0.00298699601845 -0.0806488924981 0.807 1.0561100275e-38
0.00448049402767 -0.0806488924981 0.807 1.01019045774e-38
0.00595918660434 -0.0804490191586 0.805 9.55090000822e-39
0.00744898325543 -0.0804490191586 0.805 9.45905610427e-39
0.00893877990651 -0.0804490191586 0.805 9.82711555372e-39
0.0104285765576 -0.0804490191586 0.805 9.55089160043e-39
0.0119183732087 -0.0804490191586 0.805 1.01937400735e-38
0.0134081698598 -0.0804490191586 0.805 9.55089160043e-39
0.0148979665109 -0.0804490191586 0.805 1.54456497724e-38
0.0163877631619 -0.0804490191586 0.805 1.14956290235e-38
0.017877559813 -0.0804490191586 0.805 1.88659208472e-38
0.0193673564641 -0.0804490191586 0.805 1.77659772229e-38
0.0208053341012 -0.0802491458191 0.803 9.92361457117e-39
0.0222914293942 -0.0802491458191 0.803 1.66315700641e-38
0.0237775246871 -0.0802491458191 0.803 1.15759528528e-38
0.0252636199801 -0.0802491458191 0.803 2.34794522151e-38
0.026749715273 -0.0802491458191 0.803 1.08469917864e-38
0.0282006476636 -0.0801492091493 0.802 1.63546132317e-38
0.0296848922775 -0.0801492091493 0.802 1.20304499967e-38
0.0311691368914 -0.0801492091493 0.802 1.22242033315e-38
0.0326533815053 -0.0801492091493 0.802 1.28670139695e-38
0.0341376261192 -0.0801492091493 0.802 1.36085320714e-38
0.035621870733 -0.0801492091493 0.802 1.33333899205e-38
0.0370135813934 -0.0799493358098 0.8 1.39769600623e-38
0.0384941246492 -0.0799493358098 0.8 1.35174028297e-38
0.0399746679049 -0.0799493358098 0.8 1.40695074181e-38
0.0414552111606 -0.0799493358098 0.8 1.38869112217e-38
0.0429357544164 -0.0799493358098 0.8 1.37025157581e-38
0.0444162976721 -0.0799493358098 0.8 1.49939426137e-38
0.0458968409278 -0.0799493358098 0.8 1.47184501382e-38
0.047495827644 -0.0801492091493 0.802 1.51769297724e-38
0.0489800722579 -0.0801492091493 0.802 1.444403386e-38
0.0504643168718 -0.0801492091493 0.802 1.54556802668e-38
0.0519485614857 -0.0801492091493 0.802 1.19504933076e-38
0.0534328060995 -0.0801492091493 0.802 1.08420003613e-38
0.0549170507134 -0.0801492091493 0.802 1.03809983899e-38
0.056260643718 -0.0799493358098 0.8 1.08387507502e-38
0.0577411869737 -0.0799493358098 0.8 1.26768857939e-38
0.0592217302295 -0.0799493358098 0.8 1.24982538708e-38
0.0605505178015 -0.0797494624703 0.798 1.36978466316e-38
0.0620273596991 -0.0797494624703 0.798 1.11192696833e-38
0.0635042015967 -0.0797494624703 0.798 1.02855755697e-38
0.0649810434943 -0.0797494624703 0.798 2.34964723862e-38
0.0664578853919 -0.0797494624703 0.798 2.34895443666e-38
0.0679347272895 -0.0797494624703 0.798 2.35098323658e-38
0.0694115691871 -0.0797494624703 0.798 2.35097763139e-38
0.0708884110847 -0.0797494624703 0.798 2.35098085437e-38
0.0723652529823 -0.0797494624703 0.798 1.50190650926e-38
0.0738420948799 -0.0797494624703 0.798 1.35916534314e-38
0.0756964753077 -0.0801492091493 0.802 1.55298846257e-38
0.0771807199216 -0.0801492091493 0.802 1.18468014252e-38
0.0786649645354 -0.0801492091493 0.802 2.25619128092e-38
0.0801492091493 -0.0801492091493 0.802 2.34882131331e-38
0.0814298790655 -0.0799493358098 0.8 1.09284240428e-38
0.0829104223213 -0.0799493358098 0.8 1.99882712341e-38
0.084390965577 -0.0799493358098 0.8 2.15533646733e-38
0.0858715088327 -0.0799493358098 0.8 2.35065827547e-38
0.0873520520885 -0.0799493358098 0.8 2.35098113463e-38
0.0888325953442 -0.0799493358098 0.8 2.3509809945e-38
0.0903131385999 -0.0799493358098 0.8 2.35098015372e-38
0.0917936818557 -0.0799493358098 0.8 2.35097763139e-38
0.0935074106742 -0.0801492091493 0.802 2.17317850003e-38
0.0949916552881 -0.0801492091493 0.802 2.34935492777e-38
0.096475899902 -0.0801492091493 0.802 8.54357100195e-39
0.0979601445158 -0.0801492091493 0.802 1.65419093831e-38
0.0991963981344 -0.0799493358098 0.8 1.35163336389e-38
-0.0369099433655 -0.0815094582655 0.831 5.23462328101e-39
-0.0353720290586 -0.0815094582655 0.831 1.1215812141e-38
-0.0336712549936 -0.0811171143028 0.827 9.47702495448e-39
-0.0319852863611 -0.08072477034 0.823 9.75146925872e-39
-0.030388150324 -0.0805285983586 0.821 9.10502785635e-39
-0.0287984170032 -0.0803324263772 0.819 1.00341672109e-38
-0.0272827108451 -0.0803324263772 0.819 1.04105265512e-38
-0.0257040815987 -0.0801362543958 0.817 4.60726335983e-39
-0.0241920767987 -0.0801362543958 0.817 1.79636205622e-38
-0.0226800719988 -0.0801362543958 0.817 2.21033112621e-38
-0.0211680671989 -0.0801362543958 0.817 1.19694654875e-38
-0.019656062399 -0.0801362543958 0.817 5.06824150914e-39
-0.0180996413014 -0.0799400824144 0.815 1.05038306081e-38
-0.0165913378596 -0.0799400824144 0.815 1.97130688274e-38
-0.0150460208364 -0.0797439104331 0.813 1.91555930619e-38
-0.0135081065295 -0.0795477384517 0.811 2.8469003809e-39
-0.012007205804 -0.0795477384517 0.811 1.39114059189e-38
-0.0105063050785 -0.0795477384517 0.811 1.980491133e-38
-0.00898319620418 -0.0793515664703 0.809 1.88818984523e-38
-0.00748599683682 -0.0793515664703 0.809 7.64422885793e-39
-0.0059739920369 -0.0791553944889 0.807 9.12594223593e-39
-0.00448049402767 -0.0791553944889 0.807 4.97032017375e-39
-0.00298699601845 -0.0791553944889 0.807 7.4386751888e-39
-0.00149349800922 -0.0791553944889 0.807 9.27538511196e-39
0.0 -0.0791553944889 0.807 9.46084976631e-39
0.00148979665109 -0.0789592225075 0.805 9.27538511196e-39
0.00297959330217 -0.0789592225075 0.805 1.01937400735e-38
0.00446938995326 -0.0789592225075 0.805 1.00100690812e-38
0.00595918660434 -0.0789592225075 0.805 9.82675682131e-39
0.00744898325543 -0.0789592225075 0.805 9.64380329381e-39
0.00893877990651 -0.0789592225075 0.805 1.01937400735e-38
0.0104285765576 -0.0789592225075 0.805 1.02855923853e-38
0.0119183732087 -0.0789592225075 0.805 1.03774110659e-38
0.0134081698598 -0.0789592225075 0.805 9.27538511196e-39
0.0148979665109 -0.0789592225075 0.805 1.15712725159e-38
0.0163877631619 -0.0789592225075 0.805 1.48773503776e-38
0.017877559813 -0.0789592225075 0.805 1.09284240428e-38
0.0193192388083 -0.0787630505261 0.803 1.53545037151e-38
0.0208053341012 -0.0787630505261 0.803 1.98864248617e-38
0.0222914293942 -0.0787630505261 0.803 1.14858942031e-38
0.0237775246871 -0.0787630505261 0.803 1.21237638627e-38
0.0252636199801 -0.0787630505261 0.803 1.27680248447e-38
0.0267164030498 -0.0786649645354 0.802 2.07998514566e-38
0.0282006476636 -0.0786649645354 0.802 1.99746940532e-38
0.0296848922775 -0.0786649645354 0.802 1.91387410466e-38
0.0311691368914 -0.0786649645354 0.802 1.06568636108e-38
0.0326533815053 -0.0786649645354 0.802 1.3422691869e-38
0.0340524948819 -0.0784687925541 0.8 1.37000018286e-38
0.0355330381377 -0.0784687925541 0.8 1.370144937e-38
0.0369210474399 -0.0782726205727 0.798 1.31511888903e-38
0.0383978893375 -0.0782726205727 0.798 1.37957721709e-38
0.0398747312351 -0.0782726205727 0.798 1.41627722387e-38
0.0413515731327 -0.0782726205727 0.798 1.35174476712e-38
0.0428284150303 -0.0782726205727 0.798 1.39787537244e-38
0.0444162976721 -0.0784687925541 0.8 1.44440310574e-38
0.0458968409278 -0.0784687925541 0.8 1.42592866704e-38
0.0473773841836 -0.0784687925541 0.8 1.52723525926e-38
0.0488579274393 -0.0784687925541 0.8 1.44443841846e-38
0.0504643168718 -0.0786649645354 0.802 1.43500375616e-38
0.0518190139508 -0.0784687925541 0.8 1.53598959116e-38
0.0532995572065 -0.0784687925541 0.8 1.3797214107e-38
0.0547801004623 -0.0784687925541 0.8 1.2877777343e-38
0.056260643718 -0.0784687925541 0.8 1.1023499341e-38
0.0577411869737 -0.0784687925541 0.8 1.29574397594e-38
0.0590736759039 -0.0782726205727 0.798 1.21298272812e-38
0.0605505178015 -0.0782726205727 0.798 1.24060428267e-38
0.0620273596991 -0.0782726205727 0.798 1.22212956372e-38
0.0635042015967 -0.0782726205727 0.798 9.82639808891e-39
0.0649810434943 -0.0782726205727 0.798 2.34587522342e-38
0.0664578853919 -0.0782726205727 0.798 2.20938104585e-38
0.0679347272895 -0.0782726205727 0.798 2.35054014601e-38
0.0694115691871 -0.0782726205727 0.798 2.35098029385e-38
0.0708884110847 -0.0782726205727 0.798 2.35061931937e-38
0.0723652529823 -0.0782726205727 0.798 2.3509809945e-38
0.0738420948799 -0.0782726205727 0.798 2.35097819191e-38
0.0753189367775 -0.0782726205727 0.798 1.056117034e-38
0.0769882492983 -0.0784687925541 0.8 1.26732984698e-38
0.0784687925541 -0.0784687925541 0.8 2.3480700772e-38
0.0799493358098 -0.0784687925541 0.8 1.08367132622e-38
0.0814298790655 -0.0784687925541 0.8 1.64504368233e-38
0.0829104223213 -0.0784687925541 0.8 1.46377171298e-38
0.084390965577 -0.0784687925541 0.8 9.37587222483e-39
0.0858715088327 -0.0784687925541 0.8 1.71044480399e-38
0.0873520520885 -0.0784687925541 0.8 2.35097230645e-38
0.0888325953442 -0.0784687925541 0.8 2.3507974244e-38
0.0903131385999 -0.0784687925541 0.8 2.35097735113e-38
0.0917936818557 -0.0784687925541 0.8 2.35087015179e-38
0.0932742251114 -0.0784687925541 0.8 2.35098211554e-38
0.0947547683672 -0.0784687925541 0.8 2.17368619046e-38
0.0962353116229 -0.0784687925541 0.8 2.34982156015e-38
0.0977158548786 -0.0784687925541 0.8 9.18928933431e-39
0.0991963981344 -0.0784687925541 0.8 1.70957936206e-38
0.100425249037 -0.0782726205727 0.798 1.51776500398e-38
0.101902090934 -0.0782726205727 0.798 1.49918322582e-38
-0.0369987759609 -0.0801640145819 0.833 5.05095228869e-39
-0.0354571602958 -0.0801640145819 0.833 9.6567681072e-39
-0.0339155446308 -0.0801640145819 0.833 9.47632150265e-39
-0.0322184719239 -0.0797790733354 0.829 9.75074899131e-39
-0.0305362046496 -0.0793941320889 0.825 9.2897624342e-39
-0.0288687428078 -0.0790091908424 0.821 9.84361724443e-39
-0.0272827108451 -0.0788167202191 0.819 7.91044613889e-39
-0.0257040815987 -0.0786242495959 0.817 9.30055103108e-39
-0.0241920767987 -0.0786242495959 0.817 9.85307320647e-39
-0.0227355923709 -0.0788167202191 0.819 2.05411073003e-38
-0.0212198862128 -0.0788167202191 0.819 1.44590683912e-38
-0.019656062399 -0.0786242495959 0.817 7.54996491154e-39
-0.0181440575991 -0.0786242495959 0.817 7.46173215373e-39
-0.0165913378596 -0.0784317789727 0.815 2.01744169195e-38
-0.0150460208364 -0.0782393083494 0.813 1.90626813685e-38
-0.0135414187528 -0.0782393083494 0.813 1.39902808055e-38
-0.012007205804 -0.0780468377262 0.811 4.69154025207e-39
-0.0105063050785 -0.0780468377262 0.811 6.3499727807e-39
-0.00898319620418 -0.0778543671029 0.809 1.78724787088e-38
-0.00748599683682 -0.0778543671029 0.809 8.1073523952e-39
-0.0059739920369 -0.0776618964797 0.807 2.58545592251e-39
-0.00448049402767 -0.0776618964797 0.807 1.09615563437e-38
-0.00298699601845 -0.0776618964797 0.807 1.2892247151e-38
-0.00149349800922 -0.0776618964797 0.807 3.12387402886e-39
0.0 -0.0776618964797 0.807 7.25500419648e-39
0.00148979665109 -0.0774694258564 0.805 9.64272709659e-39
0.00297959330217 -0.0774694258564 0.805 9.91930978228e-39
0.00446938995326 -0.0774694258564 0.805 9.45905610427e-39
0.00595918660434 -0.0774694258564 0.805 1.03774110659e-38
0.00744898325543 -0.0774694258564 0.805 1.01019045774e-38
0.00893877990651 -0.0774694258564 0.805 1.01019045774e-38
0.0104285765576 -0.0774694258564 0.805 1.01937400735e-38
0.0118887623436 -0.0772769552332 0.803 9.27538511196e-39
0.0133748576365 -0.0772769552332 0.803 1.12957660274e-38
0.0148609529295 -0.0772769552332 0.803 2.04019009096e-38
0.0163470482224 -0.0772769552332 0.803 2.34597541626e-38
0.0178331435154 -0.0772769552332 0.803 1.86609333027e-38
0.0193192388083 -0.0772769552332 0.803 1.37753244237e-38
0.0208053341012 -0.0772769552332 0.803 1.0469246562e-38
0.0222636692081 -0.0771807199216 0.802 1.92156092738e-38
0.023747913822 -0.0771807199216 0.802 1.62908303295e-38
0.0252321584359 -0.0771807199216 0.802 1.85913280054e-38
0.0267164030498 -0.0771807199216 0.802 7.53051068496e-39
0.028130321859 -0.0769882492983 0.8 1.77418790932e-38
0.0296108651147 -0.0769882492983 0.8 2.19986973253e-38
0.0310914083705 -0.0769882492983 0.8 1.79500027437e-38
0.0325719516262 -0.0769882492983 0.8 1.4806321361e-38
0.0339673636447 -0.0767957786751 0.798 1.33200929994e-38
0.0354442055423 -0.0767957786751 0.798 1.2685868117e-38
0.0369210474399 -0.0767957786751 0.798 1.36081943585e-38
0.0383978893375 -0.0767957786751 0.798 1.36103229308e-38
0.0398747312351 -0.0767957786751 0.798 1.3425935875e-38
0.0413515731327 -0.0767957786751 0.798 1.370289551e-38
0.0428284150303 -0.0767957786751 0.798 1.43500557785e-38
