# .PCD v0.7 - Point Cloud Data file format
VERSION 0.7
FIELDS x y z rgb
SIZE 4 4 4 4
TYPE F F F F
COUNT 1 1 1 1
WIDTH 855
HEIGHT 1
VIEWPOINT 0 0 0 1 0 0 0
POINTS 855
DATA ascii
0.0290390052822 -0.227187511914 0.923 9.19147115602e-39
-0.033682359068 -0.222303569849 0.91 1.01019045774e-39
-0.0319982411146 -0.222303569849 0.91 6.42848473106e-40
-0.0302474987147 -0.221814990574 0.908 7.73470929848e-39
-0.0285041590311 -0.2213264113 0.906 6.15909771298e-39
-0.026827443794 -0.2213264113 0.906 7.26002645018e-39
-0.0251507285568 -0.2213264113 0.906 7.90216866886e-39
-0.0234740133197 -0.2213264113 0.906 8.17694648213e-39
-0.0218454157384 -0.221814990574 0.908 8.08403478875e-39
-0.0201649991431 -0.221814990574 0.908 7.90179872606e-39
-0.0184845825479 -0.221814990574 0.908 8.45388790023e-39
-0.0168041659526 -0.221814990574 0.908 8.82160263025e-39
-0.0151237493574 -0.221814990574 0.908 9.37224286181e-39
-0.0134433327621 -0.221814990574 0.908 9.55953480936e-39
-0.0117629161668 -0.221814990574 0.908 9.09924750019e-39
-0.0100824995716 -0.221814990574 0.908 8.64186368143e-39
-0.00840208297631 -0.221814990574 0.908 8.36707465777e-39
-0.00672166638105 -0.221814990574 0.908 8.45604169597e-39
-0.00503014571137 -0.2213264113 0.906 9.19467032041e-39
-0.00335343047424 -0.2213264113 0.906 6.97949770801e-39
-0.00167116319991 -0.220593542389 0.903 4.77544580022e-39
0.0 -0.220593542389 0.903 4.40810381558e-39
0.00167116319991 -0.220593542389 0.903 9.74533297274e-39
0.00334232639983 -0.220593542389 0.903 1.00211995949e-38
0.00501348959974 -0.220593542389 0.903 7.17106081327e-39
0.00668465279965 -0.220593542389 0.903 1.45326771982e-38
0.00835581599956 -0.220593542389 0.903 5.60196526564e-39
0.0100602914227 -0.2213264113 0.906 5.32645877716e-39
0.0117370066599 -0.2213264113 0.906 5.23462328101e-39
0.013413721897 -0.2213264113 0.906 4.13259732711e-39
0.0151237493574 -0.221814990574 0.908 3.39791335785e-39
0.0168041659526 -0.221814990574 0.908 3.03057137321e-39
0.0184438676083 -0.2213264113 0.906 1.92854541932e-39
0.0201205828455 -0.2213264113 0.906 2.11221641163e-39
0.0218454157384 -0.221814990574 0.908 4.86728129637e-39
0.0235258323337 -0.221814990574 0.908 1.55457277061e-38
0.025261769301 -0.222303569849 0.91 5.78563625795e-39
-0.0336083319052 -0.220134573979 0.908 2.75506488474e-40
-0.0318575895053 -0.219649696063 0.906 2.48531352906e-39
-0.0300809375984 -0.218922379189 0.903 5.89259176454e-39
-0.0284097743985 -0.218922379189 0.903 6.80192796921e-39
-0.0267386111986 -0.218922379189 0.903 8.08690464801e-39
-0.0250674479987 -0.218922379189 0.903 7.81103942713e-39
-0.0233962847988 -0.218922379189 0.903 7.90323365569e-39
-0.0216770039431 -0.218437501272 0.901 8.08726338041e-39
-0.0200095421013 -0.218437501272 0.901 7.81175689194e-39
-0.018382795199 -0.218922379189 0.903 1.10353837533e-38
-0.0167116319991 -0.218922379189 0.903 1.26116175153e-38
-0.0150404687992 -0.218922379189 0.903 1.34327882245e-38
-0.0133693055993 -0.218922379189 0.903 1.113619877e-38
-0.0117370066599 -0.219649696063 0.906 8.17443535528e-39
-0.0100602914227 -0.219649696063 0.906 8.45639902708e-39
-0.00838357618561 -0.219649696063 0.906 8.54895198805e-39
-0.00670686094849 -0.219649696063 0.906 8.45676056208e-39
-0.00501348959974 -0.218922379189 0.903 8.91772890231e-39
-0.00334232639983 -0.218922379189 0.903 8.918464584e-39
-0.00166746184177 -0.218437501272 0.901 9.10247609185e-39
0.0 -0.218437501272 0.901 1.28824857059e-38
0.00166746184177 -0.218437501272 0.901 7.6277425815e-39
0.00333492368355 -0.218437501272 0.901 1.14963422844e-38
0.00500238552532 -0.218437501272 0.901 9.93693251177e-39
0.00666984736709 -0.218437501272 0.901 1.38862484075e-38
0.00833730920887 -0.218437501272 0.901 5.32681750957e-39
0.0100269791995 -0.218922379189 0.903 6.24481373874e-39
0.0116981423994 -0.218922379189 0.903 6.24481373874e-39
0.013413721897 -0.219649696063 0.906 5.87747175411e-39
0.0150904371341 -0.219649696063 0.906 6.06114274643e-39
0.0167116319991 -0.218922379189 0.903 6.79582671569e-39
0.018382795199 -0.218922379189 0.903 5.60196526564e-39
0.020053958399 -0.218922379189 0.903 5.41829427332e-39
0.0217251215989 -0.218922379189 0.903 5.96930725027e-39
0.0233962847988 -0.218922379189 0.903 5.60196526564e-39
0.0250674479987 -0.218922379189 0.903 6.24481373874e-39
0.0267386111986 -0.218922379189 0.903 6.79582671569e-39
-0.0334232639983 -0.217251215989 0.903 9.1835496158e-41
-0.0317521007983 -0.217251215989 0.903 0.0
-0.0300809375984 -0.217251215989 0.903 7.92122913057e-39
-0.0283468513102 -0.216770039431 0.901 6.43530064679e-39
-0.0266793894684 -0.216770039431 0.901 7.99435168703e-39
-0.0249286470685 -0.216048274593 0.898 8.17838281306e-39
-0.0232667372639 -0.216048274593 0.898 7.2618341252e-39
-0.0216770039431 -0.216770039431 0.901 7.99614534907e-39
-0.0200095421013 -0.216770039431 0.901 7.44333871009e-39
-0.0183420802595 -0.216770039431 0.901 1.0662991489e-38
-0.0166190980456 -0.216048274593 0.898 1.11380190567e-38
-0.0149571882411 -0.216048274593 0.898 1.10310901748e-38
-0.0133396947342 -0.216770039431 0.901 9.47771018943e-39
-0.0116981423994 -0.217251215989 0.903 8.35919235391e-39
-0.0100269791995 -0.217251215989 0.903 8.27272803476e-39
-0.00835581599956 -0.217251215989 0.903 8.27416296439e-39
-0.00668465279965 -0.217251215989 0.903 8.27201056995e-39
-0.00500238552532 -0.216770039431 0.901 8.45711649189e-39
-0.00332381960913 -0.216048274593 0.898 8.27201056995e-39
-0.00165820844643 -0.215567098035 0.896 8.45604169597e-39
0.0 -0.215567098035 0.896 7.99399295463e-39
0.00165820844643 -0.215567098035 0.896 8.63612396292e-39
0.00331641689285 -0.215567098035 0.896 7.71418167727e-39
0.00497462533928 -0.215567098035 0.896 1.22403182638e-38
0.0066328337857 -0.215567098035 0.896 1.11178627796e-38
0.00829104223213 -0.215567098035 0.896 6.8955543248e-39
0.00997145882739 -0.216048274593 0.898 7.16316870032e-39
0.011633368632 -0.216048274593 0.898 6.79582671569e-39
0.0133396947342 -0.216770039431 0.901 6.61215572338e-39
0.015007156576 -0.216770039431 0.901 1.04775436502e-38
0.0166746184177 -0.216770039431 0.901 8.81620763117e-39
0.0183420802595 -0.216770039431 0.901 1.15903245698e-38
0.0200095421013 -0.216770039431 0.901 5.87747175411e-39
0.0216770039431 -0.216770039431 0.901 1.001368303e-38
0.0232667372639 -0.216048274593 0.898 5.41829427332e-39
0.0249286470685 -0.216048274593 0.898 9.64704449716e-39
0.026590556873 -0.216048274593 0.898 6.97949770801e-39
-0.0334232639983 -0.215580052789 0.903 0.0
-0.0317521007983 -0.215580052789 0.903 4.776552826e-39
-0.0300809375984 -0.215580052789 0.903 9.01751396466e-39
-0.0283468513102 -0.215102577589 0.901 6.43458318198e-39
-0.026590556873 -0.214386364789 0.898 7.81032196231e-39
-0.0249286470685 -0.214386364789 0.898 7.25787405574e-39
-0.0232667372639 -0.214386364789 0.898 7.53230434699e-39
-0.0216048274593 -0.214386364789 0.898 7.44118631565e-39
-0.0199429176548 -0.214386364789 0.898 7.53086941736e-39
-0.0182810078502 -0.214386364789 0.898 9.28078711754e-39
-0.0166190980456 -0.214386364789 0.898 1.14116590156e-38
-0.0149571882411 -0.214386364789 0.898 1.08459197931e-38
-0.0132952784365 -0.214386364789 0.898 1.29801113673e-38
-0.011633368632 -0.214386364789 0.898 7.62306364593e-39
-0.0100047710506 -0.215102577589 0.901 8.4574752243e-39
-0.00833730920887 -0.215102577589 0.901 7.81068069472e-39
-0.00666984736709 -0.215102577589 0.901 8.35954127723e-39
-0.00498572941369 -0.214386364789 0.898 8.82230608208e-39
-0.00331641689285 -0.213908889589 0.896 8.45352916782e-39
-0.00165820844643 -0.213908889589 0.896 8.17874014416e-39
0.0 -0.213908889589 0.896 8.0865459156e-39
0.00165450708829 -0.213431414389 0.894 7.99112309537e-39
0.00330901417657 -0.213431414389 0.894 6.42848473106e-39
0.00496352126486 -0.213431414389 0.894 1.4359744356e-38
0.00661802835314 -0.213431414389 0.894 8.0815236619e-39
0.00827253544143 -0.213431414389 0.894 8.46179682876e-39
0.00994925067855 -0.213908889589 0.896 7.16316870032e-39
0.011607459125 -0.213908889589 0.896 6.79582671569e-39
0.0132656675714 -0.213908889589 0.896 5.41829427332e-39
0.0149238760178 -0.213908889589 0.896 1.65724562883e-38
0.0165820844643 -0.213908889589 0.896 6.15297824259e-39
0.0182810078502 -0.214386364789 0.898 1.42689402155e-38
0.0199429176548 -0.214386364789 0.898 6.61215572338e-39
0.0216048274593 -0.214386364789 0.898 1.7021660728e-38
0.0232667372639 -0.214386364789 0.898 4.49993931174e-39
0.0249286470685 -0.214386364789 0.898 1.71277782581e-38
0.0265313351428 -0.213908889589 0.896 6.15297824259e-39
0.0281895435892 -0.213908889589 0.896 5.23462328101e-39
-0.0299143764822 -0.212724454984 0.898 9.28904216679e-39
-0.0282524666776 -0.212724454984 0.898 5.97432950397e-39
-0.0265313351428 -0.212250681142 0.896 6.79582671569e-39
-0.0248731266964 -0.212250681142 0.896 8.99987862348e-39
-0.02321491825 -0.212250681142 0.896 1.21233616901e-38
-0.0215567098035 -0.212250681142 0.896 1.39687008092e-38
-0.0198985013571 -0.212250681142 0.896 1.30571421452e-38
-0.0182402929107 -0.212250681142 0.896 7.25501540687e-39
-0.0165820844643 -0.212250681142 0.896 1.35332304958e-38
-0.0148905637946 -0.211776907301 0.894 7.81032196231e-39
-0.0132360567063 -0.211776907301 0.894 1.34403103946e-38
-0.011607459125 -0.212250681142 0.896 7.34683969264e-39
-0.00994925067855 -0.212250681142 0.896 6.42848473106e-39
-0.00824477525538 -0.211066246538 0.891 1.43475796841e-38
-0.00659582020431 -0.211066246538 0.891 1.35217370458e-38
-0.00496352126486 -0.211776907301 0.894 7.1671147568e-39
-0.00329791010215 -0.211066246538 0.891 8.82015368764e-39
-0.00164895505108 -0.211066246538 0.891 8.82230608208e-39
0.0 -0.211066246538 0.891 9.10033490779e-39
0.00164895505108 -0.211066246538 0.891 9.65568350219e-39
0.00329791010215 -0.211066246538 0.891 5.60196526564e-39
0.00493576107881 -0.210592472696 0.889 1.50872915122e-38
0.00658101477175 -0.210592472696 0.889 5.41829427332e-39
0.00824477525538 -0.211066246538 0.891 1.13191088573e-38
0.00989373030646 -0.211066246538 0.891 6.79582671569e-39
0.0115426853575 -0.211066246538 0.891 6.88766221185e-39
0.0131916404086 -0.211066246538 0.891 5.6938007618e-39
0.0148905637946 -0.211776907301 0.894 1.8498200512e-38
0.0165450708829 -0.211776907301 0.894 4.5917748079e-39
0.0182402929107 -0.212250681142 0.896 1.75894976943e-38
0.0198985013571 -0.212250681142 0.896 6.3366492349e-39
0.0215567098035 -0.212250681142 0.896 1.20502587518e-38
0.02321491825 -0.212250681142 0.896 9.01679509854e-39
0.0248731266964 -0.212250681142 0.896 1.80443297485e-38
0.0265313351428 -0.212250681142 0.896 5.05095228869e-39
0.0281895435892 -0.212250681142 0.896 5.60196526564e-39
-0.0299143764822 -0.21106254518 0.898 9.38990482766e-39
-0.0281266205009 -0.210122400212 0.894 5.88464640225e-39
-0.0264721134126 -0.210122400212 0.894 7.16316870032e-39
-0.0248176063243 -0.210122400212 0.894 1.53692313619e-38
-0.023163099236 -0.210122400212 0.894 1.8950110859e-38
-0.0215085921477 -0.210122400212 0.894 1.85827002107e-38
-0.0198540850594 -0.210122400212 0.894 1.42567881553e-38
-0.0181385055618 -0.209417291487 0.891 7.25500419648e-39
-0.0164895505108 -0.209417291487 0.891 1.27928096106e-38
-0.0148405954597 -0.209417291487 0.891 6.88766221185e-39
-0.0132360567063 -0.210122400212 0.894 1.51924337386e-38
-0.0115426853575 -0.209417291487 0.891 6.52032022722e-39
-0.00987152215763 -0.208947219003 0.889 6.3366492349e-39
-0.00822626846469 -0.208947219003 0.889 1.82230149209e-38
-0.00656620933919 -0.208477146519 0.887 1.81425986059e-38
-0.00492465700439 -0.208477146519 0.887 5.97504696878e-39
-0.00329050738588 -0.208947219003 0.889 8.81979495524e-39
-0.00164525369294 -0.208947219003 0.889 8.45388790023e-39
0.0 -0.208947219003 0.889 9.46695662501e-39
0.00164525369294 -0.208947219003 0.889 9.1993338417e-39
0.00329050738588 -0.208947219003 0.889 6.3366492349e-39
0.00492465700439 -0.208477146519 0.887 1.46241707776e-38
0.00656620933919 -0.208477146519 0.887 4.77544580022e-39
0.00818925488329 -0.208007074036 0.885 1.32515961291e-38
0.00982710585995 -0.208007074036 0.885 6.97949770801e-39
0.0114649568366 -0.208007074036 0.885 6.06114274643e-39
0.0131324186784 -0.208477146519 0.887 5.32645877716e-39
0.0147739710132 -0.208477146519 0.887 1.82190870813e-38
0.0164895505108 -0.209417291487 0.891 3.39791335785e-39
0.0181995779711 -0.210122400212 0.894 1.65688297279e-38
0.0198540850594 -0.210122400212 0.894 6.3366492349e-39
0.0215085921477 -0.210122400212 0.894 7.81285831253e-39
0.023163099236 -0.210122400212 0.894 1.1230892915e-38
0.0248176063243 -0.210122400212 0.894 1.51823191663e-38
0.0264721134126 -0.210122400212 0.894 4.49993931174e-39
0.0281266205009 -0.210122400212 0.894 5.96930725027e-39
-0.0280322358683 -0.207768336436 0.891 5.70133414234e-39
-0.0263832808172 -0.207768336436 0.891 6.42848473106e-39
-0.0247343257662 -0.207768336436 0.891 1.59220548165e-38
-0.0230853707151 -0.207768336436 0.891 1.9868824553e-38
-0.021436415664 -0.207768336436 0.891 1.59037118196e-38
-0.0197874606129 -0.207768336436 0.891 1.52709597019e-38
-0.0180977906223 -0.20730196531 0.889 6.61215572338e-39
-0.016415523348 -0.206835594185 0.887 1.4079972315e-38
-0.0147406587899 -0.206369223059 0.885 5.96930725027e-39
-0.0131028078133 -0.206369223059 0.885 1.57448311984e-38
-0.0113094997948 -0.203570996306 0.873 6.42848473106e-39
-0.00969385696694 -0.203570996306 0.873 7.99148603167e-39
-0.00809672092981 -0.204037367431 0.875 6.88766221185e-39
-0.00647737674385 -0.204037367431 0.875 6.79582671569e-39
-0.00485803255789 -0.204037367431 0.875 8.63468903329e-39
-0.00323868837192 -0.204037367431 0.875 7.8099632299e-39
-0.0016415523348 -0.206835594185 0.887 8.26914071069e-39
0.0 -0.20473692412 0.878 8.36205240407e-39
0.00162489622317 -0.20473692412 0.878 7.90215745847e-39
0.00323868837192 -0.204037367431 0.875 6.24481373874e-39
0.00485803255789 -0.204037367431 0.875 1.25990997161e-38
0.00647737674385 -0.204037367431 0.875 5.05095228869e-39
0.00809672092981 -0.204037367431 0.875 1.5359555396e-38
0.00977158548786 -0.205203295245 0.88 7.16316870032e-39
0.0114001830692 -0.205203295245 0.88 6.88766221185e-39
0.0130287806505 -0.205203295245 0.88 5.6938007618e-39
0.0145740976737 -0.204037367431 0.875 1.44405334164e-38
0.0161934418596 -0.204037367431 0.875 4.49993931174e-39
0.0180570756828 -0.206835594185 0.887 1.83069541002e-38
0.0197430443153 -0.20730196531 0.889 4.77544580022e-39
0.021436415664 -0.207768336436 0.891 3.12240686937e-39
0.0230853707151 -0.207768336436 0.891 1.50079794204e-38
0.024623285022 -0.206835594185 0.887 9.00167508811e-39
0.0262648373568 -0.206835594185 0.887 1.2796853758e-38
0.0280322358683 -0.207768336436 0.891 6.79582671569e-39
-0.0279063896916 -0.20519404185 0.887 5.79388710331e-39
-0.0262648373568 -0.20519404185 0.887 6.15297824259e-39
-0.024623285022 -0.20519404185 0.887 1.67536301668e-38
-0.0229817326872 -0.20519404185 0.887 1.94135903261e-38
-0.021171768557 -0.203574697664 0.88 1.86759818469e-38
-0.0195431709757 -0.203574697664 0.88 1.55493402536e-38
-0.0180163607432 -0.204731372082 0.885 7.98968816575e-39
-0.0162489622317 -0.203112027896 0.878 1.58342158236e-38
-0.0146240660085 -0.203112027896 0.878 5.41829427332e-39
-0.0129251426226 -0.201955353478 0.873 1.43611484571e-38
-0.0113094997948 -0.201955353478 0.873 6.88766221185e-39
-0.00969385696694 -0.201955353478 0.873 8.08403478875e-39
-0.00807821413911 -0.201955353478 0.873 8.36133493926e-39
-0.00646257131129 -0.201955353478 0.873 7.71597533931e-39
-0.00484692848347 -0.201955353478 0.873 8.08511098597e-39
-0.00322388293937 -0.20149268371 0.871 7.90108126125e-39
-0.00161194146968 -0.20149268371 0.871 7.44154504805e-39
0.0 -0.201955353478 0.873 7.80781083546e-39
0.00161564282782 -0.201955353478 0.873 9.09924750019e-39
0.00323128565565 -0.201955353478 0.873 6.24481373874e-39
0.00484692848347 -0.201955353478 0.873 7.43940806789e-39
0.00646257131129 -0.201955353478 0.873 5.9711009123e-39
0.00807821413911 -0.201955353478 0.873 1.41577962278e-38
0.00969385696694 -0.201955353478 0.873 6.24481373874e-39
0.0113094997948 -0.201955353478 0.873 6.88766221185e-39
0.0129251426226 -0.201955353478 0.873 6.61215572338e-39
0.0145407854504 -0.201955353478 0.873 1.05704721592e-38
0.0161564282782 -0.201955353478 0.873 1.05851171294e-38
0.0178738584549 -0.203112027896 0.878 1.65588454764e-38
0.0194987546781 -0.203112027896 0.878 8.18269881233e-39
0.021171768557 -0.203574697664 0.88 4.49993931174e-39
0.0230335517011 -0.205656711617 0.889 1.78620866793e-38
0.0245677646499 -0.204731372082 0.885 5.60196526564e-39
0.0262056156265 -0.204731372082 0.885 1.47307535387e-38
0.0279693127799 -0.205656711617 0.889 7.4386751888e-39
0.0296145664729 -0.205656711617 0.889 5.78563625795e-39
-0.0291481953473 -0.200798679059 0.875 7.82791946843e-39
-0.027465928073 -0.20033971065 0.873 5.79605491204e-39
-0.0258502852452 -0.20033971065 0.873 5.32645877716e-39
-0.0242901627894 -0.200798679059 0.875 1.55593413207e-38
-0.0227485471244 -0.201487131673 0.878 1.44339571227e-38
-0.0211236509012 -0.201487131673 0.878 1.17589316037e-38
-0.0194987546781 -0.201487131673 0.878 1.17603244943e-38
-0.0178738584549 -0.201487131673 0.878 7.25500419648e-39
-0.0161934418596 -0.200798679059 0.875 1.37129554316e-38
-0.0145740976737 -0.200798679059 0.875 4.77544580022e-39
-0.0129251426226 -0.20033971065 0.873 1.45409154319e-38
-0.0112835902878 -0.199880742241 0.871 7.25500419648e-39
-0.0096716488181 -0.199880742241 0.871 8.45174391358e-39
-0.00805970734842 -0.199880742241 0.871 8.27021690792e-39
-0.00644776587873 -0.199880742241 0.871 8.08690464801e-39
-0.00483582440905 -0.199880742241 0.871 7.99471041944e-39
-0.00322388293937 -0.199880742241 0.871 8.26985817551e-39
-0.00161194146968 -0.199880742241 0.871 8.36205240407e-39
0.0 -0.199880742241 0.871 8.45568156227e-39
0.00161194146968 -0.199880742241 0.871 1.27931571327e-38
0.00322388293937 -0.199880742241 0.871 5.33004610123e-39
0.00483582440905 -0.199880742241 0.871 7.62234898371e-39
0.00646257131129 -0.20033971065 0.873 7.16783642551e-39
0.00807821413911 -0.20033971065 0.873 1.26869765441e-38
0.00969385696694 -0.20033971065 0.873 5.97002471508e-39
0.0113094997948 -0.20033971065 0.873 7.16316870032e-39
0.0129251426226 -0.20033971065 0.873 6.79582671569e-39
0.0145407854504 -0.20033971065 0.873 5.6938007618e-39
0.0161564282782 -0.20033971065 0.873 7.4386751888e-39
0.0177720711061 -0.20033971065 0.873 1.1399843267e-38
0.0193877139339 -0.20033971065 0.873 1.21485906676e-38
0.0210033567617 -0.20033971065 0.873 6.24481373874e-39
0.0228003661383 -0.201946100083 0.88 1.73911242785e-38
0.0245677646499 -0.203093521106 0.885 4.68361030406e-39
0.0262056156265 -0.203093521106 0.885 1.72188794738e-38
0.0279063896916 -0.203552489515 0.887 7.34683969264e-39
0.0295479420264 -0.203552489515 0.887 6.42848473106e-39
-0.0324979244634 -0.19986223545 0.878 0.0
-0.0308730282403 -0.19986223545 0.878 5.71038372782e-39
-0.0291481953473 -0.199179334873 0.875 5.70635639604e-39
-0.027465928073 -0.198724067822 0.873 6.3485098251e-39
-0.0258502852452 -0.198724067822 0.873 6.34059529138e-39
-0.0242901627894 -0.199179334873 0.875 8.17443535528e-39
-0.0226708186035 -0.199179334873 0.875 8.81620763117e-39
-0.0210514744175 -0.199179334873 0.875 8.54141860751e-39
-0.0193877139339 -0.198724067822 0.873 7.99256783409e-39
-0.0177720711061 -0.198724067822 0.873 5.96966598268e-39
-0.0161564282782 -0.198724067822 0.873 1.62919695851e-38
-0.0145407854504 -0.198724067822 0.873 3.30607786169e-39
-0.0128955317575 -0.198268800771 0.871 1.61983264139e-38
-0.0112576807808 -0.19781353372 0.869 6.79869657495e-39
-0.00964944066926 -0.19781353372 0.869 7.98971058652e-39
-0.00804120055772 -0.19781353372 0.869 8.36169367167e-39
-0.00643296044618 -0.19781353372 0.869 8.08690464801e-39
-0.00482472033463 -0.19781353372 0.869 8.08690464801e-39
-0.00320907750681 -0.197358266669 0.867 8.0865459156e-39
-0.0015989867162 -0.196675366092 0.864 8.73047058593e-39
0.0 -0.196675366092 0.864 9.19359412319e-39
0.00160824011154 -0.19781353372 0.869 9.19646398245e-39
0.00321648022309 -0.19781353372 0.869 5.97181837712e-39
0.00482472033463 -0.19781353372 0.869 6.88766221185e-39
0.00644776587873 -0.198268800771 0.871 1.06722919069e-38
0.00805970734842 -0.198268800771 0.871 9.46444830076e-39
0.00969385696694 -0.198724067822 0.873 5.87998288096e-39
0.0112835902878 -0.198268800771 0.871 6.88766221185e-39
0.0128955317575 -0.198268800771 0.871 6.79582671569e-39
0.0145074732272 -0.198268800771 0.871 6.15297824259e-39
0.0161194146968 -0.198268800771 0.871 6.61215572338e-39
0.0177313561665 -0.198268800771 0.871 6.3366492349e-39
0.0191878405943 -0.196675366092 0.864 7.4386751888e-39
0.0207868273105 -0.196675366092 0.864 6.61215572338e-39
0.0223858140267 -0.196675366092 0.864 1.35189274424e-38
0.0242901627894 -0.199179334873 0.875 3.489748854e-39
0.0259095069754 -0.199179334873 0.875 1.79486168595e-38
0.0276232357939 -0.19986223545 0.878 5.60196526564e-39
0.0295479420264 -0.20191093718 0.887 6.52032022722e-39
-0.0324979244634 -0.198237339227 0.878 0.0
-0.0308730282403 -0.198237339227 0.878 5.61818809796e-39
-0.0290815709008 -0.197108424994 0.873 5.52304553743e-39
-0.027465928073 -0.197108424994 0.873 6.34921607953e-39
-0.0258502852452 -0.197108424994 0.873 8.73156920392e-39
-0.0242346424173 -0.197108424994 0.873 8.18125267231e-39
-0.0226708186035 -0.197559990687 0.875 7.90430985291e-39
-0.0210514744175 -0.197559990687 0.875 8.08869831004e-39
-0.0193877139339 -0.197108424994 0.873 7.8096044975e-39
-0.0177720711061 -0.197108424994 0.873 7.16316870032e-39
-0.0161194146968 -0.196656859301 0.871 1.27903279111e-38
-0.0145074732272 -0.196656859301 0.871 6.34382388304e-39
-0.0128659208924 -0.196205293608 0.869 1.28814319294e-38
-0.0112576807808 -0.196205293608 0.869 6.247683598e-39
-0.00962723252043 -0.195753727915 0.867 8.35849170468e-39
-0.00799493358098 -0.195076379376 0.864 8.26914071069e-39
-0.00639594686478 -0.195076379376 0.864 8.17802267935e-39
-0.00479696014859 -0.195076379376 0.864 8.2694994431e-39
-0.00319797343239 -0.195076379376 0.864 8.4524529706e-39
-0.0015989867162 -0.195076379376 0.864 8.91485904306e-39
0.0 -0.195076379376 0.864 7.07133320417e-39
0.0015989867162 -0.195076379376 0.864 5.96930725027e-39
0.00320907750681 -0.195753727915 0.867 6.06114274643e-39
0.00481361626021 -0.195753727915 0.867 6.79582671569e-39
0.00641815501362 -0.195753727915 0.867 6.3366492349e-39
0.00804120055772 -0.196205293608 0.869 6.15297824259e-39
0.0096716488181 -0.196656859301 0.871 6.88766221185e-39
0.0112835902878 -0.196656859301 0.871 4.86728129637e-39
0.0128659208924 -0.196205293608 0.869 4.31626831943e-39
0.0144741610039 -0.196205293608 0.869 4.86728129637e-39
0.0160824011154 -0.196205293608 0.869 5.60196526564e-39
0.017690641227 -0.196205293608 0.869 6.3366492349e-39
0.0191878405943 -0.195076379376 0.864 6.15297824259e-39
0.0207868273105 -0.195076379376 0.864 6.24481373874e-39
0.0223339950128 -0.194624813683 0.862 5.78563625795e-39
0.0239292803708 -0.194624813683 0.862 5.14278778485e-39
0.0256726200545 -0.195753727915 0.867 7.71418167727e-39
0.0272771588079 -0.195753727915 0.867 7.25500419648e-39
-0.0324979244634 -0.196612443004 0.878 0.0
-0.0308730282403 -0.196612443004 0.878 6.81601242007e-39
-0.0290815709008 -0.195492782167 0.873 3.6827468889e-39
-0.0274030049846 -0.195044917832 0.871 6.25705828472e-39
-0.0257910635149 -0.195044917832 0.871 7.62809570871e-39
-0.0241791220453 -0.195044917832 0.871 7.81175689194e-39
-0.0226189995895 -0.195492782167 0.873 7.81104222972e-39
-0.0209552391059 -0.195044917832 0.871 7.71669280412e-39
-0.0193432976362 -0.195044917832 0.871 7.16316870032e-39
-0.017690641227 -0.194597053497 0.869 6.52032022722e-39
-0.0160824011154 -0.194597053497 0.869 6.42848473106e-39
-0.0144741610039 -0.194597053497 0.869 7.25500419648e-39
-0.0128363100272 -0.194149189162 0.867 8.90804312733e-39
-0.0111929070134 -0.19347739266 0.864 1.18467790044e-38
-0.00959392029717 -0.19347739266 0.864 8.17335915806e-39
-0.00797642679028 -0.193029528325 0.862 8.63648689922e-39
-0.00638114143223 -0.193029528325 0.862 7.90108126125e-39
-0.00477475199975 -0.19258166399 0.86 8.27129310514e-39
-0.00318316799983 -0.19258166399 0.86 7.89928759921e-39
-0.00159158399992 -0.19258166399 0.86 1.25169275742e-38
0.0 -0.19258166399 0.86 5.6938007618e-39
0.00159158399992 -0.19258166399 0.86 5.6938007618e-39
0.00319057071611 -0.193029528325 0.862 6.06114274643e-39
0.00478585607417 -0.193029528325 0.862 5.87747175411e-39
0.00638114143223 -0.193029528325 0.862 3.76525534248e-39
0.00802269376702 -0.194149189162 0.867 1.35192231164e-38
0.00962723252043 -0.194149189162 0.867 1.72102152454e-38
0.0112317712738 -0.194149189162 0.867 1.78581210047e-38
0.0128363100272 -0.194149189162 0.867 1.55546371618e-38
0.0144408487806 -0.194149189162 0.867 1.3340899479e-38
0.016045387534 -0.194149189162 0.867 9.82678905118e-39
0.0176499262875 -0.194149189162 0.867 1.11120950351e-38
0.0191434242967 -0.193029528325 0.862 9.73456259275e-39
0.0207387096547 -0.193029528325 0.862 8.54070114269e-39
0.0223339950128 -0.193029528325 0.862 6.15297824259e-39
0.0239292803708 -0.193029528325 0.862 5.6938007618e-39
0.0255245657289 -0.193029528325 0.862 6.52032302981e-39
0.0271827741753 -0.19347739266 0.864 6.61215572338e-39
-0.0308730282403 -0.194987546781 0.878 6.81384180875e-39
-0.0289483220078 -0.192988813385 0.869 4.41707212576e-39
-0.027119851087 -0.191434242967 0.862 6.07416641435e-39
-0.0255245657289 -0.191434242967 0.862 7.72063886059e-39
-0.0239292803708 -0.191434242967 0.862 7.71920393097e-39
-0.0224635425477 -0.192544650409 0.867 8.08726338041e-39
-0.0208590037943 -0.192544650409 0.867 6.79582671569e-39
-0.0192544650409 -0.192544650409 0.867 1.57436891402e-38
-0.0175888538782 -0.191878405943 0.864 1.86014243608e-38
-0.015989867162 -0.191878405943 0.864 1.92486476877e-38
-0.0143908804458 -0.191878405943 0.864 2.00820040883e-38
-0.0127918937296 -0.191878405943 0.864 2.26576957632e-38
-0.0111669975064 -0.191434242967 0.862 2.27502725462e-38
-0.0095495039995 -0.19099007999 0.86 5.79245217368e-39
-0.00795791999959 -0.19099007999 0.86 7.71418167727e-39
-0.00635153056711 -0.190545917013 0.858 8.36169787556e-39
-0.00476364792533 -0.190545917013 0.858 8.36205240407e-39
-0.00317576528356 -0.190545917013 0.858 7.34863335467e-39
-0.00158788264178 -0.190545917013 0.858 1.06740897728e-38
0.0 -0.190545917013 0.858 4.40810381558e-39
0.00158788264178 -0.190545917013 0.858 7.07133320417e-39
0.00317576528356 -0.190545917013 0.858 6.15297824259e-39
0.00476364792533 -0.190545917013 0.858 1.92253328839e-38
0.00635153056711 -0.190545917013 0.858 1.77651462529e-38
0.00793941320889 -0.190545917013 0.858 1.64720196222e-38
0.0095495039995 -0.19099007999 0.86 2.34710542334e-38
0.0111410879994 -0.19099007999 0.86 2.2932518418e-38
0.0127326719993 -0.19099007999 0.86 2.21960197672e-38
0.0143575682225 -0.191434242967 0.862 1.42639179619e-38
0.0159528535806 -0.191434242967 0.862 2.01698809163e-38
0.0175481389386 -0.191434242967 0.862 2.02653233547e-38
0.019099007999 -0.19099007999 0.86 1.92515203496e-38
0.0206905919989 -0.19099007999 0.86 1.56559132057e-38
0.0222821759988 -0.19099007999 0.86 1.61168703355e-38
0.0238737599988 -0.19099007999 0.86 1.03939127566e-38
0.0254653439987 -0.19099007999 0.86 6.61215572338e-39
0.027119851087 -0.191434242967 0.862 6.15297824259e-39
-0.0301697701938 -0.188958034372 0.858 1.03097157383e-38
-0.028581887552 -0.188958034372 0.858 2.20405190779e-39
-0.0269940049102 -0.188958034372 0.858 5.70745921793e-39
-0.0254061222684 -0.188958034372 0.858 7.35258501634e-39
-0.0238182396267 -0.188958034372 0.858 7.44441490731e-39
-0.0222303569849 -0.188958034372 0.858 7.71597533931e-39
-0.0206905919989 -0.18939849599 0.86 5.6938007618e-39
-0.019099007999 -0.18939849599 0.86 1.90646347786e-38
-0.0174667090596 -0.188958034372 0.858 2.07175531977e-38
-0.0158788264178 -0.188958034372 0.858 1.7029802272e-38
-0.014290943776 -0.188958034372 0.858 1.67622397446e-38
-0.0127030611342 -0.188958034372 0.858 2.11746567568e-38
-0.0111151784924 -0.188958034372 0.858 1.84163688856e-38
-0.00952729585067 -0.188958034372 0.858 9.75754248626e-39
-0.00792090641819 -0.188517572753 0.856 6.88766221185e-39
-0.00633672513455 -0.188517572753 0.856 8.27093437273e-39
-0.00475254385092 -0.188517572753 0.856 8.17909887657e-39
-0.00316836256728 -0.188517572753 0.856 6.89268446555e-39
-0.00158418128364 -0.188517572753 0.856 9.65962255217e-39
0.0 -0.188077111134 0.854 3.94892633479e-39
0.0015804799255 -0.188077111134 0.854 1.68322149847e-38
0.003160959851 -0.188077111134 0.854 1.3434560867e-38
0.0047414397765 -0.188077111134 0.854 1.98713258707e-38
0.006321919702 -0.188077111134 0.854 1.9236310656e-38
0.0079023996275 -0.188077111134 0.854 2.2645727273e-38
0.00948287955299 -0.188077111134 0.854 1.64683286021e-38
0.0110633594785 -0.188077111134 0.854 2.17335968792e-38
0.0126734502691 -0.188517572753 0.856 1.95262743408e-38
0.0142576315527 -0.188517572753 0.856 4.77544580022e-39
0.0158418128364 -0.188517572753 0.856 1.38920063429e-38
0.0174667090596 -0.188958034372 0.858 9.29260426749e-39
0.0190545917013 -0.188958034372 0.858 9.94407493004e-39
0.0206424743431 -0.188958034372 0.858 5.69382458387e-39
0.0222303569849 -0.188958034372 0.858 8.26519465422e-39
0.0238182396267 -0.188958034372 0.858 2.20120040555e-38
0.0254061222684 -0.188958034372 0.858 1.73085191353e-38
0.0269940049102 -0.188958034372 0.858 5.32645877716e-39
0.028581887552 -0.188958034372 0.858 5.96930725027e-39
-0.0316836256728 -0.186933391469 0.856 0.0
-0.0300994443891 -0.186933391469 0.856 9.29695109532e-39
-0.028448638659 -0.186496631209 0.854 2.29588740395e-39
-0.0268681587335 -0.186496631209 0.854 7.36592257513e-39
-0.025287678808 -0.186496631209 0.854 7.99399295463e-39
-0.0237071988825 -0.186496631209 0.854 9.10177964651e-39
-0.022126718957 -0.186496631209 0.854 8.82697240597e-39
-0.0205462390315 -0.186496631209 0.854 5.23462328101e-39
-0.018965759106 -0.186496631209 0.854 2.0170940298e-38
-0.0173852791805 -0.186496631209 0.854 1.95191095017e-38
-0.015804799255 -0.186496631209 0.854 1.73100395441e-38
-0.0142243193295 -0.186496631209 0.854 1.85143350625e-38
-0.012643839404 -0.186496631209 0.854 2.05328480472e-38
-0.0110633594785 -0.186496631209 0.854 1.68476040444e-38
-0.00948287955299 -0.186496631209 0.854 1.27077676094e-38
-0.00787463944145 -0.185841490818 0.851 6.52032022722e-39
-0.00629971155316 -0.185841490818 0.851 7.90323785959e-39
-0.00472478366487 -0.185841490818 0.851 8.36241113648e-39
-0.0031424530603 -0.185404730558 0.849 7.8096044975e-39
-0.00157122653015 -0.185404730558 0.849 9.29084143402e-39
0.0 -0.185841490818 0.851 4.50137424137e-39
0.00157492788829 -0.185841490818 0.851 8.0815236619e-39
0.00314985577658 -0.185841490818 0.851 8.91521777546e-39
0.00472478366487 -0.185841490818 0.851 1.8113555294e-38
0.00629971155316 -0.185841490818 0.851 1.97902061039e-38
0.0079023996275 -0.186496631209 0.854 1.84983952925e-38
0.00948287955299 -0.186496631209 0.854 1.88693246012e-38
0.0110633594785 -0.186496631209 0.854 2.21008519833e-38
0.012643839404 -0.186496631209 0.854 1.85097037711e-38
0.0142243193295 -0.186496631209 0.854 3.94892633479e-39
0.015804799255 -0.186496631209 0.854 1.1774736849e-38
0.0173852791805 -0.186496631209 0.854 1.04061474935e-38
0.018965759106 -0.186496631209 0.854 2.20405190779e-39
0.0205943566873 -0.186933391469 0.856 2.18230585757e-38
0.0221785379709 -0.186933391469 0.856 2.10017967821e-38
0.0237627192546 -0.186933391469 0.856 2.25655253567e-38
0.0253469005382 -0.186933391469 0.856 1.52766195464e-38
0.0269310818219 -0.186933391469 0.856 1.62807591974e-38
0.028448638659 -0.186496631209 0.854 1.07447530505e-38
0.0300291185845 -0.186496631209 0.854 7.4386751888e-39
-0.0330734856541 -0.18426656293 0.851 0.0
-0.0314985577658 -0.18426656293 0.851 9.1835496158e-41
-0.0300291185845 -0.184916151283 0.854 6.90273597943e-39
-0.028448638659 -0.184916151283 0.854 3.67341984632e-39
-0.0267737741009 -0.18426656293 0.851 8.93209921806e-39
-0.0251988462126 -0.18426656293 0.851 6.24481794264e-39
-0.0236239183244 -0.18426656293 0.851 7.16532109476e-39
-0.0220489904361 -0.18426656293 0.851 7.07133320417e-39
-0.0204740625478 -0.18426656293 0.851 5.23462328101e-39
-0.0188991346595 -0.18426656293 0.851 2.1366637449e-38
-0.0173242067712 -0.18426656293 0.851 1.9981120408e-38
-0.0157122653015 -0.183833504028 0.849 1.26992280966e-38
-0.0141410387714 -0.183833504028 0.849 1.95277583158e-38
-0.0125698122412 -0.183833504028 0.849 1.841158205e-38
-0.0109985857111 -0.183833504028 0.849 1.47313757153e-38
-0.0094273591809 -0.183833504028 0.849 1.57495283509e-38
-0.00785613265075 -0.183833504028 0.849 6.15297824259e-39
-0.0062849061206 -0.183833504028 0.849 7.81032196231e-39
-0.00471367959045 -0.183833504028 0.849 8.27129310514e-39
-0.00313505034402 -0.183400445125 0.847 7.99471041944e-39
-0.00156752517201 -0.183400445125 0.847 6.43207205513e-39
0.0 -0.183833504028 0.849 9.01279299013e-39
0.00156752517201 -0.183400445125 0.847 6.06114274643e-39
0.00312764762774 -0.182967386223 0.845 4.22443282327e-39
0.00469147144162 -0.182967386223 0.845 8.5475408805e-39
0.00625529525549 -0.182967386223 0.845 1.74017545286e-38
0.00781911906936 -0.182967386223 0.845 1.91498533434e-38
0.0094273591809 -0.183833504028 0.849 1.71144056668e-38
0.0109208571901 -0.182534327321 0.843 2.34770545934e-38
0.0124809796459 -0.182534327321 0.843 2.12751396658e-38
0.0140411021016 -0.182534327321 0.843 7.81749661045e-39
0.0156012245573 -0.182534327321 0.843 1.02941865488e-38
0.0171613470131 -0.182534327321 0.843 1.10478861382e-38
0.0187658857665 -0.182967386223 0.845 5.5165869528e-39
0.0203297095803 -0.182967386223 0.845 1.58407318614e-38
0.0219453524082 -0.183400445125 0.847 2.11912411241e-38
0.0236239183244 -0.18426656293 0.851 2.24718527582e-38
0.0251988462126 -0.18426656293 0.851 2.03503121066e-38
0.0267737741009 -0.18426656293 0.851 1.78322824623e-38
0.0283487019892 -0.18426656293 0.851 1.95015414229e-38
0.0299236298775 -0.18426656293 0.851 7.80601717343e-39
0.0314985577658 -0.18426656293 0.851 4.49993931174e-39
-0.0346484135424 -0.182691635042 0.851 0.0
-0.0330734856541 -0.182691635042 0.851 0.0
-0.0314985577658 -0.182691635042 0.851 1.03989616349e-38
-0.0299236298775 -0.182691635042 0.851 4.49993931174e-39
-0.0283487019892 -0.182691635042 0.851 7.44948060126e-39
-0.0267108510126 -0.182262277497 0.849 6.07656823992e-39
-0.0251396244824 -0.182262277497 0.849 6.15550898761e-39
-0.0235683979523 -0.182262277497 0.849 7.07384433101e-39
-0.0219971714221 -0.182262277497 0.849 7.53122814977e-39
-0.020425944892 -0.182262277497 0.849 5.6938007618e-39
-0.0187658857665 -0.181403562409 0.845 2.19155078406e-38
-0.0172020619526 -0.181403562409 0.845 1.78617153352e-38
-0.0156012245573 -0.180974204865 0.843 1.45470461127e-38
-0.0140411021016 -0.180974204865 0.843 2.1092893794e-38
-0.012510590511 -0.181403562409 0.845 1.6756166517e-38
-0.0109467666971 -0.181403562409 0.845 2.08224081579e-38
-0.00938294288323 -0.181403562409 0.845 1.8145542734e-38
-0.00783762586006 -0.181832919953 0.847 7.07133320417e-39
-0.00627010068805 -0.181832919953 0.847 6.89268446555e-39
-0.00470257551603 -0.181832919953 0.847 7.81103942713e-39
-0.00312764762774 -0.181403562409 0.845 7.53876153031e-39
-0.00156382381387 -0.181403562409 0.845 6.43278951994e-39
0.0 -0.181403562409 0.845 1.05805040549e-38
0.00156382381387 -0.181403562409 0.845 4.95911679253e-39
0.00311284219519 -0.180544847321 0.841 5.51012976948e-39
0.00466926329278 -0.180544847321 0.841 4.40810381558e-39
0.00622568439037 -0.180544847321 0.841 3.30607786169e-39
0.00780061227866 -0.180974204865 0.843 1.61053642738e-38
0.00933852658556 -0.180544847321 0.841 1.66588323257e-38
0.0108949476832 -0.180544847321 0.841 1.987998029e-38
0.0124217579156 -0.180115489777 0.839 2.16421453388e-38
0.0139744776551 -0.180115489777 0.839 1.42682465728e-38
0.0155271973945 -0.180115489777 0.839 9.91823358506e-39
0.0171206320735 -0.180544847321 0.841 9.19899893137e-39
0.0186770531711 -0.180544847321 0.841 1.26098420701e-38
0.0202815919245 -0.180974204865 0.843 1.14117725208e-38
0.0218417143803 -0.180974204865 0.843 2.0917182177e-38
0.0234573572081 -0.181403562409 0.845 2.06287192829e-38
0.0250804027522 -0.181832919953 0.847 1.43514486691e-38
0.0266479279242 -0.181832919953 0.847 1.84801672021e-38
0.0281488286497 -0.181403562409 0.845 1.73849907951e-38
0.0295720008543 -0.180544847321 0.841 1.09392476721e-38
0.0311284219519 -0.180544847321 0.841 5.78563625795e-39
-0.0346484135424 -0.181116707153 0.851 0.0
-0.0329957571332 -0.180691050967 0.849 4.05336370804e-39
-0.031424530603 -0.180691050967 0.849 1.64892934284e-38
-0.0298533040729 -0.180691050967 0.849 3.85709083864e-39
-0.0282820775427 -0.180691050967 0.849 9.20011016105e-39
-0.0266479279242 -0.180265394781 0.847 6.90273597943e-39
-0.0250804027522 -0.180265394781 0.847 7.25715659092e-39
-0.0235128775802 -0.180265394781 0.847 7.44118631565e-39
-0.0219453524082 -0.180265394781 0.847 7.80852830028e-39
-0.0202334742687 -0.178988426223 0.841 5.60196526564e-39
-0.0186770531711 -0.178988426223 0.841 2.21917584186e-38
-0.017079917134 -0.178562770037 0.839 1.69408506481e-38
-0.0155271973945 -0.178562770037 0.839 1.5655191537e-38
-0.0140411021016 -0.179414082409 0.843 2.155135381e-38
-0.0124809796459 -0.179414082409 0.843 1.22364002333e-38
-0.0109208571901 -0.179414082409 0.843 2.14641622169e-38
-0.0093607347344 -0.179414082409 0.843 2.01691452346e-38
-0.00780061227866 -0.179414082409 0.843 7.4386751888e-39
-0.00625529525549 -0.179839738595 0.845 8.35990000963e-39
-0.0046803673672 -0.179414082409 0.843 7.53409800902e-39
-0.00311284219519 -0.178988426223 0.841 6.98272629967e-39
-0.00155642109759 -0.178988426223 0.841 5.41829427332e-39
0.0 -0.178988426223 0.841 8.46182765733e-39
0.00155642109759 -0.178988426223 0.841 6.99277080706e-39
0.00309803676263 -0.178137113851 0.837 5.23462328101e-39
0.00464705514394 -0.178137113851 0.837 6.06114274643e-39
0.00619607352526 -0.178137113851 0.837 5.78563625795e-39
0.00768957153448 -0.176860145293 0.831 2.47955839627e-39
0.00922748584138 -0.176860145293 0.831 5.60196526564e-39
0.0108431286692 -0.178137113851 0.837 1.62836724969e-38
0.0123625361854 -0.177711457665 0.835 1.82366299368e-38
0.0139078532086 -0.177711457665 0.835 1.94352277756e-38
0.0154531702318 -0.177711457665 0.835 1.03874835992e-38
0.0169984872549 -0.177711457665 0.835 1.48186121499e-38
0.0185882205758 -0.178137113851 0.837 1.05722027628e-38
0.0202334742687 -0.178988426223 0.841 3.76525534248e-39
0.0217898953663 -0.178988426223 0.841 2.13741750335e-38
0.023401836836 -0.179414082409 0.843 2.20116285075e-38
0.0249619592917 -0.179414082409 0.843 2.21935058378e-38
0.0265850048358 -0.179839738595 0.845 1.20408532365e-38
0.0280822042032 -0.179414082409 0.843 1.74753913616e-38
0.0295016750496 -0.178562770037 0.839 9.1835496158e-39
0.0310543947891 -0.178562770037 0.839 7.07133320417e-39
0.0325293860076 -0.178137113851 0.837 4.40810381558e-39
0.0340784043889 -0.178137113851 0.837 1.70420300024e-38
-0.0329180286122 -0.178697869609 0.847 4.41929598642e-39
-0.0313505034402 -0.178697869609 0.847 1.38224094534e-38
-0.0297829782682 -0.178697869609 0.847 3.95574225052e-39
-0.0282154530962 -0.178697869609 0.847 6.89986892277e-39
-0.0265220817475 -0.177853959954 0.843 7.36118898891e-39
-0.0249027375615 -0.177432005126 0.841 7.62234618111e-39
-0.0233463164639 -0.177432005126 0.841 7.53122814977e-39
-0.0217898953663 -0.177432005126 0.841 7.89928759921e-39
-0.0201372389571 -0.17658809547 0.837 5.60196526564e-39
-0.0185882205758 -0.17658809547 0.837 2.15446037553e-38
-0.0170392021945 -0.17658809547 0.837 1.72192760413e-38
-0.0154901838131 -0.17658809547 0.837 1.1691498319e-38
-0.0139744776551 -0.177010050298 0.839 2.24726290776e-38
-0.0124217579156 -0.177010050298 0.839 1.5186656185e-38
-0.0108690381762 -0.177010050298 0.839 2.16439572177e-38
-0.00931631843672 -0.177010050298 0.839 2.2197821837e-38
-0.00778210548797 -0.177432005126 0.841 7.25500419648e-39
-0.00622568439037 -0.177432005126 0.841 8.44922437894e-39
-0.00466926329278 -0.177432005126 0.841 7.44191218825e-39
-0.00309803676263 -0.17658809547 0.837 6.98344376448e-39
-0.00153421294876 -0.174900276158 0.829 5.32645877716e-39
0.0 -0.174900276158 0.829 8.0944814688e-39
0.0015379143069 -0.175322230986 0.831 6.81053474437e-39
0.00307582861379 -0.175322230986 0.831 7.17501107365e-39
0.00461374292069 -0.175322230986 0.831 8.64724466753e-39
0.00615165722759 -0.175322230986 0.831 9.29082181584e-39
0.00768957153448 -0.175322230986 0.831 1.00330335605e-38
0.00922748584138 -0.175322230986 0.831 6.80515375827e-39
0.0107654001483 -0.175322230986 0.831 4.5917748079e-39
0.0123033144552 -0.175322230986 0.831 4.13259732711e-39
0.0138412287621 -0.175322230986 0.831 6.15297824259e-39
0.015379143069 -0.175322230986 0.831 1.08387479476e-38
0.0169170573759 -0.175322230986 0.831 1.32480844752e-38
0.0184993879804 -0.175744185814 0.833 1.65767148344e-38
0.0200410036455 -0.175744185814 0.833 1.24322695287e-38
0.0216344383245 -0.176166140642 0.835 1.87924045259e-38
0.0232907960918 -0.177010050298 0.839 2.15535468421e-38
0.0249027375615 -0.177432005126 0.841 2.01684417828e-38
0.0265220817475 -0.177853959954 0.843 2.01657835196e-38
0.0280155797567 -0.177432005126 0.841 1.25097725442e-38
0.0295016750496 -0.177010050298 0.839 7.16316870032e-39
0.0310543947891 -0.177010050298 0.839 7.07133320417e-39
0.0325293860076 -0.17658809547 0.837 4.95911679253e-39
0.0340784043889 -0.17658809547 0.837 1.82338203334e-38
-0.0329180286122 -0.177130344437 0.847 8.6558542453e-39
-0.0313505034402 -0.177130344437 0.847 7.91868016866e-39
-0.0295016750496 -0.175457330558 0.839 6.9020325276e-39
-0.0279489553102 -0.175457330558 0.839 2.11221641163e-39
-0.0263962355707 -0.175457330558 0.839 9.57851399576e-39
-0.024784294101 -0.175039077089 0.837 7.16316870032e-39
-0.0232352757197 -0.175039077089 0.837 7.53230434699e-39
-0.0216344383245 -0.174620823619 0.835 7.62449857555e-39
-0.0200891213013 -0.174620823619 0.835 5.60196526564e-39
-0.0185438042781 -0.174620823619 0.835 2.34720799839e-38
-0.0169984872549 -0.174620823619 0.835 2.01716843875e-38
-0.0154531702318 -0.174620823619 0.835 1.8145918282e-38
-0.0139078532086 -0.174620823619 0.835 2.10933071771e-38
-0.0123625361854 -0.174620823619 0.835 1.99879881718e-38
-0.0108172191622 -0.174620823619 0.835 2.00816327443e-38
-0.00927190213905 -0.174620823619 0.835 2.00820265091e-38
-0.00772658511588 -0.174620823619 0.835 5.60196526564e-39
-0.0061812680927 -0.174620823619 0.835 8.17479408769e-39
-0.00462484699511 -0.174202570149 0.833 7.71848646615e-39
-0.00308323133007 -0.174202570149 0.833 6.89089080351e-39
-0.00153421294876 -0.17336606321 0.829 5.51012976948e-39
0.0 -0.17336606321 0.829 4.5917748079e-39
0.00153421294876 -0.17336606321 0.829 8.09981901465e-39
0.00306842589751 -0.17336606321 0.829 8.46752533689e-39
0.00460263884627 -0.17336606321 0.829 8.64939706197e-39
0.00613685179503 -0.17336606321 0.829 8.28097888012e-39
0.00767106474379 -0.17336606321 0.829 6.99384700428e-39
0.00920527769254 -0.17336606321 0.829 5.88428766984e-39
0.0107394906413 -0.17336606321 0.829 7.82216013174e-39
0.0122737035901 -0.17336606321 0.829 4.40810381558e-39
0.0138412287621 -0.173784316679 0.831 7.35545767819e-39
0.0153421294876 -0.17336606321 0.829 7.6381402161e-39
0.0168763424363 -0.17336606321 0.829 4.78082678632e-39
0.0184549716828 -0.173784316679 0.831 4.04076183095e-39
0.0199928859897 -0.173784316679 0.831 5.41829427332e-39
0.0215826193105 -0.174202570149 0.833 5.41829427332e-39
0.0231242349755 -0.174202570149 0.833 6.24481373874e-39
0.0247250723708 -0.174620823619 0.835 8.54070114269e-39
0.0263333124823 -0.175039077089 0.837 7.89785266959e-39
0.0279489553102 -0.175457330558 0.839 4.22443282327e-39
0.029431349245 -0.175039077089 0.837 6.24481373874e-39
0.0309803676263 -0.175039077089 0.837 7.16316870032e-39
0.0325293860076 -0.175039077089 0.837 5.6938007618e-39
0.0340784043889 -0.175039077089 0.837 1.96048955924e-38
-0.0292906976357 -0.172660954484 0.833 1.01249587397e-38
-0.0277490819706 -0.172660954484 0.833 1.744874427e-39
-0.026270389394 -0.173075506596 0.835 1.00405963683e-38
-0.0247250723708 -0.173075506596 0.835 6.79583792608e-39
-0.0231797553476 -0.173075506596 0.835 7.07492052823e-39
-0.0216344383245 -0.173075506596 0.835 7.80888703268e-39
-0.0200410036455 -0.172660954484 0.833 5.51012976948e-39
-0.0184993879804 -0.172660954484 0.833 1.48060312923e-38
-0.0169577723154 -0.172660954484 0.833 1.36190390073e-38
-0.0154161566504 -0.172660954484 0.833 8.26952186388e-39
-0.0138412287621 -0.172246402372 0.831 8.0815236619e-39
-0.0123033144552 -0.172246402372 0.831 7.98968816575e-39
-0.0107913096553 -0.172660954484 0.833 6.3366492349e-39
-0.00922748584138 -0.172246402372 0.831 3.85709083864e-39
-0.00768957153448 -0.172246402372 0.831 7.07456179583e-39
-0.00615165722759 -0.172246402372 0.831 7.17357194012e-39
-0.00461374292069 -0.172246402372 0.831 7.17536560216e-39
-0.00306842589751 -0.171831850261 0.829 6.9009353109e-39
-0.00153421294876 -0.171831850261 0.829 7.36194148619e-39
0.0 -0.171417298149 0.827 4.87158608526e-39
0.00153051159062 -0.171417298149 0.827 8.46895746392e-39
0.00306842589751 -0.171831850261 0.829 1.09578835404e-38
0.00460263884627 -0.171831850261 0.829 9.02540327501e-39
0.00613685179503 -0.171831850261 0.829 7.27294782332e-39
0.00767106474379 -0.171831850261 0.829 4.59859072363e-39
0.00920527769254 -0.171831850261 0.829 3.85960196548e-39
0.0107394906413 -0.171831850261 0.829 3.49118378363e-39
0.0122737035901 -0.171831850261 0.829 3.1292227851e-39
0.0138079165388 -0.171831850261 0.829 2.39023402696e-39
0.0153421294876 -0.171831850261 0.829 9.1835496158e-40
0.0168763424363 -0.171831850261 0.829 5.51012976948e-40
0.0184105553851 -0.171831850261 0.829 4.04112056336e-39
0.0199447683338 -0.171831850261 0.829 6.4306371255e-39
0.0215308002966 -0.172246402372 0.831 8.09515549336e-39
0.0230687146034 -0.172246402372 0.831 8.46721424863e-39
0.0246066289103 -0.172246402372 0.831 5.88679879669e-39
0.0262074663056 -0.172660954484 0.833 5.78742991999e-39
0.0278157064172 -0.173075506596 0.835 7.07133320417e-39
0.0293610234403 -0.173075506596 0.835 6.61215572338e-39
0.0309063404635 -0.173075506596 0.835 6.42848473106e-39
0.0324516574867 -0.173075506596 0.835 5.41829427332e-39
0.0339969745099 -0.173075506596 0.835 1.41703953023e-38
-0.0309063404635 -0.171530189572 0.835 1.0308591897e-38
-0.0292906976357 -0.171119338819 0.833 1.00366152793e-38
-0.0277490819706 -0.171119338819 0.833 1.65303893084e-39
-0.0262074663056 -0.171119338819 0.833 9.85509668145e-39
-0.0246658506406 -0.171119338819 0.833 6.70399542343e-39
-0.0231242349755 -0.171119338819 0.833 7.16603855958e-39
-0.0215308002966 -0.170708488066 0.831 7.53625040347e-39
-0.0199928859897 -0.170708488066 0.831 7.44620856934e-39
-0.0184549716828 -0.170708488066 0.831 5.69559442383e-39
-0.0169170573759 -0.170708488066 0.831 5.41829427332e-39
-0.015379143069 -0.170708488066 0.831 6.52785360776e-39
-0.0138079165388 -0.170297637312 0.829 9.66433371761e-39
-0.0122737035901 -0.170297637312 0.829 4.68361030406e-39
-0.0107394906413 -0.170297637312 0.829 4.86728129637e-39
-0.00920527769254 -0.170297637312 0.829 2.93873587706e-39
-0.00767106474379 -0.170297637312 0.829 1.92854541932e-39
-0.00613685179503 -0.170297637312 0.829 1.744874427e-39
-0.00460263884627 -0.170297637312 0.829 9.1835496158e-40
-0.00306842589751 -0.170297637312 0.829 1.46936793853e-39
-0.00153051159062 -0.169886786559 0.827 1.19386145005e-39
0.0 -0.169886786559 0.827 1.65303893084e-39
0.00153051159062 -0.169886786559 0.827 3.67341984632e-39
0.00306102318124 -0.169886786559 0.827 4.68361030406e-39
0.00459153477185 -0.169886786559 0.827 9.1835496158e-40
0.00612204636247 -0.169886786559 0.827 0.0
0.00765255795309 -0.169886786559 0.827 1.56120343469e-39
0.00918306954371 -0.169886786559 0.827 2.20405190779e-39
0.0107135811343 -0.169886786559 0.827 2.02038091548e-39
0.0122737035901 -0.170297637312 0.829 1.1020259539e-39
0.0138079165388 -0.170297637312 0.829 1.19386145005e-39
0.0153421294876 -0.170297637312 0.829 1.65303893084e-39
0.0168356274968 -0.169886786559 0.827 7.34683969264e-40
0.0183661390874 -0.169886786559 0.827 1.37753244237e-39
0.0199447683338 -0.170297637312 0.829 7.34683969264e-40
0.0214789812826 -0.170297637312 0.829 0.0
0.0230131942314 -0.170297637312 0.829 0.0
