# .PCD v0.7 - Point Cloud Data file format
VERSION 0.7
FIELDS x y z rgb
SIZE 4 4 4 4
TYPE F F F F
COUNT 1 1 1 1
WIDTH 853
HEIGHT 1
VIEWPOINT 0 0 0 1 0 0 0
POINTS 853
DATA ascii
-0.0379648304352 -0.108053748162 0.789 0.0
-0.0364121106958 -0.10777984766 0.787 1.38722522385e-39
-0.0349556262679 -0.10777984766 0.787 1.20284657581e-39
-0.0334991418401 -0.10777984766 0.787 1.20214032138e-39
-0.0318797976542 -0.107232046655 0.783 1.20214032138e-39
-0.0304307159426 -0.107232046655 0.783 1.11029221354e-39
-0.0289076070683 -0.106958146153 0.781 1.1077740802e-39
-0.0274622267148 -0.106958146153 0.781 1.10994469152e-39
-0.0259835341382 -0.106821195901 0.78 2.67619139938e-39
-0.0245400044638 -0.106821195901 0.78 8.66428305556e-39
-0.0230964747895 -0.106821195901 0.78 1.03241379021e-38
-0.0215974247431 -0.106547295399 0.778 2.20143988745e-42
-0.0201575964269 -0.106547295399 0.778 3.87221645426e-39
-0.0186696504548 -0.106273394897 0.776 1.83693413091e-40
-0.0171891071991 -0.105999494394 0.774 7.41508292785e-40
-0.0157363241294 -0.105862544143 0.773 9.83291132417e-41
-0.0142687356272 -0.105588643641 0.771 7.41508292785e-40
-0.0128418620644 -0.105588643641 0.771 3.75547988439e-43
-0.0113853776366 -0.105314743139 0.769 0.0
-0.00996220543204 -0.105314743139 0.769 1.20683747383e-39
-0.00853903322746 -0.105314743139 0.769 7.46785302542e-39
-0.00711586102289 -0.105314743139 0.769 1.06027678849e-38
-0.00567788338575 -0.105040842636 0.767 1.29062587343e-38
-0.0042528605021 -0.104903892385 0.766 1.13349855689e-38
-0.00283524033474 -0.104903892385 0.766 3.59485744922e-39
-0.00141762016737 -0.104903892385 0.766 3.75246709269e-40
0.0 -0.104629991883 0.764 8.1074420783e-39
0.00141391880923 -0.104629991883 0.764 2.75506488474e-40
0.00281673354404 -0.104219141129 0.761 1.016342158e-39
0.00422510031606 -0.104219141129 0.761 1.38582112279e-39
0.00563346708808 -0.104219141129 0.761 1.1095943669e-39
0.0070233270694 -0.103945240627 0.759 1.01739873704e-39
0.00842799248328 -0.103945240627 0.759 1.47801675265e-39
0.00983265789716 -0.103945240627 0.759 0.0
0.0112669341762 -0.104219141129 0.761 1.16116649441e-38
0.0126753009482 -0.104219141129 0.761 1.55713098109e-38
0.0141391880923 -0.104629991883 0.764 1.43684506234e-38
0.015593821841 -0.104903892385 0.766 1.48290882572e-38
0.0170336501573 -0.105040842636 0.767 1.63066944294e-38
0.0185012386595 -0.105314743139 0.769 1.23426929257e-38
0.020028048892 -0.105862544143 0.773 1.54787862772e-38
0.021541904371 -0.106273394897 0.776 1.76936674195e-38
0.0230964747895 -0.106821195901 0.78 1.65876771923e-38
0.0246343890964 -0.107232046655 0.783 1.5940508516e-38
0.0261500952545 -0.107505947157 0.785 1.37271043422e-38
0.0276732041288 -0.10777984766 0.787 1.62138359853e-38
0.0292037157194 -0.108053748162 0.789 1.48291162832e-38
0.0307027657658 -0.108190698413 0.79 1.48309015374e-38
0.032327661989 -0.108738499418 0.794 1.12349566806e-38
0.0341376261192 -0.109834101427 0.802 1.60323285979e-38
0.0359327848167 -0.110792753185 0.809 9.3038146552e-39
0.0374299841841 -0.110792753185 0.809 1.65858232744e-38
0.0391196541747 -0.11134055419 0.813 1.67666159997e-38
0.0406242562583 -0.11134055419 0.813 1.62144987995e-38
0.0426470484815 -0.112710056701 0.823 9.94672338414e-39
0.0441701573558 -0.112710056701 0.823 7.46571604526e-39
0.0459153477185 -0.113257857706 0.827 1.01379235531e-38
0.0476753435138 -0.11380565871 0.831 7.92452078066e-39
0.0492132578207 -0.11380565871 0.831 1.22476414496e-38
0.0509954617648 -0.114353459715 0.835 1.4997657456e-38
0.0527924711414 -0.11490126072 0.839 1.54539622749e-38
0.0546042859506 -0.115449061724 0.843 1.52667263793e-38
0.0564309061924 -0.115996862729 0.847 1.58249504381e-38
0.0582723318667 -0.116544663733 0.851 1.65646552598e-38
0.060058237169 -0.116955514487 0.854 1.67479226781e-38
0.0617830700619 -0.117229414989 0.856 1.53667860961e-38
0.0635153056711 -0.117503315492 0.858 1.66550460172e-38
0.066089600257 -0.119283668757 0.871 1.59199991117e-38
0.0677015417267 -0.119283668757 0.871 1.45367143391e-38
0.0694726415964 -0.119557569259 0.873 1.61043959766e-38
0.0714954338195 -0.120242320515 0.878 1.58288586595e-38
0.0734534522752 -0.120790121519 0.882 1.4721083178e-38
0.0755114074007 -0.121474872775 0.887 1.50877203096e-38
0.0773269235681 -0.121748773277 0.889 1.23221849227e-38
-0.0394749845561 -0.106728661948 0.79 2.30055512913e-39
-0.0379648304352 -0.106593562376 0.789 1.85117132331e-40
-0.0365046446493 -0.106593562376 0.789 1.48053488599e-39
-0.0350444588633 -0.106593562376 0.789 1.38687770183e-39
-0.0334991418401 -0.106323363232 0.787 1.75531410056e-39
-0.0319612275332 -0.106053164087 0.785 1.1095943669e-39
-0.0305084444635 -0.106053164087 0.785 3.69142232769e-39
-0.028981634231 -0.105782964943 0.783 4.3339905411e-39
-0.0274622267148 -0.105512765799 0.781 6.47537217768e-40
-0.0260168463614 -0.105512765799 0.781 3.58732406867e-43
-0.024571466008 -0.105512765799 0.781 2.7597550307e-39
-0.0231260856546 -0.105512765799 0.781 9.39307456478e-39
-0.0216529451152 -0.105377666227 0.78 9.22026924076e-39
-0.0202094154408 -0.105377666227 0.78 1.22605964539e-38
-0.0186696504548 -0.104837267939 0.776 7.92009407881e-39
-0.0172335234968 -0.104837267939 0.776 3.77207125821e-39
-0.0157566815992 -0.104567068795 0.774 4.20389539297e-45
-0.0143057492086 -0.104431969222 0.773 6.50796637996e-40
-0.0128751742877 -0.104431969222 0.773 1.10924404229e-39
-0.0114445993668 -0.104431969222 0.773 8.35894152148e-40
-0.00998811493901 -0.104161770078 0.771 1.10923843709e-39
-0.00853903322746 -0.103891570934 0.769 2.90208911962e-42
-0.00711586102289 -0.103891570934 0.769 1.68155815719e-44
-0.00569268881831 -0.103891570934 0.769 7.00649232162e-45
-0.00425841253931 -0.10362137179 0.767 1.02337149148e-38
-0.00283524033474 -0.103486272218 0.766 8.02496024939e-39
-0.00141762016737 -0.103486272218 0.766 9.68019081103e-39
0.0 -0.103486272218 0.766 1.53862403227e-38
0.00141762016737 -0.103486272218 0.766 6.99575277019e-39
0.00282043490218 -0.10294587393 0.762 1.46941278008e-39
0.00422510031606 -0.102810774357 0.761 1.82168800362e-44
0.00563346708808 -0.102810774357 0.761 3.60413965024e-42
0.0070418338601 -0.102810774357 0.761 2.79473564426e-40
0.00845020063212 -0.102810774357 0.761 1.01774766036e-39
0.00985856740414 -0.102810774357 0.761 0.0
0.0112669341762 -0.102810774357 0.761 9.95357012844e-39
0.0126753009482 -0.102810774357 0.761 1.46489835695e-38
0.0141762016737 -0.103486272218 0.766 1.4737961818e-38
0.0156141793108 -0.10362137179 0.767 1.60276440571e-38
0.0170780664549 -0.103891570934 0.769 1.43699191842e-38
0.0185012386595 -0.103891570934 0.769 1.31717081037e-38
0.020028048892 -0.104431969222 0.773 1.74148973069e-38
0.021541904371 -0.104837267939 0.776 1.77840651834e-38
0.0231260856546 -0.105512765799 0.781 1.66784238795e-38
0.0246343890964 -0.105782964943 0.783 1.45568580045e-38
0.0261500952545 -0.106053164087 0.785 1.34494468606e-38
0.0277435299334 -0.106593562376 0.789 1.90726011603e-38
0.0292407293008 -0.106728661948 0.79 1.86101614567e-38
0.0307804942868 -0.106998861092 0.792 1.16980297711e-38
0.0324905217471 -0.107809458525 0.798 1.25281169424e-38
0.0344355854494 -0.109295553818 0.809 1.52043349665e-38
0.0359327848167 -0.109295553818 0.809 5.339472636e-39
0.0375225181376 -0.109565752962 0.811 1.6954972934e-38
0.0391196541747 -0.109835952106 0.813 1.67666159997e-38
0.0406242562583 -0.109835952106 0.813 1.03154414439e-38
0.0426470484815 -0.111186947827 0.823 1.7881203193e-38
0.0441701573558 -0.111186947827 0.823 1.13389288227e-38
0.0460263884627 -0.111997545259 0.829 1.40998203065e-38
0.0479048277184 -0.112808142692 0.835 1.03111800952e-38
0.0494501447416 -0.112808142692 0.835 1.36212194277e-38
0.0511176065834 -0.113078341836 0.837 1.54489456264e-38
0.0527924711414 -0.11334854098 0.839 1.40649545994e-38
0.0547338334855 -0.114159138413 0.845 1.85914849508e-38
0.0565641550854 -0.114699536701 0.849 1.68458622304e-38
0.0582723318667 -0.114969735845 0.851 1.67536904226e-38
0.060058237169 -0.115375034561 0.854 1.38906022419e-38
0.0617830700619 -0.115645233706 0.856 1.67483178443e-38
0.0636633599967 -0.116185631994 0.86 1.6382409388e-38
0.066089600257 -0.117671727287 0.871 1.61061686191e-38
0.0680124558104 -0.118212125575 0.875 1.67512031178e-38
0.0696317999964 -0.118212125575 0.875 1.65710942262e-38
0.0716582935777 -0.118887623436 0.88 1.66639961105e-38
0.0734534522752 -0.11915782258 0.882 1.47218090507e-38
0.0755114074007 -0.11983332044 0.887 1.45341934032e-38
0.0773269235681 -0.120103519584 0.889 1.45302305311e-38
-0.0395749212258 -0.105533123269 0.792 8.3854807131e-39
-0.038012948091 -0.105266625483 0.79 1.40129846432e-44
-0.036550911626 -0.105266625483 0.79 1.75566162258e-39
-0.0350444588633 -0.10513337659 0.789 1.66346459142e-39
-0.0335842730773 -0.10513337659 0.789 1.84750973042e-39
-0.0320426574123 -0.104866878804 0.787 1.84572727878e-39
-0.0305084444635 -0.104600381018 0.785 1.3861714474e-39
-0.0290556613938 -0.104600381018 0.785 7.10302917413e-39
-0.0275325525195 -0.104333883232 0.783 3.96909382229e-39
-0.0260834708079 -0.104333883232 0.783 4.69953325851e-39
-0.0246343890964 -0.104333883232 0.783 1.47554346086e-39
-0.0231853073848 -0.104333883232 0.783 4.13383046976e-43
-0.0216807053012 -0.104067385446 0.781 1.82168800362e-44
-0.0202094154408 -0.103934136553 0.78 1.10422318989e-42
-0.0187658857665 -0.103934136553 0.78 1.04098651383e-38
-0.0172779397944 -0.103667638767 0.778 1.37335741373e-38
-0.0157973965387 -0.103401140981 0.776 1.93790889566e-39
-0.0143242559993 -0.103134643195 0.774 5.9998457477e-39
-0.0128918303993 -0.103134643195 0.774 1.19888370375e-39
-0.0114594047994 -0.103134643195 0.774 3.58194308257e-39
-0.010014024446 -0.103001394302 0.773 8.26519465422e-40
-0.0085612413763 -0.102734896516 0.771 1.01887290302e-39
-0.00713436781358 -0.102734896516 0.771 1.75496377594e-39
-0.00569268881831 -0.10246839873 0.769 1.75496377594e-39
-0.00425841253931 -0.102201900944 0.767 9.80908925027e-45
-0.00283894169288 -0.102201900944 0.767 4.70415894474e-42
-0.00141947084644 -0.102201900944 0.767 1.47513568301e-39
0.0 -0.10206865205 0.766 8.19423850518e-39
0.00141762016737 -0.10206865205 0.766 1.17022827119e-38
0.00282043490218 -0.101535656478 0.762 1.21644281429e-38
0.00423065235327 -0.101535656478 0.762 9.6812277719e-39
0.00564086980436 -0.101535656478 0.762 3.87547587449e-39
0.00705108725545 -0.101535656478 0.762 6.82180819052e-39
0.00846130470654 -0.101535656478 0.762 4.05703090612e-39
0.00987152215763 -0.101535656478 0.762 0.0
0.0112817396087 -0.101535656478 0.762 9.85885636523e-39
0.0126919570598 -0.101535656478 0.762 1.55698482566e-38
0.0141762016737 -0.10206865205 0.766 1.50131165806e-38
0.0156141793108 -0.102201900944 0.767 1.81477511804e-38
0.0170780664549 -0.10246839873 0.769 1.28943995454e-38
0.0185012386595 -0.10246839873 0.769 1.43713653242e-38
0.0201057774129 -0.103401140981 0.776 1.73241464158e-38
0.0216529451152 -0.103934136553 0.78 1.75085572937e-38
0.0231853073848 -0.104333883232 0.783 1.51096786565e-38
0.0246973121848 -0.104600381018 0.785 1.60287538855e-38
0.026216719701 -0.104866878804 0.787 1.77797519868e-38
0.0277435299334 -0.10513337659 0.789 1.62145562528e-38
0.0292407293008 -0.105266625483 0.79 1.94392354893e-38
0.0307804942868 -0.105533123269 0.792 1.56577853404e-38
0.0326533815053 -0.106865612199 0.802 1.56610349516e-38
0.034265322975 -0.107265358878 0.805 1.06835457349e-38
0.0359327848167 -0.10779835445 0.809 1.38195381928e-38
0.0375225181376 -0.108064852236 0.811 1.62149219917e-38
0.0391196541747 -0.108331350022 0.813 1.36381162846e-38
0.0407241929281 -0.108597847808 0.815 1.01400198956e-38
0.0427506865094 -0.109930336738 0.825 1.60326817251e-38
0.0442774967419 -0.109930336738 0.825 1.06893204858e-38
0.0460263884627 -0.110463332311 0.829 8.85119244863e-39
0.0477900856161 -0.110996327883 0.833 1.27042685672e-38
0.0494501447416 -0.111262825669 0.835 1.47210691651e-38
0.0511176065834 -0.111529323455 0.837 1.51766565192e-38
0.0527924711414 -0.111795821241 0.839 1.62812384415e-38
0.0546042859506 -0.112328816813 0.843 1.63827358906e-38
0.0564309061924 -0.112861812385 0.847 1.54604460829e-38
0.0582723318667 -0.113394807957 0.851 1.49951715525e-38
0.060058237169 -0.113794554636 0.854 1.8039392974e-38
0.0617830700619 -0.114061052422 0.856 1.65696326719e-38
0.0636633599967 -0.114594047994 0.86 1.63856071511e-38
0.0663931116244 -0.116592781389 0.875 1.58277614428e-38
0.0682456413732 -0.116992528068 0.878 1.65671888074e-38
0.0698705375964 -0.116992528068 0.878 1.66604354111e-38
0.0716582935777 -0.117259025854 0.88 1.50009350931e-38
0.0734534522752 -0.11752552364 0.882 1.60103954743e-38
0.0755114074007 -0.118191768105 0.887 1.61029484353e-38
0.0773269235681 -0.118458265892 0.889 1.3704769046e-38
-0.0396748578956 -0.104330181874 0.794 1.21662274101e-38
-0.0382054187143 -0.104330181874 0.794 1.54142831076e-44
-0.0366434455795 -0.104067385446 0.792 1.75496377594e-39
-0.035088875161 -0.103804589018 0.79 1.84750973042e-39
-0.0335842730773 -0.103673190804 0.789 1.81328021284e-42
-0.0321240872913 -0.103673190804 0.789 1.13425806065e-38
-0.0305861729845 -0.103410394376 0.787 7.28521198748e-39
-0.0290556613938 -0.103147597948 0.785 9.7237501738e-41
-0.0275325525195 -0.10288480152 0.783 0.0
-0.0260834708079 -0.10288480152 0.783 5.25590900468e-39
-0.0246343890964 -0.10288480152 0.783 5.90052031125e-39
-0.0231853073848 -0.10288480152 0.783 6.36259007207e-39
-0.0216807053012 -0.102622005092 0.781 2.3070641605e-39
-0.0202353249478 -0.102622005092 0.781 5.58235269233e-40
-0.0187658857665 -0.102490606878 0.78 9.80908925027e-45
-0.0173223560921 -0.102490606878 0.78 2.15379573967e-42
-0.0157973965387 -0.101965014023 0.776 1.79366203434e-42
-0.0143612695806 -0.101965014023 0.776 1.30006207716e-38
-0.0128918303993 -0.101702217595 0.774 1.37335334996e-38
-0.0114594047994 -0.101702217595 0.774 1.40090119621e-38
-0.010014024446 -0.101570819381 0.773 5.89157302056e-39
-0.00858344952513 -0.101570819381 0.773 9.20556401467e-40
-0.00713436781358 -0.101308022953 0.771 4.63518703432e-40
-0.00569268881831 -0.101045226525 0.769 9.23018482869e-40
-0.00426951661373 -0.101045226525 0.769 8.36244476764e-40
-0.00283894169288 -0.100782430097 0.767 1.29827920512e-39
-0.00141947084644 -0.100782430097 0.767 1.29650375997e-39
0.0 -0.100782430097 0.767 1.90524743105e-40
0.00141762016737 -0.100651031883 0.766 1.82168800362e-42
0.00282783761846 -0.100388235455 0.764 1.20360187568e-39
0.00424175642769 -0.100388235455 0.764 4.68221461079e-40
0.00564086980436 -0.100125439027 0.762 7.84317260221e-39
0.00705108725545 -0.100125439027 0.762 1.17999896487e-38
0.00846130470654 -0.100125439027 0.762 3.22718195555e-39
0.0098974316646 -0.100388235455 0.764 2.38220738935e-44
0.0113113504738 -0.100388235455 0.764 1.10541373306e-38
0.0127252692831 -0.100388235455 0.764 1.58457372995e-38
0.0141947084644 -0.100782430097 0.767 1.70428581698e-38
0.0156141793108 -0.100782430097 0.767 1.62120353168e-38
0.0170780664549 -0.101045226525 0.769 1.11398365408e-38
0.0185493563153 -0.101308022953 0.771 1.22555293586e-38
0.0202094154408 -0.102490606878 0.78 1.70493573921e-38
0.0216807053012 -0.102622005092 0.781 1.68638913365e-38
0.0231853073848 -0.10288480152 0.783 1.53862585396e-38
0.0247602352731 -0.103410394376 0.787 1.51078583698e-38
0.0262833441475 -0.103673190804 0.789 1.86109349735e-38
0.0277786928358 -0.103804589018 0.79 1.51082142996e-38
0.0293147564636 -0.104067385446 0.792 1.83350347201e-38
0.0310136798495 -0.104855774729 0.798 1.92548218087e-38
0.0326940964448 -0.105512765799 0.803 1.04962818133e-38
0.034265322975 -0.105775562227 0.805 1.44581155082e-38
0.0360216174121 -0.106563951511 0.811 1.37249421387e-38
0.0375225181376 -0.106563951511 0.811 1.75103173245e-38
0.0392158894863 -0.107089544367 0.815 1.47583633224e-39
0.0407241929281 -0.107089544367 0.815 1.68631010041e-38
0.0425434104536 -0.10787793365 0.821 2.23907259849e-38
0.0441701573558 -0.108140730078 0.823 7.73929855095e-39
0.0462484699511 -0.109454712218 0.833 8.29471721027e-39
0.0477900856161 -0.109454712218 0.833 1.43598620651e-38
0.0494501447416 -0.109717508645 0.835 1.50855651125e-38
0.0511176065834 -0.109980305073 0.837 1.52670739013e-38
0.0527924711414 -0.110243101501 0.839 1.64695827642e-38
0.0546042859506 -0.110768694357 0.843 1.56430450819e-38
0.0564309061924 -0.111294287213 0.847 1.56430394767e-38
0.0582723318667 -0.111819880069 0.851 1.56416199613e-38
0.0601988887783 -0.112476871138 0.856 1.66561053989e-38
0.0617830700619 -0.112476871138 0.856 1.52749828298e-38
0.0644776587873 -0.114447844348 0.871 1.5826001412e-38
0.0663931116244 -0.114973437203 0.875 1.57356092532e-38
0.0682456413732 -0.115367631845 0.878 1.6566092992e-38
0.0700296959964 -0.115630428273 0.88 1.61980111218e-38
0.0716582935777 -0.115630428273 0.88 1.58281594116e-38
0.0737032939496 -0.116287419343 0.885 1.56430394767e-38
0.0755114074007 -0.116550215771 0.887 1.65650027818e-38
-0.0397747945654 -0.103119837762 0.796 1.58537008787e-38
-0.0382054187143 -0.102860742692 0.794 2.38220738935e-44
-0.036735979533 -0.102860742692 0.794 1.84715940581e-39
-0.0351777077563 -0.102601647623 0.792 1.38582112279e-39
-0.0337119699331 -0.102601647623 0.792 1.66276674478e-39
-0.0321648022309 -0.102342552553 0.79 9.86794378578e-41
-0.0306639015054 -0.102213005018 0.789 3.78511734691e-40
-0.0291296885566 -0.101953909948 0.787 1.20797729e-38
-0.0276732041288 -0.101953909948 0.787 1.18920969967e-38
-0.0261500952545 -0.101694814878 0.785 1.47654258667e-39
-0.0246973121848 -0.101694814878 0.785 5.43703804158e-42
-0.0232445291151 -0.101694814878 0.785 4.20389539297e-45
-0.0217362256733 -0.101435719809 0.783 7.47248011295e-39
-0.0202871439617 -0.101435719809 0.783 5.35056811724e-39
-0.0187899445944 -0.101176624739 0.781 7.0061490035e-39
-0.017344564241 -0.101176624739 0.781 8.30110993386e-40
-0.0158381114782 -0.100787982134 0.778 1.40129846432e-44
-0.0143612695806 -0.100528887065 0.776 0.0
-0.0129251426226 -0.100528887065 0.776 0.0
-0.0114594047994 -0.100269791995 0.774 7.43348197669e-40
-0.010014024446 -0.10014024446 0.773 8.85189730176e-39
-0.00858344952513 -0.10014024446 0.773 2.48857575188e-39
-0.00715287460428 -0.10014024446 0.773 1.38260948684e-38
-0.00570749425087 -0.0998811493901 0.771 7.92155142922e-39
-0.00426951661373 -0.0996220543204 0.769 4.0482952115e-39
-0.00284634440915 -0.0996220543204 0.769 1.57021238251e-39
-0.00141947084644 -0.0993629592506 0.767 1.66563520274e-39
0.0 -0.0993629592506 0.767 1.7578308326e-39
0.00141947084644 -0.0993629592506 0.767 1.48088521061e-39
0.00283524033474 -0.0992334117158 0.766 1.11318028967e-39
0.00424175642769 -0.098974316646 0.764 3.61675133642e-42
0.00565567523691 -0.098974316646 0.764 5.26344939172e-39
0.00706959404614 -0.098974316646 0.764 7.28445108241e-39
0.00848351285537 -0.098974316646 0.764 2.48787230005e-39
0.00992334117158 -0.0992334117158 0.766 4.20389539297e-45
0.0113409613389 -0.0992334117158 0.766 1.10541233176e-38
0.0127585815063 -0.0992334117158 0.766 1.63982020217e-38
0.0141947084644 -0.0993629592506 0.767 1.63060063918e-38
0.0156141793108 -0.0993629592506 0.767 1.31710046519e-38
0.0171224827526 -0.0998811493901 0.771 1.132601866e-38
0.0185974739711 -0.10014024446 0.773 1.49266900965e-38
0.0202094154408 -0.101047077204 0.78 1.68638885339e-38
0.0216807053012 -0.101176624739 0.781 1.61259563548e-38
0.0231853073848 -0.101435719809 0.783 1.4833087563e-38
0.0248231583615 -0.102213005018 0.789 1.35426934643e-38
0.0262833441475 -0.102213005018 0.789 1.84301282352e-38
0.0278490186404 -0.102601647623 0.792 1.70457294304e-38
0.0293887836264 -0.102860742692 0.794 1.76914589731e-38
0.0310136798495 -0.103378932832 0.798 1.7230486429e-38
0.0326940964448 -0.104026670506 0.803 1.51071156816e-38
0.0343504542122 -0.104544860646 0.807 1.50149018349e-38
0.0361104500074 -0.105322145855 0.813 1.95342995771e-38
0.0376150520911 -0.105322145855 0.813 8.84215127094e-39
0.0394083601096 -0.106099431064 0.819 6.6385085423e-39
0.0409240662676 -0.106099431064 0.819 2.12906870723e-38
0.0425434104536 -0.106358526134 0.821 1.24365883306e-38
0.0441701573558 -0.106617621204 0.823 1.93555891813e-38
0.0462484699511 -0.107913096553 0.833 9.3881349877e-39
0.0477900856161 -0.107913096553 0.833 1.43487301501e-38
0.0495685882021 -0.108431286692 0.837 1.52674004038e-38
0.051239751402 -0.108690381762 0.839 1.5819170082e-38
0.0530441634949 -0.109208571901 0.843 1.56401906369e-38
0.0546042859506 -0.109208571901 0.843 1.58281594116e-38
0.0565641550854 -0.109985857111 0.849 1.54593768922e-38
0.0586147074946 -0.110892689855 0.856 1.60118444169e-38
0.0604801919968 -0.111410879994 0.86 1.65646832858e-38
0.0623604819316 -0.111929070134 0.864 1.54579447651e-38
0.0644776587873 -0.112835902878 0.871 1.70270333063e-38
0.0663931116244 -0.113354093017 0.875 1.62005166434e-38
0.0682456413732 -0.113742735622 0.878 1.62905598789e-38
0.0700296959964 -0.114001830692 0.88 1.63816765089e-38
0.0718211533358 -0.114260925761 0.882 1.55515501012e-38
0.0734534522752 -0.114260925761 0.882 1.54593740896e-38
-0.0397747945654 -0.101646697223 0.796 1.85273769474e-38
-0.0383016540259 -0.101646697223 0.796 5.6051938573e-44
-0.0368285134865 -0.101646697223 0.796 1.75531410056e-39
-0.0352665403517 -0.101391303511 0.794 1.75531410056e-39
-0.0337971011703 -0.101391303511 0.794 1.6631170694e-39
-0.0322462321099 -0.101135909799 0.792 1.02063433519e-39
-0.0307027657658 -0.100880516088 0.79 7.43698522285e-40
-0.0292037157194 -0.100752819232 0.789 0.0
-0.0277435299334 -0.100752819232 0.789 3.03963917558e-39
-0.026216719701 -0.10049742552 0.787 5.71899610818e-39
-0.0247602352731 -0.10049742552 0.787 1.10660161377e-38
-0.0233037508453 -0.10049742552 0.787 1.06010653073e-38
-0.0217917460454 -0.100242031809 0.785 3.31827476352e-39
-0.0202871439617 -0.0999866380971 0.783 1.83687807898e-40
-0.0188380622502 -0.0999866380971 0.783 3.77720421448e-39
-0.017344564241 -0.0997312443855 0.781 8.20644241351e-39
-0.0158991838875 -0.0997312443855 0.781 6.27184338482e-39
-0.0144352967434 -0.0996035475297 0.78 8.11640057938e-39
-0.0129251426226 -0.0990927601065 0.776 2.39670101937e-39
-0.0114890156645 -0.0990927601065 0.776 7.45490783021e-43
-0.0100269791995 -0.0988373663949 0.774 4.30478888241e-42
-0.00859455359955 -0.0988373663949 0.774 5.58951332748e-40
-0.00716212799963 -0.0988373663949 0.774 5.43698339094e-39
-0.00570749425087 -0.0984542758274 0.771 1.40993873053e-38
-0.00428062068815 -0.0984542758274 0.771 5.61998736519e-39
-0.00284634440915 -0.0981988821158 0.769 1.11029221354e-39
-0.00142317220458 -0.0981988821158 0.769 2.12444274074e-39
0.0 -0.0981988821158 0.769 1.85037678708e-39
0.00142317220458 -0.0981988821158 0.769 1.57378989749e-39
0.00283894169288 -0.0979434884042 0.767 1.29827920512e-39
0.0042528605021 -0.0978157915484 0.766 1.20537732083e-39
0.00567048066947 -0.0978157915484 0.766 1.93751933468e-40
0.00708810083684 -0.0978157915484 0.766 3.5981533032e-39
0.00850572100421 -0.0978157915484 0.766 8.31185789308e-40
0.00993629592506 -0.0979434884042 0.767 0.0
0.0113557667715 -0.0979434884042 0.767 1.17949519807e-38
0.0127752376179 -0.0979434884042 0.767 1.74141392044e-38
0.0141947084644 -0.0979434884042 0.767 1.61212648075e-38
0.0156548942503 -0.0981988821158 0.769 1.30788118246e-38
0.0171224827526 -0.0984542758274 0.771 1.31721032699e-38
0.018621532799 -0.0988373663949 0.774 1.71350678127e-38
0.0202353249478 -0.0997312443855 0.781 1.56639216264e-38
0.0217362256733 -0.0999866380971 0.783 1.50185522174e-38
0.0231853073848 -0.0999866380971 0.783 1.47401520475e-38
0.0248231583615 -0.100752819232 0.789 1.34479642869e-38
0.0263166563707 -0.100880516088 0.79 1.80606170406e-38
0.0279193444451 -0.101391303511 0.794 1.88896490341e-38
0.0294628107892 -0.101646697223 0.796 1.62166680095e-38
0.0310914083705 -0.102157484646 0.8 1.69517317307e-38
0.0326940964448 -0.102540575213 0.803 1.24362982618e-38
0.0344355854494 -0.103306756348 0.809 1.50116003757e-38
0.0359327848167 -0.103306756348 0.809 1.04080616672e-38
0.0376150520911 -0.103817543771 0.813 1.6957146348e-38
0.0394083601096 -0.104583724906 0.819 9.1251448971e-39
0.0410240029374 -0.104839118618 0.821 1.76951191647e-38
0.0426470484815 -0.105094512329 0.823 1.74187228517e-38
0.0442774967419 -0.105349906041 0.825 7.82869999167e-39
0.0463595106953 -0.106626874599 0.835 1.40789605775e-38
0.0479048277184 -0.106626874599 0.835 1.58206036103e-38
0.0495685882021 -0.106882268311 0.837 1.51781040605e-38
0.051239751402 -0.107137662022 0.839 1.80397432986e-38
0.0530441634949 -0.107648449446 0.843 1.54625718527e-38
0.0546042859506 -0.107648449446 0.843 1.51831235116e-38
0.056897277318 -0.109053114859 0.854 1.56455632152e-38
0.0586147074946 -0.109308508571 0.856 1.55533675854e-38
0.0604801919968 -0.109819295994 0.86 1.72121630503e-38
0.0627213643502 -0.110968567697 0.869 1.61047491038e-38
0.0646257131129 -0.11147935512 0.873 1.65675349281e-38
0.06662074515 -0.112117839399 0.878 1.65678726411e-38
0.068401098415 -0.11237323311 0.88 1.41668528198e-38
0.0701888543963 -0.112628626822 0.882 1.95191641524e-38
0.0722283027311 -0.113267111101 0.887 1.43562313008e-38
0.0740364161822 -0.113522504813 0.889 1.66575823674e-38
-0.0415588491885 -0.100928633744 0.802 1.91705771464e-38
-0.0398747312351 -0.100425249037 0.798 2.00939753811e-38
-0.0383978893375 -0.100425249037 0.798 6.0255833966e-44
-0.0368285134865 -0.100173556683 0.796 1.75531410056e-39
-0.035355372947 -0.100173556683 0.796 1.57126896156e-39
-0.0337971011703 -0.0999218643297 0.794 1.11029221354e-39
-0.032327661989 -0.0999218643297 0.794 1.57021798771e-39
-0.0307804942868 -0.0996701719762 0.792 5.56770912338e-40
-0.0292407293008 -0.0994184796227 0.79 7.83592508655e-39
-0.0277435299334 -0.099292633446 0.789 2.75565343009e-40
-0.0262833441475 -0.099292633446 0.789 9.23735947683e-40
-0.0248231583615 -0.099292633446 0.789 9.80908925027e-45
-0.0233629725755 -0.099292633446 0.789 3.87156765307e-39
-0.0218472664175 -0.0990409410925 0.787 1.23537589797e-38
-0.0203389629757 -0.098789248739 0.785 8.11284268258e-39
-0.018886179906 -0.098789248739 0.785 6.73141042658e-39
-0.0173889805386 -0.0985375563856 0.783 4.15097395517e-39
-0.0158991838875 -0.0982858640321 0.781 2.02580253923e-39
-0.0144352967434 -0.0981600178554 0.78 2.21270072191e-39
-0.0129917670691 -0.0981600178554 0.78 6.8246500238e-39
-0.0114890156645 -0.0976566331484 0.776 4.79523213453e-39
-0.0100528887065 -0.0976566331484 0.776 4.52185982362e-39
-0.00861676174839 -0.0976566331484 0.776 8.3305512146e-40
-0.00716212799963 -0.0974049407949 0.774 2.92030599965e-42
-0.0057297023997 -0.0974049407949 0.774 0.0
-0.00429727679978 -0.0974049407949 0.774 1.75566162258e-39
-0.00285374712543 -0.0970274022647 0.771 1.75496377594e-39
-0.00142687356272 -0.0970274022647 0.771 1.84821598485e-39
0.0 -0.0967757099112 0.769 2.49214626037e-39
0.00142317220458 -0.0967757099112 0.769 2.12407419924e-39
0.00283894169288 -0.0965240175578 0.767 1.57126896156e-39
0.00425841253931 -0.0965240175578 0.767 1.11029221354e-39
0.00567788338575 -0.0965240175578 0.767 2.03224711087e-39
0.00709735423219 -0.0965240175578 0.767 1.11246142356e-39
0.00851682507863 -0.0965240175578 0.767 1.20537732083e-39
0.00993629592506 -0.0965240175578 0.767 0.0
0.0113557667715 -0.0965240175578 0.767 1.18846589045e-38
0.0127752376179 -0.0965240175578 0.767 1.69531778707e-38
0.0142317220458 -0.0967757099112 0.769 1.58432331792e-38
0.0156548942503 -0.0967757099112 0.769 1.5936503605e-38
0.0171668990503 -0.0972790946182 0.773 1.49223558804e-38
0.0187899445944 -0.0982858640321 0.781 1.45535901765e-38
0.0202871439617 -0.0985375563856 0.783 1.60294447256e-38
0.0217362256733 -0.0985375563856 0.783 1.52940474954e-38
0.0232445291151 -0.098789248739 0.785 1.33558078933e-38
0.0248231583615 -0.099292633446 0.789 1.90711760398e-38
0.0263166563707 -0.0994184796227 0.79 1.7874799259e-38
0.0279193444451 -0.0999218643297 0.794 1.76896863306e-38
0.0294628107892 -0.100173556683 0.796 1.56616809502e-38
0.0310136798495 -0.100425249037 0.798 1.52908048908e-38
0.0326940964448 -0.10105447992 0.803 7.63895577181e-39
0.0344355854494 -0.101809556981 0.809 1.8707405965e-38
0.0359327848167 -0.101809556981 0.809 4.51399293404e-39
0.0378926539515 -0.103068018748 0.819 1.38311801805e-38
0.0394083601096 -0.103068018748 0.819 9.31419687552e-39
0.0411239396072 -0.103571403455 0.823 1.98183904199e-38
0.0427506865094 -0.103823095809 0.825 7.27587373451e-39
0.0442774967419 -0.103823095809 0.825 1.13249592783e-38
0.0461374292069 -0.104578172869 0.831 1.42619084999e-38
0.0479048277184 -0.105081557576 0.835 1.48050195548e-38
0.0495685882021 -0.105333249929 0.837 1.84078167611e-38
0.051239751402 -0.105584942283 0.839 1.58313641812e-38
0.0531700096716 -0.106340019343 0.845 1.43530041104e-38
0.0547338334855 -0.106340019343 0.845 1.75798567608e-38
0.057030526211 -0.107724327287 0.856 1.66607885383e-38
0.0588886079969 -0.108227711994 0.86 1.6016474307e-38
0.0606208436061 -0.108479404348 0.862 1.49976882845e-38
0.0628657173177 -0.109612019938 0.871 1.61951594794e-38
0.0655140390664 -0.111373866413 0.885 1.6379906669e-38
0.067151890043 -0.111373866413 0.885 1.54600957583e-38
0.0687897410197 -0.111373866413 0.885 1.72092945923e-38
0.0704275919963 -0.111373866413 0.885 1.79565874452e-38
0.0722283027311 -0.111625558766 0.887 1.73061159084e-38
0.0740364161822 -0.11187725112 0.889 1.59214242322e-38
0.0756816698751 -0.11187725112 0.889 1.59167354875e-38
-0.0415588491885 -0.0994443891297 0.802 1.8894718932e-38
-0.0399746679049 -0.0991963981344 0.8 2.11992495449e-38
-0.0384941246492 -0.0991963981344 0.8 2.24207754292e-44
-0.0370135813934 -0.0991963981344 0.8 2.03047166572e-39
-0.0355330381377 -0.0991963981344 0.8 2.39998005778e-39
-0.0339673636447 -0.098948407139 0.798 7.46785022282e-39
-0.0324090918681 -0.0987004161437 0.796 1.84677965392e-39
-0.0308582228077 -0.0984524251484 0.794 8.33395636986e-40
-0.0293147564636 -0.098204434153 0.792 8.20865786638e-39
-0.0277786928358 -0.0979564431577 0.79 2.48793255589e-39
-0.0262833441475 -0.09783244766 0.789 1.00421377966e-38
-0.0248231583615 -0.09783244766 0.789 4.32814012002e-39
-0.0233629725755 -0.09783244766 0.789 4.00771360797e-43
-0.0219027867896 -0.09783244766 0.789 0.0
-0.0203907819896 -0.0975844566647 0.787 4.6243549972e-40
-0.0189342975618 -0.0975844566647 0.787 4.79634616681e-39
-0.0174333968363 -0.0973364656693 0.785 6.54628488646e-39
-0.0159398988271 -0.097088474674 0.783 8.75328933012e-39
-0.0144908171155 -0.097088474674 0.783 1.26260368765e-38
-0.013041735404 -0.097088474674 0.783 5.25007119528e-39
-0.0115630428273 -0.0968404836787 0.781 0.0
-0.0100528887065 -0.0962205061903 0.776 4.97786056079e-39
-0.00861676174839 -0.0962205061903 0.776 8.39265676253e-39
-0.00718063479032 -0.0962205061903 0.776 6.45689886002e-39
-0.00574450783226 -0.0962205061903 0.776 4.79417275289e-39
-0.00429727679978 -0.095972515195 0.774 2.02942069187e-39
-0.00286114984171 -0.0958485196973 0.773 3.73842608208e-40
-0.00143057492086 -0.0958485196973 0.773 1.10888811248e-39
0.0 -0.095600528702 0.771 2.12373648631e-39
0.00142687356272 -0.095600528702 0.771 2.21629084858e-39
0.00284634440915 -0.0953525377067 0.769 2.03082199033e-39
0.00425841253931 -0.0951045467113 0.767 1.6631170694e-39
0.00567788338575 -0.0951045467113 0.767 1.3861714474e-39
0.00709735423219 -0.0951045467113 0.767 1.47836707727e-39
0.00851682507863 -0.0951045467113 0.767 1.02063433519e-39
0.00993629592506 -0.0951045467113 0.767 0.0
0.0113853776366 -0.0953525377067 0.769 1.2529659772e-38
0.0128085498412 -0.0953525377067 0.769 1.71368460604e-38
0.0142317220458 -0.0953525377067 0.769 1.63035050741e-38
0.0157363241294 -0.0958485196973 0.773 1.48298043207e-38
0.0172779397944 -0.0964684971857 0.778 1.58432359818e-38
0.0187899445944 -0.0968404836787 0.781 1.59372336815e-38
0.0202871439617 -0.097088474674 0.783 1.70446728513e-38
0.0217917460454 -0.0973364656693 0.785 1.53837221894e-38
0.0232445291151 -0.0973364656693 0.785 1.48323686969e-38
0.0248231583615 -0.09783244766 0.789 1.84286372537e-38
0.0263166563707 -0.0979564431577 0.79 1.78744489344e-38
0.0279896702497 -0.0987004161437 0.796 1.80581143215e-38
0.0295368379519 -0.098948407139 0.798 1.54762275062e-38
0.0310136798495 -0.098948407139 0.798 1.40922196636e-38
0.0327755263239 -0.0998163756227 0.805 1.92583544822e-38
0.0344355854494 -0.100312357613 0.809 5.98945652089e-39
0.0359327848167 -0.100312357613 0.809 5.814060196e-39
0.037985187905 -0.101800303585 0.821 9.04023321666e-39
0.0395045954212 -0.101800303585 0.821 1.11577661547e-38
0.0411239396072 -0.102048294581 0.823 1.67752241761e-38
0.0428543245373 -0.102544276571 0.827 5.71101991733e-39
0.0443848361279 -0.102544276571 0.827 1.36237389623e-38
0.0461374292069 -0.103040258562 0.831 1.54514581545e-38
0.0477900856161 -0.103288249557 0.833 1.69258875831e-38
0.0495685882021 -0.103784231548 0.837 1.70245151729e-38
0.051239751402 -0.104032222543 0.839 1.50891818638e-38
0.053736317467 -0.105892155008 0.854 1.64703016303e-38
0.0553167973925 -0.105892155008 0.854 1.68404868495e-38
0.057030526211 -0.106140146004 0.856 1.59199991117e-38
0.0588886079969 -0.106636127994 0.86 1.45349122693e-38
0.0607614952154 -0.107132109985 0.864 1.69337993142e-38
0.0630100702851 -0.108248069464 0.873 1.60139547724e-38
0.0655140390664 -0.109736015436 0.885 1.68440867853e-38
0.0673036457267 -0.109984006431 0.887 1.71192261335e-38
0.0689451980615 -0.109984006431 0.887 2.22021980921e-38
0.0705867503963 -0.109984006431 0.887 1.2886524248e-38
0.0722283027311 -0.109984006431 0.887 1.66593816347e-38
0.0740364161822 -0.110231997427 0.889 1.61043959766e-38
0.0756816698751 -0.110231997427 0.889 1.63780933887e-38
-0.0415588491885 -0.0979601445158 0.802 2.01847514956e-38
-0.0400746045747 -0.0979601445158 0.802 2.10152156162e-38
-0.0385903599608 -0.0979601445158 0.802 7.56701170735e-44
-0.0371061153469 -0.0979601445158 0.802 2.21377131394e-39
-0.0355330381377 -0.0977158548786 0.8 7.40101389127e-40
-0.0340524948819 -0.0977158548786 0.8 4.05766709563e-39
-0.0324905217471 -0.0974715652414 0.798 7.19483103912e-39
-0.0309359513286 -0.0972272756042 0.796 6.27326850536e-39
-0.0293887836264 -0.096982985967 0.794 1.66063817242e-39
-0.0278490186404 -0.0967386963298 0.792 2.02836411283e-39
-0.0263166563707 -0.0964944066926 0.79 3.50168371302e-39
-0.0248546199057 -0.0964944066926 0.79 6.36114533336e-39
-0.0233925834406 -0.0964944066926 0.79 6.82350796556e-39
-0.0219305469756 -0.0964944066926 0.79 6.91395197234e-39
-0.0204426010036 -0.096372261874 0.789 1.6577290768e-39
-0.0189824152176 -0.096372261874 0.789 8.31185789308e-40
-0.0175222294316 -0.096372261874 0.789 4.1478434544e-43
-0.0160620436457 -0.096372261874 0.789 4.63168378816e-40
-0.0145648442783 -0.0961279722369 0.787 6.17138850181e-39
-0.0131083598505 -0.0961279722369 0.787 1.14293840399e-38
-0.0116222645575 -0.0958836825997 0.785 3.40692230567e-39
-0.0101435719809 -0.0956393929625 0.783 1.04169739254e-38
-0.00866117804606 -0.0952729585067 0.78 0.0
-0.00719914158102 -0.0950286688695 0.778 1.38369815561e-39
-0.00575931326482 -0.0950286688695 0.778 5.34269562247e-39
-0.00431948494861 -0.0950286688695 0.778 5.90268531738e-39
-0.00287225391613 -0.0947843792323 0.776 8.39160018349e-39
-0.00143612695806 -0.0947843792323 0.776 6.4532680957e-39
0.0 -0.0947843792323 0.776 3.13281010917e-39
0.00143057492086 -0.0944179447765 0.773 2.03224711087e-39
0.00284634440915 -0.0939293655021 0.769 1.20465705342e-39
0.00426951661373 -0.0939293655021 0.769 1.29650375997e-39
0.00569268881831 -0.0939293655021 0.769 8.36953533787e-40
0.00711586102289 -0.0939293655021 0.769 1.38687770183e-39
0.00853903322746 -0.0939293655021 0.769 6.52559471464e-40
0.00996220543204 -0.0939293655021 0.769 0.0
0.0114149885017 -0.0941736551393 0.771 1.19782670432e-38
0.0128418620644 -0.0941736551393 0.771 1.71361370034e-38
0.0143057492086 -0.0944179447765 0.773 1.61190941962e-38
0.0157973965387 -0.0947843792323 0.776 1.57510375493e-38
0.0173223560921 -0.0952729585067 0.78 1.56577671235e-38
0.0188380622502 -0.0956393929625 0.783 1.60265454391e-38
0.0203389629757 -0.0958836825997 0.785 1.66766260136e-38
0.0218472664175 -0.0961279722369 0.787 1.52014931332e-38
0.0233037508453 -0.0961279722369 0.787 1.69530783785e-38
0.0248546199057 -0.0964944066926 0.79 1.75996444964e-38
0.0263832808172 -0.0967386963298 0.792 1.81513707343e-38
0.0280599960544 -0.0974715652414 0.798 1.75974907007e-38
0.0295368379519 -0.0974715652414 0.798 1.58439394336e-38
0.0312080011519 -0.0980822893344 0.803 1.93470202412e-38
0.0327755263239 -0.0983265789716 0.805 1.07772001164e-38
0.0344355854494 -0.098815158246 0.809 7.92490053255e-39
0.0359327848167 -0.098815158246 0.809 7.00940842373e-39
0.0380777218585 -0.100525185706 0.823 1.04184985381e-38
0.0396008307328 -0.100525185706 0.823 1.6041606595e-38
0.0412238762769 -0.100769475344 0.825 4.51973685645e-39
0.0428543245373 -0.101013764981 0.827 1.03155016997e-38
0.044492175514 -0.101258054618 0.829 1.48154424127e-38
0.0461374292069 -0.101502344255 0.831 1.53585436586e-38
0.0477900856161 -0.101746633892 0.833 1.51705776864e-38
0.0496870316625 -0.102479502804 0.839 1.81308445144e-38
0.0513618962206 -0.102723792441 0.841 1.39813783564e-38
0.0534217020251 -0.10370095099 0.849 1.53607128686e-38
0.0554463449273 -0.10455596472 0.856 1.77606901238e-38
0.057163775104 -0.104800254357 0.858 1.57370708075e-38
0.0590255582481 -0.105288833632 0.862 1.64702469796e-38
0.0609724726294 -0.105899557725 0.867 1.72118099231e-38
0.0628657173177 -0.106388136999 0.871 1.66596955255e-38
0.0646257131129 -0.106632426636 0.873 1.50916705699e-38
0.0673036457267 -0.108342454097 0.887 2.26582072371e-38
0.0689451980615 -0.108342454097 0.887 1.76860765857e-38
0.0707459087963 -0.108586743734 0.889 1.72207824371e-38
0.0723911624893 -0.108586743734 0.889 1.55519382609e-38
0.0744528189729 -0.109197467827 0.894 1.60096822134e-38
0.0761073260612 -0.109197467827 0.894 1.6104393174e-38
-0.0415588491885 -0.096475899902 0.802 1.92627755788e-38
-0.0400746045747 -0.096475899902 0.802 2.18446189539e-38
-0.0385903599608 -0.096475899902 0.802 5.6051938573e-45
-0.0371061153469 -0.096475899902 0.802 2.02901992051e-39
-0.035621870733 -0.096475899902 0.802 1.75496377594e-39
-0.0340524948819 -0.0962353116229 0.8 1.47801675265e-39
-0.0325719516262 -0.0962353116229 0.8 1.20290402904e-39
-0.0310136798495 -0.0959947233438 0.798 5.08951602243e-42
-0.0294628107892 -0.0957541350648 0.796 7.09906349948e-39
-0.0279193444451 -0.0955135467857 0.794 7.83873889387e-39
-0.0263832808172 -0.0952729585067 0.792 5.25911657686e-39
-0.0249175429941 -0.0952729585067 0.792 2.92871379044e-42
-0.0234518051709 -0.0952729585067 0.792 2.80530143469e-40
-0.0219305469756 -0.0950323702276 0.79 6.08417308669e-39
-0.0204685105106 -0.0950323702276 0.79 6.08276057784e-39
-0.0190064740455 -0.0950323702276 0.79 8.29619698144e-39
-0.0175222294316 -0.0949120760881 0.789 4.88665284634e-39
-0.0160620436457 -0.0949120760881 0.789 9.40103113746e-41
-0.0146018578597 -0.0949120760881 0.789 3.59152796406e-42
-0.0131416720737 -0.0949120760881 0.789 4.72657972017e-42
-0.0116518754226 -0.094671487809 0.787 2.67585648904e-39
-0.0101953909948 -0.094671487809 0.787 9.03331500614e-39
-0.00867228212048 -0.0939497229719 0.781 1.04205696573e-38
-0.00722690176707 -0.0939497229719 0.781 1.17102897314e-38
-0.00577411869737 -0.0938294288323 0.78 2.94844267152e-39
-0.00431948494861 -0.0935888405533 0.778 3.03890769778e-39
-0.00287965663241 -0.0935888405533 0.778 1.56127209831e-39
-0.00143612695806 -0.0933482522742 0.776 5.06758009627e-39
0.0 -0.0933482522742 0.776 4.33245611929e-39
0.00143242559993 -0.0931076639951 0.774 2.49109668782e-39
0.00286485119985 -0.0931076639951 0.774 2.21591950449e-39
0.00429727679978 -0.0931076639951 0.774 1.2975729507e-39
0.00570749425087 -0.0927467815766 0.771 1.57308644566e-39
0.00713436781358 -0.0927467815766 0.771 1.75531410056e-39
0.0085612413763 -0.0927467815766 0.771 1.75531410056e-39
0.00998811493901 -0.0927467815766 0.771 0.0
0.0114445993668 -0.0929873698556 0.773 1.13321941823e-38
0.0128918303993 -0.0931076639951 0.774 1.64929213901e-38
0.0143612695806 -0.0933482522742 0.776 1.58435835038e-38
0.0158381114782 -0.0935888405533 0.778 1.55677224868e-38
0.017344564241 -0.0939497229719 0.781 1.53815263547e-38
0.018886179906 -0.09443089953 0.785 1.93459678661e-38
0.0203907819896 -0.094671487809 0.787 1.45560662709e-38
0.0218472664175 -0.094671487809 0.787 1.90761590571e-38
0.0233629725755 -0.0949120760881 0.789 1.70467832068e-38
0.0250433891708 -0.0957541350648 0.796 1.79677179589e-38
0.0265831541568 -0.0959947233438 0.798 1.79677025446e-38
0.028130321859 -0.0962353116229 0.8 1.68613507823e-38
0.0296848922775 -0.096475899902 0.802 1.6673716918e-38
0.0312080011519 -0.0965961940415 0.803 1.67709754392e-38
0.0327755263239 -0.0968367823205 0.805 5.16328738008e-39
0.0344355854494 -0.0973179588787 0.809 7.10160965879e-39
0.0359327848167 -0.0973179588787 0.809 1.19829459788e-38
0.038170255812 -0.0992426651111 0.825 1.35494729463e-38
0.0396970660444 -0.0992426651111 0.825 6.91642806673e-39
0.0413238129467 -0.0994832533902 0.827 7.2845561798e-39
0.0429579625652 -0.0997238416692 0.829 1.31663579462e-38
0.044492175514 -0.0997238416692 0.829 1.47192684965e-38
0.0461374292069 -0.0999644299483 0.831 1.4990488413e-38
0.0479048277184 -0.100445606506 0.835 1.78517941421e-38
0.0496870316625 -0.100926783065 0.839 1.45352317653e-38
0.0514840410392 -0.101407959623 0.843 1.50870014434e-38
0.0534217020251 -0.10212972446 0.849 1.55465278475e-38
0.0555758924622 -0.103212371716 0.858 1.61911938048e-38
0.057297023997 -0.103452959995 0.86 1.57316674007e-38
0.0590255582481 -0.103693548274 0.862 1.66557550743e-38
0.0609724726294 -0.104295018971 0.867 1.65632035146e-38
0.0628657173177 -0.104776195529 0.871 1.48093411592e-38
0.0646257131129 -0.105016783808 0.873 2.06230510306e-38
0.0673036457267 -0.106700901762 0.887 1.88821142523e-38
0.0689451980615 -0.106700901762 0.887 1.49130582651e-38
0.0707459087963 -0.106941490041 0.889 1.48165858723e-38
0.0731240314008 -0.108024137297 0.898 1.61025981107e-38
0.0747859412054 -0.108024137297 0.898 1.62866362432e-38
0.077299163382 -0.109227078692 0.908 1.76795927777e-38
0.0789795799773 -0.109227078692 0.908 1.86051966563e-38
-0.0416106682025 -0.0951100987485 0.803 1.90794605163e-38
-0.0401245729095 -0.0951100987485 0.803 2.1014862489e-38
-0.0385903599608 -0.0949916552881 0.802 0.0
-0.0371061153469 -0.0949916552881 0.802 2.21377131394e-39
-0.035621870733 -0.0949916552881 0.802 1.47801675265e-39
-0.0341376261192 -0.0949916552881 0.802 7.41858617401e-40
-0.0325719516262 -0.0947547683672 0.8 9.86745052872e-39
-0.0310136798495 -0.0945178814462 0.798 3.97548374329e-42
-0.0294628107892 -0.0942809945253 0.796 6.49377122651e-40
-0.0279896702497 -0.0942809945253 0.796 4.64922804494e-40
-0.0264499052637 -0.0940441076044 0.794 3.75306965103e-40
-0.0249804660824 -0.0940441076044 0.794 7.37746507058e-39
-0.0235110269011 -0.0940441076044 0.794 7.00830980573e-39
-0.0219860673477 -0.0938072206835 0.792 6.18030636524e-39
-0.0205203295245 -0.0938072206835 0.792 1.86205941238e-40
-0.0190064740455 -0.0935703337626 0.79 4.64922804494e-40
-0.0175444375805 -0.0935703337626 0.79 5.53391120572e-39
-0.0160824011154 -0.0935703337626 0.79 2.49249938758e-39
-0.0146018578597 -0.0934518903021 0.789 7.0065147424e-39
-0.0131416720737 -0.0934518903021 0.789 3.31507700043e-39
-0.0116814862878 -0.0934518903021 0.789 1.56809221794e-39
-0.0101953909948 -0.0932150033812 0.787 4.20389539297e-44
-0.00869449026931 -0.0927412295394 0.783 0.0
-0.00722690176707 -0.0925043426184 0.781 1.29722262608e-39
-0.00578152141365 -0.0925043426184 0.781 9.21987127199e-39
-0.00433058902303 -0.092385899158 0.78 1.13393183837e-38
-0.00288705934869 -0.092385899158 0.78 9.67942710337e-39
-0.0014398283162 -0.0921490122371 0.778 4.97744717774e-39
0.0 -0.0921490122371 0.778 2.02367957206e-39
0.00143612695806 -0.0919121253161 0.776 2.80259692865e-45
0.00287225391613 -0.0919121253161 0.776 4.64922804494e-40
0.00430838087419 -0.0919121253161 0.776 7.45824292055e-40
0.0057297023997 -0.0916752383952 0.774 1.11318028967e-39
0.00716212799963 -0.0916752383952 0.774 1.75566162258e-39
0.00859455359955 -0.0916752383952 0.774 1.75566162258e-39
0.0100269791995 -0.0916752383952 0.774 0.0
0.0114594047994 -0.0916752383952 0.774 1.15194693143e-38
0.0129584548458 -0.0921490122371 0.778 1.65836848929e-38
0.014398283162 -0.0921490122371 0.778 1.60276272415e-38
0.0158381114782 -0.0921490122371 0.778 1.5105652726e-38
0.017344564241 -0.0925043426184 0.781 1.51027562421e-38
0.018886179906 -0.0929781164603 0.785 1.46454116597e-38
0.0203907819896 -0.0932150033812 0.787 1.70442622709e-38
0.0218472664175 -0.0932150033812 0.787 1.7692120386e-38
0.0235110269011 -0.0940441076044 0.794 1.76918149029e-38
0.0251063122592 -0.0945178814462 0.798 1.81506504669e-38
0.0265831541568 -0.0945178814462 0.798 1.79669962902e-38
0.028130321859 -0.0947547683672 0.8 1.66755119813e-38
0.0297219058589 -0.0951100987485 0.803 2.03640364238e-38
0.0312857296728 -0.0953469856695 0.805 4.23629481477e-39
0.0327755263239 -0.0953469856695 0.805 6.64421883354e-39
0.035116635347 -0.0977158548786 0.825 9.4950736787e-39
0.0366434455795 -0.0977158548786 0.825 1.39168303452e-38
0.038170255812 -0.0977158548786 0.825 6.6366784465e-39
0.0397933013561 -0.0979527417995 0.827 7.74517419541e-39
0.0413238129467 -0.0979527417995 0.827 9.21239254209e-39
0.0429579625652 -0.0981896287205 0.829 1.38063379613e-38
0.0445995149 -0.0984265156414 0.831 1.52681332829e-38
0.0462484699511 -0.0986634025623 0.833 1.57284065791e-38
0.0479048277184 -0.0989002894832 0.835 1.51759530674e-38
0.0496870316625 -0.0993740633251 0.839 1.59127992402e-38
0.0522779823601 -0.101387602153 0.856 1.49958750043e-38
0.0538621636437 -0.101387602153 0.856 1.49033122342e-38
0.0555758924622 -0.101624489074 0.858 1.58202630948e-38
0.057297023997 -0.101861375995 0.86 1.73915348589e-38
0.0590255582481 -0.102098262916 0.862 1.70302731083e-38
0.0623789887223 -0.105059349427 0.887 1.57366630297e-38
0.0640205410571 -0.105059349427 0.887 1.7574463163e-38
0.0656620933919 -0.105059349427 0.887 2.10004879694e-38
0.0674554014104 -0.105296236348 0.889 1.34364610278e-38
0.0691006551034 -0.105296236348 0.889 1.64753392983e-38
0.0711438047963 -0.10588845365 0.894 1.56434080182e-38
0.0731240314008 -0.106362227492 0.898 1.56434108208e-38
0.0747859412054 -0.106362227492 0.898 1.7302583235e-38
0.077299163382 -0.107546662097 0.908 1.63895924439e-38
0.0789795799773 -0.107546662097 0.908 1.97086701515e-38
-0.0416106682025 -0.0936240034556 0.803 1.83411920256e-38
-0.0401245729095 -0.0936240034556 0.803 2.13832778683e-38
-0.0386384776166 -0.0936240034556 0.803 0.0
-0.0371523823236 -0.0936240034556 0.803 1.10707062837e-39
-0.0356662870307 -0.0936240034556 0.803 1.8468062786e-39
-0.0341376261192 -0.0935074106742 0.802 3.72029327995e-40
-0.0326533815053 -0.0935074106742 0.802 9.041652732e-39
-0.0310914083705 -0.0932742251114 0.8 1.3933867332e-39
-0.0296108651147 -0.0932742251114 0.8 6.26934066576e-39
-0.0279896702497 -0.0928078539859 0.796 7.41903458952e-40
-0.0265165297102 -0.0928078539859 0.796 1.1095943669e-39
-0.0250433891708 -0.0928078539859 0.796 1.10382662242e-39
-0.0235702486313 -0.0928078539859 0.796 4.62111799774e-40
-0.0220971080919 -0.0928078539859 0.796 4.61124304746e-39
-0.0205721485385 -0.0925746684231 0.794 6.36255223701e-39
-0.0190545917013 -0.0923414828603 0.792 6.17819600975e-39
-0.0175888538782 -0.0923414828603 0.792 8.66669889411e-39
-0.0160824011154 -0.0921082972975 0.79 1.10776567241e-39
-0.0146203646504 -0.0921082972975 0.79 2.48676387297e-39
-0.0131583281854 -0.0921082972975 0.79 7.83301318834e-39
-0.0116814862878 -0.0919917045161 0.789 7.10086136541e-39
-0.0102213005018 -0.0919917045161 0.789 7.37703487195e-39
-0.00871669841815 -0.0915253333906 0.785 3.50338068546e-39
-0.00724540855776 -0.0912921478278 0.783 2.77706527063e-40
-0.00578152141365 -0.091058962265 0.781 2.87966834419e-42
-0.00433614106024 -0.091058962265 0.781 4.20389539297e-44
-0.00288705934869 -0.0909423694836 0.78 1.38840651845e-39
-0.00144352967434 -0.0909423694836 0.78 8.94442363806e-39
0.0 -0.0907091839209 0.778 1.41008866946e-38
0.0014398283162 -0.0907091839209 0.778 1.21615190473e-38
0.00287965663241 -0.0907091839209 0.778 7.92224647325e-39
0.00430838087419 -0.0904759983581 0.776 1.56299709672e-39
