# .PCD v0.7 - Point Cloud Data file format
VERSION 0.7
FIELDS x y z rgb
SIZE 4 4 4 4
TYPE F F F F
COUNT 1 1 1 1
WIDTH 842
HEIGHT 1
VIEWPOINT 0 0 0 1 0 0 0
POINTS 842
DATA ascii
0.0299439873473 -0.0254523892452 0.809 2.31078839143e-38
0.0314411867146 -0.0254523892452 0.809 2.28309396936e-38
0.0333455354773 -0.025767004687 0.819 2.20047579411e-38
0.0348612416354 -0.025767004687 0.819 2.15402246976e-38
0.0364657803888 -0.0258299277754 0.821 1.85892568862e-38
0.0508881223787 -0.0279063896916 0.887 2.26253608011e-38
0.0525296747135 -0.0279063896916 0.887 2.27211143278e-38
0.0541712270483 -0.0279063896916 0.887 2.244418412e-38
0.0559386255599 -0.0279693127799 0.889 2.29022755945e-38
0.0575838792528 -0.0279693127799 0.889 2.23509164969e-38
0.0592291329458 -0.0279693127799 0.889 2.34626548504e-38
0.0608743866387 -0.0279693127799 0.889 2.29966418357e-38
0.0625196403316 -0.0279693127799 0.889 2.29941237024e-38
-0.039312124798 -0.0241920767987 0.817 2.34921255584e-38
-0.037800119998 -0.0241920767987 0.817 2.14598840527e-38
-0.0362881151981 -0.0241920767987 0.817 6.97949770801e-39
-0.034690979161 -0.0241328550685 0.815 9.66860627663e-39
-0.0331012458401 -0.0240736333383 0.813 9.7611578363e-39
-0.0315189152356 -0.0240144116081 0.811 9.94482322342e-39
-0.0299439873473 -0.0239551898778 0.809 9.57569318195e-39
-0.0283764621753 -0.0238959681476 0.807 8.65518162203e-39
-0.0268163397195 -0.0238367464174 0.805 8.28603756758e-39
-0.0252636199801 -0.0237775246871 0.803 1.31741687838e-38
-0.0237775246871 -0.0237775246871 0.803 9.20981975811e-39
-0.0222636692081 -0.023747913822 0.802 1.26102400389e-38
-0.0207276055803 -0.0236886920918 0.8 1.33509972357e-38
-0.0191989446688 -0.0236294703616 0.798 1.17890833427e-38
-0.0176776864735 -0.0235702486313 0.796 1.12265306729e-38
-0.0161638309945 -0.0235110269011 0.794 1.8971397984e-38
-0.0146573782318 -0.0234518051709 0.792 1.71328453533e-38
-0.0131916404086 -0.0234518051709 0.792 1.39023409191e-38
-0.0116962917203 -0.0233925834406 0.79 1.97977969377e-38
-0.0102342552553 -0.0233925834406 0.79 1.50990848401e-38
-0.00876111471582 -0.0233629725755 0.789 1.74966014152e-38
-0.00726391534846 -0.0232445291151 0.785 1.26995517965e-38
-0.00581113227877 -0.0232445291151 0.785 6.24481373874e-39
-0.00434724513466 -0.0231853073848 0.783 7.2715058872e-39
-0.0028981634231 -0.0231853073848 0.783 6.71655666286e-39
-0.00144538035341 -0.0231260856546 0.781 6.43996416808e-39
0.0 -0.0231260856546 0.781 6.80912083422e-39
0.00144538035341 -0.0231260856546 0.781 6.71727272638e-39
0.00289076070683 -0.0231260856546 0.781 9.2119245084e-39
0.00433614106024 -0.0231260856546 0.781 7.72817224114e-39
0.00578152141365 -0.0231260856546 0.781 6.24553120356e-39
0.00722690176707 -0.0231260856546 0.781 6.70399121953e-39
0.00867228212048 -0.0231260856546 0.781 1.83058708965e-38
0.0101176624739 -0.0231260856546 0.781 2.34856207309e-38
0.0115630428273 -0.0231260856546 0.781 2.26469211793e-38
0.013041735404 -0.0231853073848 0.783 2.0803008582e-38
0.0144908171155 -0.0231853073848 0.783 2.20044258334e-38
0.0159806137666 -0.0232445291151 0.785 2.34862835451e-38
0.017477813134 -0.0233037508453 0.787 2.34820782484e-38
0.0190064740455 -0.0233925834406 0.79 2.34820782484e-38
0.0205203295245 -0.0234518051709 0.792 2.34834907573e-38
0.0222636692081 -0.023747913822 0.802 2.34863802347e-38
0.023747913822 -0.023747913822 0.802 2.31089755258e-38
0.0253265430684 -0.0238367464174 0.805 2.24646809127e-38
0.0270828375056 -0.0240736333383 0.813 2.34802537578e-38
0.0285874395892 -0.0240736333383 0.813 2.20948207947e-38
0.0300920416729 -0.0240736333383 0.813 2.20933746547e-38
0.0316743722774 -0.0241328550685 0.815 2.32911989768e-38
0.0336712549936 -0.0244881854499 0.827 1.91456326324e-38
0.0352017665842 -0.0244881854499 0.827 2.04374672659e-38
0.0508881223787 -0.0262648373568 0.887 2.24434652539e-38
0.0525296747135 -0.0262648373568 0.887 2.2258373345e-38
0.0541712270483 -0.0262648373568 0.887 2.26278593163e-38
0.0559386255599 -0.026324059087 0.889 2.2903704919e-38
0.0575838792528 -0.026324059087 0.889 2.34608597871e-38
0.0593623818388 -0.0263832808172 0.891 2.21708244208e-38
0.0608743866387 -0.026324059087 0.889 2.30870199815e-38
0.0625196403316 -0.026324059087 0.889 2.25349602346e-38
-0.039312124798 -0.0226800719988 0.817 2.34907018392e-38
-0.0362881151981 -0.0226800719988 0.817 5.96930725027e-39
-0.0347761103982 -0.0226800719988 0.817 1.01256019357e-38
-0.0332641055983 -0.0226800719988 0.817 9.57713231547e-39
-0.0315966437565 -0.0225690312546 0.813 9.48491987003e-39
-0.0300920416729 -0.0225690312546 0.813 9.85227446635e-39
-0.0285171137846 -0.0225135108825 0.811 9.48421081301e-39
-0.0269495886125 -0.0224579905105 0.809 8.83773157558e-39
-0.0253894661568 -0.0224024701384 0.807 9.3895012537e-39
-0.0238959681476 -0.0224024701384 0.807 8.0101653402e-39
-0.0223469497663 -0.0223469497663 0.805 1.3626845641e-38
-0.0208053341012 -0.0222914293942 0.803 1.11397888967e-38
-0.0192951799804 -0.0222636692081 0.802 1.17843595656e-38
-0.0177221027712 -0.022152628464 0.798 1.25241204392e-38
-0.016204545934 -0.0220971080919 0.796 6.53072346702e-39
-0.0147314053946 -0.0220971080919 0.796 1.49143502622e-38
-0.0131916404086 -0.0219860673477 0.792 2.05400955628e-38
-0.0117259025854 -0.0219860673477 0.792 2.02602618647e-38
-0.0102342552553 -0.0219305469756 0.79 1.04954732641e-38
-0.00877221879024 -0.0219305469756 0.79 1.14177350458e-38
-0.00728242213916 -0.0218472664175 0.787 1.58316696643e-38
-0.00581113227877 -0.0217917460454 0.785 1.86915544767e-38
-0.00435834920908 -0.0217917460454 0.785 9.38377134428e-39
-0.0028981634231 -0.0217362256733 0.783 8.27559789402e-39
-0.00144908171155 -0.0217362256733 0.783 6.62578755484e-39
0.0 -0.0216807053012 0.781 6.99278341875e-39
0.00144538035341 -0.0216807053012 0.781 6.07298091585e-39
0.00289076070683 -0.0216807053012 0.781 5.79783315979e-39
0.00433614106024 -0.0216807053012 0.781 7.27078842238e-39
0.00578152141365 -0.0216807053012 0.781 5.70241033956e-39
0.00722690176707 -0.0216807053012 0.781 1.24117825452e-38
0.00867228212048 -0.0216807053012 0.781 2.00469099696e-38
0.0101176624739 -0.0216807053012 0.781 2.18246952923e-38
0.0115630428273 -0.0216807053012 0.781 2.14494513857e-38
0.013041735404 -0.0217362256733 0.783 2.24650452503e-38
0.0145278306969 -0.0217917460454 0.785 2.34813677901e-38
0.0160213287061 -0.0218472664175 0.787 2.34856893946e-38
0.017477813134 -0.0218472664175 0.787 2.34838536936e-38
0.0190545917013 -0.0219860673477 0.792 2.34834907573e-38
0.0205721485385 -0.0220415877198 0.794 2.34853026362e-38
0.022152628464 -0.022152628464 0.798 2.34827831015e-38
0.023747913822 -0.0222636692081 0.802 2.34810076564e-38
0.0253265430684 -0.0223469497663 0.805 2.08963182441e-38
0.0271494619521 -0.0226245516267 0.815 2.27416377451e-38
0.0286577653939 -0.0226245516267 0.815 2.20941033299e-38
0.0301660688356 -0.0226245516267 0.815 2.13572389402e-38
0.032140743403 -0.0229576738593 0.827 2.05260685652e-38
0.0336712549936 -0.0229576738593 0.827 2.10817436621e-38
0.0352868978214 -0.0230131942314 0.829 1.84084207207e-38
0.0371764411516 -0.0232352757197 0.837 2.27401930063e-38
0.0508881223787 -0.024623285022 0.887 2.24427674073e-38
0.0525296747135 -0.024623285022 0.887 2.24435072929e-38
0.0542933718669 -0.0246788053941 0.889 2.2075774346e-38
0.0559386255599 -0.0246788053941 0.889 2.34568983163e-38
0.0577134267877 -0.0247343257662 0.891 2.26260642529e-38
0.0593623818388 -0.0247343257662 0.891 2.30870620204e-38
0.0610113368898 -0.0247343257662 0.891 2.34615926662e-38
0.0628712693549 -0.0248176063243 0.894 2.23530730952e-38
-0.0386329255794 -0.0216344383245 0.835 2.34946997437e-38
-0.0369987759609 -0.0215826193105 0.833 4.95911679253e-39
-0.0354571602958 -0.0215826193105 0.833 1.14116590156e-38
-0.0336712549936 -0.0214271622687 0.827 9.02466479072e-39
-0.032140743403 -0.0214271622687 0.827 1.12376695944e-38
-0.030388150324 -0.0212717052268 0.821 9.48456394022e-39
-0.0287984170032 -0.0212198862128 0.819 1.24298088486e-38
-0.0270162130591 -0.021012610157 0.811 7.7325008521e-39
-0.0255153123336 -0.021012610157 0.811 1.1699076541e-38
-0.0239551898778 -0.0209607911431 0.809 1.14184525106e-38
-0.0224024701384 -0.0209089721291 0.807 8.37247806465e-39
-0.0209089721291 -0.0209089721291 0.807 1.21546246588e-38
-0.0193673564641 -0.0208571531152 0.805 1.42751297509e-38
-0.0178109353665 -0.0207794245943 0.802 9.85402048423e-39
-0.0162859758131 -0.0207276055803 0.8 1.26166944196e-38
-0.014768418976 -0.0206757865664 0.798 1.01241922295e-38
-0.0132249526319 -0.0205721485385 0.794 8.64186368143e-39
-0.0117259025854 -0.0205203295245 0.792 1.80511666837e-38
-0.0102342552553 -0.0204685105106 0.79 1.50123458665e-38
-0.00877221879024 -0.0204685105106 0.79 1.27952941128e-38
-0.00728242213916 -0.0203907819896 0.787 1.91511103081e-38
-0.00581113227877 -0.0203389629757 0.785 1.06712325253e-38
-0.00435834920908 -0.0203389629757 0.785 1.92490610708e-38
-0.0028981634231 -0.0202871439617 0.783 1.39056605952e-38
-0.00144908171155 -0.0202871439617 0.783 1.030962045e-38
0.0 -0.0202353249478 0.781 6.89663052202e-39
0.00144538035341 -0.0202353249478 0.781 7.18256687496e-39
0.00289076070683 -0.0202353249478 0.781 6.53610445312e-39
0.00433614106024 -0.0202353249478 0.781 6.35136146748e-39
0.00577411869737 -0.0202094154408 0.78 0.0
0.00721764837172 -0.0202094154408 0.78 2.05332586276e-38
0.00867228212048 -0.0202353249478 0.781 2.27487675517e-38
0.0101176624739 -0.0202353249478 0.781 2.24657501034e-38
0.0115630428273 -0.0202353249478 0.781 2.29253031322e-38
0.0130750476272 -0.0203389629757 0.785 1.93285945677e-38
0.0145648442783 -0.0203907819896 0.787 2.10788541847e-38
0.0160213287061 -0.0203907819896 0.787 2.34795797333e-38
0.0175222294316 -0.0204426010036 0.789 2.34820698406e-38
0.0191027093571 -0.0205721485385 0.794 2.34849439038e-38
0.0206757865664 -0.0206757865664 0.798 2.3484212426e-38
0.022152628464 -0.0206757865664 0.798 2.3479550306e-38
0.0237775246871 -0.0208053341012 0.803 2.32930066518e-38
0.0253894661568 -0.0209089721291 0.807 2.1079968217e-38
0.0275492086311 -0.0214271622687 0.827 2.20051264826e-38
0.0290797202217 -0.0214271622687 0.827 2.09895480323e-38
0.0306102318124 -0.0214271622687 0.827 2.18182170895e-38
0.0322184719239 -0.0214789812826 0.829 2.08001415253e-38
0.0337526848727 -0.0214789812826 0.829 1.90505713472e-38
0.0354571602958 -0.0215826193105 0.833 2.2832035509e-38
0.0371764411516 -0.0216862573384 0.837 1.82287350212e-38
0.052648118174 -0.0230335517011 0.889 2.21672567149e-38
0.0542933718669 -0.0230335517011 0.889 2.27204248889e-38
0.0560644717366 -0.0230853707151 0.891 2.28126387357e-38
0.0577134267877 -0.0230853707151 0.891 2.32725028527e-38
0.0595622551783 -0.023163099236 0.894 2.29026707607e-38
0.0612167622666 -0.023163099236 0.894 2.27193585008e-38
-0.0386329255794 -0.0200891213013 0.835 2.34957535201e-38
-0.0370876085562 -0.0200891213013 0.835 6.06688246494e-39
-0.0354571602958 -0.0200410036455 0.833 9.84471866503e-39
-0.0339155446308 -0.0200410036455 0.833 9.30125448291e-39
-0.0322962004448 -0.0199928859897 0.831 1.01292144832e-38
-0.0305362046496 -0.0198485330222 0.825 1.28950007024e-38
-0.0289390686124 -0.0198004153664 0.823 1.17861994705e-38
-0.0272827108451 -0.0197041800548 0.819 1.11404951511e-38
-0.0257040815987 -0.019656062399 0.817 8.84206859433e-39
-0.0241328550685 -0.0196079447432 0.815 1.27070767693e-38
-0.0226245516267 -0.0196079447432 0.815 1.24279689438e-38
-0.021064429171 -0.0195598270874 0.813 8.74195002295e-39
-0.0194154741199 -0.0194154741199 0.807 8.28424810944e-39
-0.017877559813 -0.0193673564641 0.805 1.40064307703e-38
-0.0163470482224 -0.0193192388083 0.803 1.03129219092e-38
-0.0148424461388 -0.0192951799804 0.802 1.10450597192e-38
-0.0133248893016 -0.0192470623246 0.8 1.3353853082e-38
-0.0118147351808 -0.0191989446688 0.798 4.04291422539e-39
-0.0102860742692 -0.0191027093571 0.794 1.37125546603e-38
-0.00879442693908 -0.0190545917013 0.792 2.04418645405e-38
-0.0073101823252 -0.0190064740455 0.79 1.20516488399e-38
-0.00584074314388 -0.0189824152176 0.789 1.01119883211e-38
-0.00436945328349 -0.0189342975618 0.787 2.8469003809e-39
-0.00290556613938 -0.018886179906 0.785 1.3996424098e-38
-0.00144908171155 -0.0188380622502 0.783 2.00816215339e-38
0.0 -0.0188380622502 0.783 1.20641708429e-38
0.00144538035341 -0.0187899445944 0.781 8.27739155605e-39
0.00289076070683 -0.0187899445944 0.781 7.73679302929e-39
0.00433614106024 -0.0187899445944 0.781 6.99780567244e-39
0.00577411869737 -0.0187658857665 0.78 5.24825651376e-39
0.00721764837172 -0.0187658857665 0.78 4.68540396609e-39
0.00867228212048 -0.0187899445944 0.781 2.29367937796e-38
0.0101176624739 -0.0187899445944 0.781 2.3486367623e-38
0.0115630428273 -0.0187899445944 0.781 1.8129335316e-38
0.0131083598505 -0.0189342975618 0.787 1.72092189222e-38
0.0145648442783 -0.0189342975618 0.787 2.12657859985e-38
0.0160620436457 -0.0189824152176 0.789 2.31082524558e-38
0.0175222294316 -0.0189824152176 0.789 2.34871229229e-38
0.0191989446688 -0.0191989446688 0.798 2.34842320442e-38
0.0206757865664 -0.0191989446688 0.798 2.34892430875e-38
0.0222636692081 -0.0192951799804 0.802 2.20926950249e-38
0.0238367464174 -0.0193673564641 0.805 2.27394895545e-38
0.0255782354219 -0.0195598270874 0.813 1.80364362343e-38
0.0272827108451 -0.0197041800548 0.819 2.20011439924e-38
0.0290797202217 -0.019896650678 0.827 2.34766510195e-38
0.0306842589751 -0.0199447683338 0.829 2.20958731699e-38
0.0322962004448 -0.0199928859897 0.831 2.25532780081e-38
0.0338341147517 -0.0199928859897 0.831 1.84055312433e-38
0.0353720290586 -0.0199928859897 0.831 2.22871083713e-38
0.0373541063422 -0.0202334742687 0.841 1.35331800491e-38
0.0527665616345 -0.021436415664 0.891 2.18924494744e-38
0.0544155166855 -0.021436415664 0.891 2.12502974466e-38
0.0560644717366 -0.021436415664 0.891 1.9505086708e-38
0.0577134267877 -0.021436415664 0.891 2.2818011314e-38
0.0595622551783 -0.0215085921477 0.894 2.25363797499e-38
-0.0386329255794 -0.0185438042781 0.835 2.34917892468e-38
-0.0370876085562 -0.0185438042781 0.835 1.10443016167e-38
-0.0354571602958 -0.0184993879804 0.833 9.1943129893e-39
-0.0339155446308 -0.0184993879804 0.833 1.10497260431e-38
-0.0322962004448 -0.0184549716828 0.831 1.06784057721e-38
-0.0306102318124 -0.0183661390874 0.827 9.20258905803e-39
-0.0290093944171 -0.0183217227897 0.825 1.10486302277e-38
-0.0274159597381 -0.0182773064921 0.823 1.30773614807e-38
-0.0258299277754 -0.0182328901944 0.821 9.85617287868e-39
-0.024251298529 -0.0181884738967 0.819 1.02199681769e-38
-0.0227355923709 -0.0181884738967 0.819 1.13230885449e-38
-0.0211680671989 -0.0181440575991 0.817 1.56577531106e-38
-0.0195598270874 -0.0180552250037 0.813 8.28531870147e-39
-0.0179663924084 -0.0179663924084 0.809 7.54920120387e-39
-0.0163877631619 -0.017877559813 0.805 1.1048321942e-38
-0.0148609529295 -0.0178331435154 0.803 1.45517306534e-38
-0.0133748576365 -0.0178331435154 0.803 9.02464377124e-39
-0.011873956911 -0.0178109353665 0.802 8.55940987849e-39
-0.0103638027902 -0.0177665190688 0.8 1.28910826719e-38
-0.00883884323675 -0.0176776864735 0.796 8.09623169058e-39
-0.0073286891159 -0.0175888538782 0.792 1.33521140706e-38
-0.00584814586016 -0.0175444375805 0.79 1.71260630687e-38
-0.00438055735791 -0.0175222294316 0.789 1.25188025115e-38
-0.00291296885566 -0.017477813134 0.787 1.46410382072e-38
-0.00145278306969 -0.0174333968363 0.785 1.14945542276e-38
0.0 -0.0173889805386 0.783 2.18387657302e-38
0.00144538035341 -0.017344564241 0.781 6.3470524747e-39
0.00289076070683 -0.017344564241 0.781 8.74483389519e-39
0.00433614106024 -0.017344564241 0.781 8.10308123748e-39
0.00577411869737 -0.0173223560921 0.78 6.81485915143e-39
0.00721764837172 -0.0173223560921 0.78 5.70169287475e-39
0.00867228212048 -0.017344564241 0.781 2.34953709657e-38
0.0101176624739 -0.017344564241 0.781 1.87790011061e-38
0.0115926536924 -0.0173889805386 0.783 1.67413786143e-38
0.0131416720737 -0.0175222294316 0.789 1.95154941517e-38
0.0146018578597 -0.0175222294316 0.789 2.27448621328e-38
0.0160620436457 -0.0175222294316 0.789 2.13590087802e-38
0.0175444375805 -0.0175444375805 0.79 2.34817867783e-38
0.0193192388083 -0.0178331435154 0.803 2.34863620178e-38
0.0208053341012 -0.0178331435154 0.803 2.34816648654e-38
0.0223469497663 -0.017877559813 0.805 2.34774077206e-38
0.0239551898778 -0.0179663924084 0.809 2.26497952424e-38
0.0255782354219 -0.0180552250037 0.813 1.95141026623e-38
0.0272827108451 -0.0181884738967 0.819 2.3480620898e-38
0.0291500460264 -0.0184105553851 0.829 2.3482404751e-38
0.0307582861379 -0.0184549716828 0.831 2.34795713255e-38
0.0322962004448 -0.0184549716828 0.831 2.20043809918e-38
0.0338341147517 -0.0184549716828 0.831 2.08962607909e-38
0.0353720290586 -0.0184549716828 0.831 1.57408809381e-38
-0.0408518897839 -0.0172834918317 0.849 2.34849298908e-38
-0.0390030613933 -0.0171613470131 0.843 2.34899703614e-38
-0.0374429389376 -0.0171613470131 0.843 1.74050910203e-38
-0.035542291533 -0.0169984872549 0.835 9.64849063717e-39
-0.0339969745099 -0.0169984872549 0.835 9.75969347941e-39
-0.0322962004448 -0.0169170573759 0.831 1.09550276941e-38
-0.0306842589751 -0.0168763424363 0.829 1.21535708824e-38
-0.0290797202217 -0.0168356274968 0.827 1.02181689097e-38
-0.0274825841846 -0.0167949125573 0.825 1.10493911327e-38
-0.0258928508638 -0.0167541976177 0.823 1.01292327e-38
-0.0243105202592 -0.0167134826782 0.821 1.18820230621e-38
-0.022791112743 -0.0167134826782 0.821 1.06845168347e-38
-0.0212717052268 -0.0167134826782 0.821 1.03096596864e-38
-0.019656062399 -0.0166320527991 0.817 1.05876282563e-38
-0.0180552250037 -0.0165506229201 0.813 1.29840770419e-38
-0.0164284781015 -0.0164284781015 0.807 8.37460803831e-39
-0.0148979665109 -0.0163877631619 0.805 8.65011592809e-39
-0.0133748576365 -0.0163470482224 0.803 1.22511559061e-38
-0.0118887623436 -0.0163470482224 0.803 1.12352523545e-38
-0.0103897122971 -0.0163266907526 0.802 9.0185705437e-39
-0.00886105138558 -0.0162452608736 0.798 1.08700067124e-38
-0.00734719590659 -0.0161638309945 0.794 1.07760062101e-38
-0.00584814586016 -0.0160824011154 0.79 1.26116203179e-38
-0.00438055735791 -0.0160620436457 0.789 1.574766042e-38
-0.00292037157194 -0.0160620436457 0.789 1.454385956e-38
-0.00145648442783 -0.0160213287061 0.787 1.11311218657e-38
0.0 -0.0159806137666 0.785 1.99901419675e-38
0.00144908171155 -0.0159398988271 0.783 9.85297511558e-39
0.00289076070683 -0.0158991838875 0.781 9.10678368333e-39
0.00433614106024 -0.0158991838875 0.781 8.4704372351e-39
0.00578152141365 -0.0158991838875 0.781 8.10235676617e-39
0.00722690176707 -0.0158991838875 0.781 3.76525534248e-39
0.00867228212048 -0.0158991838875 0.781 1.95255484682e-38
0.0101435719809 -0.0159398988271 0.783 1.76661543255e-38
0.0115926536924 -0.0159398988271 0.783 2.01565447589e-38
0.0131583281854 -0.0160824011154 0.79 2.32940898555e-38
0.0146203646504 -0.0160824011154 0.79 2.21880281621e-38
0.0160824011154 -0.0160824011154 0.79 1.93271568355e-38
0.0175444375805 -0.0160824011154 0.79 2.34802607643e-38
0.0193673564641 -0.0163877631619 0.805 2.27419908723e-38
0.0208571531152 -0.0163877631619 0.805 2.34817111082e-38
0.0224579905105 -0.016469193041 0.809 2.28327515725e-38
0.0240144116081 -0.0165099079805 0.811 2.12657859985e-38
0.0256411585103 -0.0165913378596 0.815 2.26479749557e-38
0.0274159597381 -0.0167541976177 0.823 2.34794984579e-38
0.0291500460264 -0.0168763424363 0.829 2.34795124709e-38
0.0307582861379 -0.0169170573759 0.831 2.29220409094e-38
0.0322962004448 -0.0169170573759 0.831 2.06200088116e-38
0.0339969745099 -0.0169984872549 0.835 1.8501364644e-38
0.0356274227702 -0.0170392021945 0.837 1.59213065231e-38
-0.0392806632538 -0.0157122653015 0.849 2.34838733118e-38
-0.0374429389376 -0.0156012245573 0.843 2.30261503788e-38
-0.0356274227702 -0.0154901838131 0.837 5.78563625795e-39
-0.0339969745099 -0.0154531702318 0.835 1.10446841712e-38
-0.0323739289658 -0.0154161566504 0.833 9.85120247302e-39
-0.0307582861379 -0.015379143069 0.831 1.10475806551e-38
-0.0291500460264 -0.0153421294876 0.829 1.08634976811e-38
-0.0274825841846 -0.0152681023248 0.825 1.11408482783e-38
-0.0259557739521 -0.0152681023248 0.825 1.20656912518e-38
-0.0243697419894 -0.0152310887434 0.823 9.94839653451e-39
-0.0228466331151 -0.0152310887434 0.823 1.22511531035e-38
-0.0213235242407 -0.0152310887434 0.823 1.16007067902e-38
-0.0197522977106 -0.015194075162 0.821 1.08613817204e-38
-0.0180996413014 -0.0150830344178 0.815 1.16000089435e-38
-0.0165506229201 -0.0150460208364 0.813 1.02167409865e-38
-0.0148979665109 -0.0148979665109 0.805 1.21578266258e-38
-0.0134081698598 -0.0148979665109 0.805 6.90201150812e-39
-0.0118887623436 -0.0148609529295 0.803 8.46465127374e-39
-0.0104026670506 -0.0148609529295 0.803 1.35425631436e-38
-0.00890546768326 -0.0148424461388 0.802 1.05908932817e-38
-0.00742122306938 -0.0148424461388 0.802 9.66354758917e-39
-0.00589256215783 -0.0147314053946 0.796 1.46427898302e-38
-0.00438610939512 -0.0146203646504 0.79 1.2706713833e-38
-0.00292407293008 -0.0146203646504 0.79 8.0919269017e-39
-0.00146018578597 -0.0146018578597 0.789 1.79588939824e-38
0.0 -0.0145648442783 0.787 1.71307069719e-38
0.00145278306969 -0.0145278306969 0.785 1.28936386403e-38
0.0028981634231 -0.0144908171155 0.783 8.74159269184e-39
0.00434724513466 -0.0144908171155 0.783 8.5640551829e-39
0.00579632684621 -0.0144908171155 0.783 8.8409937984e-39
0.00724540855776 -0.0144908171155 0.783 2.75506488474e-39
0.00869449026931 -0.0144908171155 0.783 1.75861808208e-38
0.0101694814878 -0.0145278306969 0.785 2.23749823967e-38
0.0116814862878 -0.0146018578597 0.789 2.20051138709e-38
0.0131583281854 -0.0146203646504 0.79 2.16319887275e-38
0.0146573782318 -0.0146573782318 0.792 2.27376272289e-38
0.016123116055 -0.0146573782318 0.792 2.0709718538e-38
0.0176776864735 -0.0147314053946 0.796 2.18182423129e-38
0.0194635917757 -0.0149719936736 0.809 2.32018970283e-38
0.0209607911431 -0.0149719936736 0.809 2.34795713255e-38
0.0225135108825 -0.015009007255 0.811 2.27419908723e-38
0.0240736333383 -0.0150460208364 0.813 2.09874194599e-38
0.0257040815987 -0.0151200479992 0.817 2.34802677708e-38
0.0274159597381 -0.0152310887434 0.823 2.34831250184e-38
0.0291500460264 -0.0153421294876 0.829 2.29242311389e-38
0.0308323133007 -0.0154161566504 0.833 2.25511101994e-38
0.0323739289658 -0.0154161566504 0.833 2.22838839835e-38
-0.0408518897839 -0.0141410387714 0.849 2.32069290911e-38
-0.0392806632538 -0.0141410387714 0.849 2.3482442586e-38
-0.0376206041283 -0.0141077265481 0.847 2.34928892661e-38
-0.0360530789563 -0.0141077265481 0.847 5.32645877716e-39
-0.0340784043889 -0.0139411654318 0.837 1.06784225877e-38
-0.0324516574867 -0.0139078532086 0.835 9.9437512301e-39
-0.0308323133007 -0.0138745409853 0.833 1.12348431754e-38
-0.029220371831 -0.0138412287621 0.831 1.1138344158e-38
-0.0275492086311 -0.0137746043156 0.827 1.12312460422e-38
-0.0260186970405 -0.0137746043156 0.827 1.09578989547e-38
-0.0244289637197 -0.0137412920923 0.825 1.02221345843e-38
-0.0229021534872 -0.0137412920923 0.825 8.56081678215e-39
-0.0213235242407 -0.0137079798691 0.823 1.20616681239e-38
-0.0197522977106 -0.0136746676458 0.821 1.35354501526e-38
-0.0180996413014 -0.013574730976 0.815 1.06794791667e-38
-0.0165506229201 -0.0135414187528 0.813 9.66322248793e-39
-0.015009007255 -0.0135081065295 0.811 1.35415093671e-38
-0.0134747943063 -0.0134747943063 0.809 1.40043176122e-38
-0.0119183732087 -0.0134081698598 0.805 1.19698508446e-38
-0.0104026670506 -0.0133748576365 0.803 7.44836096378e-39
-0.00891657175768 -0.0133748576365 0.803 1.18723344845e-38
-0.00743047646473 -0.0133748576365 0.803 1.45545500659e-38
-0.00594438117178 -0.0133748576365 0.803 1.22482145806e-38
-0.00445273384163 -0.0133582015249 0.802 1.10443142284e-38
-0.00294628107892 -0.0132582648551 0.796 8.83093808062e-39
-0.00146203646504 -0.0131583281854 0.79 5.70134114883e-39
0.0 -0.0131416720737 0.789 9.93761774672e-39
0.00146018578597 -0.0131416720737 0.789 7.63239068851e-39
0.00291296885566 -0.0131083598505 0.787 8.00726605368e-39
0.00436945328349 -0.0131083598505 0.787 8.47003926633e-39
0.00582593771132 -0.0131083598505 0.787 8.93281668288e-39
0.00728242213916 -0.0131083598505 0.787 2.66322938858e-39
0.00876111471582 -0.0131416720737 0.789 2.04439300544e-38
0.0102213005018 -0.0131416720737 0.789 2.22842118874e-38
0.0116962917203 -0.0131583281854 0.79 2.13564920481e-38
0.0131916404086 -0.0131916404086 0.792 2.1817435165e-38
0.0146573782318 -0.0131916404086 0.792 2.08015512316e-38
0.016123116055 -0.0131916404086 0.792 2.08937202368e-38
0.0176776864735 -0.0132582648551 0.796 2.14497876973e-38
0.0194635917757 -0.0134747943063 0.809 2.34799062358e-38
0.0209607911431 -0.0134747943063 0.809 2.32933625816e-38
0.0225690312546 -0.0135414187528 0.813 2.17263942051e-38
0.0241328550685 -0.013574730976 0.815 1.93261058616e-38
0.025767004687 -0.0136413554225 0.819 2.34802649682e-38
0.0277490819706 -0.0138745409853 0.833 2.34759083313e-38
0.0292906976357 -0.0138745409853 0.833 2.31060636276e-38
0.0309063404635 -0.0139078532086 0.835 2.34802285344e-38
0.0324516574867 -0.0139078532086 0.835 1.50011733138e-38
-0.0408518897839 -0.0125698122412 0.849 2.34845991844e-38
-0.0392806632538 -0.0125698122412 0.849 2.34842670766e-38
-0.0376206041283 -0.0125402013761 0.847 2.34896550692e-38
-0.0360530789563 -0.0125402013761 0.847 5.51012976948e-39
-0.0344855537843 -0.0125402013761 0.847 1.1687169708e-38
-0.0325293860076 -0.0123921470505 0.837 9.38914532389e-39
-0.0309063404635 -0.0123625361854 0.835 9.48240033539e-39
-0.0292906976357 -0.0123329253203 0.833 1.1230892915e-38
-0.0276158330776 -0.0122737035901 0.829 1.16025256756e-38
-0.0260816201289 -0.0122737035901 0.829 8.93104123772e-39
-0.0245474071801 -0.0122737035901 0.829 1.09593633116e-38
-0.0230131942314 -0.0122737035901 0.829 1.07756404712e-38
-0.0214271622687 -0.0122440927249 0.827 9.57639663378e-39
-0.0198485330222 -0.0122144818598 0.825 9.48349755209e-39
-0.0181440575991 -0.0120960383994 0.817 1.22496915492e-38
-0.0165506229201 -0.0120368166691 0.813 1.16969157388e-38
-0.0150460208364 -0.0120368166691 0.813 1.19716599209e-38
-0.0135081065295 -0.012007205804 0.811 7.91256069827e-39
-0.012007205804 -0.012007205804 0.811 1.17808240896e-38
-0.0104285765576 -0.0119183732087 0.805 1.6481765653e-38
-0.00893877990651 -0.0119183732087 0.805 8.28063836459e-39
-0.00743047646473 -0.0118887623436 0.803 7.54633274592e-39
-0.00594438117178 -0.0118887623436 0.803 1.2246807677e-38
-0.00445273384163 -0.011873956911 0.802 1.20617550044e-38
-0.00296848922775 -0.011873956911 0.802 1.08617754852e-38
-0.00147314053946 -0.0117851243157 0.796 8.46901211456e-39
0.0 -0.0117555134506 0.794 8.10092884304e-39
0.00146573782318 -0.0117259025854 0.792 8.00801434706e-39
0.00292407293008 -0.0116962917203 0.79 7.45661321044e-39
0.00438610939512 -0.0116962917203 0.79 6.3520747284e-39
0.00584814586016 -0.0116962917203 0.79 8.19919770044e-39
0.0073101823252 -0.0116962917203 0.79 3.58481294182e-39
0.00877221879024 -0.0116962917203 0.79 2.13641179144e-38
0.0102342552553 -0.0116962917203 0.79 2.23749880019e-38
0.0117259025854 -0.0117259025854 0.792 2.18160857146e-38
0.0132249526319 -0.0117555134506 0.794 1.99749925298e-38
0.0146943918132 -0.0117555134506 0.794 2.23688923536e-38
0.016204545934 -0.0117851243157 0.796 2.02487431913e-38
0.0177221027712 -0.0118147351808 0.798 2.17246089508e-38
0.0195117094315 -0.012007205804 0.811 2.34813215473e-38
0.021012610157 -0.012007205804 0.811 2.16339057038e-38
0.0225690312546 -0.0120368166691 0.813 2.10795758534e-38
0.0241328550685 -0.0120664275343 0.815 2.34787529672e-38
0.025767004687 -0.0121256492645 0.819 2.34791817645e-38
0.0277490819706 -0.0123329253203 0.833 2.34777244141e-38
0.0293610234403 -0.0123625361854 0.835 2.34838522923e-38
0.0309063404635 -0.0123625361854 0.835 1.70251583689e-38
0.0324516574867 -0.0123625361854 0.835 1.51862399994e-38
-0.0408518897839 -0.0109985857111 0.849 2.30218147613e-38
-0.0392806632538 -0.0109985857111 0.849 2.34845683558e-38
-0.0377094367236 -0.0109985857111 0.849 2.34875040761e-38
-0.0361382101935 -0.0109985857111 0.849 8.00116760276e-39
-0.0344855537843 -0.0109726762041 0.847 1.12208161778e-38
-0.0326848430495 -0.0108949476832 0.841 1.20642717364e-38
-0.0309803676263 -0.0108431286692 0.837 1.16071962033e-38
-0.0293610234403 -0.0108172191622 0.835 9.76113121163e-39
-0.0277490819706 -0.0107913096553 0.833 1.13284583206e-38
-0.0262074663056 -0.0107913096553 0.833 1.08685521646e-38
-0.0246066289103 -0.0107654001483 0.831 9.85265001434e-39
-0.0230687146034 -0.0107654001483 0.831 1.01306213868e-38
-0.0214789812826 -0.0107394906413 0.829 1.00388195218e-38
-0.0199447683338 -0.0107394906413 0.829 1.03150504816e-38
-0.0183661390874 -0.0107135811343 0.827 8.84279166433e-39
-0.0165913378596 -0.0105581240925 0.815 8.28818856072e-39
-0.0150460208364 -0.0105322145855 0.813 1.52921879724e-38
-0.0135414187528 -0.0105322145855 0.813 1.05905807921e-38
-0.012007205804 -0.0105063050785 0.811 1.0129580222e-38
-0.0105063050785 -0.0105063050785 0.811 1.03099693734e-38
-0.00900540435302 -0.0105063050785 0.811 1.33528175224e-38
-0.00744898325543 -0.0104285765576 0.805 1.01310347699e-38
-0.00595918660434 -0.0104285765576 0.805 8.1931272755e-39
-0.00445828587884 -0.0104026670506 0.803 8.92818539145e-39
-0.00296848922775 -0.0103897122971 0.802 1.29843853276e-38
-0.0014768418976 -0.0103378932832 0.798 1.1701597477e-38
0.0 -0.0103119837762 0.796 8.19848163693e-39
0.00146943918132 -0.0102860742692 0.794 8.10057291323e-39
0.00293887836264 -0.0102860742692 0.794 7.64100727276e-39
0.00439721346954 -0.0102601647623 0.792 6.53754498794e-39
0.00586295129272 -0.0102601647623 0.792 5.33973187622e-39
0.0073286891159 -0.0102601647623 0.792 3.94964379961e-39
0.00879442693908 -0.0102601647623 0.792 2.20988046862e-38
0.0102601647623 -0.0102601647623 0.792 2.23735334541e-38
0.0117259025854 -0.0102601647623 0.792 2.10781311147e-38
0.0132249526319 -0.0102860742692 0.794 2.1448340156e-38
0.0146943918132 -0.0102860742692 0.794 2.16334951234e-38
0.016204545934 -0.0103119837762 0.796 2.01554727655e-38
0.0179663924084 -0.0104803955715 0.809 2.34784755101e-38
0.0195117094315 -0.0105063050785 0.811 2.21887722515e-38
0.021064429171 -0.0105322145855 0.813 2.10806716688e-38
0.0225690312546 -0.0105322145855 0.813 2.0528569883e-38
0.0246658506406 -0.0107913096553 0.833 2.34799062358e-38
0.0262074663056 -0.0107913096553 0.833 2.34809628148e-38
0.0277490819706 -0.0107913096553 0.833 2.34781111725e-38
0.0293610234403 -0.0108172191622 0.835 2.21895177423e-38
0.0309063404635 -0.0108172191622 0.835 1.343345244e-38
0.0324516574867 -0.0108172191622 0.835 1.77702960247e-38
-0.0408518897839 -0.0094273591809 0.849 2.33891581473e-38
-0.0392806632538 -0.0094273591809 0.849 2.27426943241e-38
-0.0377094367236 -0.0094273591809 0.849 2.3488550846e-38
-0.0362233414307 -0.00944956732974 0.851 1.49158146191e-38
-0.0346484135424 -0.00944956732974 0.851 9.00525960959e-39
-0.0330734856541 -0.00944956732974 0.851 9.57494909247e-39
-0.031424530603 -0.0094273591809 0.849 1.08693158723e-38
-0.0296423266589 -0.0093607347344 0.843 1.18820286673e-38
-0.0279489553102 -0.00931631843672 0.839 1.04029118953e-38
-0.0263333124823 -0.00929411028789 0.837 9.76187670241e-39
-0.0247250723708 -0.00927190213905 0.835 1.20599347177e-38
-0.0231797553476 -0.00927190213905 0.835 1.15074980215e-38
-0.0215826193105 -0.00924969399022 0.833 9.20725538192e-39
-0.0199928859897 -0.00922748584138 0.831 1.05912870466e-38
-0.0184105553851 -0.00920527769254 0.829 9.39380043739e-39
-0.0167949125573 -0.00916086139487 0.825 1.04997920659e-38
-0.0151200479992 -0.00907202879953 0.817 8.28316910962e-39
-0.013574730976 -0.00904982065069 0.815 1.16972660634e-38
-0.0120368166691 -0.00902761250186 0.813 1.14163589707e-38
-0.0105322145855 -0.00902761250186 0.813 1.09571927003e-38
-0.00900540435302 -0.00900540435302 0.811 1.00373327441e-38
-0.00744898325543 -0.00893877990651 0.805 1.09550150825e-38
-0.00595918660434 -0.00893877990651 0.805 1.21567574351e-38
-0.00445828587884 -0.00891657175768 0.803 8.37823600004e-39
-0.00297219058589 -0.00891657175768 0.803 8.37747789757e-39
-0.00148424461388 -0.00890546768326 0.802 7.82686429068e-39
0.0 -0.00886105138558 0.798 1.20717644793e-38
0.0014768418976 -0.00886105138558 0.798 1.25280412723e-38
0.00294628107892 -0.00883884323675 0.796 9.01960890586e-39
0.00440831754396 -0.00881663508791 0.794 6.90201711332e-39
0.00587775672528 -0.00881663508791 0.794 5.98295169342e-39
0.00736570269729 -0.00883884323675 0.796 2.66322938858e-39
0.00883884323675 -0.00883884323675 0.796 2.05325397615e-38
0.0103119837762 -0.00883884323675 0.796 2.16359936385e-38
0.0117851243157 -0.00883884323675 0.796 2.09848634915e-38
0.0132582648551 -0.00883884323675 0.796 2.33847818921e-38
0.0148424461388 -0.00890546768326 0.802 1.86803412864e-38
0.0163470482224 -0.00891657175768 0.803 2.12603167306e-38
0.017877559813 -0.00893877990651 0.805 2.34781251855e-38
0.0195598270874 -0.00902761250186 0.813 2.18192960894e-38
0.021064429171 -0.00902761250186 0.813 2.17242404093e-38
0.0229576738593 -0.00918306954371 0.827 2.34787235399e-38
0.0244881854499 -0.00918306954371 0.827 2.34799202488e-38
0.026270389394 -0.00927190213905 0.835 2.34806054837e-38
0.0278157064172 -0.00927190213905 0.835 2.3480287389e-38
0.0293610234403 -0.00927190213905 0.835 1.30653929905e-38
0.0309803676263 -0.00929411028789 0.837 1.40867672113e-38
0.0325293860076 -0.00929411028789 0.837 2.18325874053e-38
-0.0393731972073 -0.00787463944145 0.851 2.31150865884e-38
-0.037798269319 -0.00787463944145 0.851 2.34817237199e-38
-0.0362233414307 -0.00787463944145 0.851 2.05357991817e-38
-0.0346484135424 -0.00787463944145 0.851 7.62234618111e-39
-0.0330734856541 -0.00787463944145 0.851 9.85155840283e-39
-0.0314985577658 -0.00787463944145 0.851 1.04083419269e-38
-0.0297829782682 -0.00783762586006 0.847 1.13277450597e-38
-0.0281488286497 -0.00781911906936 0.845 1.20642114806e-38
-0.0263962355707 -0.00776359869727 0.839 1.03157343152e-38
-0.0248435158313 -0.00776359869727 0.839 1.11400761629e-38
-0.0232907960918 -0.00776359869727 0.839 1.15081888616e-38
-0.0216862573384 -0.00774509190657 0.837 1.10529504308e-38
-0.0200891213013 -0.00772658511588 0.835 1.04044140873e-38
-0.0184993879804 -0.00770807832518 0.833 8.19344817285e-39
-0.0168763424363 -0.00767106474379 0.829 1.04090439774e-38
-0.0153051159062 -0.00765255795309 0.827 1.0039172649e-38
-0.0136746676458 -0.007597037581 0.821 9.4842136156e-39
-0.0120960383994 -0.00756002399961 0.817 1.05865576643e-38
-0.0105581240925 -0.00754151720891 0.815 1.24336946493e-38
-0.00904982065069 -0.00754151720891 0.815 1.28903792201e-38
-0.00752301041821 -0.00752301041821 0.813 1.15060182503e-38
-0.00601840833457 -0.00752301041821 0.813 9.39130192222e-39
-0.00446938995326 -0.00744898325543 0.805 9.11470522355e-39
-0.00297219058589 -0.00743047646473 0.803 8.83884420656e-39
-0.00148424461388 -0.00742122306938 0.802 8.56118532364e-39
0.0 -0.00742122306938 0.802 7.2718646196e-39
0.00148424461388 -0.00742122306938 0.802 9.94340370808e-39
0.00295368379519 -0.00738420948799 0.798 1.41821872289e-38
0.00443052569279 -0.00738420948799 0.798 1.18841362201e-38
0.00590736759039 -0.00738420948799 0.798 9.30229004247e-39
0.00738420948799 -0.00738420948799 0.798 1.744874427e-39
0.00886105138558 -0.00738420948799 0.798 1.8874103029e-38
0.0103378932832 -0.00738420948799 0.798 2.08051791933e-38
0.0118147351808 -0.00738420948799 0.798 2.2552892651e-38
0.0133248893016 -0.00740271627868 0.8 2.10792241275e-38
0.0148424461388 -0.00742122306938 0.802 2.03391591721e-38
0.0163470482224 -0.00743047646473 0.803 2.19997342861e-38
0.017877559813 -0.00744898325543 0.805 2.12650250935e-38
0.0196079447432 -0.00754151720891 0.815 2.10828394775e-38
0.0213753432547 -0.00763405116239 0.825 2.34849088713e-38
0.0229576738593 -0.00765255795309 0.827 2.32958232617e-38
0.0244881854499 -0.00765255795309 0.827 2.34838578975e-38
0.0263333124823 -0.00774509190657 0.837 2.34824271717e-38
0.0278823308637 -0.00774509190657 0.837 1.70255086935e-38
0.029431349245 -0.00774509190657 0.837 1.32495081944e-38
-0.0395119981375 -0.006321919702 0.854 2.31150837858e-38
-0.037931518212 -0.006321919702 0.854 2.3390950408e-38
-0.0363510382865 -0.006321919702 0.854 2.34871271268e-38
-0.034770558361 -0.006321919702 0.854 6.3366492349e-39
-0.0331900784355 -0.006321919702 0.854 1.04036139458e-38
-0.03160959851 -0.006321919702 0.854 9.57425825232e-39
-0.0298533040729 -0.0062849061206 0.849 1.24312157523e-38
-0.0282154530962 -0.00627010068805 0.847 1.2524114834e-38
-0.0264591586591 -0.00622568439037 0.841 1.2155019825e-38
-0.0249027375615 -0.00622568439037 0.841 1.20617073602e-38
-0.0233463164639 -0.00622568439037 0.841 1.05855207034e-38
-0.0217380763524 -0.00621087895782 0.839 1.02228170167e-38
-0.0201372389571 -0.00619607352526 0.837 1.04061769207e-38
-0.0185438042781 -0.0061812680927 0.835 1.16025256756e-38
-0.0169577723154 -0.00616646266014 0.833 9.02610952944e-39
-0.015379143069 -0.00615165722759 0.831 9.94662389195e-39
-0.0137412920923 -0.00610724092991 0.825 1.1233789399e-38
-0.0121552601296 -0.0060776300648 0.821 1.21564099131e-38
-0.0106099431064 -0.00606282463224 0.819 8.93104123772e-39
-0.00907202879953 -0.00604801919968 0.817 1.2059908093e-38
-0.00754151720891 -0.00603321376713 0.815 1.32613449626e-38
-0.00601840833457 -0.00601840833457 0.813 1.10503930611e-38
-0.00451380625093 -0.00601840833457 0.813 1.20631296782e-38
-0.00297959330217 -0.00595918660434 0.805 9.66604610433e-39
-0.00148609529295 -0.00594438117178 0.803 1.02199653743e-38
0.0 -0.00594438117178 0.803 9.02178792497e-39
0.00148424461388 -0.0059369784555 0.802 7.82541815067e-39
0.00296108651147 -0.00592217302295 0.8 9.94376944698e-39
0.00444162976721 -0.00592217302295 0.8 1.19724110169e-38
0.00592217302295 -0.00592217302295 0.8 1.25281169424e-38
0.00740271627868 -0.00592217302295 0.8 3.12276560178e-39
0.00890546768326 -0.0059369784555 0.802 1.868001058e-38
0.0103897122971 -0.0059369784555 0.802 2.24668459188e-38
0.011873956911 -0.0059369784555 0.802 2.20018600559e-38
0.0133582015249 -0.0059369784555 0.802 2.14472681627e-38
0.0148609529295 -0.00594438117178 0.803 2.15401826586e-38
0.0163877631619 -0.00595918660434 0.805 2.08948132496e-38
0.0183661390874 -0.00612204636247 0.827 2.33873000255e-38
0.019896650678 -0.00612204636247 0.827 2.20958577556e-38
0.0214271622687 -0.00612204636247 0.827 2.34855870998e-38
0.0230131942314 -0.00613685179503 0.829 2.30185104995e-38
0.0245474071801 -0.00613685179503 0.829 2.34834739417e-38
0.0260816201289 -0.00613685179503 0.829 2.19143783941e-38
0.028581887552 -0.00635153056711 0.858 1.38944235828e-38
0.0301697701938 -0.00635153056711 0.858 1.61111474326e-38
-0.039604532091 -0.00475254385092 0.856 2.3021451825e-38
-0.0380203508073 -0.00475254385092 0.856 2.29278016473e-38
-0.0363510382865 -0.0047414397765 0.854 2.34878123617e-38
-0.034770558361 -0.0047414397765 0.854 5.78671245517e-39
-0.0332678069564 -0.00475254385092 0.856 1.03996678894e-38
-0.03160959851 -0.0047414397765 0.854 9.94482322342e-39
-0.0299236298775 -0.00472478366487 0.851 1.03107176667e-38
-0.0282820775427 -0.00471367959045 0.849 1.07702650903e-38
-0.0265220817475 -0.0046803673672 0.843 1.14160058435e-38
-0.0249619592917 -0.0046803673672 0.843 1.22446594864e-38
-0.023401836836 -0.0046803673672 0.843 1.2337924307e-38
-0.0217898953663 -0.00466926329278 0.841 9.30195513214e-39
-0.0201853566129 -0.00465815921836 0.839 9.20798685972e-39
-0.0185882205758 -0.00464705514394 0.837 1.02221485973e-38
-0.0169984872549 -0.00463595106953 0.835 1.0499402505e-38
-0.0154161566504 -0.00462484699511 0.833 1.02160151139e-38
-0.0137746043156 -0.00459153477185 0.827 1.04943620344e-38
-0.0122144818598 -0.00458043069744 0.825 1.04054314299e-38
-0.0106358526134 -0.0045582225486 0.821 1.07709839564e-38
-0.00909423694836 -0.00454711847418 0.819 1.12326515446e-38
-0.0075785307903 -0.00454711847418 0.819 9.29619159156e-39
-0.00604801919968 -0.00453601439976 0.817 1.16000341669e-38
-0.00453601439976 -0.00453601439976 0.817 1.40896819121e-38
-0.00297959330217 -0.00446938995326 0.805 1.11425872897e-38
-0.00148979665109 -0.00446938995326 0.805 9.57102125287e-39
0.0 -0.00446938995326 0.805 9.48241574967e-39
0.00148609529295 -0.00445828587884 0.803 8.47077214543e-39
0.00296848922775 -0.00445273384163 0.802 8.93102722474e-39
0.00445273384163 -0.00445273384163 0.802 9.39020330423e-39
0.0059369784555 -0.00445273384163 0.802 7.91761658313e-39
0.00743047646473 -0.00445828587884 0.803 2.75506488474e-39
0.00891657175768 -0.00445828587884 0.803 1.93236045439e-38
0.0104026670506 -0.00445828587884 0.803 2.24668305045e-38
0.0118887623436 -0.00445828587884 0.803 2.29220381068e-38
0.0133748576365 -0.00445828587884 0.803 2.20911886291e-38
0.0148979665109 -0.00446938995326 0.805 2.17241885613e-38
0.0163877631619 -0.00446938995326 0.805 2.17245543002e-38
0.0183661390874 -0.00459153477185 0.827 2.03420080119e-38
0.019896650678 -0.00459153477185 0.827 2.3482043216e-38
0.0214789812826 -0.00460263884627 0.829 2.34827200431e-38
0.0230131942314 -0.00460263884627 0.829 2.34802201267e-38
0.0245474071801 -0.00460263884627 0.829 2.34842152286e-38
0.0268681587335 -0.0047414397765 0.854 1.26033610647e-38
0.028581887552 -0.00476364792533 0.858 1.42707703113e-38
0.0301697701938 -0.00476364792533 0.858 1.81405106712e-38
0.0317576528356 -0.00476364792533 0.858 2.15553615236e-38
-0.0366064319981 -0.00318316799983 0.86 2.34888969667e-38
-0.0350148479982 -0.00318316799983 0.86 8.46393240762e-39
-0.0333455354773 -0.00317576528356 0.858 1.05829871558e-38
-0.0317576528356 -0.00317576528356 0.858 9.66968107255e-39
-0.0300994443891 -0.00316836256728 0.856 9.85262479096e-39
-0.028448638659 -0.003160959851 0.854 9.11470522355e-39
-0.0267737741009 -0.00314985577658 0.851 1.0221410113e-38
-0.0250804027522 -0.00313505034402 0.847 1.18787818587e-38
-0.0235128775802 -0.00313505034402 0.847 1.20634828054e-38
-0.0218935333942 -0.00312764762774 0.845 1.1144813953e-38
-0.0202815919245 -0.00312024491147 0.843 1.06830791025e-38
-0.0186770531711 -0.00311284219519 0.841 9.4838478767e-39
-0.0170392021945 -0.00309803676263 0.837 1.15095929627e-38
-0.0154901838131 -0.00309803676263 0.837 1.11376379035e-38
-0.0139078532086 -0.00309063404635 0.835 1.1603969013e-38
-0.0122440927249 -0.00306102318124 0.827 1.04057971688e-38
-0.0106617621204 -0.00304621774868 0.823 1.04050811053e-38
-0.00913865324604 -0.00304621774868 0.823 1.16961520312e-38
-0.007597037581 -0.0030388150324 0.821 1.14170442056e-38
-0.00606282463224 -0.00303141231612 0.819 1.07709895616e-38
-0.00454711847418 -0.00303141231612 0.819 8.93139716753e-39
-0.00302400959984 -0.00302400959984 0.817 1.3264553936e-38
-0.00150460208364 -0.00300920416729 0.813 1.17908713995e-38
0.0 -0.00298699601845 0.807 9.02178792497e-39
0.00148979665109 -0.00297959330217 0.805 9.20653791711e-39
0.00297219058589 -0.00297219058589 0.803 8.56187195989e-39
0.00445828587884 -0.00297219058589 0.803 8.65549551289e-39
0.00594438117178 -0.00297219058589 0.803 9.11540867537e-39
0.00744898325543 -0.00297959330217 0.805 5.15103863021e-39
0.00893877990651 -0.00297959330217 0.805 1.82233512325e-38
0.0104285765576 -0.00297959330217 0.805 2.30214490224e-38
0.0119183732087 -0.00297959330217 0.805 2.22781190416e-38
0.0134081698598 -0.00297959330217 0.805 2.24614032756e-38
0.0150460208364 -0.00300920416729 0.813 2.20922452081e-38
0.0168356274968 -0.00306102318124 0.827 1.90512285562e-38
0.0184105553851 -0.00306842589751 0.829 2.34784012413e-38
0.0199928859897 -0.00307582861379 0.831 2.34856235335e-38
0.0215308002966 -0.00307582861379 0.831 2.3483475343e-38
0.0230687146034 -0.00307582861379 0.831 2.34788034139e-38
0.0246066289103 -0.00307582861379 0.831 1.53688516101e-38
0.0268681587335 -0.003160959851 0.854 1.54617562969e-38
0.028448638659 -0.003160959851 0.854 1.39034675631e-38
0.0300994443891 -0.00316836256728 0.856 2.09989255216e-38
0.0316836256728 -0.00316836256728 0.856 1.97082021178e-38
-0.0372449162771 -0.00161934418596 0.875 2.34864012542e-38
-0.0351777077563 -0.0015989867162 0.864 1.22450042059e-38
-0.0335787210401 -0.0015989867162 0.864 9.28937707712e-39
-0.0318316799983 -0.00159158399992 0.86 9.66573781867e-39
-0.0301697701938 -0.00158788264178 0.858 1.00355727133e-38
-0.028581887552 -0.00158788264178 0.858 1.0128120069e-38
-0.0269310818219 -0.00158418128364 0.856 9.7604277598e-39
-0.0251396244824 -0.00157122653015 0.849 8.10380010359e-39
-0.0235683979523 -0.00157122653015 0.849 1.0405778952e-38
-0.0219971714221 -0.00157122653015 0.849 1.04969264106e-38
-0.0203297095803 -0.00156382381387 0.845 1.0775287344e-38
-0.0187214694688 -0.00156012245573 0.843 1.07752901466e-38
-0.017079917134 -0.00155271973945 0.839 1.17869057249e-38
-0.0154901838131 -0.00154901838131 0.837 9.29767836923e-39
-0.0139411654318 -0.00154901838131 0.837 1.04057971688e-38
-0.0123625361854 -0.00154531702318 0.835 1.02250030423e-38
-0.0107913096553 -0.00154161566504 0.833 8.84101201528e-39
-0.00920527769254 -0.00153421294876 0.829 8.93171946618e-39
-0.00765255795309 -0.00153051159062 0.827 1.0499402505e-38
-0.00609243549736 -0.00152310887434 0.823 1.0681639969e-38
-0.0045582225486 -0.0015194075162 0.821 1.10489833549e-38
-0.0030388150324 -0.0015194075162 0.821 9.94626796214e-39
-0.00151570615806 -0.00151570615806 0.819 1.16986729671e-38
0.0 -0.00151200479992 0.817 1.54755100414e-38
0.00150460208364 -0.00150460208364 0.813 1.09578541131e-38
0.00300180145101 -0.0015009007255 0.811 9.11470522355e-39
0.00449159810209 -0.00149719936736 0.809 8.84170285543e-39
0.00598879746946 -0.00149719936736 0.809 8.93389848529e-39
0.00748599683682 -0.00149719936736 0.809 4.78405537798e-39
0.00900540435302 -0.0015009007255 0.811 1.57355083597e-38
0.0105063050785 -0.0015009007255 0.811 2.30214490224e-38
0.012007205804 -0.0015009007255 0.811 2.18182395103e-38
0.0135081065295 -0.0015009007255 0.811 2.03394912799e-38
0.0150460208364 -0.00150460208364 0.813 2.22733518243e-38
0.0168356274968 -0.00153051159062 0.827 2.26490735737e-38
0.0184549716828 -0.0015379143069 0.831 2.30196063149e-38
0.0200891213013 -0.00154531702318 0.835 2.34802089163e-38
0.0215826193105 -0.00154161566504 0.833 2.17252549494e-38
0.0231242349755 -0.00154161566504 0.833 2.09920059098e-38
0.0250804027522 -0.00156752517201 0.847 1.25165520262e-38
0.0266479279242 -0.00156752517201 0.847 2.2476884821e-38
0.028448638659 -0.0015804799255 0.854 1.69481163807e-38
0.0300994443891 -0.00158418128364 0.856 2.15420001427e-38
0.0316836256728 -0.00158418128364 0.856 2.08134930971e-38
-0.0372449162771 0.0 0.875 2.24700955299e-38
-0.0356255720912 0.0 0.875 1.82355551409e-38
-0.0339284993843 0.0 0.873 1.15045482882e-38
-0.0322388293937 0.0 0.871 1.04025797876e-38
-0.0303104218031 0.0 0.862 1.02156619867e-38
-0.0286485119985 0.0 0.86 1.06783875552e-38
-0.0269940049102 0.0 0.858 1.04933054553e-38
-0.0254061222684 0.0 0.858 1.08621258099e-38
-0.0237627192546 0.0 0.856 9.75503976721e-39
-0.0220489904361 0.0 0.851 8.83777501583e-39
-0.020425944892 0.0 0.849 1.19748871113e-38
-0.0187658857665 0.0 0.845 1.1699038706e-38
-0.017079917134 0.0 0.839 1.11422523794e-38
-0.0155271973945 0.0 0.839 1.19698676602e-38
-0.0139411654318 0.0 0.837 1.05901744156e-38
-0.0123921470505 0.0 0.837 9.20830775707e-39
-0.0108172191622 0.0 0.835 1.06816820079e-38
-0.00924969399022 0.0 0.833 1.01302710622e-38
-0.00767106474379 0.0 0.829 1.09607982412e-38
-0.00612204636247 0.0 0.827 9.0235899948e-39
-0.00458043069744 0.0 0.825 1.00359258405e-38
-0.00304621774868 0.0 0.823 8.74773178041e-39
-0.0015194075162 0.0 0.821 1.15142620892e-38
0.0 0.0 0.819 8.37536473948e-39
0.00150830344178 0.0 0.815 1.10475750499e-38
0.00301660688356 0.0 0.815 8.28567182868e-39
0.00450270217651 0.0 0.811 8.38107503073e-39
0.00600360290201 0.0 0.811 8.38180931112e-39
0.00752301041821 0.0 0.813 6.16625134164e-39
0.00902761250186 0.0 0.813 1.40785107607e-38
0.0105322145855 0.0 0.813 2.25637134778e-38
0.0120368166691 0.0 0.813 2.19111007569e-38
0.0136080431993 0.0 0.817 2.0154395167e-38
0.0152310887434 0.0 0.823 2.08008155499e-38
0.0169170573759 0.0 0.831 2.34841311507e-38
0.0184549716828 0.0 0.831 2.29270029072e-38
0.0201853566129 0.0 0.839 2.08955349183e-38
0.0217380763524 0.0 0.839 2.33873000255e-38
0.0233463164639 0.0 0.841 1.33448959822e-38
0.025021181022 0.0 0.845 1.39956687981e-38
