# .PCD v0.7 - Point Cloud Data file format
VERSION 0.7
FIELDS x y z rgb
SIZE 4 4 4 4
TYPE F F F F
COUNT 1 1 1 1
WIDTH 865
HEIGHT 1
VIEWPOINT 0 0 0 1 0 0 0
POINTS 865
DATA ascii
0.0384941246492 -0.00148054325574 0.8 1.32437082201e-38
0.0399746679049 -0.00148054325574 0.8 1.43514823003e-38
0.0413515731327 -0.0014768418976 0.798 1.8224700683e-38
0.0428284150303 -0.0014768418976 0.798 1.82185840152e-38
0.0443052569279 -0.0014768418976 0.798 1.14991673021e-38
0.0457820988255 -0.0014768418976 0.798 1.11394231578e-38
0.0473773841836 -0.00148054325574 0.8 1.1415637302e-38
0.0489800722579 -0.00148424461388 0.802 1.14163533655e-38
0.0505272399602 -0.00148609529295 0.803 1.16025523002e-38
0.052142882788 -0.00148979665109 0.805 9.66825875461e-39
0.0537659283321 -0.00149349800922 0.807 1.2337966346e-38
0.0553963765925 -0.00149719936736 0.809 1.61118312662e-38
0.0570342275691 -0.0015009007255 0.811 1.70338253999e-38
0.0586794812621 -0.00150460208364 0.813 1.28886219918e-38
0.0604801919968 -0.00151200479992 0.817 1.3535057789e-38
0.0621439524805 -0.00151570615806 0.819 1.40903825613e-38
0.0636596586385 -0.00151570615806 0.819 1.41811180382e-38
0.0653345231966 -0.0015194075162 0.821 1.3998165912e-38
0.0668539307128 -0.0015194075162 0.821 1.13259850288e-38
0.0685398993453 -0.00152310887434 0.823 1.33524938225e-38
0.070233270694 -0.00152681023248 0.825 1.30787515688e-38
0.071934044759 -0.00153051159062 0.827 1.48268784095e-38
0.0734645563497 -0.00153051159062 0.827 1.27070921836e-38
0.0753578010379 -0.0015379143069 0.831 1.28925848639e-38
0.0770807832518 -0.00154161566504 0.833 1.45538830479e-38
0.0786223989168 -0.00154161566504 0.833 1.45517516729e-38
0.0805489558284 -0.00154901838131 0.837 1.49176293007e-38
0.0822941461911 -0.00155271973945 0.839 1.63030370404e-38
0.0842466126096 -0.00156012245573 0.843 1.51066518518e-38
0.0862138844606 -0.00156752517201 0.847 1.35364871134e-38
0.0877814096326 -0.00156752517201 0.847 1.26124022424e-38
0.0895599122186 -0.00157122653015 0.849 1.39063612444e-38
0.0913458175208 -0.00157492788829 0.851 1.31687807912e-38
0.0934666957347 -0.00158418128364 0.856 1.34453662795e-38
0.0950508770183 -0.00158418128364 0.856 5.97468823637e-39
0.0970866239949 -0.00159158399992 0.86 2.35051338121e-38
0.0148405954597 0.0 0.891 1.14998847669e-38
0.0164895505108 0.0 0.891 1.2327144118e-38
0.0180977906223 0.0 0.889 1.22299136227e-38
0.0197430443153 0.0 0.889 2.08018749315e-38
0.0213882980082 0.0 0.889 1.89691180713e-38
0.0230335517011 0.0 0.889 1.52787719409e-38
0.0246788053941 0.0 0.889 1.88682820352e-38
0.026324059087 0.0 0.889 1.83237850961e-38
0.0265850048358 0.0 0.845 1.94308795465e-38
0.0281488286497 0.0 0.845 7.9039511205e-39
0.0296423266589 0.0 0.843 7.89964633162e-39
0.0312024491147 0.0 0.843 1.94348466225e-38
0.0324516574867 0.0 0.835 1.78635510362e-38
0.0338341147517 0.0 0.831 1.29599256629e-38
0.035116635347 0.0 0.825 1.64672524048e-38
0.0364657803888 0.0 0.821 1.60966818285e-38
0.037985187905 0.0 0.821 1.79402146739e-38
0.0394083601096 0.0 0.819 1.73920645497e-38
0.0408241295979 0.0 0.817 1.52730504392e-38
0.0420252203141 0.0 0.811 1.65594466334e-38
0.0430430938024 0.0 0.802 1.83086300532e-38
0.0445273384163 0.0 0.802 1.11300316555e-38
0.0460115830302 0.0 0.802 1.15081986707e-38
0.047495827644 0.0 0.802 1.15078329318e-38
0.0491632894858 0.0 0.805 1.14163533655e-38
0.0506530861369 0.0 0.805 1.04050909144e-38
0.0524019778577 0.0 0.809 1.62098128575e-38
0.0538991772251 0.0 0.809 1.46443018313e-38
0.0555333268436 0.0 0.811 1.58384673631e-38
0.0571748791784 0.0 0.813 1.22375086604e-38
0.0588238342295 0.0 0.815 1.52875188459e-38
0.0604801919968 0.0 0.817 1.33527838913e-38
0.0621439524805 0.0 0.819 1.53814745066e-38
0.0638151156804 0.0 0.821 1.22468623276e-38
0.0656528399966 0.0 0.825 1.29843446899e-38
0.0671796502291 0.0 0.825 1.31705744532e-38
0.0687064604615 0.0 0.825 1.26166243547e-38
0.0704035331684 0.0 0.827 1.42765478649e-38
0.0721080085916 0.0 0.829 1.30755075628e-38
0.073819886731 0.0 0.831 1.36286883485e-38
0.0757205341356 0.0 0.835 1.37230643988e-38
0.0772658511588 0.0 0.835 1.34468306364e-38
0.078999937447 0.0 0.837 1.63934950602e-38
0.0809338970749 0.0 0.841 1.46421186083e-38
0.0826864901538 0.0 0.843 1.49201278158e-38
0.0844464859491 0.0 0.845 1.22471706133e-38
0.0864174591583 0.0 0.849 1.29840364043e-38
0.0879886856884 0.0 0.849 1.32609540003e-38
0.0897708896325 0.0 0.851 1.35372059796e-38
0.0916678356789 0.0 0.854 1.31695024599e-38
0.0934666957347 0.0 0.856 1.25252316689e-38
0.095495039995 0.0 0.86 8.37102071425e-39
0.0970866239949 0.0 0.86 2.35098842138e-38
0.0164895505108 0.00164895505108 0.891 1.6384085341e-38
0.0181385055618 0.00164895505108 0.891 1.01151776764e-38
0.0197430443153 0.00164525369294 0.889 1.80371270744e-38
0.0213882980082 0.00164525369294 0.889 1.85077223351e-38
0.0230335517011 0.00164525369294 0.889 1.54628016656e-38
0.0246788053941 0.00164525369294 0.889 1.89547547621e-38
0.0267108510126 0.00157122653015 0.849 1.89695426648e-38
0.0282820775427 0.00157122653015 0.849 1.66661036634e-38
0.0298533040729 0.00157122653015 0.849 1.42675052859e-38
0.0314985577658 0.00157492788829 0.851 1.91532332753e-38
0.0324516574867 0.00154531702318 0.835 1.79567878309e-38
0.0338341147517 0.0015379143069 0.831 1.23145660629e-38
0.035116635347 0.00152681023248 0.825 1.68364511099e-38
0.0364657803888 0.0015194075162 0.821 1.46240852983e-38
0.037985187905 0.0015194075162 0.821 1.7013261345e-38
0.0394083601096 0.00151570615806 0.819 1.56360694181e-38
0.0408241295979 0.00151200479992 0.817 1.61020628146e-38
0.0420252203141 0.0015009007255 0.811 1.54502460314e-38
0.0435261210396 0.0015009007255 0.811 2.01500581483e-38
0.0450270217651 0.0015009007255 0.811 1.09474368604e-38
0.0465279224906 0.0015009007255 0.811 1.10514888765e-38
0.0480288232161 0.0015009007255 0.811 1.10500973872e-38
0.0495297239416 0.0015009007255 0.811 1.06824303013e-38
0.0510306246671 0.0015009007255 0.811 1.04061741181e-38
0.0526610729275 0.00150460208364 0.813 1.26130790696e-38
0.0542989239041 0.00150830344178 0.815 1.06769526256e-38
0.0558072273459 0.00150830344178 0.815 1.64882074221e-38
0.0573155307877 0.00150830344178 0.815 1.28006947171e-38
0.0588238342295 0.00150830344178 0.815 1.47378875492e-38
0.0606282463224 0.00151570615806 0.819 1.14177882951e-38
0.0622957081642 0.0015194075162 0.821 1.33509439864e-38
0.064281486806 0.00153051159062 0.827 1.43662309666e-38
0.0658119983966 0.00153051159062 0.827 1.33520958537e-38
0.0673425099872 0.00153051159062 0.827 1.50148163556e-38
0.0690395826941 0.00153421294876 0.829 1.1787624591e-38
0.0707440581172 0.0015379143069 0.831 1.40907356885e-38
0.0722819724241 0.0015379143069 0.831 1.5104849782e-38
0.0739975519217 0.00154161566504 0.833 1.53821625442e-38
0.0759019006844 0.00154901838131 0.837 1.40900140198e-38
0.0774509190657 0.00154901838131 0.837 1.46442962261e-38
0.0791887067122 0.00155271973945 0.839 1.48300971921e-38
0.0813188383213 0.00156382381387 0.845 1.26145111966e-38
0.083275006098 0.00157122653015 0.849 1.2796773884e-38
0.0848462326281 0.00157122653015 0.849 1.32595470966e-38
0.0869263959024 0.0015804799255 0.854 1.35354081136e-38
0.0885068758279 0.0015804799255 0.854 1.25223323823e-38
0.0902983331674 0.00158418128364 0.856 1.28932883157e-38
0.0920971932231 0.00158788264178 0.858 1.2340792765e-38
0.0939034559951 0.00159158399992 0.86 1.34446600251e-38
0.095495039995 0.00159158399992 0.86 1.09482075745e-38
0.0165820844643 0.00331641689285 0.896 1.4819650512e-38
0.0181995779711 0.00330901417657 0.894 1.62017988315e-38
0.0198540850594 0.00330901417657 0.894 1.07598198116e-38
0.0213882980082 0.00329050738588 0.889 1.9242446942e-38
0.0230335517011 0.00329050738588 0.889 1.56461139255e-38
0.0246788053941 0.00329050738588 0.889 1.59083473149e-38
0.0267737741009 0.00314985577658 0.851 1.75858431079e-38
0.0283487019892 0.00314985577658 0.851 1.87847632454e-38
0.0299236298775 0.00314985577658 0.851 1.84145514015e-38
0.0314985577658 0.00314985577658 0.851 1.92446708027e-38
0.0330734856541 0.00314985577658 0.851 1.7863535622e-38
0.0346484135424 0.00314985577658 0.851 1.20336785884e-38
0.0352017665842 0.00306102318124 0.827 1.87772102467e-38
0.0364657803888 0.0030388150324 0.821 1.49038965757e-38
0.037985187905 0.0030388150324 0.821 1.61906865347e-38
0.0394083601096 0.00303141231612 0.819 1.40723548566e-38
0.0408241295979 0.00302400959984 0.817 1.73927820145e-38
0.0423361343978 0.00302400959984 0.817 1.66509654361e-38
0.0437407998117 0.00301660688356 0.815 1.56392980098e-38
0.0452491032535 0.00301660688356 0.815 1.14073388125e-38
0.0467574066952 0.00301660688356 0.815 1.0774939822e-38
0.048265710137 0.00301660688356 0.815 1.08653530002e-38
0.0497740135788 0.00301660688356 0.815 1.08660788728e-38
0.0512823170206 0.00301660688356 0.815 1.04065244427e-38
0.0529201679972 0.00302400959984 0.817 1.11426629598e-38
0.0544321727972 0.00302400959984 0.817 1.26152777069e-38
0.0559441775971 0.00302400959984 0.817 1.44599063677e-38
0.057456182397 0.00302400959984 0.817 1.28947078311e-38
0.0591125401644 0.00303141231612 0.819 1.13263087288e-38
0.0606282463224 0.00303141231612 0.819 1.37201945395e-38
0.0622957081642 0.0030388150324 0.821 1.3995297454e-38
0.0644369438478 0.00306842589751 0.829 1.4180764911e-38
0.0659711567966 0.00306842589751 0.829 1.23386697978e-38
0.0675053697453 0.00306842589751 0.829 1.3258435867e-38
0.0692061438103 0.00307582861379 0.831 1.52860390747e-38
0.0710845830661 0.00309063404635 0.835 1.45502690991e-38
0.0728038639218 0.00309803676263 0.837 1.54697044618e-38
0.0747082126845 0.00311284219519 0.841 1.64863941419e-38
0.0764460003309 0.00312024491147 0.843 1.55658251287e-38
0.0780061227866 0.00312024491147 0.843 1.21542771368e-38
0.0801325530377 0.0031424530603 0.849 1.2062429029e-38
0.0818962501911 0.00314985577658 0.851 1.2705225654e-38
0.0834711780794 0.00314985577658 0.851 1.39938527153e-38
0.0853459159769 0.003160959851 0.854 1.65764247656e-38
0.0871299706001 0.00316836256728 0.856 1.5194586133e-38
0.0889214279396 0.00317576528356 0.858 1.27074481134e-38
0.0905093105813 0.00317576528356 0.858 1.27099494311e-38
0.0923118719952 0.00318316799983 0.86 1.47390015815e-38
0.0941218361253 0.00319057071611 0.862 1.35361367888e-38
0.0959392029717 0.00319797343239 0.864 1.50940443695e-38
0.0975381896879 0.00319797343239 0.864 2.35097791165e-38
0.0165820844643 0.00497462533928 0.896 1.31619494612e-38
0.0182402929107 0.00497462533928 0.896 1.59256407393e-38
0.0197430443153 0.00493576107881 0.889 1.32548205169e-38
0.0213882980082 0.00493576107881 0.889 1.3060056846e-38
0.0230335517011 0.00493576107881 0.889 1.64704950095e-38
0.0246788053941 0.00493576107881 0.889 1.92363709119e-38
0.0262056156265 0.00491355292998 0.885 1.29696114379e-38
0.0278434666032 0.00491355292998 0.885 1.96070031453e-38
0.0285152631055 0.00475254385092 0.856 1.81390014728e-38
0.0300994443891 0.00475254385092 0.856 1.84145415924e-38
0.03160959851 0.0047414397765 0.854 1.86908131898e-38
0.0330734856541 0.00472478366487 0.851 1.83234347714e-38
0.0346484135424 0.00472478366487 0.851 1.12042892637e-38
0.0352017665842 0.00459153477185 0.827 2.24690165301e-38
0.0365546129841 0.00456932662302 0.823 7.8099632299e-39
0.037985187905 0.0045582225486 0.821 1.46223266688e-38
0.0394083601096 0.00454711847418 0.819 1.22335009468e-38
0.0409240662676 0.00454711847418 0.819 1.61024509743e-38
0.0423361343978 0.00453601439976 0.817 1.37979245653e-38
0.0438481391977 0.00453601439976 0.817 1.55528434997e-38
0.0453601439976 0.00453601439976 0.817 1.13176487043e-38
0.0468721487976 0.00453601439976 0.817 1.09585996039e-38
0.0483841535975 0.00453601439976 0.817 1.14181358171e-38
0.0498961583974 0.00453601439976 0.817 1.0770986759e-38
0.0514081631973 0.00453601439976 0.817 1.33538937196e-38
0.0529201679972 0.00453601439976 0.817 1.4740027332e-38
0.0544321727972 0.00453601439976 0.817 1.30772886132e-38
0.0559441775971 0.00453601439976 0.817 1.27974759345e-38
0.0575968340063 0.00454711847418 0.819 1.43690391687e-38
0.0591125401644 0.00454711847418 0.819 1.39989128041e-38
0.0606282463224 0.00454711847418 0.819 1.4734679977e-38
0.0630544865828 0.00461374292069 0.831 1.29840364043e-38
0.0645924008897 0.00461374292069 0.831 1.32616560508e-38
0.0661303151966 0.00461374292069 0.831 1.34478689986e-38
0.0676682295035 0.00461374292069 0.831 1.44616607933e-38
0.0692061438103 0.00461374292069 0.831 1.62051185076e-38
0.0712548455405 0.00464705514394 0.837 1.68526361072e-38
0.0731517915869 0.00466926329278 0.841 1.5472926047e-38
0.0750635430659 0.00469147144162 0.845 1.28882534503e-38
0.0766273668797 0.00469147144162 0.845 1.20617255771e-38
0.0783762586006 0.00470257551603 0.847 1.16950954521e-38
0.0803213223028 0.00472478366487 0.851 1.27053223436e-38
0.0818962501911 0.00472478366487 0.851 1.82394801779e-38
0.0837654360515 0.0047414397765 0.854 1.7222129085e-38
0.0853459159769 0.0047414397765 0.854 1.5282439139e-38
0.0875371199954 0.00477475199975 0.86 1.32563255115e-38
0.0891287039954 0.00477475199975 0.86 1.57480962238e-38
0.0909312654092 0.00478585607417 0.862 1.66721979104e-38
0.0925265507673 0.00478585607417 0.862 1.67662082218e-38
0.0941218361253 0.00478585607417 0.862 1.17833632424e-38
0.0957171214834 0.00478585607417 0.862 1.8409910301e-38
0.0165820844643 0.0066328337857 0.896 1.41749845548e-38
0.0182402929107 0.0066328337857 0.896 1.30693586652e-38
0.0197430443153 0.00658101477175 0.889 1.55604175179e-38
0.0213882980082 0.00658101477175 0.889 1.14041032143e-38
0.0229817326872 0.00656620933919 0.887 1.49017848189e-38
0.0245677646499 0.00655140390664 0.885 8.0815236619e-39
0.0262056156265 0.00655140390664 0.885 1.8050125519e-38
0.0278434666032 0.00655140390664 0.885 1.28810045334e-38
0.0294813175799 0.00655140390664 0.885 2.05275301195e-38
0.0301697701938 0.00635153056711 0.858 1.80475513337e-38
0.03160959851 0.006321919702 0.854 1.86918613611e-38
0.0331900784355 0.006321919702 0.854 1.81397623778e-38
0.0335898251145 0.00610724092991 0.825 9.1835496158e-39
0.035116635347 0.00610724092991 0.825 2.33894678342e-38
0.0365546129841 0.00609243549736 0.823 6.7075785436e-39
0.0380777218585 0.00609243549736 0.823 1.04810861327e-38
0.0395045954212 0.0060776300648 0.821 1.03006605477e-38
0.0410240029374 0.0060776300648 0.821 1.13111915209e-38
0.0424397724257 0.00606282463224 0.819 1.11232325553e-38
0.0439554785838 0.00606282463224 0.819 1.36110474021e-38
0.0454711847418 0.00606282463224 0.819 1.22353408517e-38
0.0469868908999 0.00606282463224 0.819 1.09582520819e-38
0.0485025970579 0.00606282463224 0.819 1.1141180386e-38
0.050018303216 0.00606282463224 0.819 1.26162908457e-38
0.0515340093741 0.00606282463224 0.819 1.40914335352e-38
0.0530497155321 0.00606282463224 0.819 1.09564374004e-38
0.0545654216902 0.00606282463224 0.819 1.5102023363e-38
0.0560811278482 0.00606282463224 0.819 1.46432004107e-38
0.0575968340063 0.00606282463224 0.819 1.19698256212e-38
0.0591125401644 0.00606282463224 0.819 1.39031410605e-38
0.060776300648 0.0060776300648 0.821 1.39020060088e-38
0.0632062422665 0.00616646266014 0.833 1.30733635762e-38
0.0647478579315 0.00616646266014 0.833 1.39982261678e-38
0.0662894735965 0.00616646266014 0.833 1.55640650978e-38
0.0679939490197 0.0061812680927 0.835 1.43676925209e-38
0.0697058271592 0.00619607352526 0.837 1.76838261004e-38
0.0715953704893 0.00622568439037 0.841 1.39953128683e-38
0.073499719252 0.00625529525549 0.845 1.20610095136e-38
0.0750635430659 0.00625529525549 0.845 1.27056698656e-38
0.0768087334286 0.00627010068805 0.847 1.20635080288e-38
0.0783762586006 0.00627010068805 0.847 1.17872560495e-38
0.0806044762005 0.006321919702 0.854 1.65760716384e-38
0.082184956126 0.006321919702 0.854 1.85136442224e-38
0.0839616080328 0.00633672513455 0.856 1.5285641106e-38
0.085745662656 0.00635153056711 0.858 1.48229127349e-38
0.0877406946931 0.00638114143223 0.862 1.44570168902e-38
0.089543256107 0.00639594686478 0.864 1.8328517281e-38
0.091669686358 0.00643296044618 0.869 1.62998000409e-38
0.0934926052416 0.00644776587873 0.871 1.29825902643e-38
0.0951045467113 0.00644776587873 0.871 8.55362671973e-39
0.0182402929107 0.00829104223213 0.896 1.45401517242e-38
0.0197430443153 0.00822626846469 0.889 1.4267195599e-38
0.0213882980082 0.00822626846469 0.889 1.59259630379e-38
0.0229817326872 0.00820776167399 0.887 1.2054485068e-38
0.0245677646499 0.00818925488329 0.885 1.04846958776e-38
0.0262056156265 0.00818925488329 0.885 7.90538605013e-39
0.0276861588823 0.00814298790655 0.88 1.83284149862e-38
0.0293147564636 0.00814298790655 0.88 1.28799297375e-38
0.0303104218031 0.00797642679028 0.862 1.94201470016e-38
0.0319057071611 0.00797642679028 0.862 1.91564352423e-38
0.0331900784355 0.0079023996275 0.854 1.8048998875e-38
0.0335898251145 0.00763405116239 0.825 1.07494165718e-38
0.035116635347 0.00763405116239 0.825 2.3020019698e-38
0.0367322781748 0.00765255795309 0.827 6.43099585791e-39
0.0380777218585 0.0076155443717 0.823 1.3796866585e-38
0.0396008307328 0.0076155443717 0.823 1.42628417646e-38
0.0411239396072 0.0076155443717 0.823 1.39851856843e-38
0.0425434104536 0.007597037581 0.821 1.4631666323e-38
0.0440628179698 0.007597037581 0.821 1.83176291919e-38
0.045582225486 0.007597037581 0.821 1.19616028018e-38
0.0471016330022 0.007597037581 0.821 1.1327760474e-38
0.0486210405184 0.007597037581 0.821 1.1509997938e-38
0.0501404480346 0.007597037581 0.821 1.16936479108e-38
0.0515340093741 0.0075785307903 0.819 1.48268910212e-38
0.0530497155321 0.0075785307903 0.819 1.28954533218e-38
0.0546986705832 0.007597037581 0.821 1.30755341875e-38
0.0562180780994 0.007597037581 0.821 1.34457432288e-38
0.0577374856156 0.007597037581 0.821 1.35371485263e-38
0.0596899520341 0.00765255795309 0.827 1.44598433092e-38
0.0612204636247 0.00765255795309 0.827 1.45513228756e-38
0.0633579979502 0.00772658511588 0.835 1.46388689971e-38
0.0649033149734 0.00772658511588 0.835 1.42744080822e-38
0.0664486319965 0.00772658511588 0.835 1.62983679139e-38
0.0681568087778 0.00774509190657 0.837 1.42718465086e-38
0.0697058271592 0.00774509190657 0.837 1.17851162668e-38
0.0715953704893 0.00778210548797 0.841 1.14156246903e-38
0.073499719252 0.00781911906936 0.845 1.22443217735e-38
0.0750635430659 0.00781911906936 0.845 1.67554084145e-38
0.0768087334286 0.00783762586006 0.847 1.27906207824e-38
0.0787463944145 0.00787463944145 0.851 1.29840364043e-38
0.0806044762005 0.0079023996275 0.854 1.50116003757e-38
0.0827623679957 0.00795791999959 0.86 1.53742872468e-38
0.0843539519956 0.00795791999959 0.86 1.4365171585e-38
0.086145409335 0.00797642679028 0.862 1.62101659847e-38
0.0879442693908 0.00799493358098 0.864 1.57513150064e-38
0.0900614462465 0.00804120055772 0.869 1.31669983396e-38
0.091669686358 0.00804120055772 0.869 1.27964207568e-38
0.0934926052416 0.00805970734842 0.871 1.31672912109e-38
0.0951045467113 0.00805970734842 0.871 6.61897163911e-39
0.0197874606129 0.00989373030646 0.891 1.41753320768e-38
0.0213882980082 0.00987152215763 0.889 1.40820686575e-38
0.0229817326872 0.00984931400879 0.887 1.56537299827e-38
0.0244844840917 0.0097937936367 0.882 1.04893874248e-38
0.0261167830312 0.0097937936367 0.882 9.65997007419e-39
0.0276861588823 0.00977158548786 0.88 8.64329861106e-39
0.0293147564636 0.00977158548786 0.88 1.87873374307e-38
0.030626887924 0.0096716488181 0.871 1.26941049494e-38
0.0319057071611 0.00957171214834 0.862 1.9147081575e-38
0.0333455354773 0.00952729585067 0.858 1.91517689184e-38
0.0336712549936 0.00918306954371 0.827 1.25000307173e-38
0.0352017665842 0.00918306954371 0.827 1.93239002178e-38
0.0367322781748 0.00918306954371 0.827 1.12207909544e-38
0.0382627897654 0.00918306954371 0.827 1.38000881702e-38
0.0397933013561 0.00918306954371 0.827 1.25958192764e-38
0.0412238762769 0.00916086139487 0.825 1.18593486516e-38
0.0426470484815 0.00913865324604 0.823 1.01987623272e-38
0.0441701573558 0.00913865324604 0.823 1.34187514178e-38
0.0456932662302 0.00913865324604 0.823 1.09460299567e-38
0.0472163751045 0.00913865324604 0.823 1.16014676952e-38
0.0487394839789 0.00913865324604 0.823 1.1325239538e-38
0.0501404480346 0.0091164450972 0.821 1.1693653516e-38
0.0516598555508 0.0091164450972 0.821 1.16929472616e-38
0.053179263067 0.0091164450972 0.821 1.10472401396e-38
0.0546986705832 0.0091164450972 0.821 1.11390700306e-38
0.0573136801086 0.00929411028789 0.837 1.55651595119e-38
0.05886269849 0.00929411028789 0.837 1.33527600692e-38
0.0604117168713 0.00929411028789 0.837 1.6303039843e-38
0.0619607352526 0.00929411028789 0.837 1.53800465835e-38
0.0635097536339 0.00929411028789 0.837 1.46410382072e-38
0.0650587720152 0.00929411028789 0.837 1.40910832106e-38
0.0666077903965 0.00929411028789 0.837 1.24297696123e-38
0.0684825282941 0.00933852658556 0.841 1.18740945153e-38
0.070205510508 0.0093607347344 0.843 1.16017913952e-38
0.0717656329637 0.0093607347344 0.843 1.60246326667e-38
0.073499719252 0.00938294288323 0.845 1.79536208963e-38
0.0754188734472 0.0094273591809 0.849 2.09041893376e-38
0.0769900999774 0.0094273591809 0.849 1.26944776948e-38
0.079023996275 0.00948287955299 0.854 1.39995756182e-38
0.0809820147307 0.00952729585067 0.858 1.3169164747e-38
0.0829548386189 0.00957171214834 0.862 1.66722651728e-38
0.0847462959584 0.00959392029717 0.864 1.43680246287e-38
0.0866450926839 0.00962723252043 0.867 1.40871595749e-38
0.0884532061349 0.00964944066926 0.869 1.26124022424e-38
0.0900614462465 0.00964944066926 0.869 1.3168038103e-38
0.0920916411859 0.00969385696694 0.873 1.24312311666e-38
0.0939219627858 0.00971606511577 0.875 1.44570196928e-38
0.0955413069718 0.00971606511577 0.875 6.52247262166e-39
0.0213882980082 0.0115167758506 0.889 1.19615789798e-38
0.0229817326872 0.0114908663436 0.887 1.31586970475e-38
0.0244844840917 0.0114260925761 0.882 1.38987704106e-38
0.0261167830312 0.0114260925761 0.882 1.03010262866e-38
0.0276861588823 0.0114001830692 0.88 9.84327252501e-39
0.0293147564636 0.0114001830692 0.88 8.63612396292e-39
0.0306972137286 0.0113094997948 0.873 1.740443241e-38
0.0321648022309 0.0112576807808 0.869 1.46320348645e-38
0.0335009925192 0.0111669975064 0.862 1.20415707013e-38
0.0336712549936 0.0107135811343 0.827 1.29488049583e-38
0.0352017665842 0.0107135811343 0.827 2.32043955434e-38
0.0367322781748 0.0107135811343 0.827 6.70793727601e-39
0.0383553237189 0.0107394906413 0.829 9.74497003644e-39
0.0397933013561 0.0107135811343 0.827 1.02977892871e-38
0.0413238129467 0.0107135811343 0.827 1.1866538714e-38
0.0427506865094 0.0106876716274 0.825 1.58305023826e-38
0.0442774967419 0.0106876716274 0.825 1.57383081541e-38
0.0458043069744 0.0106876716274 0.825 1.14145232697e-38
0.0473311172068 0.0106876716274 0.825 1.10518938518e-38
0.0488579274393 0.0106876716274 0.825 1.16018180198e-38
0.0502625928532 0.0106617621204 0.823 1.16014536822e-38
0.0517857017275 0.0106617621204 0.823 1.24312157523e-38
0.0533088106019 0.0106617621204 0.823 1.5751317809e-38
0.0557646617273 0.0108431286692 0.837 1.44612922519e-38
0.0573136801086 0.0108431286692 0.837 1.52903326532e-38
0.0590033500993 0.0108690381762 0.839 1.47367903325e-38
0.0605560698387 0.0108690381762 0.839 1.39049165057e-38
0.0621087895782 0.0108690381762 0.839 1.42747738211e-38
0.0636615093176 0.0108690381762 0.839 1.24287158358e-38
0.0652142290571 0.0108690381762 0.839 1.16011201732e-38
0.0670852655965 0.0109208571901 0.843 1.16932555472e-38
0.0688082478104 0.0109467666971 0.845 1.33496197593e-38
0.0707051938568 0.0109985857111 0.849 1.49169258488e-38
0.0722764203869 0.0109985857111 0.849 2.0161977593e-38
0.0740216107496 0.011024495218 0.851 2.12603685787e-38
0.075863036424 0.0110633594785 0.854 1.52719966628e-38
0.0776248828983 0.0110892689855 0.856 1.60171371212e-38
0.0795791999959 0.0111410879994 0.86 1.44588161575e-38
0.0813595532609 0.0111669975064 0.862 1.51016674332e-38
0.0831473092422 0.0111929070134 0.864 1.44573672149e-38
0.0852367259118 0.0112576807808 0.869 1.24322877456e-38
0.0870448393629 0.0112835902878 0.871 1.3167704594e-38
0.0886567808326 0.0112835902878 0.871 1.27085243106e-38
0.0904759983581 0.0113094997948 0.873 1.27974801384e-38
0.0923026185998 0.0113354093017 0.875 1.67640376105e-38
0.0942439809439 0.0113742735622 0.878 1.44580902849e-38
0.0958688771671 0.0113742735622 0.878 6.33951909416e-39
0.0213882980082 0.0131620295435 0.889 1.20555612652e-38
0.0229817326872 0.0131324186784 0.887 1.33434470396e-38
0.0245677646499 0.0131028078133 0.885 1.49114958173e-38
0.0262056156265 0.0131028078133 0.885 1.23278503724e-38
0.0277490819706 0.0130583915156 0.882 1.11300316555e-38
0.0293147564636 0.0130287806505 0.88 1.06687143919e-38
0.0306972137286 0.0129251426226 0.873 7.720997593e-39
0.0321648022309 0.0128659208924 0.869 1.69419072272e-38
0.0335787210401 0.0127918937296 0.864 1.93358266691e-38
0.0350962778772 0.0127622828645 0.862 1.52784132085e-38
0.0352017665842 0.0122440927249 0.827 2.09009649498e-38
0.0367322781748 0.0122440927249 0.827 7.90538605013e-39
0.0382627897654 0.0122440927249 0.827 1.20487453494e-38
0.0397933013561 0.0122440927249 0.827 1.51833729427e-38
0.0413238129467 0.0122440927249 0.827 1.74864420013e-38
0.0427506865094 0.0122144818598 0.825 1.61013453498e-38
0.0442774967419 0.0122144818598 0.825 1.96948827759e-38
0.0458043069744 0.0122144818598 0.825 1.06722891043e-38
0.0473311172068 0.0122144818598 0.825 1.09604198906e-38
0.0488579274393 0.0122144818598 0.825 1.14174379705e-38
0.0503847376718 0.0122144818598 0.825 1.2797886515e-38
0.052037394081 0.0122440927249 0.827 1.40914755741e-38
0.0543451908809 0.0124217579156 0.839 1.57488122874e-38
0.0558979106203 0.0124217579156 0.839 1.5196355973e-38
0.0574506303598 0.0124217579156 0.839 1.40875505371e-38
0.0590033500993 0.0124217579156 0.839 1.46428164549e-38
0.0605560698387 0.0124217579156 0.839 1.12341130989e-38
0.0621087895782 0.0124217579156 0.839 1.13252563536e-38
0.0636615093176 0.0124217579156 0.839 1.19691586032e-38
0.0659915142663 0.0125698122412 0.849 1.1600753033e-38
0.0675627407965 0.0125698122412 0.849 1.24301325486e-38
0.0692968270848 0.0125994231063 0.851 1.73150617978e-38
0.0711215966475 0.012643839404 0.854 1.95215827935e-38
0.072702076573 0.012643839404 0.854 1.89627337555e-38
0.0748044479961 0.0127326719993 0.86 1.64701320732e-38
0.076396031996 0.0127326719993 0.86 1.56444099466e-38
0.0779876159959 0.0127326719993 0.86 1.65725039325e-38
0.0799493358098 0.0127918937296 0.864 1.56551691162e-38
0.0818314764236 0.0128363100272 0.867 1.40867952373e-38
0.0836284858003 0.0128659208924 0.869 1.37183406216e-38
0.0856290698746 0.0129251426226 0.873 1.21546512835e-38
0.0872447127024 0.0129251426226 0.873 1.25204784645e-38
0.0890639302279 0.0129547534877 0.875 1.6668932885e-38
0.0906832744139 0.0129547534877 0.875 1.6673261496e-38
0.0926190847208 0.0129991697854 0.878 1.4369096622e-38
0.0942439809439 0.0129991697854 0.878 1.21521037229e-38
0.0960872572973 0.0130287806505 0.88 8.55074565009e-39
0.0977158548786 0.0130287806505 0.88 2.35098533853e-38
0.024623285022 0.0147739710132 0.887 1.27870656882e-38
0.0262648373568 0.0147739710132 0.887 1.50018767656e-38
0.0277490819706 0.014690690455 0.882 1.13151375774e-38
0.0293147564636 0.0146573782318 0.88 1.12215224322e-38
0.0308730282403 0.0146240660085 0.878 9.10319355666e-39
0.0322388293937 0.0145074732272 0.871 1.18625702368e-38
0.0335787210401 0.0143908804458 0.864 1.60127608661e-38
0.0350962778772 0.0143575682225 0.862 1.8956514793e-38
0.0366915632353 0.0143575682225 0.862 1.65637514223e-38
0.0383756811887 0.0143908804458 0.864 1.42581782433e-38
0.0399746679049 0.0143908804458 0.864 1.82204393343e-38
0.0398895366677 0.0138079165388 0.829 1.57314922383e-38
0.0414237496164 0.0138079165388 0.829 1.5452807605e-38
0.0429579625652 0.0138079165388 0.829 1.63725736741e-38
0.044492175514 0.0138079165388 0.829 2.02454935802e-38
0.0460263884627 0.0138079165388 0.829 1.06740827663e-38
0.0475606014115 0.0138079165388 0.829 1.16969129362e-38
0.0490948143602 0.0138079165388 0.829 1.20620787043e-38
0.0507511721276 0.0138412287621 0.831 1.42744431146e-38
0.0527924711414 0.0139744776551 0.839 1.15107196067e-38
0.0544747384158 0.0140077898783 0.841 1.54704079137e-38
0.0560311595134 0.0140077898783 0.841 1.50115821588e-38
0.057587580611 0.0140077898783 0.841 1.18759344202e-38
0.0591440017085 0.0140077898783 0.841 1.07695770528e-38
0.0608447757736 0.0140411021016 0.843 1.06813344859e-38
0.0625529525549 0.0140744143248 0.845 1.24301591733e-38
0.0642685320525 0.0141077265481 0.847 1.76805891009e-38
0.0661469713082 0.0141743509946 0.851 1.20545074887e-38
0.0677218991965 0.0141743509946 0.851 1.33521140706e-38
0.069541116722 0.0142243193295 0.854 1.69495036661e-38
0.0712881577637 0.0142576315527 0.856 1.41732371356e-38
0.0728723390474 0.0142576315527 0.856 1.61096382341e-38
0.0748044479961 0.0143242559993 0.86 1.62054940556e-38
0.076396031996 0.0143242559993 0.86 1.58399135031e-38
0.0783503490936 0.0143908804458 0.864 1.32573975048e-38
0.0802269376702 0.0144408487806 0.867 1.19662747309e-38
0.0822090149539 0.0145074732272 0.871 1.58399527395e-38
0.0838209564235 0.0145074732272 0.871 1.76874232336e-38
0.085825241856 0.0145740976737 0.875 1.12365990024e-38
0.087444586042 0.0145740976737 0.875 1.87891366979e-38
0.0890639302279 0.0145740976737 0.875 1.42732688265e-38
0.0909941884976 0.0146240660085 0.878 1.68554891509e-38
0.0928300621347 0.0146573782318 0.88 1.21546484809e-38
0.094458659716 0.0146573782318 0.88 1.23386123446e-38
0.0960872572973 0.0146573782318 0.88 1.14080969149e-38
0.0276861588823 0.0162859758131 0.88 1.34366992485e-38
0.0293147564636 0.0162859758131 0.88 1.18686644838e-38
0.0307675395333 0.0161934418596 0.875 9.10247609185e-39
0.0323128565565 0.0161564282782 0.873 1.58294486062e-38
0.0338507708634 0.0161194146968 0.871 1.66527282696e-38
0.0351777077563 0.015989867162 0.864 1.49889231626e-38
0.0367766944725 0.015989867162 0.864 1.61882076377e-38
0.0383756811887 0.015989867162 0.864 1.80367291056e-38
0.0399746679049 0.015989867162 0.864 1.48081150231e-38
0.0401782426026 0.0154531702318 0.835 1.61870964081e-38
0.0417235596257 0.0154531702318 0.835 1.5172228416e-38
0.043165238621 0.0154161566504 0.833 1.89519101262e-38
0.044706854286 0.0154161566504 0.833 1.82225300716e-38
0.0462484699511 0.0154161566504 0.833 9.75249921309e-39
0.0479048277184 0.0154531702318 0.835 1.13270388053e-38
0.0494501447416 0.0154531702318 0.835 1.15088923135e-38
0.0509954617648 0.0154531702318 0.835 1.28921742834e-38
0.0527924711414 0.0155271973945 0.839 1.46457073337e-38
0.0544747384158 0.0155642109759 0.841 1.27091717105e-38
0.0561644084064 0.0156012245573 0.843 1.1508186059e-38
0.0577245308621 0.0156012245573 0.843 9.94447289881e-39
0.0594253049271 0.0156382381387 0.845 1.26130510436e-38
0.0611334817084 0.0156752517201 0.847 1.85100120568e-38
0.062849061206 0.0157122653015 0.849 1.97082021178e-38
0.0647996769455 0.015804799255 0.854 1.90581089316e-38
0.066380156871 0.015804799255 0.854 1.3154736978e-38
0.0679606367965 0.015804799255 0.854 1.14163827927e-38
0.0697039764801 0.0158418128364 0.856 1.39045689837e-38
0.07145471888 0.0158788264178 0.858 1.56562607277e-38
0.0730426015218 0.0158788264178 0.858 1.57498786755e-38
0.0749784118287 0.0159528535806 0.862 1.41800614591e-38
0.0765736971867 0.0159528535806 0.862 1.17826401724e-38
0.0788037654657 0.0160824011154 0.869 1.53768474191e-38
0.0805970734842 0.0161194146968 0.871 1.75965924684e-38
0.082397784219 0.0161564282782 0.873 1.50094872176e-38
0.08420589767 0.0161934418596 0.875 1.59310525539e-38
0.0861194998281 0.0162489622317 0.878 1.32621086702e-38
0.0877443960512 0.0162489622317 0.878 1.8326010358e-38
0.0893692922744 0.0162489622317 0.878 1.60282928583e-38
0.0909941884976 0.0162489622317 0.878 1.23404704663e-38
0.0928300621347 0.0162859758131 0.88 1.49169384605e-38
0.094458659716 0.0162859758131 0.88 1.14149310475e-38
0.0276861588823 0.0179145733944 0.88 1.20552109406e-38
0.0293147564636 0.0179145733944 0.88 1.19630125081e-38
0.0307675395333 0.0178127860456 0.875 1.07623589644e-38
0.0323128565565 0.0177720711061 0.873 1.36196611838e-38
0.0338507708634 0.0177313561665 0.871 1.66559624664e-38
0.035381282454 0.017690641227 0.869 1.48084737555e-38
0.0367766944725 0.0175888538782 0.864 1.73891960918e-38
0.0383756811887 0.0175888538782 0.864 1.53541099502e-38
0.0401134688351 0.0176499262875 0.867 1.52701623631e-38
0.0417180075885 0.0176499262875 0.867 1.63733093558e-38
0.0418234962955 0.0170392021945 0.837 1.95975934261e-38
0.0433725146768 0.0170392021945 0.837 1.50854151736e-38
0.0449215330581 0.0170392021945 0.837 1.61924633812e-38
0.0464705514394 0.0170392021945 0.837 1.10367612297e-38
0.0480195698208 0.0170392021945 0.837 1.13284457089e-38
0.0495685882021 0.0170392021945 0.837 1.16943723821e-38
0.0511176065834 0.0170392021945 0.837 1.14170820407e-38
0.0529183173182 0.0171206320735 0.841 1.1047946394e-38
0.0546042859506 0.0171613470131 0.843 1.19691165642e-38
0.0562976572994 0.0172020619526 0.845 1.09557283434e-38
0.0578614811133 0.0172020619526 0.845 1.51015721449e-38
0.0595659565364 0.0172427768921 0.847 1.81430063838e-38
0.0614221876433 0.0173242067712 0.851 2.22867958817e-38
0.0629971155316 0.0173242067712 0.851 1.72074014381e-38
0.0649514326292 0.01742599412 0.856 1.60945924925e-38
0.0666910709547 0.0174667090596 0.858 1.41753951353e-38
0.0684381119964 0.0175074239991 0.86 1.57523841971e-38
0.0700296959964 0.0175074239991 0.86 1.51934482787e-38
0.0717878411125 0.0175481389386 0.862 1.50991240765e-38
0.073553388945 0.0175888538782 0.864 1.13248892134e-38
0.0751523756612 0.0175888538782 0.864 1.43615618401e-38
0.0770178601634 0.0176499262875 0.867 1.77774118183e-38
0.0789851320145 0.0177313561665 0.871 1.64852674979e-38
0.0807821413911 0.0177720711061 0.873 1.36279414564e-38
0.0825865534841 0.0178127860456 0.875 1.68551822665e-38
0.0844946036049 0.0178738584549 0.878 1.42737018277e-38
0.0863156718095 0.0179145733944 0.88 1.68547885016e-38
0.0879442693908 0.0179145733944 0.88 1.3900978857e-38
0.0895728669721 0.0179145733944 0.88 1.39045465629e-38
0.0912014645534 0.0179145733944 0.88 1.3445039777e-38
0.0933575056696 0.0180163607432 0.885 1.48247274164e-38
0.0949953566462 0.0180163607432 0.885 1.27038579867e-38
0.0293147564636 0.0195431709757 0.88 1.18708322925e-38
0.0307675395333 0.0194321302315 0.875 1.05800948757e-38
0.0323128565565 0.0193877139339 0.873 1.01162608801e-38
0.0338507708634 0.0193432976362 0.871 1.45412237176e-38
0.035381282454 0.0192988813385 0.869 1.32461941236e-38
0.0369895225655 0.0192988813385 0.869 1.77630092727e-38
0.0385089300817 0.0192544650409 0.867 1.51783534916e-38
0.0401134688351 0.0192544650409 0.867 1.49028203785e-38
0.0417180075885 0.0192544650409 0.867 1.87721431514e-38
0.0419234329653 0.0186326368734 0.839 1.5266575039e-38
0.0434761527047 0.0186326368734 0.839 1.4995014607e-38
0.0450288724442 0.0186326368734 0.839 1.92366763949e-38
0.0465815921836 0.0186326368734 0.839 1.12204434324e-38
0.0481343119231 0.0186326368734 0.839 1.15125020583e-38
0.0496870316625 0.0186326368734 0.839 1.16943667769e-38
0.051239751402 0.0186326368734 0.839 1.12333914302e-38
0.0529183173182 0.0186770531711 0.841 1.16021739496e-38
0.0547338334855 0.0187658857665 0.845 1.14188616897e-38
0.0562976572994 0.0187658857665 0.845 1.22461014226e-38
0.0579984313644 0.0188103020641 0.847 1.8605782399e-38
0.059847259755 0.0188991346595 0.851 1.89709173386e-38
0.0614221876433 0.0188991346595 0.851 1.48171323787e-38
0.06321919702 0.018965759106 0.854 1.66541519888e-38
0.0652549439966 0.019099007999 0.86 1.70320079158e-38
0.0668465279965 0.019099007999 0.86 1.45517306534e-38
0.0684381119964 0.019099007999 0.86 1.43662309666e-38
0.0700296959964 0.019099007999 0.86 1.30733411554e-38
0.0717878411125 0.0191434242967 0.862 1.26119944646e-38
0.073553388945 0.0191878405943 0.864 1.3723070004e-38
0.0751523756612 0.0191878405943 0.864 1.63959963779e-38
0.0771955253541 0.0192988813385 0.869 1.27963815204e-38
0.0791664985633 0.0193877139339 0.873 1.82330692374e-38
0.0809672092981 0.0194321302315 0.875 1.34453662795e-38
0.0828697073817 0.0194987546781 0.878 1.88827126067e-38
0.0846870742281 0.0195431709757 0.88 1.68562388455e-38
0.0865118437908 0.0195875872734 0.882 1.34446418082e-38
0.0881441427303 0.0195875872734 0.882 1.18755392541e-38
0.0897764416697 0.0195875872734 0.882 1.4089310568e-38
0.0914087406092 0.0195875872734 0.882 1.59357216804e-38
0.0930410395486 0.0195875872734 0.882 1.52885698197e-38
0.0277490819706 0.0212198862128 0.882 1.5190581222e-38
0.0293147564636 0.021171768557 0.88 1.27916801641e-38
0.0309433540449 0.021171768557 0.88 1.20569961948e-38
0.0323128565565 0.0210033567617 0.873 1.01198608159e-38
0.0339284993843 0.0210033567617 0.873 1.14037444819e-38
0.035462712333 0.0209552391059 0.871 1.01130420976e-38
0.0370746538027 0.0209552391059 0.871 1.44476239866e-38
0.0385977626771 0.0209071214501 0.869 1.11282379934e-38
0.0402060027886 0.0209071214501 0.869 1.50922465036e-38
0.0434224830117 0.0209071214501 0.869 1.33401820142e-38
0.0436834287605 0.0202815919245 0.843 1.32490807984e-38
0.0452435512162 0.0202815919245 0.843 1.45383594635e-38
0.046803673672 0.0202815919245 0.843 1.22410399325e-38
0.0483637961277 0.0202815919245 0.843 1.13284611232e-38
0.0499239185834 0.0202815919245 0.843 1.1602171147e-38
0.0514840410392 0.0202815919245 0.843 1.14167064927e-38
0.0531700096716 0.0203297095803 0.845 1.21549749834e-38
0.0548633810204 0.0203778272361 0.847 1.13259429899e-38
0.0564309061924 0.0203778272361 0.847 1.23379789577e-38
0.0581353816156 0.020425944892 0.849 1.46435563405e-38
0.0601988887783 0.0205943566873 0.856 1.48204114171e-38
0.0617830700619 0.0205943566873 0.856 1.46345936355e-38
0.0636633599967 0.0206905919989 0.86 1.52864076162e-38
0.0652549439966 0.0206905919989 0.86 1.43637296489e-38
0.0668465279965 0.0206905919989 0.86 1.21503338829e-38
0.0685972703964 0.0207387096547 0.862 1.26101615662e-38
0.0701925557545 0.0207387096547 0.862 1.58388597267e-38
0.0717878411125 0.0207387096547 0.862 1.60271760234e-38
0.073553388945 0.0207868273105 0.864 1.73161183769e-38
0.0751523756612 0.0207868273105 0.864 1.6299462328e-38
0.0771955253541 0.0209071214501 0.869 1.50108969238e-38
0.0796199149354 0.0211236509012 0.878 1.62083050603e-38
0.0814298790655 0.021171768557 0.88 1.64885479376e-38
0.0830584766468 0.021171768557 0.88 1.29847384548e-38
0.0848795448514 0.0212198862128 0.882 1.24275667711e-38
0.0868061017629 0.0212920626966 0.885 1.21535947044e-38
0.0884439527396 0.0212920626966 0.885 1.4458846986e-38
0.0902853784139 0.0213401803524 0.887 1.56559104031e-38
0.0919269307487 0.0213401803524 0.887 1.27942585532e-38
0.0277490819706 0.0228521851523 0.882 1.2510128474e-38
0.0293813809101 0.0228521851523 0.882 1.34363433187e-38
0.0309433540449 0.0228003661383 0.88 1.13201626337e-38
0.0324979244634 0.0227485471244 0.878 1.55582819391e-38
0.0340062279052 0.0226708186035 0.875 1.15927964603e-38
0.0356255720912 0.0226708186035 0.875 1.10360717908e-38
0.0385977626771 0.0225153615616 0.869 1.04850490048e-38
0.0402060027886 0.0225153615616 0.869 1.03903492546e-38
0.0459412572255 0.0221785379709 0.856 9.65745334215e-39
0.0470257551603 0.0219453524082 0.847 1.11376238905e-38
0.04847853823 0.0218935333942 0.845 1.14210070777e-38
0.0500423620439 0.0218935333942 0.845 1.1693653516e-38
0.0517283306764 0.0219453524082 0.847 1.18773441265e-38
0.0534217020251 0.0219971714221 0.849 1.15092552498e-38
0.0551224760902 0.0220489904361 0.851 1.27067446615e-38
0.056897277318 0.022126718957 0.854 1.27950012414e-38
0.0584777572435 0.022126718957 0.854 1.51027366239e-38
0.0603395403876 0.0222303569849 0.858 1.49187377277e-38
0.0620717759968 0.0222821759988 0.86 1.64856360394e-38
0.0638114143223 0.0223339950128 0.862 1.19680627878e-38
0.0654066996803 0.0223339950128 0.862 1.1966688114e-38
0.0670019850384 0.0223339950128 0.862 1.71295985448e-38
0.0685972703964 0.0223339950128 0.862 1.84210254004e-38
0.0701925557545 0.0223339950128 0.862 1.44552008074e-38
0.0717878411125 0.0223339950128 0.862 1.54675366531e-38
0.0747452262659 0.0227485471244 0.878 1.82334251672e-38
0.0777618331494 0.023163099236 0.894 1.32551624337e-38
0.0781726839029 0.0228003661383 0.88 1.8323507639e-38
0.0798012814842 0.0228003661383 0.88 1.52864076162e-38
0.0816149469725 0.0228521851523 0.882 1.6207622628e-38
0.0835303998096 0.0229299136732 0.885 1.70410126597e-38
0.0851682507863 0.0229299136732 0.885 1.39049193083e-38
0.0870022737443 0.0229817326872 0.887 1.62108386079e-38
0.0886438260791 0.0229817326872 0.887 1.73157624471e-38
0.0912014645534 0.02321491825 0.896 1.63913146397e-38
0.0928596729998 0.02321491825 0.896 1.39024137866e-38
0.0309433540449 0.0244289637197 0.88 1.00276834029e-38
0.0325719516262 0.0244289637197 0.88 1.57416096133e-38
0.0458339178395 0.0237071988825 0.854 9.19899893137e-39
0.047414397765 0.0237071988825 0.854 1.22432623919e-38
0.048822764537 0.0236239183244 0.851 1.14184917469e-38
0.0503976924253 0.0236239183244 0.851 1.23383194732e-38
0.0521558375415 0.0237071988825 0.854 1.11394231578e-38
0.053736317467 0.0237071988825 0.854 1.35368430432e-38
0.0553167973925 0.0237071988825 0.854 1.90674640002e-38
0.057163775104 0.0238182396267 0.858 1.39978632315e-38
0.0587516577458 0.0238182396267 0.858 1.27060075786e-38
0.0606208436061 0.0239292803708 0.862 1.28889302775e-38
0.0622161289642 0.0239292803708 0.862 1.12294677945e-38
0.0639594686478 0.0239848007429 0.864 1.62997748176e-38
0.065558455364 0.0239848007429 0.864 1.63981039308e-38
0.0671574420802 0.0239848007429 0.864 1.39999847974e-38
0.0687564287964 0.0239848007429 0.864 1.45459671129e-38
0.0703554155126 0.0239848007429 0.864 1.60236167253e-38
0.0731203300427 0.0243734433476 0.878 1.53764494503e-38
0.0747452262659 0.0243734433476 0.878 1.60204147583e-38
0.0773269235681 0.0246788053941 0.889 1.44580734693e-38
0.0786168468796 0.0245677646499 0.885 1.51952909862e-38
0.0802546978563 0.0245677646499 0.885 1.72235514029e-38
0.0820776167399 0.024623285022 0.887 1.44566231254e-38
0.0843798615026 0.0248176063243 0.894 1.52853328203e-38
0.0860343685909 0.0248176063243 0.894 1.74972894527e-38
0.0876888756792 0.0248176063243 0.894 1.91572409889e-38
0.0893433827674 0.0248176063243 0.894 1.54714841109e-38
0.0912014645534 0.0248731266964 0.896 1.34421264774e-38
0.0928596729998 0.0248731266964 0.896 1.40882147526e-38
0.0458339178395 0.025287678808 0.854 9.84362565223e-39
0.047414397765 0.025287678808 0.854 1.19648832416e-38
0.0489948776905 0.025287678808 0.854 1.16021571341e-38
0.050575357616 0.025287678808 0.854 1.16018432432e-38
0.0521558375415 0.025287678808 0.854 1.29840798445e-38
0.0539880098204 0.0254061222684 0.858 1.40867952373e-38
0.0555758924622 0.0254061222684 0.858 1.593458803e-38
0.057297023997 0.0254653439987 0.86 1.15110573196e-38
0.0590255582481 0.0255245657289 0.862 1.33506763384e-38
0.0607614952154 0.0255837874591 0.864 1.58363359881e-38
0.0623604819316 0.0255837874591 0.864 1.78674718693e-38
0.0643296044618 0.0257318417847 0.869 1.52885726223e-38
0.0659378445733 0.0257318417847 0.869 9.20579102502e-39
0.0675460846849 0.0257318417847 0.869 1.61183360937e-38
0.0691543247964 0.0257318417847 0.869 1.36301499028e-38
0.0722283027311 0.0262648373568 0.887 1.50998695672e-38
0.0737032939496 0.0262056156265 0.885 1.4639610284e-38
0.0753411449263 0.0262056156265 0.885 1.50994744011e-38
0.0773269235681 0.026324059087 0.889 1.5195285381e-38
0.078972177261 0.026324059087 0.889 1.49212138221e-38
0.0807987975028 0.0263832808172 0.891 1.30747858941e-38
0.0824477525538 0.0263832808172 0.891 1.59281434583e-38
0.0845686307677 0.0265313351428 0.896 1.8699753474e-38
0.0862268392141 0.0265313351428 0.896 1.48243588749e-38
0.0878850476605 0.0265313351428 0.896 1.50062221922e-38
0.089543256107 0.0265313351428 0.896 1.73118388114e-38
0.0914050392511 0.026590556873 0.898 1.52867397239e-38
0.0930669490556 0.026590556873 0.898 1.38134467484e-38
0.0460485966116 0.0269940049102 0.858 9.65852533548e-39
0.0476364792533 0.0269940049102 0.858 1.25212183501e-38
0.0492243618951 0.0269940049102 0.858 1.60300879216e-38
0.0508122445369 0.0269940049102 0.858 1.47389707529e-38
0.0524001271787 0.0269940049102 0.858 1.39077709507e-38
0.0541138559972 0.0270569279986 0.86 1.22447113345e-38
0.055834987532 0.027119851087 0.862 1.15074980215e-38
0.0577633951226 0.0272771588079 0.867 1.12323222395e-38
0.059367933876 0.0272771588079 0.867 1.8240987975e-38
0.0609724726294 0.0272771588079 0.867 1.45474146542e-38
0.0627213643502 0.0273400818963 0.869 1.58373771529e-38
0.0643296044618 0.0273400818963 0.869 1.61189989079e-38
0.066089600257 0.0274030049846 0.871 1.11444005699e-38
0.068401098415 0.0276861588823 0.88 1.82395404337e-38
0.0704275919963 0.0278434666032 0.885 1.53818248312e-38
0.0722283027311 0.0279063896916 0.887 1.44559070619e-38
0.0740364161822 0.0279693127799 0.889 1.7773137858e-38
0.0756816698751 0.0279693127799 0.889 1.52867999798e-38
0.0777618331494 0.0281266205009 0.894 1.3535057789e-38
0.0794163402377 0.0281266205009 0.894 1.48265224797e-38
0.081070847326 0.0281266205009 0.894 1.82419997125e-38
0.0827253544143 0.0281266205009 0.894 1.44584840497e-38
0.0845686307677 0.0281895435892 0.896 1.49197774912e-38
0.0862268392141 0.0281895435892 0.896 1.50098221279e-38
0.0878850476605 0.0281895435892 0.896 1.57480962238e-38
0.0897431294465 0.0282524666776 0.898 1.50987765544e-38
0.0914050392511 0.0282524666776 0.898 1.39012997543e-38
0.0930669490556 0.0282524666776 0.898 1.39992631287e-38
0.0461559359976 0.0286485119985 0.86 1.05815410157e-38
0.0477475199975 0.0286485119985 0.86 1.13230885449e-38
0.0493391039974 0.0286485119985 0.86 1.1786915534e-38
0.0510491314578 0.028715136445 0.862 1.23386852121e-38
0.0526444168159 0.028715136445 0.862 1.08638858407e-38
0.0542397021739 0.028715136445 0.862 1.1878355864e-38
0.0561588563692 0.0288816975613 0.867 1.16932975862e-38
0.0578966440156 0.0289483220078 0.869 1.04947165629e-38
0.0595048841271 0.0289483220078 0.869 1.48289565351e-38
0.061253775848 0.0290149464543 0.871 1.49222956245e-38
0.0628657173177 0.0290149464543 0.871 1.3903120041e-38
0.0646257131129 0.0290815709008 0.873 1.59302510112e-38
0.0663931116244 0.0291481953473 0.875 1.63963340908e-38
0.068401098415 0.0293147564636 0.88 1.17869001197e-38
0.0709050671963 0.0296811909194 0.891 1.59278379753e-38
0.0725540222474 0.0296811909194 0.891 1.62080121889e-38
0.0742029772985 0.0296811909194 0.891 1.38098370036e-38
0.0761073260612 0.0297811275891 0.894 1.30730132516e-38
0.0777618331494 0.0297811275891 0.894 1.7867150972e-38
0.0795940054284 0.0298477520357 0.896 1.69455520045e-38
0.0812522138748 0.0298477520357 0.896 1.36304455768e-38
0.0830954902282 0.0299143764822 0.898 1.5747392772e-38
0.0850405539305 0.0300143131519 0.901 1.54736547222e-38
0.0867080157722 0.0300143131519 0.901 1.52874824121e-38
0.088375477614 0.0300143131519 0.901 1.39052556199e-38
0.0462632753836 0.0303104218031 0.862 1.0119523103e-38
0.0478585607417 0.0303104218031 0.862 1.12301894632e-38
0.0494538460997 0.0303104218031 0.862 1.10529504308e-38
0.0510491314578 0.0303104218031 0.862 1.11430104818e-38
0.0529497788624 0.0304862363147 0.867 1.14196057792e-38
0.0545543176158 0.0304862363147 0.867 1.39978029757e-38
0.0565474989738 0.0306972137286 0.873 1.51949350564e-38
0.0581631418016 0.0306972137286 0.873 1.29862056143e-38
0.0597787846294 0.0306972137286 0.873 1.17876764391e-38
0.0613944274573 0.0306972137286 0.873 1.44559252787e-38
0.0631544232525 0.0307675395333 0.875 1.54715191433e-38
0.0649958489268 0.0308730282403 0.878 1.27042531529e-38
0.0667725008337 0.0309433540449 0.88 1.62976700673e-38
0.0687897410197 0.0311191685565 0.885 1.63952382754e-38
0.0709050671963 0.0313301459705 0.891 1.42729213045e-38
0.0725540222474 0.0313301459705 0.891 1.64838157527e-38
0.0744528189729 0.0314356346774 0.894 1.70410000481e-38
0.0761073260612 0.0314356346774 0.894 1.48283007274e-38
0.0777618331494 0.0314356346774 0.894 1.39946094165e-38
0.0795940054284 0.0315059604821 0.896 1.62983987425e-38
0.0812522138748 0.0315059604821 0.896 1.51938434449e-38
0.0830954902282 0.0315762862867 0.898 1.4733233837e-38
0.0850405539305 0.0316817749937 0.901 1.43655247122e-38
0.0867080157722 0.0316817749937 0.901 1.59339238145e-38
0.0907295413906 0.0325256846495 0.925 1.56587690519e-38
0.0487468866951 0.0324979244634 0.878 1.1692944459e-38
0.0504865250206 0.0325719516262 0.88 1.01299333493e-38
