# .PCD v0.7 - Point Cloud Data file format
VERSION 0.7
FIELDS x y z rgb
SIZE 4 4 4 4
TYPE F F F F
COUNT 1 1 1 1
WIDTH 844
HEIGHT 1
VIEWPOINT 0 0 0 1 0 0 0
POINTS 844
DATA ascii
-0.0121256492645 -0.0591125401644 0.819 1.09716274758e-38
-0.0106099431064 -0.0591125401644 0.819 6.35853191172e-39
-0.00909423694836 -0.0591125401644 0.819 1.03219392648e-38
-0.0075785307903 -0.0591125401644 0.819 5.34196134207e-39
-0.00606282463224 -0.0591125401644 0.819 6.26537499111e-39
-0.00454711847418 -0.0591125401644 0.819 4.79385746074e-39
-0.00303141231612 -0.0591125401644 0.819 1.84355947005e-39
-0.00151570615806 -0.0591125401644 0.819 3.95583473622e-39
0.0 -0.0591125401644 0.819 1.10529097932e-39
0.00151570615806 -0.0591125401644 0.819 6.5202417545e-42
0.00302400959984 -0.0589681871969 0.817 1.01669248261e-39
0.00453601439976 -0.0589681871969 0.817 7.39748261914e-40
0.00604801919968 -0.0589681871969 0.817 1.56951173328e-39
0.0075785307903 -0.0591125401644 0.819 2.03118772923e-39
0.00907202879953 -0.0589681871969 0.817 1.8468062786e-39
0.0105840335994 -0.0589681871969 0.817 1.56984944621e-39
0.0120960383994 -0.0589681871969 0.817 2.30024404088e-39
0.0136080431993 -0.0589681871969 0.817 4.59577691631e-39
0.0151200479992 -0.0589681871969 0.817 4.31773267632e-39
0.0166320527991 -0.0589681871969 0.817 5.78676150062e-39
0.0180996413014 -0.0588238342295 0.815 7.72467039628e-39
0.0196079447432 -0.0588238342295 0.815 3.95255850041e-39
0.0211680671989 -0.0589681871969 0.817 2.76981214978e-39
0.0226800719988 -0.0589681871969 0.817 3.32050422938e-39
0.0241920767987 -0.0589681871969 0.817 2.86349735991e-39
0.0257040815987 -0.0589681871969 0.817 4.97895217229e-39
0.0272160863986 -0.0589681871969 0.817 2.39456824311e-39
0.0286577653939 -0.0588238342295 0.815 3.31833922325e-39
0.0301660688356 -0.0588238342295 0.815 3.78183410461e-39
0.0316743722774 -0.0588238342295 0.815 3.8708123532e-39
0.0331012458401 -0.0586794812621 0.813 3.41053485311e-39
0.0346058479238 -0.0586794812621 0.813 3.50666112517e-39
0.0361104500074 -0.0586794812621 0.813 3.50560734872e-39
0.0376150520911 -0.0586794812621 0.813 3.59744985137e-39
0.0391196541747 -0.0586794812621 0.813 3.50525422151e-39
0.0406242562583 -0.0586794812621 0.813 3.59780297859e-39
0.0422324963699 -0.0588238342295 0.815 1.01849034854e-39
0.0437407998117 -0.0588238342295 0.815 6.47164472376e-40
-0.0167134826782 -0.0577374856156 0.821 1.29027162518e-38
-0.015194075162 -0.0577374856156 0.821 1.25339239232e-38
-0.0136413554225 -0.0575968340063 0.819 3.22298646795e-44
-0.0121256492645 -0.0575968340063 0.819 5.07221979548e-39
-0.0106099431064 -0.0575968340063 0.819 4.88205798868e-39
-0.0091164450972 -0.0577374856156 0.821 3.58771643224e-39
-0.007597037581 -0.0577374856156 0.821 8.38624301946e-39
-0.0060776300648 -0.0577374856156 0.821 8.02242670177e-39
-0.0045582225486 -0.0577374856156 0.821 1.07907941128e-38
-0.0030388150324 -0.0577374856156 0.821 1.05124668105e-38
-0.0015194075162 -0.0577374856156 0.821 1.09676071505e-38
0.0 -0.0575968340063 0.819 1.20779554159e-38
0.00151570615806 -0.0575968340063 0.819 9.8710266424e-39
0.00303141231612 -0.0575968340063 0.819 1.17133739893e-38
0.00454711847418 -0.0575968340063 0.819 4.42794620184e-39
0.00606282463224 -0.0575968340063 0.819 1.10652734495e-38
0.0075785307903 -0.0575968340063 0.819 6.36474526911e-39
0.00909423694836 -0.0575968340063 0.819 1.09752302141e-38
0.0106099431064 -0.0575968340063 0.819 5.62707653412e-39
0.0120960383994 -0.057456182397 0.817 9.1280708083e-39
0.0136080431993 -0.057456182397 0.817 7.74401952547e-39
0.0151570615806 -0.0575968340063 0.819 8.47908324662e-39
0.0166727677387 -0.0575968340063 0.819 7.37309161807e-39
0.0181440575991 -0.057456182397 0.817 9.49290727128e-39
0.019656062399 -0.057456182397 0.817 3.13719477207e-39
0.0212198862128 -0.0575968340063 0.819 8.85187207838e-39
0.0227355923709 -0.0575968340063 0.819 5.06858903116e-39
0.024251298529 -0.0575968340063 0.819 4.97176210987e-39
0.0257040815987 -0.057456182397 0.817 1.01347075731e-38
0.0272160863986 -0.057456182397 0.817 4.97567453519e-39
0.0287280911985 -0.057456182397 0.817 7.28165969587e-39
0.0302400959984 -0.057456182397 0.817 5.25335023368e-39
0.0316743722774 -0.0573155307877 0.815 3.59348697932e-39
0.0331826757192 -0.0573155307877 0.815 5.249412585e-39
0.034690979161 -0.0573155307877 0.815 3.77970553224e-39
0.0361992826028 -0.0573155307877 0.815 4.88818866946e-39
0.0376150520911 -0.0571748791784 0.813 7.466048153e-39
0.0391196541747 -0.0571748791784 0.813 4.33178769992e-39
0.0407241929281 -0.0573155307877 0.815 7.37491190478e-39
0.0422324963699 -0.0573155307877 0.815 7.41900656355e-40
0.0437407998117 -0.0573155307877 0.815 7.2587260452e-43
-0.0182328901944 -0.0562180780994 0.821 1.29027134492e-38
-0.0167134826782 -0.0562180780994 0.821 1.23488292117e-38
-0.015194075162 -0.0562180780994 0.821 1.25342924647e-38
-0.0136746676458 -0.0562180780994 0.821 1.26116861789e-44
-0.0121552601296 -0.0562180780994 0.821 2.6744369737e-39
-0.0106358526134 -0.0562180780994 0.821 1.06961728353e-38
-0.0091164450972 -0.0562180780994 0.821 1.08798228082e-38
-0.007597037581 -0.0562180780994 0.821 6.26964895143e-39
-0.0060776300648 -0.0562180780994 0.821 6.3632963265e-39
-0.0045582225486 -0.0562180780994 0.821 1.06974844507e-38
-0.0030388150324 -0.0562180780994 0.821 6.51816783278e-40
-0.0015194075162 -0.0562180780994 0.821 2.31969686616e-39
0.0 -0.0562180780994 0.821 1.08264319354e-41
0.0015194075162 -0.0562180780994 0.821 5.16547340569e-39
0.0030388150324 -0.0562180780994 0.821 8.01887441016e-39
0.00454711847418 -0.0560811278482 0.819 1.66239820329e-39
0.00606282463224 -0.0560811278482 0.819 1.5724124211e-39
0.0075785307903 -0.0560811278482 0.819 4.69272434927e-40
0.00909423694836 -0.0560811278482 0.819 1.66821359191e-39
0.0106099431064 -0.0560811278482 0.819 5.03906927771e-42
0.0121256492645 -0.0560811278482 0.819 2.85882823343e-39
0.0136413554225 -0.0560811278482 0.819 4.88138116152e-39
0.0151570615806 -0.0560811278482 0.819 5.98769649002e-39
0.0166727677387 -0.0560811278482 0.819 5.71184808472e-39
0.0181884738967 -0.0560811278482 0.819 7.18985222568e-39
0.0197041800548 -0.0560811278482 0.819 2.40069892389e-39
0.0212198862128 -0.0560811278482 0.819 6.45700115481e-39
0.0227355923709 -0.0560811278482 0.819 7.37565319166e-39
0.024251298529 -0.0560811278482 0.819 7.65186453326e-39
0.025767004687 -0.0560811278482 0.819 7.37207988058e-39
0.0272827108451 -0.0560811278482 0.819 9.21950833569e-39
0.0287984170032 -0.0560811278482 0.819 8.85040491889e-39
0.0303141231612 -0.0560811278482 0.819 9.58833990059e-39
0.0316743722774 -0.0558072273459 0.815 1.16166325472e-38
0.0331826757192 -0.0558072273459 0.815 1.04173452695e-38
0.034690979161 -0.0558072273459 0.815 1.11570809197e-38
0.0361992826028 -0.0558072273459 0.815 1.01454793544e-38
0.0377075860445 -0.0558072273459 0.815 9.77488775865e-39
0.0392158894863 -0.0558072273459 0.815 9.9585349289e-39
0.0407241929281 -0.0558072273459 0.815 1.1339333798e-38
0.0422324963699 -0.0558072273459 0.815 3.59593364644e-39
-0.0182773064921 -0.0548319194762 0.823 1.23491893454e-38
-0.0167541976177 -0.0548319194762 0.823 1.22573468427e-38
-0.0152310887434 -0.0548319194762 0.823 1.23498984024e-38
-0.0137412920923 -0.0549651683692 0.825 7.00649232162e-45
-0.0122144818598 -0.0549651683692 0.825 3.96335550508e-39
-0.0106617621204 -0.0548319194762 0.823 2.03082199033e-39
-0.00913865324604 -0.0548319194762 0.823 3.32120768121e-39
-0.0076155443717 -0.0548319194762 0.823 3.41235513982e-39
-0.00609243549736 -0.0548319194762 0.823 4.4243336544e-39
-0.00456932662302 -0.0548319194762 0.823 6.72777966226e-39
-0.00304621774868 -0.0548319194762 0.823 3.50776955225e-39
-0.0015194075162 -0.0546986705832 0.821 3.42098713836e-39
0.0 -0.0546986705832 0.821 1.8551033668e-39
0.0015194075162 -0.0546986705832 0.821 1.02340484239e-38
0.0030388150324 -0.0546986705832 0.821 9.86133526222e-39
0.0045582225486 -0.0546986705832 0.821 1.00489481071e-38
0.0060776300648 -0.0546986705832 0.821 8.57637960289e-39
0.007597037581 -0.0546986705832 0.821 1.05124541989e-38
0.0091164450972 -0.0546986705832 0.821 6.54915474572e-39
0.0106358526134 -0.0546986705832 0.821 1.06068736894e-38
0.0121552601296 -0.0546986705832 0.821 1.17099015717e-38
0.0136746676458 -0.0546986705832 0.821 1.10645111432e-38
0.015194075162 -0.0546986705832 0.821 1.17091981199e-38
0.0167134826782 -0.0546986705832 0.821 6.73606413878e-39
0.0182328901944 -0.0546986705832 0.821 6.27507898298e-39
0.0197522977106 -0.0546986705832 0.821 1.03270021562e-38
0.0212717052268 -0.0546986705832 0.821 1.08804870236e-38
0.022791112743 -0.0546986705832 0.821 7.28739801308e-39
0.0243105202592 -0.0546986705832 0.821 8.67067998305e-39
0.0258299277754 -0.0546986705832 0.821 6.91570359542e-39
0.0273493352916 -0.0546986705832 0.821 1.09709142148e-38
0.0288687428078 -0.0546986705832 0.821 4.519326276e-39
0.030388150324 -0.0546986705832 0.821 6.18722597705e-39
0.0317521007983 -0.0544321727972 0.817 1.94839060817e-39
0.0332641055983 -0.0544321727972 0.817 5.8112365796e-39
0.0347761103982 -0.0544321727972 0.817 1.0419159951e-38
0.0362881151981 -0.0544321727972 0.817 7.84018363259e-39
0.037800119998 -0.0544321727972 0.817 7.56008228645e-39
0.039312124798 -0.0544321727972 0.817 8.01959327627e-39
0.0408241295979 -0.0544321727972 0.817 1.74887093022e-39
0.0423361343978 -0.0544321727972 0.817 1.10994469152e-39
-0.0183217227897 -0.0534383581368 0.825 1.1798169362e-38
-0.0167949125573 -0.0534383581368 0.825 1.2352046593e-38
-0.0152681023248 -0.0534383581368 0.825 1.24438918982e-38
-0.0137746043156 -0.0535679056716 0.827 3.6734338593e-40
-0.0122440927249 -0.0535679056716 0.827 3.87367800856e-39
-0.0106876716274 -0.0534383581368 0.825 3.32120768121e-39
-0.00916086139487 -0.0534383581368 0.825 2.95278389416e-39
-0.00765255795309 -0.0535679056716 0.827 2.86310639764e-39
-0.00610724092991 -0.0534383581368 0.825 2.4943140691e-39
-0.00458043069744 -0.0534383581368 0.825 2.67800467959e-39
-0.00305362046496 -0.0534383581368 0.825 3.32120768121e-39
-0.00153051159062 -0.0535679056716 0.827 2.67801168608e-39
0.0 -0.0534383581368 0.825 3.32338109513e-39
0.00152681023248 -0.0534383581368 0.825 1.47946849786e-39
0.00305362046496 -0.0534383581368 0.825 1.20284657581e-39
0.00456932662302 -0.0533088106019 0.823 7.44399171517e-40
0.00609243549736 -0.0533088106019 0.823 2.21629084858e-39
0.0076155443717 -0.0533088106019 0.823 1.84750973042e-39
0.00913865324604 -0.0533088106019 0.823 2.31100461178e-39
0.0106617621204 -0.0533088106019 0.823 4.67108830098e-40
0.0121848709947 -0.0533088106019 0.823 1.66493175091e-39
0.0137079798691 -0.0533088106019 0.823 2.12373648631e-39
0.0152310887434 -0.0533088106019 0.823 1.75496377594e-39
0.0167541976177 -0.0533088106019 0.823 1.75927977522e-39
0.0182773064921 -0.0533088106019 0.823 2.21990339602e-39
0.0198004153664 -0.0533088106019 0.823 2.95389512384e-39
0.0213235242407 -0.0533088106019 0.823 3.59926173029e-39
0.0228466331151 -0.0533088106019 0.823 3.04714733275e-39
0.0243105202592 -0.053179263067 0.821 4.98147310823e-39
0.0258299277754 -0.053179263067 0.821 5.15937775737e-39
0.0273493352916 -0.053179263067 0.821 6.53907100197e-39
0.0288687428078 -0.053179263067 0.821 5.16009662348e-39
0.030388150324 -0.053179263067 0.821 5.07689312586e-39
0.0319075578402 -0.053179263067 0.821 2.59157679421e-39
0.0334269653564 -0.053179263067 0.821 5.62396845412e-39
0.0349463728726 -0.053179263067 0.821 6.9125240492e-39
0.0363769477935 -0.0530497155321 0.819 7.09690830244e-39
0.0378926539515 -0.0530497155321 0.819 7.00544274907e-39
0.0394083601096 -0.0530497155321 0.819 1.13371715945e-38
0.0409240662676 -0.0530497155321 0.819 5.06998052054e-39
0.0424397724257 -0.0530497155321 0.819 3.59853866028e-39
-0.0185882205758 -0.0526666249647 0.837 1.18889202531e-38
-0.0169577723154 -0.0524149326112 0.833 1.14293840399e-38
-0.0154161566504 -0.0524149326112 0.833 1.1798169362e-38
-0.0138079165388 -0.0521632402577 0.829 0.0
-0.0122737035901 -0.0521632402577 0.829 3.50455076968e-39
-0.0107394906413 -0.0521632402577 0.829 3.22901205134e-39
-0.00918306954371 -0.052037394081 0.827 2.8605882643e-39
-0.00765255795309 -0.052037394081 0.827 3.13716814739e-39
-0.00612204636247 -0.052037394081 0.827 3.23006442649e-39
-0.00459153477185 -0.052037394081 0.827 3.32191113304e-39
-0.00306102318124 -0.052037394081 0.827 2.03082199033e-39
-0.00153051159062 -0.052037394081 0.827 6.62800440901e-39
0.0 -0.052037394081 0.827 1.65450328774e-39
0.00153051159062 -0.052037394081 0.827 1.29903730759e-39
0.00306102318124 -0.052037394081 0.827 2.30848647844e-39
0.00458043069744 -0.0519115479043 0.825 2.21703353677e-39
0.00610724092991 -0.0519115479043 0.825 2.49287913947e-39
0.00763405116239 -0.0519115479043 0.825 2.21738666398e-39
0.00916086139487 -0.0519115479043 0.825 2.22095717247e-39
0.0106876716274 -0.0519115479043 0.825 2.67976471046e-39
0.0122144818598 -0.0519115479043 0.825 2.67800467959e-39
0.0137079798691 -0.0517857017275 0.823 3.41481581992e-39
0.0152310887434 -0.0517857017275 0.823 3.41376204348e-39
0.0167541976177 -0.0517857017275 0.823 2.67871373661e-39
0.0182773064921 -0.0517857017275 0.823 3.59920427705e-39
0.0198004153664 -0.0517857017275 0.823 3.04679420554e-39
0.0213235242407 -0.0517857017275 0.823 3.23223784041e-39
0.0228466331151 -0.0517857017275 0.823 2.86310639764e-39
0.0243697419894 -0.0517857017275 0.823 2.77126109239e-39
0.0258928508638 -0.0517857017275 0.823 3.32085735659e-39
0.0274159597381 -0.0517857017275 0.823 2.95348734599e-39
0.0289390686124 -0.0517857017275 0.823 3.50560734872e-39
0.0304621774868 -0.0517857017275 0.823 3.13646469557e-39
0.0319075578402 -0.0516598555508 0.821 4.0584223955e-39
0.0334269653564 -0.0516598555508 0.821 3.5981533032e-39
0.0349463728726 -0.0516598555508 0.821 3.23117845877e-39
0.0364657803888 -0.0516598555508 0.821 3.04679420554e-39
0.037985187905 -0.0516598555508 0.821 2.86240294581e-39
0.0394083601096 -0.0515340093741 0.819 2.58470202394e-39
0.0409240662676 -0.0515340093741 0.819 4.24422616408e-39
0.0424397724257 -0.0515340093741 0.819 3.50957022078e-39
0.0439554785838 -0.0515340093741 0.819 2.12590429503e-39
-0.0185882205758 -0.0511176065834 0.837 1.16141312294e-38
-0.0170392021945 -0.0511176065834 0.837 1.17056079932e-38
-0.0154531702318 -0.0509954617648 0.835 1.21665959516e-38
-0.0139078532086 -0.0509954617648 0.835 9.18551143365e-41
-0.0123329253203 -0.0508733169462 0.833 3.77966769718e-39
-0.0107654001483 -0.0507511721276 0.831 3.32156080842e-39
-0.00922748584138 -0.0507511721276 0.831 3.50631080055e-39
-0.00767106474379 -0.050629027309 0.829 3.7800208244e-39
-0.00613685179503 -0.050629027309 0.829 3.87186332705e-39
-0.00460263884627 -0.050629027309 0.829 3.50343954e-39
-0.00306842589751 -0.050629027309 0.829 0.0
-0.00153421294876 -0.050629027309 0.829 1.58403787342e-38
0.0 -0.050629027309 0.829 1.39104067931e-38
0.00153421294876 -0.050629027309 0.829 2.48971781013e-39
0.00306102318124 -0.0505068824904 0.827 5.99271594112e-39
0.00459153477185 -0.0505068824904 0.827 1.1425360912e-38
0.00613685179503 -0.050629027309 0.829 4.05374065733e-39
0.00765255795309 -0.0505068824904 0.827 7.47036975746e-39
0.00918306954371 -0.0505068824904 0.827 5.25919224698e-39
0.0107135811343 -0.0505068824904 0.827 5.16547340569e-39
0.0122440927249 -0.0505068824904 0.827 1.481619491e-39
0.0137412920923 -0.0503847376718 0.825 1.11515331791e-41
0.0152681023248 -0.0503847376718 0.825 2.03224711087e-39
0.0167949125573 -0.0503847376718 0.825 1.65340747234e-39
0.0183217227897 -0.0503847376718 0.825 4.05125615515e-39
0.0198485330222 -0.0503847376718 0.825 6.63593435702e-39
0.0213753432547 -0.0503847376718 0.825 7.3797281676e-40
0.0229021534872 -0.0503847376718 0.825 6.54021025762e-40
0.0244881854499 -0.0505068824904 0.827 1.7581993741e-39
0.0260186970405 -0.0505068824904 0.827 1.11246142356e-39
0.0274825841846 -0.0503847376718 0.825 4.67808078032e-40
0.0289390686124 -0.0502625928532 0.823 2.76981214978e-39
0.0304621774868 -0.0502625928532 0.823 3.87151300243e-39
0.0319852863611 -0.0502625928532 0.823 3.5981533032e-39
0.0335083952355 -0.0502625928532 0.823 3.59850643042e-39
0.0350315041098 -0.0502625928532 0.823 3.87508491222e-39
0.0365546129841 -0.0502625928532 0.823 3.60067143654e-39
0.037985187905 -0.0501404480346 0.821 3.96657709025e-39
0.0395045954212 -0.0501404480346 0.821 4.05912584733e-39
0.0409240662676 -0.050018303216 0.819 4.24387583946e-39
0.0424397724257 -0.050018303216 0.819 1.47840911622e-39
0.0439554785838 -0.050018303216 0.819 5.90268811998e-39
-0.0185882205758 -0.0495685882021 0.837 1.14297315619e-38
-0.0170392021945 -0.0495685882021 0.837 1.09680429543e-38
-0.0154901838131 -0.0495685882021 0.837 1.2352046593e-38
-0.0139411654318 -0.0495685882021 0.837 4.61329875231e-40
-0.0123625361854 -0.0494501447416 0.835 2.86166025762e-39
-0.0107913096553 -0.0493317012812 0.833 3.50449331645e-39
-0.00924969399022 -0.0493317012812 0.833 3.41053485311e-39
-0.00770807832518 -0.0493317012812 0.833 3.13611296965e-39
-0.00613685179503 -0.0490948143602 0.829 3.13611296965e-39
-0.00460263884627 -0.0490948143602 0.829 3.41123830494e-39
-0.00306842589751 -0.0490948143602 0.829 5.54635333478e-40
-0.00153421294876 -0.0490948143602 0.829 1.13375667606e-38
0.0 -0.0490948143602 0.829 8.01408196941e-39
0.00153421294876 -0.0490948143602 0.829 1.17983823593e-38
0.00306102318124 -0.0489763708998 0.827 1.30917822432e-38
0.00459153477185 -0.0489763708998 0.827 1.41937731646e-38
0.00613685179503 -0.0490948143602 0.829 1.09694050164e-38
0.00767106474379 -0.0490948143602 0.829 9.31429496642e-39
0.00920527769254 -0.0490948143602 0.829 8.76331562063e-39
0.0107394906413 -0.0490948143602 0.829 1.18014540056e-38
0.0122440927249 -0.0489763708998 0.827 1.26347445452e-38
0.0137746043156 -0.0489763708998 0.827 7.75381039784e-39
0.0153051159062 -0.0489763708998 0.827 1.38322157401e-38
0.0168356274968 -0.0489763708998 0.827 1.53018905629e-38
0.0183661390874 -0.0489763708998 0.827 1.13365255959e-38
0.019896650678 -0.0489763708998 0.827 9.30638884048e-39
0.0214271622687 -0.0489763708998 0.827 1.19774458823e-38
0.0229576738593 -0.0489763708998 0.827 1.31796590712e-38
0.0244881854499 -0.0489763708998 0.827 1.09669639545e-38
0.0260186970405 -0.0489763708998 0.827 1.25325450456e-38
0.0275492086311 -0.0489763708998 0.827 1.11538957683e-38
0.0290797202217 -0.0489763708998 0.827 1.28151855445e-38
0.0306102318124 -0.0489763708998 0.827 2.7658688959e-39
0.0320630148821 -0.0488579274393 0.825 3.04785078458e-39
0.0335898251145 -0.0488579274393 0.825 3.23152878339e-39
0.035116635347 -0.0488579274393 0.825 3.78253755644e-39
0.0366434455795 -0.0488579274393 0.825 3.32372441325e-39
0.0380777218585 -0.0487394839789 0.823 3.8747345876e-39
0.0396008307328 -0.0487394839789 0.823 3.41446549531e-39
0.0410240029374 -0.0486210405184 0.821 4.06018522897e-39
0.0425434104536 -0.0486210405184 0.821 1.20000474252e-39
0.0440628179698 -0.0486210405184 0.821 5.71864578357e-39
-0.0185882205758 -0.0480195698208 0.837 1.14272162312e-38
-0.0170392021945 -0.0480195698208 0.837 1.10605917114e-38
-0.0154901838131 -0.0480195698208 0.837 1.25335441714e-38
-0.0139411654318 -0.0480195698208 0.837 2.67292777525e-39
-0.0123625361854 -0.0479048277184 0.835 3.04499633961e-39
-0.0108172191622 -0.0479048277184 0.835 3.22830859951e-39
-0.00927190213905 -0.0479048277184 0.835 6.54122059381e-39
-0.00772658511588 -0.0479048277184 0.835 6.0737614391e-39
-0.00616646266014 -0.0477900856161 0.833 8.84892795031e-39
-0.00462484699511 -0.0477900856161 0.833 3.41377745776e-39
-0.00308323133007 -0.0477900856161 0.833 4.23920671298e-39
-0.0015379143069 -0.0476753435138 0.831 4.20389539297e-44
0.0 -0.0476753435138 0.831 7.64795631185e-39
0.0015379143069 -0.0476753435138 0.831 3.50324616081e-44
0.00306842589751 -0.0475606014115 0.829 0.0
0.00460263884627 -0.0475606014115 0.829 0.0
0.00613685179503 -0.0475606014115 0.829 0.0
0.00767106474379 -0.0475606014115 0.829 9.80908925027e-45
0.00920527769254 -0.0475606014115 0.829 7.18866112199e-43
0.0107394906413 -0.0475606014115 0.829 3.64337600724e-43
0.0122737035901 -0.0475606014115 0.829 9.80908925027e-45
0.0138079165388 -0.0475606014115 0.829 1.08530566062e-41
0.0153421294876 -0.0475606014115 0.829 1.12131903115e-41
0.0168763424363 -0.0475606014115 0.829 6.84814559516e-42
0.0184105553851 -0.0475606014115 0.829 2.67585368645e-39
0.0199447683338 -0.0475606014115 0.829 1.47372877935e-39
0.0214271622687 -0.0474458593092 0.827 5.06394793065e-39
0.0229576738593 -0.0474458593092 0.827 4.32604517881e-39
0.0245474071801 -0.0475606014115 0.829 4.51151263576e-39
0.0260816201289 -0.0475606014115 0.829 6.62622616126e-39
0.0276158330776 -0.0475606014115 0.829 4.60837458951e-39
0.0290797202217 -0.0474458593092 0.827 3.87297455673e-39
0.0306102318124 -0.0474458593092 0.827 3.7800208244e-39
0.032140743403 -0.0474458593092 0.827 3.23152878339e-39
0.0336712549936 -0.0474458593092 0.827 2.86275607302e-39
0.0352017665842 -0.0474458593092 0.827 3.41375643828e-39
0.0366434455795 -0.0473311172068 0.825 3.41305298645e-39
0.0380777218585 -0.0472163751045 0.823 3.04714733275e-39
0.0396008307328 -0.0472163751045 0.823 3.78183410461e-39
0.0410240029374 -0.0471016330022 0.821 3.87438146039e-39
0.0425434104536 -0.0471016330022 0.821 6.47184090555e-40
0.0440628179698 -0.0471016330022 0.821 7.00938179906e-39
-0.017079917134 -0.0465815921836 0.839 1.14272134286e-38
-0.0155271973945 -0.0465815921836 0.839 1.20718667741e-38
-0.0139411654318 -0.0464705514394 0.837 3.96259740261e-39
-0.0123921470505 -0.0464705514394 0.837 2.30708097608e-39
-0.0108431286692 -0.0464705514394 0.837 8.0210254033e-39
-0.00927190213905 -0.0463595106953 0.835 1.16159304967e-38
-0.00772658511588 -0.0463595106953 0.835 1.06864296071e-38
-0.0061812680927 -0.0463595106953 0.835 1.38268837994e-38
-0.00462484699511 -0.0462484699511 0.833 1.32808202086e-38
-0.00308323133007 -0.0462484699511 0.833 1.36438812264e-38
-0.00154161566504 -0.0462484699511 0.833 7.37415099971e-39
0.0 -0.0461374292069 0.831 1.37356410525e-38
0.0015379143069 -0.0461374292069 0.831 1.14297315619e-38
0.00307582861379 -0.0461374292069 0.831 1.44750642132e-38
0.00461374292069 -0.0461374292069 0.831 1.18020551626e-38
0.00615165722759 -0.0461374292069 0.831 1.28111918439e-38
0.00768957153448 -0.0461374292069 0.831 2.80259692865e-45
0.00922748584138 -0.0461374292069 0.831 1.299208266e-38
0.0107654001483 -0.0461374292069 0.831 8.10137865984e-39
0.0122737035901 -0.0460263884627 0.829 9.39819350807e-39
0.0138079165388 -0.0460263884627 0.829 5.99015997272e-39
0.0153421294876 -0.0460263884627 0.829 8.57278947623e-39
0.0168763424363 -0.0460263884627 0.829 6.08932285854e-39
0.0184105553851 -0.0460263884627 0.829 5.44206029528e-39
0.0199447683338 -0.0460263884627 0.829 6.16632701176e-39
0.0214789812826 -0.0460263884627 0.829 1.24471008717e-38
0.0230131942314 -0.0460263884627 0.829 9.59551595003e-39
0.0245474071801 -0.0460263884627 0.829 5.17487191449e-39
0.0260816201289 -0.0460263884627 0.829 8.20691324979e-39
0.0276158330776 -0.0460263884627 0.829 5.90204212138e-39
0.0291500460264 -0.0460263884627 0.829 4.06063084188e-39
0.0306102318124 -0.0459153477185 0.827 5.57828892678e-40
0.032140743403 -0.0459153477185 0.827 4.23777178335e-39
0.0336712549936 -0.0459153477185 0.827 2.76407102997e-39
0.0352017665842 -0.0459153477185 0.827 3.87006405982e-39
0.0367322781748 -0.0459153477185 0.827 2.94200090248e-39
0.038170255812 -0.0458043069744 0.825 2.57860917822e-39
0.0396970660444 -0.0458043069744 0.825 4.42574055806e-39
0.0412238762769 -0.0458043069744 0.825 3.50449331645e-39
0.0428543245373 -0.0459153477185 0.827 1.8460762021e-39
0.0443848361279 -0.0459153477185 0.827 6.73357823531e-39
-0.0171206320735 -0.0451362118302 0.841 1.02276010496e-38
-0.0155271973945 -0.0450288724442 0.839 1.22573174155e-38
-0.0139744776551 -0.0450288724442 0.839 8.27246739325e-40
-0.0124217579156 -0.0450288724442 0.839 3.04499633961e-39
-0.0108431286692 -0.0449215330581 0.837 2.39638292462e-39
-0.00929411028789 -0.0449215330581 0.837 9.72781393934e-41
-0.00774509190657 -0.0449215330581 0.837 3.61675133642e-42
-0.00619607352526 -0.0449215330581 0.837 0.0
-0.00463595106953 -0.0448141936721 0.835 7.70714155379e-43
-0.00309063404635 -0.0448141936721 0.835 1.13785435303e-42
-0.00154531702318 -0.0448141936721 0.835 3.2225716836e-39
0.0 -0.044706854286 0.833 1.19748660918e-39
0.00154161566504 -0.044706854286 0.833 4.05772454886e-39
0.00308323133007 -0.044706854286 0.833 4.51975086943e-39
0.00462484699511 -0.044706854286 0.833 4.06129645865e-39
0.00615165722759 -0.0445995149 0.831 9.86206393742e-39
0.00768957153448 -0.0445995149 0.831 1.82168800362e-44
0.00924969399022 -0.044706854286 0.833 1.74102463973e-38
0.0107913096553 -0.044706854286 0.833 1.20621753939e-38
0.0123329253203 -0.044706854286 0.833 1.15212111283e-38
0.0138412287621 -0.0445995149 0.831 1.27212046604e-38
0.015379143069 -0.0445995149 0.831 7.83485589583e-39
0.0169577723154 -0.044706854286 0.833 6.64177496902e-39
0.0184993879804 -0.044706854286 0.833 1.26308068965e-38
0.0199928859897 -0.0445995149 0.831 1.12428025507e-38
0.0214789812826 -0.044492175514 0.829 9.86412805006e-39
0.0230131942314 -0.044492175514 0.829 1.0608576267e-38
0.0246066289103 -0.0445995149 0.831 5.26202707377e-39
0.0261445432172 -0.0445995149 0.831 1.11578768572e-38
0.0276158330776 -0.044492175514 0.829 6.91365629836e-39
0.0291500460264 -0.044492175514 0.829 8.38799744514e-39
0.0306842589751 -0.044492175514 0.829 2.58002869356e-39
0.0322184719239 -0.044492175514 0.829 1.79666767941e-38
0.0337526848727 -0.044492175514 0.829 1.44692446206e-38
0.0352868978214 -0.044492175514 0.829 1.08766180386e-38
0.0367322781748 -0.0443848361279 0.827 1.4191681026e-38
0.0382627897654 -0.0443848361279 0.827 1.4104461407e-38
0.0397933013561 -0.0443848361279 0.827 1.26318550677e-38
0.0413238129467 -0.0443848361279 0.827 2.76838702924e-39
0.0428543245373 -0.0443848361279 0.827 3.27903840652e-42
0.0443848361279 -0.0443848361279 0.827 8.94446287441e-39
-0.0171613470131 -0.0436834287605 0.843 1.07829608544e-38
-0.0155642109759 -0.0435797907326 0.841 1.13346520598e-38
-0.0140077898783 -0.0435797907326 0.841 2.94883083119e-39
-0.0124513687807 -0.0435797907326 0.841 2.95314963306e-39
-0.0108431286692 -0.0433725146768 0.837 1.93575509992e-39
-0.00929411028789 -0.0433725146768 0.837 9.50515742245e-39
-0.00774509190657 -0.0433725146768 0.837 9.77996466299e-39
-0.00619607352526 -0.0433725146768 0.837 8.02460992477e-39
-0.00463595106953 -0.0432688766489 0.835 9.30705025336e-39
-0.00309063404635 -0.0432688766489 0.835 3.50168371302e-39
-0.00154531702318 -0.0432688766489 0.835 1.18013937497e-38
0.0 -0.0432688766489 0.835 4.88423560649e-39
0.00154531702318 -0.0432688766489 0.835 3.03347766623e-39
0.00309063404635 -0.0432688766489 0.835 1.75066038836e-39
0.00463595106953 -0.0432688766489 0.835 1.93616568037e-39
0.0061812680927 -0.0432688766489 0.835 4.62428493227e-44
0.00772658511588 -0.0432688766489 0.835 9.80908925027e-45
0.00927190213905 -0.0432688766489 0.835 1.40937442763e-38
0.0108172191622 -0.0432688766489 0.835 9.1835496158e-41
0.0123625361854 -0.0432688766489 0.835 0.0
0.0139078532086 -0.0432688766489 0.835 0.0
0.0154531702318 -0.0432688766489 0.835 0.0
0.0169984872549 -0.0432688766489 0.835 5.38098610301e-42
0.0185438042781 -0.0432688766489 0.835 0.0
0.0200410036455 -0.043165238621 0.833 1.43633092593e-42
0.0215826193105 -0.043165238621 0.833 4.61329875231e-40
0.0231242349755 -0.043165238621 0.833 5.52823454564e-40
0.0246658506406 -0.043165238621 0.833 7.41508292785e-40
0.0262074663056 -0.043165238621 0.833 2.30201388084e-39
0.0276824575241 -0.0430616005931 0.831 4.14165111649e-39
0.0291500460264 -0.0429579625652 0.829 4.60370546302e-39
0.0306842589751 -0.0429579625652 0.829 1.28928987547e-39
0.0322184719239 -0.0429579625652 0.829 1.37332252139e-38
0.0337526848727 -0.0429579625652 0.829 0.0
0.0353720290586 -0.0430616005931 0.831 2.76699834246e-39
0.0368211107702 -0.0429579625652 0.829 4.23850326115e-39
0.0383553237189 -0.0429579625652 0.829 3.68747206732e-39
0.0398895366677 -0.0429579625652 0.829 1.38797491853e-39
0.0414237496164 -0.0429579625652 0.829 3.78183410461e-39
0.0429579625652 -0.0429579625652 0.829 4.20389539297e-45
0.044706854286 -0.043165238621 0.833 1.01441130884e-38
0.0462484699511 -0.043165238621 0.833 1.94485863539e-38
-0.0171613470131 -0.0421233063048 0.843 9.67694820639e-39
-0.0156012245573 -0.0421233063048 0.843 1.11528027555e-38
-0.0140411021016 -0.0421233063048 0.843 2.76478989608e-39
-0.0124513687807 -0.042023369635 0.841 2.95279790715e-39
-0.0108949476832 -0.042023369635 0.841 3.13681502018e-39
-0.00929411028789 -0.0418234962955 0.837 2.77340928294e-39
-0.00774509190657 -0.0418234962955 0.837 3.42282003675e-39
-0.00619607352526 -0.0418234962955 0.837 9.31396846387e-39
-0.00464705514394 -0.0418234962955 0.837 1.05067312959e-38
-0.00309803676263 -0.0418234962955 0.837 5.34238733681e-39
-0.00154901838131 -0.0418234962955 0.837 5.99745793512e-39
0.0 -0.0418234962955 0.837 1.10660343546e-38
0.00154901838131 -0.0418234962955 0.837 1.40072589377e-38
0.00309803676263 -0.0418234962955 0.837 1.04134973039e-38
0.00464705514394 -0.0418234962955 0.837 9.59236302848e-39
0.00619607352526 -0.0418234962955 0.837 1.10732370287e-38
0.00774509190657 -0.0418234962955 0.837 1.12539751033e-38
0.00929411028789 -0.0418234962955 0.837 1.64043383077e-38
0.0108431286692 -0.0418234962955 0.837 1.2714657794e-38
0.0123921470505 -0.0418234962955 0.837 1.25356545268e-38
0.0139078532086 -0.0417235596257 0.835 1.35487540802e-38
0.0154531702318 -0.0417235596257 0.835 1.49312989672e-38
0.0169984872549 -0.0417235596257 0.835 9.67727190633e-39
0.0185438042781 -0.0417235596257 0.835 8.76112118724e-39
0.0200891213013 -0.0417235596257 0.835 8.02131547209e-39
0.0215826193105 -0.041623622956 0.833 9.95391064396e-39
0.0231242349755 -0.041623622956 0.833 9.30994813858e-39
0.0246658506406 -0.041623622956 0.833 1.02322449527e-38
0.0262074663056 -0.041623622956 0.833 1.51159999139e-38
0.0277490819706 -0.041623622956 0.833 5.6156867802e-39
0.029220371831 -0.0415236862862 0.831 4.42794620184e-39
0.0307582861379 -0.0415236862862 0.831 7.37821616655e-39
0.0322962004448 -0.0415236862862 0.831 5.9869776239e-39
0.0338341147517 -0.0415236862862 0.831 6.81710963677e-39
0.0353720290586 -0.0415236862862 0.831 7.09798870355e-39
0.0369099433655 -0.0415236862862 0.831 1.28101324622e-38
0.0384478576724 -0.0415236862862 0.831 2.11764504188e-39
0.0400820072909 -0.041623622956 0.833 3.87403113577e-39
0.041623622956 -0.041623622956 0.833 3.96657709025e-39
0.043165238621 -0.041623622956 0.833 7.17464813734e-43
0.044706854286 -0.041623622956 0.833 9.49909960919e-39
0.0462484699511 -0.041623622956 0.833 2.02783568318e-38
-0.0171613470131 -0.040563183849 0.843 1.00457265219e-38
-0.0156012245573 -0.040563183849 0.843 1.12460563657e-38
-0.0140411021016 -0.040563183849 0.843 3.22683443353e-39
-0.0124809796459 -0.040563183849 0.843 2.86200777964e-39
-0.0109208571901 -0.040563183849 0.843 3.41088517773e-39
-0.00931631843672 -0.0403707132258 0.839 3.13429828814e-39
-0.00776359869727 -0.0403707132258 0.839 1.93862636047e-39
-0.00621087895782 -0.0403707132258 0.839 1.01774766036e-39
-0.00464705514394 -0.0402744779142 0.837 1.47836707727e-39
-0.00309803676263 -0.0402744779142 0.837 1.84821598485e-39
-0.00154901838131 -0.0402744779142 0.837 1.48017194969e-39
0.0 -0.0403707132258 0.839 9.50851072968e-41
0.00155271973945 -0.0403707132258 0.839 1.47226302116e-39
0.00310543947891 -0.0403707132258 0.839 2.76370809367e-39
0.00465815921836 -0.0403707132258 0.839 1.01089671216e-41
0.00621087895782 -0.0403707132258 0.839 1.33109341126e-41
0.00776359869727 -0.0403707132258 0.839 5.68304999998e-40
0.00931631843672 -0.0403707132258 0.839 3.59201981983e-39
0.0108431286692 -0.0402744779142 0.837 5.97906168888e-39
0.0123921470505 -0.0402744779142 0.837 6.81567750974e-39
0.0139411654318 -0.0402744779142 0.837 4.97104604636e-39
0.0154901838131 -0.0402744779142 0.837 8.01384935387e-39
0.0170392021945 -0.0402744779142 0.837 8.66246557145e-39
0.0185438042781 -0.0401782426026 0.835 6.36114813595e-39
0.0200891213013 -0.0401782426026 0.835 8.94048038418e-39
0.0216344383245 -0.0401782426026 0.835 8.75680799056e-39
0.0231797553476 -0.0401782426026 0.835 1.02329946474e-38
0.0247250723708 -0.0401782426026 0.835 1.15229837708e-38
0.0262074663056 -0.0400820072909 0.833 9.40211434118e-39
0.0277490819706 -0.0400820072909 0.833 1.47477078489e-38
0.0292906976357 -0.0400820072909 0.833 1.10638231056e-38
0.0308323133007 -0.0400820072909 0.833 1.18024475262e-38
0.0323739289658 -0.0400820072909 0.833 1.13378722437e-38
0.0339155446308 -0.0400820072909 0.833 1.03241477112e-38
0.035542291533 -0.0401782426026 0.835 1.37370885938e-38
0.0370876085562 -0.0401782426026 0.835 9.58617489446e-39
0.0386329255794 -0.0401782426026 0.835 3.31759513377e-39
0.0401782426026 -0.0401782426026 0.835 3.5981533032e-39
0.0417235596257 -0.0401782426026 0.835 4.15132708238e-39
0.0432688766489 -0.0401782426026 0.835 0.0
0.044706854286 -0.0400820072909 0.833 1.09706311525e-38
0.0462484699511 -0.0400820072909 0.833 2.01858080747e-38
0.0477900856161 -0.0400820072909 0.833 2.15644419376e-38
-0.0156382381387 -0.0390955953468 0.845 1.10613049723e-38
-0.0140744143248 -0.0390955953468 0.845 4.14772434403e-39
-0.0124809796459 -0.0390030613933 0.843 3.50343393481e-39
-0.0109208571901 -0.0390030613933 0.843 3.41158862956e-39
-0.0093607347344 -0.0390030613933 0.843 3.32120768121e-39
-0.00780061227866 -0.0390030613933 0.843 3.13681502018e-39
-0.00622568439037 -0.0389105274398 0.841 3.41446549531e-39
-0.00466926329278 -0.0389105274398 0.841 3.41446549531e-39
-0.00311284219519 -0.0389105274398 0.841 3.32262019006e-39
-0.00155642109759 -0.0389105274398 0.841 3.41375643828e-39
0.0 -0.0389105274398 0.841 3.41446549531e-39
0.00155642109759 -0.0389105274398 0.841 2.86094139151e-39
0.00311284219519 -0.0389105274398 0.841 9.77273676551e-39
0.00466926329278 -0.0389105274398 0.841 3.22723940879e-39
0.00622568439037 -0.0389105274398 0.841 3.61955393335e-42
0.00778210548797 -0.0389105274398 0.841 1.38406109192e-39
0.00933852658556 -0.0389105274398 0.841 4.06376554654e-44
0.0108690381762 -0.0388179934863 0.839 1.12944656225e-42
0.0124217579156 -0.0388179934863 0.839 7.00649232162e-45
0.0139411654318 -0.0387254595329 0.837 5.184804318e-44
0.0154901838131 -0.0387254595329 0.837 4.20389539297e-44
0.0170392021945 -0.0387254595329 0.837 0.0
0.0185882205758 -0.0387254595329 0.837 7.17464813734e-43
0.0201372389571 -0.0387254595329 0.837 2.02543680034e-39
0.0216862573384 -0.0387254595329 0.837 0.0
0.0232352757197 -0.0387254595329 0.837 8.40779078595e-45
0.024784294101 -0.0387254595329 0.837 9.80908925027e-45
0.0263333124823 -0.0387254595329 0.837 1.4573504029e-42
0.0278823308637 -0.0387254595329 0.837 3.70972748953e-40
0.029431349245 -0.0387254595329 0.837 1.10994469152e-39
0.0309803676263 -0.0387254595329 0.837 1.20178999677e-39
0.0325293860076 -0.0387254595329 0.837 1.66276674478e-39
0.0340784043889 -0.0387254595329 0.837 3.71323073569e-40
0.035542291533 -0.0386329255794 0.835 7.40802038359e-40
0.0370876085562 -0.0386329255794 0.835 2.30848647844e-39
0.0386329255794 -0.0386329255794 0.835 3.59850643042e-39
0.0401782426026 -0.0386329255794 0.835 3.59920707965e-39
0.0417235596257 -0.0386329255794 0.835 3.96657709025e-39
0.0432688766489 -0.0386329255794 0.835 0.0
0.0448141936721 -0.0386329255794 0.835 1.11560817939e-38
0.0463595106953 -0.0386329255794 0.835 2.0646063154e-38
0.0479048277184 -0.0386329255794 0.835 2.19317923301e-38
-0.0156382381387 -0.0375317715329 0.845 1.11531558827e-38
-0.0140744143248 -0.0375317715329 0.845 4.05518119215e-39
-0.0124809796459 -0.0374429389376 0.843 3.13430109074e-39
-0.0109208571901 -0.0374429389376 0.843 3.77966769718e-39
-0.0093607347344 -0.0374429389376 0.843 3.32050422938e-39
-0.00780061227866 -0.0374429389376 0.843 3.32120768121e-39
-0.00622568439037 -0.0373541063422 0.841 2.95495170288e-39
-0.00466926329278 -0.0373541063422 0.841 3.13681502018e-39
-0.00311284219519 -0.0373541063422 0.841 3.22866172673e-39
-0.00155642109759 -0.0373541063422 0.841 3.41305298645e-39
0.0 -0.0374429389376 0.843 3.22936517856e-39
0.00155642109759 -0.0373541063422 0.841 3.59922529653e-39
0.00311284219519 -0.0373541063422 0.841 1.09705736993e-38
0.00466926329278 -0.0373541063422 0.841 1.45672374222e-38
0.00622568439037 -0.0373541063422 0.841 1.1619519222e-38
0.00778210548797 -0.0373541063422 0.841 1.52115754756e-38
0.00933852658556 -0.0373541063422 0.841 1.18925328005e-38
0.0108949476832 -0.0373541063422 0.841 1.42917869857e-38
0.0124217579156 -0.0372652737469 0.839 1.28155414743e-38
0.0139744776551 -0.0372652737469 0.839 1.45661710341e-38
0.0155271973945 -0.0372652737469 0.839 1.41980695457e-38
0.017079917134 -0.0372652737469 0.839 1.30942779558e-38
0.0186326368734 -0.0372652737469 0.839 4.33897075585e-39
0.0201853566129 -0.0372652737469 0.839 1.40166280193e-38
0.0216862573384 -0.0371764411516 0.837 1.25339239232e-38
0.0232352757197 -0.0371764411516 0.837 1.31760255043e-38
0.024784294101 -0.0371764411516 0.837 1.05988428479e-38
0.0263962355707 -0.0372652737469 0.839 1.14325888095e-38
0.0279489553102 -0.0372652737469 0.839 6.45610712639e-39
0.029431349245 -0.0371764411516 0.837 3.04609075371e-39
0.0309803676263 -0.0371764411516 0.837 3.59780297859e-39
0.0325293860076 -0.0371764411516 0.837 3.59850643042e-39
0.0340784043889 -0.0371764411516 0.837 4.05913145252e-39
0.0356274227702 -0.0371764411516 0.837 3.96693021746e-39
0.0371764411516 -0.0371764411516 0.837 3.41628017682e-39
0.0387254595329 -0.0371764411516 0.837 4.24352271225e-39
0.0402744779142 -0.0371764411516 0.837 3.96657709025e-39
0.0418234962955 -0.0371764411516 0.837 4.42503710623e-39
0.0433725146768 -0.0371764411516 0.837 0.0
0.0449215330581 -0.0371764411516 0.837 1.16163508862e-38
0.0464705514394 -0.0371764411516 0.837 2.00003378151e-38
0.0480195698208 -0.0371764411516 0.837 2.22998363652e-38
-0.0140744143248 -0.0359679477191 0.845 5.80724988547e-39
-0.012510590511 -0.0359679477191 0.845 1.29038849347e-39
-0.0109467666971 -0.0359679477191 0.845 9.21706166857e-39
-0.00938294288323 -0.0359679477191 0.845 3.04104888183e-39
-0.00780061227866 -0.0358828164819 0.843 5.06899961161e-39
-0.00624048982293 -0.0358828164819 0.843 3.22614359339e-39
-0.0046803673672 -0.0358828164819 0.843 2.58399576951e-39
-0.00312024491147 -0.0358828164819 0.843 2.40103103162e-39
-0.00156012245573 -0.0358828164819 0.843 2.85877358279e-39
0.0 -0.0358828164819 0.843 2.03187856938e-39
0.00156012245573 -0.0358828164819 0.843 2.76621922052e-39
0.00312024491147 -0.0358828164819 0.843 1.10634755836e-39
0.0046803673672 -0.0358828164819 0.843 3.88159674618e-43
0.00624048982293 -0.0358828164819 0.843 5.05308226236e-42
0.00780061227866 -0.0358828164819 0.843 7.66510259986e-43
0.0093607347344 -0.0358828164819 0.843 6.4974286155e-40
0.0108949476832 -0.0357976852446 0.841 8.29848950573e-42
0.0124513687807 -0.0357976852446 0.841 1.39053228822e-39
0.0140077898783 -0.0357976852446 0.841 2.49004010878e-39
0.0155642109759 -0.0357976852446 0.841 1.38801415488e-39
0.017079917134 -0.0357125540074 0.839 9.3244361634e-40
0.0186326368734 -0.0357125540074 0.839 1.55137752985e-41
0.0201853566129 -0.0357125540074 0.839 1.12006206643e-39
0.0217380763524 -0.0357125540074 0.839 8.20222870902e-39
0.0232907960918 -0.0357125540074 0.839 9.11800948532e-39
0.0248435158313 -0.0357125540074 0.839 4.60800604801e-39
0.0263962355707 -0.0357125540074 0.839 1.04188488627e-38
0.0279489553102 -0.0357125540074 0.839 7.37667894214e-39
0.0295016750496 -0.0357125540074 0.839 2.58545592251e-39
0.0310543947891 -0.0357125540074 0.839 3.50560734872e-39
0.0326071145285 -0.0357125540074 0.839 4.0569580386e-39
0.034159834268 -0.0357125540074 0.839 3.50631080055e-39
0.0356274227702 -0.0356274227702 0.837 3.59850643042e-39
0.0371764411516 -0.0356274227702 0.837 3.96622676563e-39
0.0387254595329 -0.0356274227702 0.837 3.87438146039e-39
0.0402744779142 -0.0356274227702 0.837 4.05913145252e-39
0.0418234962955 -0.0356274227702 0.837 3.96657709025e-39
0.0433725146768 -0.0356274227702 0.837 0.0
0.0449215330581 -0.0356274227702 0.837 1.16160033642e-38
0.0464705514394 -0.0356274227702 0.837 2.08293754139e-38
0.0480195698208 -0.0356274227702 0.837 2.14707791483e-38
-0.0141410387714 -0.0345669836633 0.849 7.74155884537e-39
-0.0125698122412 -0.0345669836633 0.849 5.53578754436e-40
-0.0109467666971 -0.0344041239052 0.845 1.06017939825e-38
-0.00938294288323 -0.0344041239052 0.845 7.74302320226e-39
-0.00781911906936 -0.0344041239052 0.845 8.94289902533e-39
-0.00625529525549 -0.0344041239052 0.845 6.45367587355e-39
-0.00469147144162 -0.0344041239052 0.845 9.68344742866e-39
-0.00312024491147 -0.0343226940261 0.843 9.03552485382e-39
-0.00156012245573 -0.0343226940261 0.843 1.02344015511e-38
0.0 -0.0343226940261 0.843 7.1898340088e-39
0.00156012245573 -0.0343226940261 0.843 1.07850656047e-38
0.00312024491147 -0.0343226940261 0.843 7.19196538377e-39
0.0046803673672 -0.0343226940261 0.843 7.65223727866e-39
0.00624048982293 -0.0343226940261 0.843 6.08597095262e-39
0.00780061227866 -0.0343226940261 0.843 5.99523407446e-39
0.0093607347344 -0.0343226940261 0.843 6.63556861812e-39
0.0109208571901 -0.0343226940261 0.843 5.71037391873e-39
0.0124513687807 -0.0342412641471 0.841 5.62000838466e-39
0.0140077898783 -0.0342412641471 0.841 3.69146016275e-39
0.0155642109759 -0.0342412641471 0.841 3.96697365772e-39
0.0171206320735 -0.0342412641471 0.841 3.68571483905e-39
0.0186770531711 -0.0342412641471 0.841 3.04104327664e-39
0.0202334742687 -0.0342412641471 0.841 2.85918136064e-39
0.0217898953663 -0.0342412641471 0.841 1.204673869e-39
0.0233463164639 -0.0342412641471 0.841 1.22697693536e-41
0.0249027375615 -0.0342412641471 0.841 2.58727340662e-39
0.0264591586591 -0.0342412641471 0.841 4.64224957858e-40
0.0280155797567 -0.0342412641471 0.841 1.94011594074e-39
0.0295720008543 -0.0342412641471 0.841 2.21738666398e-39
0.0311284219519 -0.0342412641471 0.841 2.86023793968e-39
0.0326848430495 -0.0342412641471 0.841 2.67619139938e-39
0.0342412641471 -0.0342412641471 0.841 3.22936517856e-39
0.0357125540074 -0.034159834268 0.839 3.13786879663e-39
0.0372652737469 -0.034159834268 0.839 2.21486853064e-39
0.0389105274398 -0.0342412641471 0.841 3.87438146039e-39
0.0403707132258 -0.034159834268 0.839 2.67548794755e-39
0.0419234329653 -0.034159834268 0.839 3.87367800856e-39
0.0434761527047 -0.034159834268 0.839 0.0
0.0449215330581 -0.0340784043889 0.837 1.19854921381e-38
0.0464705514394 -0.0340784043889 0.837 1.98159269372e-38
0.0480195698208 -0.0340784043889 0.837 2.21147262394e-38
-0.0141410387714 -0.0329957571332 0.849 8.57059924673e-39
-0.0125698122412 -0.0329957571332 0.849 2.21199586879e-39
-0.0109985857111 -0.0329957571332 0.849 2.12231416837e-39
-0.00944956732974 -0.0330734856541 0.851 2.12373648631e-39
-0.00785613265075 -0.0329957571332 0.849 2.95278389416e-39
-0.0062849061206 -0.0329957571332 0.849 2.4021436626e-39
-0.00470257551603 -0.0329180286122 0.847 4.79202175975e-39
-0.00312764762774 -0.0328403000913 0.845 2.85234722803e-39
-0.00156382381387 -0.0328403000913 0.845 2.76300183924e-39
0.0 -0.0329957571332 0.849 2.21199867138e-39
0.00156382381387 -0.0328403000913 0.845 2.39637731942e-39
0.00312764762774 -0.0328403000913 0.845 1.93616568037e-39
0.00469147144162 -0.0328403000913 0.845 2.21199306619e-39
0.00625529525549 -0.0328403000913 0.845 1.10994469152e-39
0.00780061227866 -0.0327625715704 0.843 2.8605882643e-39
0.0093607347344 -0.0327625715704 0.843 6.26716024535e-39
0.0109208571901 -0.0327625715704 0.843 8.75538287002e-39
0.0124809796459 -0.0327625715704 0.843 5.90050769957e-39
0.0140411021016 -0.0327625715704 0.843 7.56148358491e-39
0.0156012245573 -0.0327625715704 0.843 1.0053266909e-38
0.0171613470131 -0.0327625715704 0.843 7.28415821103e-39
0.0187214694688 -0.0327625715704 0.843 7.28384992537e-39
0.0202815919245 -0.0327625715704 0.843 8.30051578331e-39
0.0218417143803 -0.0327625715704 0.843 6.55020852216e-39
0.023401836836 -0.0327625715704 0.843 8.11899858673e-39
0.0249619592917 -0.0327625715704 0.843 8.57669629635e-39
0.0265220817475 -0.0327625715704 0.843 8.39300428455e-39
0.0280822042032 -0.0327625715704 0.843 9.68519204525e-39
0.0295720008543 -0.0326848430495 0.841 7.65514637427e-39
0.0311284219519 -0.0326848430495 0.841 9.12881910168e-39
0.0326848430495 -0.0326848430495 0.841 1.05099514798e-38
0.0342412641471 -0.0326848430495 0.841 8.66638920715e-39
0.0357976852446 -0.0326848430495 0.841 1.09712799537e-38
0.0373541063422 -0.0326848430495 0.841 1.05121038742e-38
0.0389105274398 -0.0326848430495 0.841 9.22245246377e-39
0.0404669485374 -0.0326848430495 0.841 1.13396897278e-38
0.042023369635 -0.0326848430495 0.841 4.42432104271e-39
0.0435797907326 -0.0326848430495 0.841 0.0
0.0450288724442 -0.0326071145285 0.839 1.29074456341e-38
0.0465815921836 -0.0326071145285 0.839 2.0370202137e-38
0.0481343119231 -0.0326071145285 0.839 2.18388624198e-38
-0.015804799255 -0.03160959851 0.854 9.95282463765e-39
-0.0142243193295 -0.03160959851 0.854 9.21344771983e-39
-0.0125994231063 -0.0314985577658 0.851 2.39456544051e-39
-0.011024495218 -0.0314985577658 0.851 3.22901205134e-39
-0.00944956732974 -0.0314985577658 0.851 3.22936517856e-39
-0.00787463944145 -0.0314985577658 0.851 3.50486325924e-39
-0.00629971155316 -0.0314985577658 0.851 2.67801168608e-39
-0.00472478366487 -0.0314985577658 0.851 1.06013007254e-38
-0.00314985577658 -0.0314985577658 0.851 9.39790063669e-39
-0.00157492788829 -0.0314985577658 0.851 1.45647795447e-38
0.0 -0.031424530603 0.849 1.29077216899e-38
0.00156752517201 -0.0313505034402 0.847 1.25382553368e-38
0.00313505034402 -0.0313505034402 0.847 1.52120813444e-38
0.00469147144162 -0.0312764762774 0.845 1.22641641598e-38
0.00625529525549 -0.0312764762774 0.845 1.1342949148e-38
0.00781911906936 -0.0312764762774 0.845 1.05146402245e-38
0.0093607347344 -0.0312024491147 0.843 1.13425806065e-38
0.0109208571901 -0.0312024491147 0.843 9.77344021734e-39
0.0124809796459 -0.0312024491147 0.843 1.13397149512e-38
0.0140411021016 -0.0312024491147 0.843 9.22139308213e-39
0.0156012245573 -0.0312024491147 0.843 1.2538195081e-38
0.0171613470131 -0.0312024491147 0.843 1.21629539769e-38
0.0187214694688 -0.0312024491147 0.843 5.6051938573e-45
0.0202815919245 -0.0312024491147 0.843 1.14329363315e-38
0.0218935333942 -0.0312764762774 0.845 6.07840253961e-39
0.0234573572081 -0.0312764762774 0.845 9.39860128593e-39
0.025021181022 -0.0312764762774 0.845 4.61123323838e-39
0.0265220817475 -0.0312024491147 0.843 4.97789839585e-39
0.0280822042032 -0.0312024491147 0.843 5.25519294116e-39
0.0296423266589 -0.0312024491147 0.843 4.42363300517e-39
0.0312024491147 -0.0312024491147 0.843 3.50419764247e-39
0.0327625715704 -0.0312024491147 0.843 1.29366472928e-39
0.0343226940261 -0.0312024491147 0.843 3.50525422151e-39
0.0358828164819 -0.0312024491147 0.843 3.31833922325e-39
0.0374429389376 -0.0312024491147 0.843 1.57021798771e-39
0.0390030613933 -0.0312024491147 0.843 2.31065148457e-39
0.040563183849 -0.0312024491147 0.843 3.96441208412e-39
0.0421233063048 -0.0312024491147 0.843 4.97642142727e-39
0.0436834287605 -0.0312024491147 0.843 0.0
0.0452435512162 -0.0312024491147 0.843 1.30940019e-38
0.046803673672 -0.0312024491147 0.843 1.95411575318e-38
0.0483637961277 -0.0312024491147 0.843 2.25774868404e-38
-0.0174667090596 -0.0301697701938 0.858 1.08729732613e-38
-0.015804799255 -0.0300291185845 0.854 9.86101156227e-39
-0.0142243193295 -0.0300291185845 0.854 9.67478039766e-39
-0.012643839404 -0.0300291185845 0.854 2.67187540011e-39
-0.0110633594785 -0.0300291185845 0.854 3.59780297859e-39
-0.00948287955299 -0.0300291185845 0.854 3.41375643828e-39
-0.00787463944145 -0.0299236298775 0.851 3.77966769718e-39
-0.00629971155316 -0.0299236298775 0.851 2.58329231768e-39
-0.00472478366487 -0.0299236298775 0.851 5.71110960043e-39
-0.00314985577658 -0.0299236298775 0.851 1.01092473813e-39
-0.00157492788829 -0.0299236298775 0.851 2.90629301501e-42
0.0 -0.0298533040729 0.849 5.52117200138e-40
0.00157122653015 -0.0298533040729 0.849 1.43633092593e-42
0.0031424530603 -0.0298533040729 0.849 1.02679164064e-39
0.00470257551603 -0.0297829782682 0.847 9.02716470718e-42
0.00627010068805 -0.0297829782682 0.847 1.04648969316e-41
