# .PCD v0.7 - Point Cloud Data file format
VERSION 0.7
FIELDS x y z rgb
SIZE 4 4 4 4
TYPE F F F F
COUNT 1 1 1 1
WIDTH 846
HEIGHT 1
VIEWPOINT 0 0 0 1 0 0 0
POINTS 846
DATA ascii
-0.0160824011154 -0.0921082972975 0.79 1.74995693653e-39
-0.0146203646504 -0.0921082972975 0.79 6.44312830001e-40
-0.0131583281854 -0.0921082972975 0.79 1.47807700848e-39
-0.0116962917203 -0.0921082972975 0.79 4.70274083069e-39
-0.0102213005018 -0.0919917045161 0.789 2.49074356061e-39
-0.00873890656699 -0.0917585189534 0.787 7.3796328793e-39
-0.00726391534846 -0.0915253333906 0.785 5.809318202e-39
-0.00579632684621 -0.0912921478278 0.783 6.45113391814e-39
-0.00433614106024 -0.091058962265 0.781 1.10634755836e-39
-0.00289076070683 -0.091058962265 0.781 6.30584308946e-44
-0.00144538035341 -0.091058962265 0.781 0.0
0.0 -0.0909423694836 0.78 1.10282189142e-42
0.00144352967434 -0.0909423694836 0.78 7.45863528412e-40
0.00288705934869 -0.0909423694836 0.78 8.94223761245e-39
0.00431948494861 -0.0907091839209 0.778 1.20761603526e-38
0.00574450783226 -0.0904759983581 0.776 1.22591475113e-38
0.00718063479032 -0.0904759983581 0.776 1.18892313414e-38
0.00859455359955 -0.0902428127953 0.774 6.17378752478e-39
0.0100269791995 -0.0902428127953 0.774 3.04101665197e-39
0.0114594047994 -0.0902428127953 0.774 2.21558179156e-39
0.0128918303993 -0.0902428127953 0.774 2.67654172399e-39
0.0143242559993 -0.0902428127953 0.774 2.58434609413e-39
0.0157566815992 -0.0902428127953 0.774 2.5836426423e-39
0.0171891071991 -0.0902428127953 0.774 0.0
0.0186696504548 -0.0904759983581 0.776 1.6953568833e-38
0.0201575964269 -0.0907091839209 0.778 1.63042113285e-38
0.0215974247431 -0.0907091839209 0.778 1.53804599665e-38
0.0231260856546 -0.091058962265 0.781 1.32610366769e-38
0.0246973121848 -0.0915253333906 0.785 1.87030899657e-38
0.026216719701 -0.0917585189534 0.787 1.84304491326e-38
0.0279896702497 -0.0928078539859 0.796 1.79680262445e-38
0.0295368379519 -0.0930410395486 0.798 1.80591709006e-38
0.0310136798495 -0.0930410395486 0.798 1.98119668678e-38
0.0324905217471 -0.0930410395486 0.798 1.52054223741e-38
0.0339673636447 -0.0930410395486 0.798 7.27771924459e-39
0.0366434455795 -0.0961890446462 0.825 9.40392902269e-39
0.038170255812 -0.0961890446462 0.825 1.19843528824e-38
0.0396970660444 -0.0961890446462 0.825 9.1280708083e-39
0.0413238129467 -0.0964222302089 0.827 9.12701703185e-39
0.043165238621 -0.0971217868973 0.833 1.22512133594e-38
0.0448141936721 -0.09735497246 0.835 1.55533619802e-38
0.0465815921836 -0.0978213435856 0.839 1.6101486881e-38
0.0482490540254 -0.0980545291484 0.841 1.61922475812e-38
0.049805475123 -0.0980545291484 0.841 1.58252979601e-38
0.0546801637925 -0.101319127027 0.869 1.76713615506e-38
0.056288403904 -0.101319127027 0.869 1.72161105081e-38
0.0578966440156 -0.101319127027 0.869 1.66604564306e-38
0.0595048841271 -0.101319127027 0.869 1.60136198621e-38
-0.0400746045747 -0.0920231660603 0.802 1.90791228034e-38
-0.0385903599608 -0.0920231660603 0.802 1.90798290578e-38
-0.0371061153469 -0.0920231660603 0.802 1.9540088341e-38
-0.0356662870307 -0.0921379081626 0.803 2.0463116633e-38
-0.0341801917378 -0.0921379081626 0.803 3.22298646795e-44
-0.0326533815053 -0.0920231660603 0.802 1.29791346622e-39
-0.0311691368914 -0.0920231660603 0.802 1.47907333169e-39
-0.0296108651147 -0.0917936818557 0.8 3.94605647554e-42
-0.0279896702497 -0.0913347134464 0.796 8.28600814031e-39
-0.0265165297102 -0.0913347134464 0.796 4.04119903607e-39
-0.0250433891708 -0.0913347134464 0.796 4.80243480864e-39
-0.0235702486313 -0.0913347134464 0.796 3.64337600724e-42
-0.0220971080919 -0.0913347134464 0.796 9.54326293159e-41
-0.0206239675524 -0.0913347134464 0.796 3.28184100345e-42
-0.0191027093571 -0.0911052292418 0.794 4.67461957311e-40
-0.0176332701758 -0.0911052292418 0.794 3.04681242242e-39
-0.016123116055 -0.0908757450371 0.792 8.38943657866e-39
-0.0146203646504 -0.0906462608325 0.79 9.03541975643e-39
-0.0131583281854 -0.0906462608325 0.79 4.66405378269e-40
-0.0116962917203 -0.0906462608325 0.79 6.45875558049e-39
-0.0102342552553 -0.0906462608325 0.79 1.29325695143e-39
-0.00876111471582 -0.0905315187302 0.789 4.32300576244e-42
-0.00730092892985 -0.0905315187302 0.789 4.05990216668e-39
-0.00579632684621 -0.0898430661163 0.783 7.9280408424e-39
-0.00434724513466 -0.0898430661163 0.783 8.02064705272e-39
-0.0028981634231 -0.0898430661163 0.783 6.64164604956e-39
-0.00144538035341 -0.0896135819116 0.781 2.4928525148e-39
0.0 -0.0896135819116 0.781 1.47876504603e-39
0.00144352967434 -0.0894988398093 0.78 2.86985925494e-42
0.00288705934869 -0.0894988398093 0.78 1.26116861789e-44
0.00433058902303 -0.0894988398093 0.78 0.0
0.00575931326482 -0.0892693556047 0.778 7.83592788915e-39
0.00718063479032 -0.0890398714 0.776 1.12449002945e-38
0.00861676174839 -0.0890398714 0.776 1.07844055931e-38
0.0100528887065 -0.0890398714 0.776 4.14919150352e-39
0.0114890156645 -0.0890398714 0.776 1.57416824808e-39
0.0128918303993 -0.0888103871954 0.774 2.49214906297e-39
0.0143242559993 -0.0888103871954 0.774 2.12696367667e-39
0.0157973965387 -0.0890398714 0.776 2.49179873835e-39
0.0172335234968 -0.0890398714 0.776 0.0
0.0186696504548 -0.0890398714 0.776 1.69524870306e-38
0.0201575964269 -0.0892693556047 0.778 1.58432303766e-38
0.0215974247431 -0.0892693556047 0.778 1.4458499464e-38
0.0231853073848 -0.0898430661163 0.783 1.74112679439e-38
0.0246973121848 -0.0900725503209 0.785 1.75985472798e-38
0.026216719701 -0.0903020345255 0.787 1.89832417586e-38
0.0279896702497 -0.0913347134464 0.796 1.85219286989e-38
0.0295368379519 -0.091564197651 0.798 1.82432104344e-38
0.0310136798495 -0.091564197651 0.798 1.99031045173e-38
0.0324905217471 -0.091564197651 0.798 5.24794542551e-39
0.035116635347 -0.0946622344137 0.825 8.85186927579e-39
0.0366434455795 -0.0946622344137 0.825 9.40252772422e-39
0.038170255812 -0.0946622344137 0.825 9.31068241897e-39
0.0396970660444 -0.0946622344137 0.825 9.67837052433e-39
0.0415236862862 -0.0953506870276 0.831 7.65116248273e-39
0.043165238621 -0.0955801712322 0.833 1.38106385463e-38
0.0448141936721 -0.0958096554369 0.835 1.53650134536e-38
0.0464705514394 -0.0960391396415 0.837 1.59156690994e-38
0.0481343119231 -0.0962686238461 0.839 1.57316435786e-38
0.0496870316625 -0.0962686238461 0.839 1.5826001412e-38
0.0546801637925 -0.0997108869157 0.869 1.74858982975e-38
0.056288403904 -0.0997108869157 0.869 1.73976108891e-38
0.0577633951226 -0.0994814027111 0.867 1.5828156609e-38
0.059367933876 -0.0994814027111 0.867 1.61958657338e-38
-0.0401245729095 -0.0906518128697 0.803 1.82486404659e-38
-0.0386384776166 -0.0906518128697 0.803 1.86177747113e-38
-0.0371523823236 -0.0906518128697 0.803 1.963084764e-38
-0.0356662870307 -0.0906518128697 0.803 2.1015937285e-38
-0.0341801917378 -0.0906518128697 0.803 9.80908925027e-45
-0.0326940964448 -0.0906518128697 0.803 1.57019977083e-39
-0.0312080011519 -0.0906518128697 0.803 1.75496377594e-39
-0.0296848922775 -0.0905389214464 0.802 1.01739873704e-39
-0.0282006476636 -0.0905389214464 0.802 5.43270943062e-39
-0.0266497786033 -0.0903131385999 0.8 2.85269194745e-39
-0.0251063122592 -0.0900873557534 0.798 5.99916331535e-39
-0.0236294703616 -0.0900873557534 0.798 6.91828198459e-39
-0.022152628464 -0.0900873557534 0.798 7.00786419282e-39
-0.0206239675524 -0.0898615729069 0.796 3.13138779123e-39
-0.019150827013 -0.0898615729069 0.796 1.37936393946e-39
-0.0176776864735 -0.0898615729069 0.796 1.87277934563e-40
-0.0161638309945 -0.0896357900604 0.794 4.7293823171e-42
-0.0146573782318 -0.0894100072139 0.792 4.68313946777e-42
-0.0131916404086 -0.0894100072139 0.792 1.2061368246e-39
-0.0116962917203 -0.0891842243674 0.79 7.44090885855e-40
-0.0102342552553 -0.0891842243674 0.79 6.64312722203e-39
-0.00876111471582 -0.0890713329442 0.789 8.02064705272e-39
-0.00730092892985 -0.0890713329442 0.789 5.71786666162e-39
-0.00584074314388 -0.0890713329442 0.789 2.55456710046e-42
-0.00436945328349 -0.0888455500977 0.787 1.75349661645e-39
-0.00290556613938 -0.0886197672512 0.785 1.11070419529e-39
-0.00144908171155 -0.0883939844047 0.783 1.01993088336e-39
0.0 -0.0881682015582 0.781 7.65759304139e-39
0.00144538035341 -0.0881682015582 0.781 7.56324361578e-39
0.0028981634231 -0.0883939844047 0.783 7.6543882718e-39
0.00433614106024 -0.0881682015582 0.781 4.70299446571e-39
0.00578152141365 -0.0881682015582 0.781 2.11979603503e-39
0.00719914158102 -0.0878295272884 0.778 7.17464813734e-43
0.00863896989722 -0.0878295272884 0.778 2.88387223958e-42
0.0100528887065 -0.0876037444419 0.776 6.51505695019e-40
0.0114890156645 -0.0876037444419 0.776 1.94222349363e-39
0.0129251426226 -0.0876037444419 0.776 2.30883400046e-39
0.0143612695806 -0.0876037444419 0.776 1.66563520274e-39
0.0157973965387 -0.0876037444419 0.776 2.21592230708e-39
0.0172335234968 -0.0876037444419 0.776 0.0
0.0187177681107 -0.0878295272884 0.778 1.71383034108e-38
0.0202094154408 -0.0880553101349 0.78 1.58439548479e-38
0.0216807053012 -0.0881682015582 0.781 1.36291157445e-38
0.0231853073848 -0.0883939844047 0.783 1.82421020073e-38
0.0247602352731 -0.0888455500977 0.787 1.76932063923e-38
0.0263166563707 -0.0891842243674 0.79 1.92612537687e-38
0.0280599960544 -0.0900873557534 0.798 1.7692575808e-38
0.0295368379519 -0.0900873557534 0.798 1.92569896175e-38
0.0315189152356 -0.0915549442557 0.811 1.41905263561e-38
0.0330198159611 -0.0915549442557 0.811 7.37351481021e-39
0.0346058479238 -0.0917807271022 0.813 7.92921653182e-39
0.0363769477935 -0.0924580756417 0.819 1.59479634238e-38
0.0380777218585 -0.0929096413347 0.823 7.00762176819e-39
0.0397933013561 -0.0933612070277 0.827 1.7978535983e-38
0.0414237496164 -0.0935869898742 0.829 8.47807571302e-39
0.0430616005931 -0.0938127727207 0.831 1.5283279918e-38
0.044706854286 -0.0940385555672 0.833 1.57334232276e-38
0.0463595106953 -0.0942643384137 0.835 1.55501305859e-38
0.0481343119231 -0.0947159041067 0.839 1.5826001412e-38
0.0496870316625 -0.0947159041067 0.839 1.58274139208e-38
0.0531940684996 -0.0983284296507 0.871 1.61033169768e-38
0.0548060099692 -0.0983284296507 0.871 1.73054404826e-38
0.0564179514389 -0.0983284296507 0.871 1.57377588451e-38
0.0577633951226 -0.0978768639577 0.867 1.63802597962e-38
0.059367933876 -0.0978768639577 0.867 1.62884299052e-38
-0.0401245729095 -0.0891657175768 0.803 1.91698708919e-38
-0.0386384776166 -0.0891657175768 0.803 1.96311881555e-38
-0.0371523823236 -0.0891657175768 0.803 2.00921635022e-38
-0.035755119626 -0.0893877990651 0.805 2.11995998695e-38
-0.034265322975 -0.0893877990651 0.805 4.7644147787e-44
-0.0327755263239 -0.0893877990651 0.805 2.58219369969e-39
-0.0312080011519 -0.0891657175768 0.803 2.03119053183e-39
-0.0297219058589 -0.0891657175768 0.803 1.57238299383e-39
-0.0282006476636 -0.0890546768326 0.802 1.75496377594e-39
-0.0266497786033 -0.0888325953442 0.8 1.20143686955e-39
-0.0251063122592 -0.0886105138558 0.798 4.42468678161e-39
-0.0236294703616 -0.0886105138558 0.798 5.52470327351e-40
-0.022152628464 -0.0886105138558 0.798 2.21810553009e-39
-0.0206757865664 -0.0886105138558 0.798 7.55824938806e-39
-0.019150827013 -0.0883884323675 0.796 7.09688027647e-39
-0.0176776864735 -0.0883884323675 0.796 6.64062450298e-39
-0.016204545934 -0.0883884323675 0.796 2.21557198247e-39
-0.0146943918132 -0.0881663508791 0.794 1.38474912946e-39
-0.0132249526319 -0.0881663508791 0.794 9.93856922838e-41
-0.0117259025854 -0.0879442693908 0.792 8.32997668222e-40
-0.0102342552553 -0.0877221879024 0.79 5.78315876227e-42
-0.00877221879024 -0.0877221879024 0.79 1.47985946013e-39
-0.0073101823252 -0.0877221879024 0.79 5.16722643007e-39
-0.00584074314388 -0.0876111471582 0.789 8.11459991086e-39
-0.00438055735791 -0.0876111471582 0.789 7.192666033e-39
-0.00290556613938 -0.0871669841815 0.785 7.74337632948e-39
-0.00145278306969 -0.0871669841815 0.785 4.60763050002e-39
0.0 -0.0871669841815 0.785 2.58042105713e-39
0.00144908171155 -0.0869449026931 0.783 5.07410173932e-42
0.0028981634231 -0.0869449026931 0.783 2.4972259673e-39
0.00434724513466 -0.0869449026931 0.783 5.99523407446e-39
0.00578152141365 -0.0867228212048 0.781 7.00544274907e-39
0.00722690176707 -0.0867228212048 0.781 2.76301445093e-39
0.00863896989722 -0.0863896989722 0.778 1.84932441194e-39
0.0100787982134 -0.0863896989722 0.778 2.12302322539e-39
0.0115186265296 -0.0863896989722 0.778 2.30776761233e-39
0.0129584548458 -0.0863896989722 0.778 2.12407419924e-39
0.014398283162 -0.0863896989722 0.778 2.12372387462e-39
0.0158381114782 -0.0863896989722 0.778 2.76763172937e-39
0.0172779397944 -0.0863896989722 0.778 0.0
0.0187658857665 -0.0866117804606 0.78 1.72301361044e-38
0.0202094154408 -0.0866117804606 0.78 1.58439758674e-38
0.0216807053012 -0.0867228212048 0.781 1.29833932083e-38
0.0231853073848 -0.0869449026931 0.783 1.76889002021e-38
0.0247602352731 -0.0873890656699 0.787 1.85229376338e-38
0.0263166563707 -0.0877221879024 0.79 1.8154237791e-38
0.0285171137846 -0.0900540435302 0.811 1.73219561863e-38
0.0300180145101 -0.0900540435302 0.811 2.02707716032e-38
0.0315189152356 -0.0900540435302 0.811 5.80109258001e-39
0.0330198159611 -0.0900540435302 0.811 7.47073269377e-39
0.0346058479238 -0.0902761250186 0.813 1.09673338973e-38
0.0362881151981 -0.0907202879953 0.817 1.84366246549e-38
0.0380777218585 -0.0913865324604 0.823 9.95818180168e-39
0.0397933013561 -0.0918306954371 0.827 1.4935336108e-38
0.0414237496164 -0.0920527769254 0.829 9.85774513555e-39
0.0430616005931 -0.0922748584138 0.831 1.42662385121e-38
0.0445995149 -0.0922748584138 0.831 1.60093038628e-38
0.0463595106953 -0.0927190213905 0.835 1.55501305859e-38
0.0479048277184 -0.0927190213905 0.835 1.62869599431e-38
0.0494501447416 -0.0927190213905 0.835 1.56423206106e-38
0.0531940684996 -0.096716488181 0.871 1.72103749934e-38
0.0548060099692 -0.096716488181 0.871 1.72128665021e-38
0.0564179514389 -0.096716488181 0.871 1.57377406282e-38
0.0578966440156 -0.0964944066926 0.869 1.58278034818e-38
0.0595048841271 -0.0964944066926 0.869 1.94266574342e-38
-0.0402245095793 -0.087898002414 0.805 1.92624378659e-38
-0.0387347129282 -0.087898002414 0.805 1.90780255867e-38
-0.0372449162771 -0.087898002414 0.805 1.90769605999e-38
-0.035755119626 -0.087898002414 0.805 2.12910794358e-38
-0.034265322975 -0.087898002414 0.805 0.0
-0.0327755263239 -0.087898002414 0.805 1.66060033736e-39
-0.0312857296728 -0.087898002414 0.805 1.20214032138e-39
-0.0297959330217 -0.087898002414 0.805 1.47907333169e-39
-0.028235810566 -0.0876796222838 0.803 1.75426032412e-39
-0.0267164030498 -0.0875704322187 0.802 9.24848578664e-40
-0.0252321584359 -0.0875704322187 0.802 7.83557195934e-39
-0.0236886920918 -0.0873520520885 0.8 9.31067961638e-39
-0.0222081488361 -0.0873520520885 0.8 2.12231416837e-39
-0.0206757865664 -0.0871336719583 0.798 2.6744341711e-39
-0.0191989446688 -0.0871336719583 0.798 4.71396803399e-42
-0.0176776864735 -0.086915291828 0.796 1.43492962747e-42
-0.016204545934 -0.086915291828 0.796 7.19447791191e-39
-0.0146943918132 -0.0866969116978 0.794 7.92983590574e-39
-0.0132249526319 -0.0866969116978 0.794 7.74407697871e-39
-0.0117259025854 -0.0864785315676 0.792 2.21270072191e-39
-0.0102601647623 -0.0864785315676 0.792 5.16652578083e-39
-0.00879442693908 -0.0864785315676 0.792 5.41741986308e-42
-0.0073101823252 -0.0862601514374 0.79 0.0
-0.00584814586016 -0.0862601514374 0.79 1.46575819368e-42
-0.00438055735791 -0.0861509613723 0.789 5.0867134255e-42
-0.00292037157194 -0.0861509613723 0.789 1.01563590357e-39
-0.00145648442783 -0.085932581242 0.787 8.66172008067e-39
0.0 -0.085932581242 0.787 8.66527797747e-39
0.00145648442783 -0.085932581242 0.787 2.12302322539e-39
0.00290556613938 -0.0857142011118 0.785 6.44937809116e-39
0.00435834920908 -0.0857142011118 0.785 3.40442098791e-39
0.00579632684621 -0.0854958209816 0.783 2.12343100324e-39
0.00724540855776 -0.0854958209816 0.783 6.83413261051e-42
0.00866117804606 -0.0851682507863 0.78 1.3861714474e-39
0.0101047077204 -0.0851682507863 0.78 1.204673869e-39
0.0115482373947 -0.0851682507863 0.78 2.21558179156e-39
0.0129917670691 -0.0851682507863 0.78 2.21521885525e-39
0.0144352967434 -0.0851682507863 0.78 2.3070641605e-39
0.0158788264178 -0.0851682507863 0.78 2.39708637645e-39
0.0173223560921 -0.0851682507863 0.78 0.0
0.0187658857665 -0.0851682507863 0.78 1.658511702e-38
0.0202353249478 -0.0852774408514 0.781 1.48290882572e-38
0.0216807053012 -0.0852774408514 0.781 1.26138876188e-38
0.0231853073848 -0.0854958209816 0.783 1.75037704581e-38
0.0248231583615 -0.0861509613723 0.789 1.84286372537e-38
0.0263166563707 -0.0862601514374 0.79 1.60308516293e-38
0.0285171137846 -0.0885531428047 0.811 1.75041810386e-38
0.0300180145101 -0.0885531428047 0.811 1.35433969162e-38
0.0315189152356 -0.0885531428047 0.811 8.47623020295e-39
0.0331012458401 -0.0887715229349 0.813 6.91395197234e-39
0.0346058479238 -0.0887715229349 0.813 2.1383220415e-38
0.0362881151981 -0.0892082831954 0.817 6.99724094916e-39
0.0380777218585 -0.089863423586 0.823 1.52101489538e-38
0.0397933013561 -0.0903001838465 0.827 8.1107295245e-39
0.0414237496164 -0.0905185639767 0.829 1.29852092911e-38
0.0430616005931 -0.0907369441069 0.831 1.45402876502e-38
0.0445995149 -0.0907369441069 0.831 1.38995873676e-38
0.0461374292069 -0.0907369441069 0.831 1.33493002633e-38
0.0476753435138 -0.0907369441069 0.831 1.35315405299e-38
0.0514636835694 -0.0948861665811 0.869 1.56444912219e-38
0.0531940684996 -0.0951045467113 0.871 1.61011463654e-38
0.0548060099692 -0.0951045467113 0.871 1.5918202647e-38
0.0564179514389 -0.0951045467113 0.871 1.61958629312e-38
0.0578966440156 -0.0948861665811 0.869 1.59199865e-38
0.0595048841271 -0.0948861665811 0.869 1.7302541196e-38
-0.0402245095793 -0.0864082057629 0.805 1.88932671868e-38
-0.0387347129282 -0.0864082057629 0.805 1.90773081219e-38
-0.0372449162771 -0.0864082057629 0.805 1.85248546101e-38
-0.035755119626 -0.0864082057629 0.805 2.11992495449e-38
-0.0343504542122 -0.086622884535 0.807 0.0
-0.0328569562029 -0.086622884535 0.807 1.38365331406e-39
-0.0312857296728 -0.0864082057629 0.805 2.12338616169e-39
-0.0297959330217 -0.0864082057629 0.805 2.39998005778e-39
-0.028235810566 -0.0861935269909 0.803 4.51943837987e-39
-0.026749715273 -0.0861935269909 0.803 2.67152227289e-39
-0.0252321584359 -0.0860861876048 0.802 0.0
-0.023747913822 -0.0860861876048 0.802 9.86794378578e-41
-0.0222636692081 -0.0860861876048 0.802 7.40802038359e-40
-0.0207276055803 -0.0858715088327 0.8 8.38874573852e-39
-0.0192470623246 -0.0858715088327 0.8 9.22092504844e-39
-0.0177221027712 -0.0856568300607 0.798 6.36509839632e-39
-0.0162452608736 -0.0856568300607 0.798 3.31900063613e-39
-0.0147314053946 -0.0854421512886 0.796 2.75534514443e-40
-0.0132582648551 -0.0854421512886 0.796 6.45019084427e-40
-0.0117851243157 -0.0854421512886 0.796 2.11839613786e-39
-0.0102860742692 -0.0852274725165 0.794 3.22760514769e-39
-0.00881663508791 -0.0852274725165 0.794 5.99814597267e-39
-0.00734719590659 -0.0852274725165 0.794 7.19300094333e-39
-0.00586295129272 -0.0850127937444 0.792 4.14805925436e-39
-0.00438610939512 -0.0847981149723 0.79 2.76411447022e-39
-0.00292407293008 -0.0847981149723 0.79 1.57021798771e-39
-0.00146018578597 -0.0846907755863 0.789 4.65704729037e-40
0.0 -0.0846907755863 0.789 6.15730545224e-42
0.00146018578597 -0.0846907755863 0.789 5.75233019605e-42
0.00291296885566 -0.0844760968142 0.787 5.43487303545e-39
0.00435834920908 -0.0842614180421 0.785 6.26389802253e-39
0.00581113227877 -0.0842614180421 0.785 9.59009572757e-39
0.00724540855776 -0.08404673927 0.783 7.56400732345e-39
0.00869449026931 -0.08404673927 0.783 4.15129625382e-39
0.0101176624739 -0.083832060498 0.781 3.87186332705e-39
0.0115630428273 -0.083832060498 0.781 3.31868954787e-39
0.0130084231807 -0.083832060498 0.781 1.75531410056e-39
0.0144352967434 -0.0837247211119 0.78 1.6631170694e-39
0.0158788264178 -0.0837247211119 0.78 2.21410762557e-39
0.0173223560921 -0.0837247211119 0.78 0.0
0.0187899445944 -0.083832060498 0.781 1.61252122653e-38
0.0202871439617 -0.08404673927 0.783 1.28918968263e-38
0.0217362256733 -0.08404673927 0.783 1.86987571508e-38
0.0233037508453 -0.0844760968142 0.787 1.66729391973e-38
0.0248546199057 -0.0847981149723 0.79 1.50149018349e-38
0.0263166563707 -0.0847981149723 0.79 1.40915162118e-38
0.0284467879799 -0.0868375633071 0.809 1.89796698488e-38
0.0299439873473 -0.0868375633071 0.809 7.73792808105e-39
0.0314411867146 -0.0868375633071 0.809 7.83555934765e-39
0.0331012458401 -0.0872669208513 0.813 8.47952465564e-39
0.0346058479238 -0.0872669208513 0.813 1.41938334205e-38
0.0363769477935 -0.0879109571675 0.819 9.29634713568e-39
0.0380777218585 -0.0883403147117 0.823 8.37581735889e-39
0.0397933013561 -0.0887696722558 0.827 8.93648948615e-39
0.0414237496164 -0.0889843510279 0.829 1.1791333828e-38
0.0429579625652 -0.0889843510279 0.829 1.17884625675e-38
0.0445995149 -0.0891990298 0.831 1.1055932394e-38
0.0461374292069 -0.0891990298 0.831 9.86241706463e-39
0.0476753435138 -0.0891990298 0.831 1.13328555952e-38
0.0514636835694 -0.0932779264696 0.869 1.27986446174e-38
0.053071923681 -0.0932779264696 0.869 1.5460817427e-38
0.0548060099692 -0.0934926052416 0.871 1.64728085532e-38
0.0564179514389 -0.0934926052416 0.871 1.61050994284e-38
0.0580298929086 -0.0934926052416 0.871 1.61036644988e-38
-0.0388309482398 -0.0851293865258 0.807 1.92627727762e-38
-0.0373374502306 -0.0851293865258 0.807 1.86181222333e-38
-0.0358439522214 -0.0851293865258 0.807 2.1567683141e-38
-0.0343504542122 -0.0851293865258 0.807 0.0
-0.0328569562029 -0.0851293865258 0.807 1.75208971279e-39
-0.0313634581937 -0.0851293865258 0.807 2.03083740462e-39
-0.0297959330217 -0.0849184091119 0.805 5.43704644937e-39
-0.0283061363706 -0.0849184091119 0.805 6.36036901401e-39
-0.026749715273 -0.0847074316979 0.803 8.11427480961e-39
-0.0252636199801 -0.0847074316979 0.803 7.00579867888e-39
-0.0237775246871 -0.0847074316979 0.803 3.31759513377e-39
-0.0222636692081 -0.0846019429909 0.802 1.2947437291e-39
-0.0207276055803 -0.084390965577 0.8 4.20389539297e-44
-0.0192470623246 -0.084390965577 0.8 0.0
-0.0177665190688 -0.084390965577 0.8 2.21310569717e-39
-0.0162859758131 -0.084390965577 0.8 4.97750743358e-39
-0.014768418976 -0.0841799881631 0.798 8.20498085921e-39
-0.0132915770784 -0.0841799881631 0.798 6.91501555787e-39
-0.0117851243157 -0.0839690107491 0.796 7.46634662957e-39
-0.0103119837762 -0.0839690107491 0.796 3.12528093252e-39
-0.00883884323675 -0.0839690107491 0.796 1.84139446393e-39
-0.00734719590659 -0.0837580333352 0.794 2.85988481247e-39
-0.00586295129272 -0.0835470559212 0.792 8.2060794772e-39
-0.00438610939512 -0.0833360785073 0.79 4.5172201244e-39
-0.00292407293008 -0.0833360785073 0.79 2.76839263443e-39
-0.00146203646504 -0.0833360785073 0.79 6.36223974746e-39
0.0 -0.0832305898003 0.789 2.85736808043e-39
0.00146018578597 -0.0832305898003 0.789 1.20000474252e-39
0.00292037157194 -0.0832305898003 0.789 4.64224957858e-40
0.00436945328349 -0.0830196123864 0.787 1.11029221354e-39
0.00581113227877 -0.0828086349724 0.785 3.64057341032e-42
0.00726391534846 -0.0828086349724 0.785 9.79815912225e-41
0.00869449026931 -0.0825976575585 0.783 5.1633630502e-39
0.0101435719809 -0.0825976575585 0.783 7.09831800869e-39
0.0115630428273 -0.0823866801445 0.781 8.29795420972e-39
0.0130084231807 -0.0823866801445 0.781 1.48017194969e-39
0.0144538035341 -0.0823866801445 0.781 2.5836426423e-39
0.0158991838875 -0.0823866801445 0.781 2.58399576951e-39
0.017344564241 -0.0823866801445 0.781 0.0
0.0187899445944 -0.0823866801445 0.781 1.4743722556e-38
0.0202871439617 -0.0825976575585 0.783 1.29840924562e-38
0.0217362256733 -0.0825976575585 0.783 2.12802894376e-38
0.0233629725755 -0.0832305898003 0.789 1.29822945903e-38
0.0248546199057 -0.0833360785073 0.79 1.57513906765e-38
0.0268163397195 -0.0849184091119 0.805 1.70449783344e-38
0.0283061363706 -0.0849184091119 0.805 1.26214083877e-38
0.0299439873473 -0.0853403639397 0.809 8.29075153561e-39
0.0314411867146 -0.0853403639397 0.809 7.65116248273e-39
0.0331012458401 -0.0857623187676 0.813 1.06010933332e-38
0.034690979161 -0.0859732961816 0.815 1.96369629065e-38
0.0364657803888 -0.0866062284234 0.821 2.01854703618e-38
0.0380777218585 -0.0868172058373 0.823 1.81527902497e-38
0.0397933013561 -0.0872391606652 0.827 5.33982576321e-39
0.0414237496164 -0.0874501380792 0.829 1.33633664973e-38
0.0429579625652 -0.0874501380792 0.829 9.21382186652e-39
0.0445995149 -0.0876611154931 0.831 1.02319394697e-38
0.0461374292069 -0.0876611154931 0.831 1.02297688584e-38
0.0476753435138 -0.0876611154931 0.831 1.07832957647e-38
0.0514636835694 -0.091669686358 0.869 1.0227250725e-38
0.053071923681 -0.091669686358 0.869 1.49152050543e-38
0.054931856146 -0.0920916411859 0.873 1.6380254191e-38
0.0565474989738 -0.0920916411859 0.873 1.64720742728e-38
0.0581631418016 -0.0920916411859 0.873 1.62887774272e-38
-0.0389271835515 -0.0838431645724 0.809 1.92627909931e-38
-0.0374299841841 -0.0838431645724 0.809 1.88021505567e-38
-0.0359327848167 -0.0838431645724 0.809 2.17520547825e-38
-0.0344355854494 -0.0838431645724 0.809 0.0
-0.032938386082 -0.0838431645724 0.809 8.30835464692e-40
-0.0314411867146 -0.0838431645724 0.809 8.36250081958e-40
-0.0298699601845 -0.0836358885166 0.807 6.91496230853e-39
-0.0283764621753 -0.0836358885166 0.807 8.29905422901e-39
-0.026882964166 -0.0836358885166 0.807 3.59996798472e-39
-0.0253265430684 -0.0834286124608 0.805 3.8697137352e-39
-0.0238367464174 -0.0834286124608 0.805 5.25440541143e-39
-0.0222914293942 -0.083221336405 0.803 6.82716815714e-39
-0.0207794245943 -0.0831176983771 0.802 7.01042016122e-39
-0.0192951799804 -0.0831176983771 0.802 5.53272991111e-39
-0.0178109353665 -0.0831176983771 0.802 1.93610822713e-39
-0.0162859758131 -0.0829104223213 0.8 4.20389539297e-44
-0.014768418976 -0.0827031462655 0.798 5.53524103796e-40
-0.0132915770784 -0.0827031462655 0.798 1.48958026758e-42
-0.0118147351808 -0.0827031462655 0.798 5.89981685942e-39
-0.0103378932832 -0.0827031462655 0.798 7.82869999167e-39
-0.00886105138558 -0.0827031462655 0.798 9.49362613739e-39
-0.00736570269729 -0.0824958702097 0.796 8.849663632e-39
-0.00589256215783 -0.0824958702097 0.796 7.17464813734e-43
-0.00439721346954 -0.082081318098 0.792 6.5202417545e-42
-0.00293147564636 -0.082081318098 0.792 3.58872536714e-42
-0.00146573782318 -0.082081318098 0.792 6.08416748149e-39
0.0 -0.0818740420422 0.79 8.11242929953e-39
0.00146203646504 -0.0818740420422 0.79 6.82244157742e-39
0.00292037157194 -0.0817704040143 0.789 9.40252772422e-39
0.00438055735791 -0.0817704040143 0.789 1.84639569815e-39
0.00582593771132 -0.0815631279585 0.787 4.79277285573e-39
0.00728242213916 -0.0815631279585 0.787 2.48211716726e-39
0.00871669841815 -0.0813558519027 0.785 7.3832874657e-40
0.0101435719809 -0.0811485758469 0.783 3.73506296577e-40
0.0115926536924 -0.0811485758469 0.783 6.5009879136e-40
0.013041735404 -0.0811485758469 0.783 1.75496377594e-39
0.0144538035341 -0.0809412997911 0.781 2.03154085645e-39
0.0158991838875 -0.0809412997911 0.781 2.21557198247e-39
0.017344564241 -0.0809412997911 0.781 0.0
0.0187899445944 -0.0809412997911 0.781 1.40990720131e-38
0.0202871439617 -0.0811485758469 0.783 1.32617709573e-38
0.0217362256733 -0.0811485758469 0.783 1.92576986745e-38
0.0233925834406 -0.0818740420422 0.79 1.47383555829e-38
0.0248546199057 -0.0818740420422 0.79 1.70457392395e-38
0.0268163397195 -0.0834286124608 0.805 1.87051863082e-38
0.0283061363706 -0.0834286124608 0.805 5.89540837445e-39
0.0299439873473 -0.0838431645724 0.809 6.64062450298e-39
0.0315189152356 -0.0840504406282 0.811 1.62198265363e-38
0.0331012458401 -0.084257716684 0.813 1.31749198798e-38
0.0347761103982 -0.0846722687956 0.817 1.63204383647e-38
0.0364657803888 -0.0850868209072 0.821 1.73305503497e-38
0.0380777218585 -0.085294096963 0.823 1.53902088e-38
0.0397933013561 -0.0857086490746 0.827 9.30745522861e-39
0.0414237496164 -0.0859159251304 0.829 1.8798550621e-38
0.0429579625652 -0.0859159251304 0.829 1.08701020007e-38
0.0445995149 -0.0861232011862 0.831 1.31804073646e-38
0.0461374292069 -0.0861232011862 0.831 9.58510850633e-39
0.0499701855602 -0.0902687223023 0.871 1.0416291493e-38
0.0515821270299 -0.0902687223023 0.871 1.032266794e-38
0.0531940684996 -0.0902687223023 0.871 1.30792069908e-38
0.0550577023227 -0.0906832744139 0.875 1.57377588451e-38
0.0565474989738 -0.0904759983581 0.873 1.63788122549e-38
0.0581631418016 -0.0904759983581 0.873 1.59199991117e-38
-0.0390234188631 -0.0825495399027 0.811 1.84337379801e-38
-0.0375225181376 -0.0825495399027 0.811 1.8617759297e-38
-0.0360216174121 -0.0825495399027 0.811 2.13836281929e-38
-0.0345207166866 -0.0825495399027 0.811 3.96044640947e-39
-0.032938386082 -0.082345965205 0.809 0.0
-0.0314411867146 -0.082345965205 0.809 1.66241501887e-39
-0.0299439873473 -0.082345965205 0.809 3.73799167956e-40
-0.0284467879799 -0.082345965205 0.809 7.23070007592e-43
-0.026882964166 -0.0821423905073 0.807 5.2537033609e-39
-0.0253894661568 -0.0821423905073 0.807 6.26283864089e-39
-0.0238959681476 -0.0821423905073 0.807 8.11573916651e-39
-0.0223469497663 -0.0819388158097 0.805 6.82571641194e-39
-0.0208571531152 -0.0819388158097 0.805 2.48998265554e-39
-0.0193192388083 -0.081735241112 0.803 5.71320033774e-39
-0.0178331435154 -0.081735241112 0.803 5.90338876921e-39
-0.0163266907526 -0.0816334537632 0.802 6.82605412487e-39
-0.0148054325574 -0.0814298790655 0.8 3.78103956838e-39
-0.0133248893016 -0.0814298790655 0.8 2.85988481247e-39
-0.0118443460459 -0.0814298790655 0.8 7.60905066128e-43
-0.0103378932832 -0.0812263043679 0.798 1.09861799603e-42
-0.00886105138558 -0.0812263043679 0.798 0.0
-0.00738420948799 -0.0812263043679 0.798 4.61019487621e-39
-0.00589256215783 -0.0810227296702 0.796 2.58615937434e-39
-0.00440831754396 -0.0808191549725 0.794 6.36657256231e-39
-0.00293147564636 -0.0806155802749 0.792 8.5795689582e-39
-0.00146573782318 -0.0806155802749 0.792 1.20070679305e-39
0.0 -0.0804120055772 0.79 4.60332150725e-40
0.00146203646504 -0.0804120055772 0.79 9.24495451451e-40
0.00292407293008 -0.0804120055772 0.79 2.58188821662e-39
0.00438055735791 -0.0803102182284 0.789 3.74603513274e-40
0.00584074314388 -0.0803102182284 0.789 7.74447074358e-39
0.00730092892985 -0.0803102182284 0.789 9.40174579968e-39
0.00873890656699 -0.0801066435307 0.787 7.19085135149e-39
0.0101953909948 -0.0801066435307 0.787 5.53240060597e-39
0.0116222645575 -0.079903068833 0.785 2.49033578275e-39
0.013041735404 -0.0796994941354 0.783 2.49217568764e-39
0.0144908171155 -0.0796994941354 0.783 2.12372667722e-39
0.0158991838875 -0.0794959194377 0.781 1.75531410056e-39
0.017344564241 -0.0794959194377 0.781 3.96287205711e-42
0.0188380622502 -0.0796994941354 0.783 1.22537595187e-38
0.0203907819896 -0.0801066435307 0.787 1.49234643075e-38
0.0218472664175 -0.0801066435307 0.787 1.62199694687e-38
0.0234518051709 -0.0806155802749 0.792 1.88899475107e-38
0.0252321584359 -0.0816334537632 0.802 1.79677025446e-38
0.0267164030498 -0.0816334537632 0.802 1.19767578447e-38
0.0283061363706 -0.0819388158097 0.805 7.09332237967e-39
0.0300920416729 -0.0827531146003 0.813 9.31070764235e-39
0.0315966437565 -0.0827531146003 0.813 2.16541628744e-38
0.0332641055983 -0.0831602639957 0.817 1.73190120582e-38
0.0348612416354 -0.0833638386933 0.819 7.5612187395e-39
0.0364657803888 -0.083567413391 0.821 1.50265256056e-38
0.0380777218585 -0.0837709880887 0.823 6.54628208387e-39
0.0397933013561 -0.084178137484 0.827 1.41970578082e-38
0.0414237496164 -0.0843817121817 0.829 1.01343698602e-38
0.0429579625652 -0.0843817121817 0.829 1.54870735563e-38
0.044492175514 -0.0843817121817 0.829 1.04158977282e-38
0.0482472033463 -0.0884532061349 0.869 9.95353089208e-39
0.0498554434579 -0.0884532061349 0.869 1.08762074581e-38
0.0514636835694 -0.0884532061349 0.869 1.03244854242e-38
0.0533162133182 -0.0888603555303 0.873 1.15179923457e-38
0.0550577023227 -0.0890639302279 0.875 1.52832673064e-38
0.0566770465087 -0.0890639302279 0.875 1.59207081687e-38
0.0582963906946 -0.0890639302279 0.875 1.78553912753e-38
-0.0376150520911 -0.0812485125167 0.813 1.90794605163e-38
-0.0361104500074 -0.0812485125167 0.813 2.03705678759e-38
-0.0346058479238 -0.0812485125167 0.813 8.01705692605e-39
-0.0330198159611 -0.0810486391772 0.811 0.0
-0.0315189152356 -0.0810486391772 0.811 2.39962973316e-39
-0.0299439873473 -0.0808487658376 0.809 1.75496377594e-39
-0.0284467879799 -0.0808487658376 0.809 3.50273748947e-39
-0.0269495886125 -0.0808487658376 0.809 6.45013619363e-39
-0.0253894661568 -0.0806488924981 0.807 7.37565599426e-39
-0.0238959681476 -0.0806488924981 0.807 4.61159897727e-39
-0.0224024701384 -0.0806488924981 0.807 2.67261668699e-39
-0.0208571531152 -0.0804490191586 0.805 5.16185665435e-39
-0.0193673564641 -0.0804490191586 0.805 7.92956965903e-39
-0.0178331435154 -0.0802491458191 0.803 4.9846932921e-39
-0.0163470482224 -0.0802491458191 0.803 1.38907073393e-39
-0.0148424461388 -0.0801492091493 0.802 3.68852444247e-39
-0.0133582015249 -0.0801492091493 0.802 5.89981685942e-39
-0.011873956911 -0.0801492091493 0.802 8.66639200975e-39
-0.0103897122971 -0.0801492091493 0.802 6.91506039942e-39
-0.00888325953442 -0.0799493358098 0.8 4.23885078317e-39
-0.00740271627868 -0.0799493358098 0.8 8.3052717903e-40
-0.00590736759039 -0.0797494624703 0.798 1.82168800362e-44
-0.00441942161837 -0.0795495891307 0.796 5.56040835838e-40
-0.00294628107892 -0.0795495891307 0.796 5.07690433625e-42
-0.00146943918132 -0.0793497157912 0.794 5.4417674239e-39
0.0 -0.0791498424517 0.792 8.39050576939e-39
0.00146203646504 -0.0789499691122 0.79 7.10302917413e-39
0.00292407293008 -0.0789499691122 0.79 7.01077609103e-39
0.00438610939512 -0.0789499691122 0.79 4.14951240087e-39
0.00584814586016 -0.0789499691122 0.79 1.84467069974e-39
0.00730092892985 -0.0788500324424 0.789 1.75390439431e-39
0.00876111471582 -0.0788500324424 0.789 4.42755383827e-39
0.0101953909948 -0.0786501591029 0.787 6.9149903345e-39
0.0116518754226 -0.0786501591029 0.787 2.39884360472e-39
0.0130750476272 -0.0784502857634 0.785 2.30813335123e-39
0.0144908171155 -0.0782504124238 0.783 1.75531410056e-39
0.0159398988271 -0.0782504124238 0.783 2.12120574128e-39
0.0173889805386 -0.0782504124238 0.783 3.65738899189e-43
0.0188380622502 -0.0782504124238 0.783 1.00425217524e-38
0.0203907819896 -0.0786501591029 0.787 1.96282762573e-38
0.0218472664175 -0.0786501591029 0.787 1.6035578209e-38
0.0235110269011 -0.0793497157912 0.794 1.93517496235e-38
0.0252321584359 -0.0801492091493 0.802 1.93484874007e-38
0.0267164030498 -0.0801492091493 0.802 7.18370052542e-39
0.0283061363706 -0.0804490191586 0.805 5.9934642345e-39
0.0302400959984 -0.0816482591957 0.817 1.77833252979e-38
0.0317521007983 -0.0816482591957 0.817 1.90722732565e-38
0.0333455354773 -0.0818481325353 0.819 6.34464224134e-39
0.0348612416354 -0.0818481325353 0.819 1.8525891571e-38
0.0364657803888 -0.0820480058748 0.821 1.13415044093e-38
0.0380777218585 -0.0822478792143 0.823 1.29080860275e-38
0.0397933013561 -0.0826476258934 0.827 1.66827202606e-38
0.0414237496164 -0.0828474992329 0.829 1.50221227258e-38
0.0429579625652 -0.0828474992329 0.829 1.0323447062e-38
0.044492175514 -0.0828474992329 0.829 9.67942990597e-39
0.0482472033463 -0.0868449660234 0.869 1.04159411684e-38
0.0498554434579 -0.0868449660234 0.869 1.0692500032e-38
0.0514636835694 -0.0868449660234 0.869 1.14308315812e-38
0.0533162133182 -0.0872447127024 0.873 1.0415234914e-38
0.054931856146 -0.0872447127024 0.873 1.51935926124e-38
0.056871367811 -0.0877443960512 0.878 1.61036644988e-38
0.0584962640342 -0.0877443960512 0.878 1.98890859275e-38
-0.037800119998 -0.0801362543958 0.817 1.8895066454e-38
-0.0362881151981 -0.0801362543958 0.817 2.08311704772e-38
-0.034690979161 -0.0799400824144 0.815 1.11513524116e-38
-0.0331012458401 -0.0797439104331 0.813 3.36311631438e-44
-0.0315966437565 -0.0797439104331 0.813 2.40033318499e-39
-0.0300180145101 -0.0795477384517 0.811 7.4009858653e-40
-0.0285171137846 -0.0795477384517 0.811 9.31091783712e-39
-0.0269495886125 -0.0793515664703 0.809 8.11248955537e-39
-0.0254523892452 -0.0793515664703 0.809 5.4420378745e-39
-0.0239551898778 -0.0793515664703 0.809 1.29073881809e-39
-0.0224579905105 -0.0793515664703 0.809 6.54840785364e-39
-0.0209607911431 -0.0793515664703 0.809 6.46016108285e-39
-0.0194154741199 -0.0791553944889 0.807 5.2631018697e-39
-0.017877559813 -0.0789592225075 0.805 2.49214906297e-39
-0.0163470482224 -0.0787630505261 0.803 3.13500173997e-39
-0.0148609529295 -0.0787630505261 0.803 6.27356137674e-39
-0.0133748576365 -0.0787630505261 0.803 6.27472865836e-39
-0.011873956911 -0.0786649645354 0.802 3.96657709025e-39
-0.0103897122971 -0.0786649645354 0.802 6.63162116034e-39
-0.00890546768326 -0.0786649645354 0.802 6.54085485491e-39
-0.00740271627868 -0.0784687925541 0.8 8.76317689208e-39
-0.00592217302295 -0.0784687925541 0.8 7.65618753903e-39
-0.00444162976721 -0.0784687925541 0.8 1.93722225941e-39
-0.00295368379519 -0.0782726205727 0.798 1.20291383813e-39
-0.00147314053946 -0.0780764485913 0.796 5.80698083616e-42
0.0 -0.0780764485913 0.796 4.70415894474e-42
0.00146573782318 -0.0776841046285 0.792 2.81991697767e-40
0.00292407293008 -0.0774879326471 0.79 1.93976281352e-39
0.00438610939512 -0.0774879326471 0.79 7.09836004765e-39
0.00584814586016 -0.0774879326471 0.79 6.63843847737e-39
0.0073101823252 -0.0774879326471 0.79 1.66204507607e-39
0.00876111471582 -0.0773898466564 0.789 1.5723255406e-39
0.0102213005018 -0.0773898466564 0.789 1.20214032138e-39
0.0116518754226 -0.077193674675 0.787 2.30813615383e-39
0.0130750476272 -0.0769975026937 0.785 2.49144561114e-39
0.0145278306969 -0.0769975026937 0.785 2.12554135873e-39
0.0159398988271 -0.0768013307123 0.783 2.67583827216e-39
0.0173889805386 -0.0768013307123 0.783 0.0
0.0188380622502 -0.0768013307123 0.783 1.60340732144e-38
0.0203907819896 -0.077193674675 0.787 1.9813446639e-38
0.0218472664175 -0.077193674675 0.787 1.94461130621e-38
0.0233037508453 -0.077193674675 0.787 1.8245772008e-38
0.0253265430684 -0.0789592225075 0.805 1.22526006448e-38
0.0268163397195 -0.0789592225075 0.805 7.92163690842e-39
0.0283061363706 -0.0789592225075 0.805 7.83591247487e-39
0.0297959330217 -0.0789592225075 0.805 1.39154290468e-38
0.0319075578402 -0.0805285983586 0.821 1.79677333732e-38
0.0334269653564 -0.0805285983586 0.821 1.7140092869e-38
0.0349463728726 -0.0805285983586 0.821 1.62249510848e-38
0.0365546129841 -0.08072477034 0.823 4.61118839682e-39
0.0380777218585 -0.08072477034 0.823 1.69568660883e-38
0.0398895366677 -0.0813132862841 0.829 1.05935095059e-38
0.0414237496164 -0.0813132862841 0.829 1.21630268444e-38
0.0449270850953 -0.0850405539305 0.867 9.03265359327e-39
0.0465316238487 -0.0850405539305 0.867 9.58691618135e-39
0.0481361626021 -0.0850405539305 0.867 1.05999807022e-38
0.0497407013555 -0.0850405539305 0.867 1.05999807022e-38
0.0514636835694 -0.0852367259118 0.869 1.18917915137e-38
0.0533162133182 -0.0856290698746 0.873 1.16144815541e-38
0.054931856146 -0.0856290698746 0.873 1.4641835546e-38
0.0570009153459 -0.0863156718095 0.88 1.8317437214e-38
-0.037800119998 -0.0786242495959 0.817 1.84340939099e-38
-0.0362881151981 -0.0786242495959 0.817 1.96319014164e-38
-0.034690979161 -0.0784317789727 0.815 1.41005419752e-38
-0.0331826757192 -0.0784317789727 0.815 3.36311631438e-44
-0.0316743722774 -0.0784317789727 0.815 2.12338616169e-39
-0.0300920416729 -0.0782393083494 0.813 1.8468062786e-39
-0.0285874395892 -0.0782393083494 0.813 4.63874633242e-40
-0.0270162130591 -0.0780468377262 0.811 1.47766923063e-39
-0.0255153123336 -0.0780468377262 0.811 4.0584223955e-39
-0.0240144116081 -0.0780468377262 0.811 3.41305298645e-39
-0.0225135108825 -0.0780468377262 0.811 8.11721893768e-39
-0.021012610157 -0.0780468377262 0.811 6.36433188606e-39
-0.0194635917757 -0.0778543671029 0.809 3.22469465078e-39
-0.0179219761107 -0.0776618964797 0.807 4.60581581851e-39
-0.0163877631619 -0.0774694258564 0.805 7.10087818099e-39
-0.0148609529295 -0.0772769552332 0.803 6.18099580408e-39
-0.0133748576365 -0.0772769552332 0.803 6.36323887326e-39
-0.0118887623436 -0.0772769552332 0.803 2.58037901818e-39
-0.0104026670506 -0.0772769552332 0.803 6.54338840254e-39
-0.00890546768326 -0.0771807199216 0.802 9.40395704866e-39
-0.00742122306938 -0.0771807199216 0.802 2.86350016251e-39
-0.0059369784555 -0.0771807199216 0.802 3.32120768121e-39
-0.00444162976721 -0.0769882492983 0.8 3.13394796352e-39
-0.00296108651147 -0.0769882492983 0.8 8.57556124459e-39
-0.0014768418976 -0.0767957786751 0.798 1.08786513226e-38
0.0 -0.0766033080518 0.796 2.57936728069e-39
0.00146943918132 -0.0764108374286 0.794 3.68711613751e-39
0.00293887836264 -0.0764108374286 0.794 1.20146769812e-39
0.00439721346954 -0.0762183668053 0.792 5.41882116154e-42
0.00584814586016 -0.0760258961821 0.79 1.9050232233e-40
0.0073101823252 -0.0760258961821 0.79 1.11140764711e-39
0.00877221879024 -0.0760258961821 0.79 1.75496377594e-39
0.0102213005018 -0.0759296608705 0.789 2.03154085645e-39
0.0116814862878 -0.0759296608705 0.789 2.7658688959e-39
0.0131083598505 -0.0757371902472 0.787 2.5836426423e-39
0.0145278306969 -0.075544719624 0.785 2.49179873835e-39
0.0159806137666 -0.075544719624 0.785 2.21629084858e-39
0.0174333968363 -0.075544719624 0.785 0.0
0.018886179906 -0.075544719624 0.785 2.06475429252e-38
0.0206239675524 -0.0766033080518 0.796 1.87092640867e-38
0.0220971080919 -0.0766033080518 0.796 1.81560748933e-38
0.0235702486313 -0.0766033080518 0.796 1.90744144406e-38
0.0253265430684 -0.0774694258564 0.805 5.70962982925e-39
0.0268163397195 -0.0774694258564 0.805 8.39015264218e-39
0.0283061363706 -0.0774694258564 0.805 8.75715551258e-39
0.0297959330217 -0.0774694258564 0.805 5.62862216632e-39
0.0319075578402 -0.0790091908424 0.821 1.80645574919e-38
0.0334269653564 -0.0790091908424 0.821 1.56656732495e-38
0.0349463728726 -0.0790091908424 0.821 9.22102454063e-39
0.0367322781748 -0.0795866027121 0.827 1.76976401007e-38
0.0383553237189 -0.0797790733354 0.829 1.43771274635e-38
0.0400820072909 -0.0801640145819 0.833 1.57600226751e-38
0.041623622956 -0.0801640145819 0.833 8.01887160756e-39
0.0451343611511 -0.0838209564235 0.871 9.58908679267e-39
0.0465316238487 -0.083436015177 0.867 1.02315415009e-38
0.0481361626021 -0.083436015177 0.867 1.04155880412e-38
0.0497407013555 -0.083436015177 0.867 1.17074254773e-38
0.0517005704903 -0.0840134270468 0.873 1.18917887111e-38
0.0536215753646 -0.0844946036049 0.878 1.16141312294e-38
0.0552464715878 -0.0844946036049 0.878 1.44585260887e-38
0.0570009153459 -0.0846870742281 0.88 1.99823507481e-38
-0.0363769477935 -0.0773010140611 0.819 1.9447873093e-38
-0.0348612416354 -0.0773010140611 0.819 1.65894652491e-38
-0.0333455354773 -0.0773010140611 0.819 4.34402523941e-44
-0.0318298293193 -0.0773010140611 0.819 2.49287913947e-39
-0.0302400959984 -0.077112244796 0.817 2.12302322539e-39
-0.0286577653939 -0.0769234755309 0.815 1.75566162258e-39
-0.0270828375056 -0.0767347062658 0.813 1.75531410056e-39
-0.0255153123336 -0.0765459370007 0.811 1.38582112279e-39
-0.0240144116081 -0.0765459370007 0.811 2.02935763344e-39
-0.0225135108825 -0.0765459370007 0.811 3.7420554451e-40
-0.021012610157 -0.0765459370007 0.811 5.55717135893e-40
-0.0195117094315 -0.0765459370007 0.811 8.01604238596e-39
-0.0179663924084 -0.0763571677356 0.809 7.8366131241e-39
-0.0164284781015 -0.0761683984705 0.807 7.6554840872e-39
-0.0148979665109 -0.0759796292053 0.805 3.13496250361e-39
-0.0134081698598 -0.0759796292053 0.805 6.5433309493e-39
-0.0118887623436 -0.0757908599402 0.803 3.50560734872e-39
-0.0104026670506 -0.0757908599402 0.803 9.22067421601e-39
-0.00890546768326 -0.0756964753077 0.802 4.9763905987e-39
-0.00742122306938 -0.0756964753077 0.802 3.40697695631e-39
-0.0059369784555 -0.0756964753077 0.802 6.63482312733e-39
-0.00444162976721 -0.0755077060426 0.8 5.34840591371e-39
-0.00296108651147 -0.0755077060426 0.8 9.68124458748e-39
-0.00148054325574 -0.0755077060426 0.8 5.71110960043e-39
0.0 -0.0753189367775 0.798 3.22504777799e-39
0.00147314053946 -0.0751301675124 0.796 5.80404651718e-39
0.00294628107892 -0.0751301675124 0.796 7.83873889387e-39
0.00440831754396 -0.0749413982473 0.794 6.55237352829e-39
0.00586295129272 -0.0747526289822 0.792 6.45580444592e-39
0.0073101823252 -0.074563859717 0.79 4.05516017267e-39
0.00877221879024 -0.074563859717 0.79 2.58077418434e-39
0.0102213005018 -0.0744694750845 0.789 4.64224957858e-40
0.0116814862878 -0.0744694750845 0.789 1.7517169674e-39
0.0131416720737 -0.0744694750845 0.789 2.03083740462e-39
0.0146018578597 -0.0744694750845 0.789 2.67619139938e-39
0.0160213287061 -0.0742807058194 0.787 2.03082199033e-39
0.017477813134 -0.0742807058194 0.787 0.0
0.0190545917013 -0.0747526289822 0.792 1.96355209703e-38
0.0206239675524 -0.0751301675124 0.796 1.85266580812e-38
0.0220971080919 -0.0751301675124 0.796 2.01836556802e-38
0.0253894661568 -0.0761683984705 0.807 7.37173235856e-39
0.026882964166 -0.0761683984705 0.807 8.66603888254e-39
0.0283764621753 -0.0761683984705 0.807 9.49220662204e-39
0.030388150324 -0.0774897833262 0.821 7.65116808793e-39
0.0319075578402 -0.0774897833262 0.821 1.9906342918e-38
0.0334269653564 -0.0774897833262 0.821 2.75514756135e-39
0.0349463728726 -0.0774897833262 0.821 1.42878465344e-38
0.0367322781748 -0.0780560911215 0.827 1.3547368196e-38
0.0383553237189 -0.0782448603866 0.829 1.29941930155e-38
0.0400820072909 -0.0786223989168 0.833 9.86102417396e-39
0.041623622956 -0.0786223989168 0.833 9.67802300231e-39
0.0450307231232 -0.0820202456888 0.869 9.77203051109e-39
0.0463706147697 -0.081548322526 0.864 1.05074333465e-38
0.0479696014859 -0.081548322526 0.864 1.1430478454e-38
0.0495685882021 -0.081548322526 0.864 1.16155745669e-38
0.0517005704903 -0.082397784219 0.873 1.29063161875e-38
0.0536215753646 -0.0828697073817 0.878 1.25367937825e-38
0.0552464715878 -0.0828697073817 0.878 1.48280344807e-38
0.0570009153459 -0.0830584766468 0.88 1.44567114072e-38
-0.0348612416354 -0.075785307903 0.819 1.76961729412e-38
-0.0333455354773 -0.075785307903 0.819 3.78350585368e-44
-0.0319075578402 -0.07597037581 0.821 2.03259743549e-39
-0.0303141231612 -0.075785307903 0.819 2.5836426423e-39
-0.0287984170032 -0.075785307903 0.819 2.49109668782e-39
-0.0272160863986 -0.0756002399961 0.817 2.03119053183e-39
-0.0257040815987 -0.0756002399961 0.817 1.8468062786e-39
-0.0241328550685 -0.0754151720891 0.815 1.75496377594e-39
-0.0226245516267 -0.0754151720891 0.815 2.1237420915e-39
-0.021064429171 -0.0752301041821 0.813 1.75496097335e-39
-0.0195598270874 -0.0752301041821 0.813 1.1095943669e-39
-0.018010808706 -0.0750450362752 0.811 3.61535003796e-42
-0.0165099079805 -0.0750450362752 0.811 2.12663577283e-39
-0.0149719936736 -0.0748599683682 0.809 5.25335023368e-39
-0.013441482083 -0.0746749004612 0.807 9.49646236548e-39
-0.0119479840738 -0.0746749004612 0.807 5.35061576139e-39
-0.0104285765576 -0.0744898325543 0.805 8.48195590847e-39
-0.00893877990651 -0.0744898325543 0.805 3.4997933614e-39
-0.00744898325543 -0.0744898325543 0.805 6.17531494011e-39
-0.00595918660434 -0.0744898325543 0.805 9.95572672677e-39
-0.00445828587884 -0.0743047646473 0.803 7.92877932669e-39
-0.00297219058589 -0.0743047646473 0.803 3.87110242198e-39
-0.00148424461388 -0.0742122306938 0.802 2.85732323888e-39
0.0 -0.0740271627868 0.8 5.99771297144e-39
0.0014768418976 -0.0738420948799 0.798 8.11395671486e-39
0.00295368379519 -0.0738420948799 0.798 2.21308327639e-39
0.00441942161837 -0.0736570269729 0.796 4.7041897733e-39
0.00589256215783 -0.0736570269729 0.796 4.60657952618e-39
0.00736570269729 -0.0736570269729 0.796 7.74082036108e-39
0.00883884323675 -0.0736570269729 0.796 8.11354333181e-39
0.0102342552553 -0.073101823252 0.79 8.1146545615e-39
0.0116962917203 -0.073101823252 0.79 6.63552657916e-39
0.0131416720737 -0.0730092892985 0.789 2.30344881046e-39
0.0146018578597 -0.0730092892985 0.789 2.12479026275e-39
0.0160620436457 -0.0730092892985 0.789 2.21521885525e-39
0.0175222294316 -0.0730092892985 0.789 4.20389539297e-45
0.0190545917013 -0.073286891159 0.792 1.97273480587e-38
0.0205721485385 -0.0734719590659 0.794 1.99085107268e-38
0.0220415877198 -0.0734719590659 0.794 1.87074508065e-38
0.0252636199801 -0.0743047646473 0.803 8.11610490541e-39
0.0273493352916 -0.07597037581 0.821 8.1139216824e-39
0.030388150324 -0.07597037581 0.821 1.02322505579e-38
0.0319075578402 -0.07597037581 0.821 1.67771257381e-38
