# .PCD v0.7 - Point Cloud Data file format
VERSION 0.7
FIELDS x y z rgb
SIZE 4 4 4 4
TYPE F F F F
COUNT 1 1 1 1
WIDTH 839
HEIGHT 1
VIEWPOINT 0 0 0 1 0 0 0
POINTS 839
DATA ascii
0.0383756811887 -0.0191878405943 0.864 1.73990023784e-38
0.0399746679049 -0.0191878405943 0.864 9.64272709659e-39
0.0415736546211 -0.0191878405943 0.864 6.3366492349e-39
0.0433225463419 -0.0192544650409 0.867 2.34914389222e-38
0.0449270850953 -0.0192544650409 0.867 2.34961206603e-38
0.0492465700439 -0.0196986280176 0.887 2.34856781842e-38
0.0510028644811 -0.0197430443153 0.889 2.34874676423e-38
0.052648118174 -0.0197430443153 0.889 2.34896102277e-38
0.0542933718669 -0.0197430443153 0.889 2.31157872376e-38
0.0558127793831 -0.0196986280176 0.887 2.23750034162e-38
0.0574543317179 -0.0196986280176 0.887 2.03386925397e-38
0.0590958840527 -0.0196986280176 0.887 1.94924427919e-38
0.0607374363875 -0.0196986280176 0.887 2.26289130927e-38
0.062238337113 -0.0196542117199 0.885 2.21811421814e-38
0.0638761880897 -0.0196542117199 0.885 2.3485137283e-38
0.0655140390664 -0.0196542117199 0.885 2.34833408183e-38
0.067151890043 -0.0196542117199 0.885 2.34779598322e-38
0.0687897410197 -0.0196542117199 0.885 2.34880253591e-38
0.0705867503963 -0.0196986280176 0.887 2.34848065765e-38
0.0723911624893 -0.0197430443153 0.889 2.34858519452e-38
0.0740364161822 -0.0197430443153 0.889 1.96825709676e-38
0.0756816698751 -0.0197430443153 0.889 2.34769733181e-38
0.0775008874006 -0.0197874606129 0.891 2.34891604109e-38
0.0794163402377 -0.0198540850594 0.894 2.3478677297e-38
0.081070847326 -0.0198540850594 0.894 1.80363479525e-38
0.0830954902282 -0.0199429176548 0.898 1.47123334704e-38
0.0850405539305 -0.0200095421013 0.901 1.38901734445e-38
0.0869004863955 -0.020053958399 0.903 1.65609404176e-38
0.0888659075675 -0.0201205828455 0.906 1.85884777643e-38
0.0905426228046 -0.0201205828455 0.906 1.72073173602e-38
0.0922193380417 -0.0201205828455 0.906 1.7300625621e-38
0.0938960532788 -0.0201205828455 0.906 1.7118777718e-38
0.095572768516 -0.0201205828455 0.906 1.94218762039e-38
0.0974641625252 -0.0201649991431 0.908 2.07136393711e-38
0.0991445791204 -0.0201649991431 0.908 1.58273508624e-38
0.101380199437 -0.0202760398873 0.913 1.76759325861e-38
0.103295652274 -0.020320456185 0.915 1.77598493447e-38
0.105333249929 -0.0203870806315 0.918 2.34860018841e-38
0.107848322785 -0.0205425376733 0.925 1.73957934049e-38
0.109560200925 -0.0205425376733 0.925 1.43497026512e-38
0.111632961483 -0.0206091621199 0.928 1.41714280593e-38
0.113350391659 -0.0206091621199 0.928 1.62004325655e-38
0.115067821836 -0.0206091621199 0.928 1.67475120977e-38
0.116785252013 -0.0206091621199 0.928 1.1484100541e-38
-0.0140411021016 -0.0171613470131 0.843 2.34845949805e-38
-0.0124809796459 -0.0171613470131 0.843 6.79869657495e-39
-0.0108949476832 -0.0171206320735 0.841 1.23189016804e-38
-0.00929411028789 -0.0170392021945 0.837 1.09463956956e-38
-0.00774509190657 -0.0170392021945 0.837 1.12211819167e-38
-0.00619607352526 -0.0170392021945 0.837 1.11300652866e-38
-0.00464705514394 -0.0170392021945 0.837 1.11300680892e-38
-0.00309803676263 -0.0170392021945 0.837 1.10367934595e-38
-0.00155271973945 -0.017079917134 0.839 1.14966827999e-38
0.0 -0.017079917134 0.839 6.15297824259e-39
0.00155271973945 -0.017079917134 0.839 2.34763931806e-38
0.00310543947891 -0.017079917134 0.839 2.34935716984e-38
0.00466926329278 -0.0171206320735 0.841 1.71173133611e-38
0.00622568439037 -0.0171206320735 0.841 1.52446923622e-38
0.00778210548797 -0.0171206320735 0.841 2.34814280459e-38
0.00933852658556 -0.0171206320735 0.841 2.3114713843e-38
0.0109208571901 -0.0171613470131 0.843 2.34831194132e-38
0.0124809796459 -0.0171613470131 0.843 2.34824215665e-38
0.0140411021016 -0.0171613470131 0.843 2.34878053552e-38
0.0156012245573 -0.0171613470131 0.843 2.34957675331e-38
0.0175481389386 -0.0175481389386 0.862 4.68361030406e-39
0.019099007999 -0.0175074239991 0.86 1.01166392307e-38
0.0203297095803 -0.0172020619526 0.845 5.14278778485e-39
0.0218935333942 -0.0172020619526 0.845 2.34950836995e-38
0.0234573572081 -0.0172020619526 0.845 1.49125622054e-38
0.025021181022 -0.0172020619526 0.845 7.89785266959e-39
0.0265850048358 -0.0172020619526 0.845 7.90827552756e-39
0.0281488286497 -0.0172020619526 0.845 1.34277239318e-38
0.0297126524636 -0.0172020619526 0.845 1.55486606238e-38
0.0312764762774 -0.0172020619526 0.845 6.88766221185e-39
0.0341228206866 -0.0178738584549 0.878 8.0815236619e-39
0.0358291467888 -0.0179145733944 0.88 2.25568204906e-38
0.0372449162771 -0.0178127860456 0.875 2.34964962083e-38
0.0388642604631 -0.0178127860456 0.875 5.51084723429e-39
0.0401134688351 -0.0176499262875 0.867 7.71418167727e-39
0.0417180075885 -0.0176499262875 0.867 1.29667906241e-38
0.0433225463419 -0.0176499262875 0.867 2.34943227944e-38
0.0449270850953 -0.0176499262875 0.867 2.34856655725e-38
0.047229329858 -0.0179145733944 0.88 2.34852942284e-38
0.0492465700439 -0.0180570756828 0.887 2.34849256869e-38
0.0508881223787 -0.0180570756828 0.887 2.34838564962e-38
0.0525296747135 -0.0180570756828 0.887 2.13540159538e-38
0.0542933718669 -0.0180977906223 0.889 2.14439470853e-38
0.0559386255599 -0.0180977906223 0.889 2.34847967674e-38
0.0575838792528 -0.0180977906223 0.889 2.34808633227e-38
0.0590958840527 -0.0180570756828 0.887 1.84772384883e-38
0.0607374363875 -0.0180570756828 0.887 2.34712420074e-38
0.0623789887223 -0.0180570756828 0.887 2.34872868748e-38
0.0640205410571 -0.0180570756828 0.887 2.34836995507e-38
0.0656620933919 -0.0180570756828 0.887 1.71036436946e-38
0.0673036457267 -0.0180570756828 0.887 2.20616926977e-38
0.0689451980615 -0.0180570756828 0.887 2.34847911622e-38
0.0707459087963 -0.0180977906223 0.889 2.34862106776e-38
0.0723911624893 -0.0180977906223 0.889 2.14475344094e-38
0.0740364161822 -0.0180977906223 0.889 2.15232521706e-38
0.0756816698751 -0.0180977906223 0.889 2.34718627826e-38
0.077935796982 -0.0182402929107 0.896 1.70161129873e-38
0.0795940054284 -0.0182402929107 0.896 1.54358967351e-38
0.0814335804237 -0.0182810078502 0.898 1.5264781377e-38
0.0835581599956 -0.018382795199 0.903 1.70211926943e-38
0.0855124770932 -0.0184438676083 0.906 1.82212002394e-38
0.0873816629536 -0.0184845825479 0.908 1.94204468794e-38
0.0890620795488 -0.0184845825479 0.908 1.93286211924e-38
0.0907424961441 -0.0184845825479 0.908 1.628542412e-38
0.0924229127394 -0.0184845825479 0.908 1.61017475225e-38
0.0941033293346 -0.0184845825479 0.908 1.68407671092e-38
0.0957837459299 -0.0184845825479 0.908 1.60088330265e-38
0.0976788412972 -0.0185252974874 0.91 2.09873227703e-38
0.0993629592506 -0.0185252974874 0.91 1.8317319505e-38
0.101602280925 -0.0186270848362 0.915 2.23806632607e-38
0.10386010939 -0.0187288721851 0.92 2.34989919209e-38
0.106136444646 -0.0188306595339 0.925 1.75833838291e-38
0.107848322785 -0.0188306595339 0.925 1.44418492357e-38
0.109915531306 -0.0188917319432 0.928 1.4721378852e-38
0.111873549762 -0.0189324468827 0.93 1.58276885753e-38
0.113961115752 -0.018993519292 0.933 1.85938811712e-38
0.11593579032 -0.0190342342316 0.935 1.67464036706e-38
0.11766617525 -0.0190342342316 0.935 1.62764067644e-38
-0.0140411021016 -0.0156012245573 0.843 2.3483503369e-38
-0.0124809796459 -0.0156012245573 0.843 9.93437654337e-39
-0.0108949476832 -0.0155642109759 0.841 1.14891396103e-38
-0.00933852658556 -0.0155642109759 0.841 1.09460271541e-38
-0.00778210548797 -0.0155642109759 0.841 1.11307743436e-38
-0.00622568439037 -0.0155642109759 0.841 1.14995484553e-38
-0.00466926329278 -0.0155642109759 0.841 1.11307883566e-38
-0.00311284219519 -0.0155642109759 0.841 1.10389416501e-38
-0.00155642109759 -0.0155642109759 0.841 1.14076905384e-38
0.0 -0.0155642109759 0.841 6.06114274643e-39
0.00155642109759 -0.0155642109759 0.841 2.24554225337e-38
0.00312024491147 -0.0156012245573 0.843 2.34950192397e-38
0.0046803673672 -0.0156012245573 0.843 1.93321566684e-38
0.00624048982293 -0.0156012245573 0.843 1.50610213699e-38
0.00780061227866 -0.0156012245573 0.843 2.34756841235e-38
0.0093607347344 -0.0156012245573 0.843 2.3484587974e-38
0.0109726762041 -0.0156752517201 0.847 2.34863662217e-38
0.012510590511 -0.0156382381387 0.845 2.33923923441e-38
0.0140744143248 -0.0156382381387 0.845 2.34877885397e-38
0.0156382381387 -0.0156382381387 0.845 2.34881682915e-38
0.0175481389386 -0.0159528535806 0.862 5.32645877716e-39
0.0191434242967 -0.0159528535806 0.862 7.45087209063e-39
0.0207387096547 -0.0159528535806 0.862 1.33384668248e-38
0.0223339950128 -0.0159528535806 0.862 2.34932493998e-38
0.0239292803708 -0.0159528535806 0.862 2.31172501932e-38
0.0257910635149 -0.0161194146968 0.871 6.15297824259e-39
0.0274030049846 -0.0161194146968 0.871 5.51012976948e-39
0.0290815709008 -0.0161564282782 0.873 6.61215572338e-39
0.0308730282403 -0.0162489622317 0.878 8.81620763117e-39
0.0324979244634 -0.0162489622317 0.878 1.79292649277e-38
0.0341228206866 -0.0162489622317 0.878 2.34842152286e-38
0.0358291467888 -0.0162859758131 0.88 2.34896424575e-38
0.0374577443701 -0.0162859758131 0.88 2.34917724312e-38
0.0388642604631 -0.0161934418596 0.875 5.6938007618e-39
0.0403910706956 -0.0161564282782 0.873 9.92615372398e-39
0.0420067135234 -0.0161564282782 0.873 2.07905230127e-38
0.0438721980256 -0.0162489622317 0.878 2.34900306172e-38
0.0454970942488 -0.0162489622317 0.878 2.34878207695e-38
0.047229329858 -0.0162859758131 0.88 2.34856964011e-38
0.0488579274393 -0.0162859758131 0.88 2.34939416412e-38
0.0508881223787 -0.016415523348 0.887 1.75768705938e-38
0.0525296747135 -0.016415523348 0.887 2.34711943632e-38
0.0542933718669 -0.0164525369294 0.889 2.34815471563e-38
0.0559386255599 -0.0164525369294 0.889 2.32932126427e-38
0.0575838792528 -0.0164525369294 0.889 1.86756091015e-38
0.0592291329458 -0.0164525369294 0.889 2.26155727313e-38
0.0608743866387 -0.0164525369294 0.889 2.34848317999e-38
0.0625196403316 -0.0164525369294 0.889 2.3484775748e-38
0.0641648940246 -0.0164525369294 0.889 2.3478677297e-38
0.0658101477175 -0.0164525369294 0.889 1.90275255926e-38
0.0674554014104 -0.0164525369294 0.889 2.3470118166e-38
0.0691006551034 -0.0164525369294 0.889 2.34880267604e-38
0.0707459087963 -0.0164525369294 0.889 2.30148404989e-38
0.0725540222474 -0.0164895505108 0.891 1.6557294239e-38
0.0742029772985 -0.0164895505108 0.891 1.82100318906e-38
0.0758519323495 -0.0164895505108 0.891 1.58126078013e-38
0.077935796982 -0.0165820844643 0.896 1.52611940529e-38
0.0795940054284 -0.0165820844643 0.896 1.84938368686e-38
0.0818869967957 -0.0167116319991 0.903 2.02512795415e-38
0.0838357618561 -0.0167671523712 0.906 1.9790257952e-38
0.0857012463583 -0.0168041659526 0.908 1.91449193715e-38
0.0873816629536 -0.0168041659526 0.908 1.73024459077e-38
0.0890620795488 -0.0168041659526 0.908 1.54571390185e-38
0.0909423694836 -0.016841179534 0.91 1.69333312806e-38
0.0924229127394 -0.0168041659526 0.908 1.58276913779e-38
0.0941033293346 -0.0168041659526 0.908 1.5918808008e-38
0.0959947233438 -0.016841179534 0.91 1.65641970352e-38
0.0976788412972 -0.016841179534 0.91 1.44440366626e-38
0.100454859902 -0.017026247441 0.92 2.34766622299e-38
0.102157484646 -0.017026247441 0.92 2.34957409084e-38
0.104424566506 -0.0171187813945 0.925 1.68472481146e-38
0.106480670953 -0.0171743017665 0.928 1.26022694532e-38
0.108198101129 -0.0171743017665 0.928 1.50004292243e-38
0.110507748608 -0.01726683572 0.933 1.47238801698e-38
0.112475020459 -0.0173038493014 0.935 1.81311528001e-38
0.114205405389 -0.0173038493014 0.935 1.77598269239e-38
0.116307776813 -0.0173593696735 0.938 1.70208171463e-38
0.118672944664 -0.017451903627 0.943 2.04241493253e-38
0.120418135026 -0.017451903627 0.943 2.35097693074e-38
-0.0140744143248 -0.0140744143248 0.845 2.34859934763e-38
-0.012510590511 -0.0140744143248 0.845 1.37147673106e-38
-0.0109208571901 -0.0140411021016 0.843 1.03792047279e-38
-0.0093607347344 -0.0140411021016 0.843 1.11311540955e-38
-0.00780061227866 -0.0140411021016 0.843 1.08545756137e-38
-0.00624048982293 -0.0140411021016 0.843 1.14062556087e-38
-0.0046803673672 -0.0140411021016 0.843 1.14977491881e-38
-0.00312024491147 -0.0140411021016 0.843 1.1132207872e-38
-0.00156012245573 -0.0140411021016 0.843 1.15921154293e-38
0.0 -0.0140411021016 0.843 6.89017474e-39
0.00156382381387 -0.0140744143248 0.845 2.05185548028e-38
0.00312764762774 -0.0140744143248 0.845 2.34968311187e-38
0.00469147144162 -0.0140744143248 0.845 1.98860689319e-38
0.00625529525549 -0.0140744143248 0.845 1.51528568661e-38
0.00783762586006 -0.0141077265481 0.847 2.3478597423e-38
0.00940515103207 -0.0141077265481 0.847 2.34874746488e-38
0.011024495218 -0.0141743509946 0.851 2.3484212426e-38
0.0125698122412 -0.0141410387714 0.849 2.34845725597e-38
0.0141410387714 -0.0141410387714 0.849 2.34899577497e-38
0.015989867162 -0.0143908804458 0.864 2.05375620152e-38
0.0175481389386 -0.0143575682225 0.862 7.16316870032e-39
0.0191434242967 -0.0143575682225 0.862 4.86835749359e-39
0.0207387096547 -0.0143575682225 0.862 1.98695882606e-38
0.0223339950128 -0.0143575682225 0.862 2.34921101441e-38
0.0241236016732 -0.0144741610039 0.869 2.34860130945e-38
0.0257910635149 -0.0145074732272 0.871 2.32094458231e-38
0.0274030049846 -0.0145074732272 0.871 2.09085025343e-38
0.0290815709008 -0.0145407854504 0.873 2.06319226512e-38
0.0308730282403 -0.0146240660085 0.878 2.34903108769e-38
0.0324979244634 -0.0146240660085 0.878 2.34892837251e-38
0.0341228206866 -0.0146240660085 0.878 2.34914094949e-38
0.0357477169098 -0.0146240660085 0.878 2.34845767636e-38
0.0374577443701 -0.0146573782318 0.88 2.32058570977e-38
0.0390863419515 -0.0146573782318 0.88 2.02591128e-38
0.0404836046491 -0.0145740976737 0.875 2.34917289909e-38
0.042102948835 -0.0145740976737 0.875 2.34903543172e-38
0.0438721980256 -0.0146240660085 0.878 2.34802537578e-38
0.0454970942488 -0.0146240660085 0.878 2.19996936485e-38
0.047229329858 -0.0146573782318 0.88 2.01500581483e-38
0.0488579274393 -0.0146573782318 0.88 2.30084407688e-38
0.0508881223787 -0.0147739710132 0.887 1.85816212109e-38
0.0525296747135 -0.0147739710132 0.887 2.27188820593e-38
0.0542933718669 -0.0148072832364 0.889 2.34829960989e-38
0.0559386255599 -0.0148072832364 0.889 2.34862106776e-38
0.0575838792528 -0.0148072832364 0.889 1.74717031441e-38
0.0592291329458 -0.0148072832364 0.889 2.28021135829e-38
0.0608743866387 -0.0148072832364 0.889 2.34894560848e-38
0.0625196403316 -0.0148072832364 0.889 2.34876904488e-38
0.0641648940246 -0.0148072832364 0.889 2.17241409171e-38
0.0659582020431 -0.0148405954597 0.891 2.14249342677e-38
0.0676071570942 -0.0148405954597 0.891 2.3472986624e-38
0.0692561121452 -0.0148405954597 0.891 1.77558192103e-38
0.0711438047963 -0.0148905637946 0.894 1.54344646081e-38
0.0727983118846 -0.0148905637946 0.894 1.37854179765e-38
0.0744528189729 -0.0148905637946 0.894 1.63701031849e-38
0.07644785101 -0.0149571882411 0.898 2.00625316449e-38
0.0783707065634 -0.015007156576 0.901 2.28385375339e-38
0.0800381684051 -0.015007156576 0.901 1.82277022643e-38
0.082159046619 -0.0150904371341 0.906 2.19114664958e-38
0.0840208297631 -0.0151237493574 0.908 1.86865196113e-38
0.0858900156234 -0.0151570615806 0.91 1.51762038998e-38
0.0875741335768 -0.0151570615806 0.91 1.67484986118e-38
0.0895525095023 -0.0152070299155 0.913 1.69386884446e-38
0.0912421794929 -0.0152070299155 0.913 1.84127395226e-38
0.0931354241812 -0.0152403421387 0.915 1.37072297261e-38
0.0948287955299 -0.0152403421387 0.915 1.29736457762e-38
0.0965221668787 -0.0152403421387 0.915 1.35217244341e-38
0.0985375563856 -0.0152903104736 0.918 2.18232211264e-38
0.100782430097 -0.0153735910318 0.923 2.34943382087e-38
0.102490606878 -0.0153735910318 0.923 1.50948108798e-38
0.105327697892 -0.015540152148 0.933 1.46230091011e-38
0.107283865669 -0.0155734643713 0.935 1.5646186793e-38
0.109014250599 -0.0155734643713 0.935 1.49993698427e-38
0.110744635529 -0.0155734643713 0.935 1.79474649922e-38
0.112475020459 -0.0155734643713 0.935 1.92349345809e-38
0.114571839845 -0.0156234327062 0.938 1.87739466225e-38
0.116555767808 -0.0156567449294 0.94 1.70240065016e-38
0.118672944664 -0.0157067132643 0.943 2.34737573381e-38
0.120418135026 -0.0157067132643 0.943 2.35098197541e-38
-0.0141077265481 -0.0125402013761 0.847 2.28392087558e-38
-0.012510590511 -0.012510590511 0.845 1.52828160882e-38
-0.0109467666971 -0.012510590511 0.845 9.92074471191e-39
-0.00938294288323 -0.012510590511 0.845 1.03943149292e-38
-0.00781911906936 -0.012510590511 0.845 1.13141006165e-38
-0.00625529525549 -0.012510590511 0.845 1.13137180621e-38
-0.00469147144162 -0.012510590511 0.845 1.14984820672e-38
-0.00312764762774 -0.012510590511 0.845 1.07627148942e-38
-0.00156382381387 -0.012510590511 0.845 1.15920817981e-38
0.0 -0.0125402013761 0.847 6.98129137004e-39
0.00156752517201 -0.0125402013761 0.847 1.99639488966e-38
0.0031424530603 -0.0125698122412 0.849 2.34979045133e-38
0.00471367959045 -0.0125698122412 0.849 2.19158217315e-38
0.0062849061206 -0.0125698122412 0.849 1.54283633545e-38
0.00787463944145 -0.0125994231063 0.851 2.34692157298e-38
0.00948287955299 -0.012643839404 0.854 2.34835019677e-38
0.0110633594785 -0.012643839404 0.854 2.34824159614e-38
0.012643839404 -0.012643839404 0.854 2.34824594016e-38
0.0142243193295 -0.012643839404 0.854 2.34932283803e-38
0.0159528535806 -0.0127622828645 0.862 8.46429114003e-39
0.0175888538782 -0.0127918937296 0.864 4.31626831943e-39
0.0191434242967 -0.0127622828645 0.862 6.79582671569e-39
0.0207387096547 -0.0127622828645 0.862 2.3457408389e-38
0.0225153615616 -0.0128659208924 0.869 2.34871383372e-38
0.0241236016732 -0.0128659208924 0.869 2.34860397192e-38
0.0257910635149 -0.0128955317575 0.871 2.34874480241e-38
0.0274030049846 -0.0128955317575 0.871 2.34853138466e-38
0.0290815709008 -0.0129251426226 0.873 2.34885424382e-38
0.0308730282403 -0.0129991697854 0.878 2.34881991201e-38
0.0324979244634 -0.0129991697854 0.878 2.34827676873e-38
0.0341228206866 -0.0129991697854 0.878 2.34871019034e-38
0.0357477169098 -0.0129991697854 0.878 2.34867361645e-38
0.0376705724632 -0.0131028078133 0.885 2.34881766993e-38
0.0393084234398 -0.0131028078133 0.885 2.3488898368e-38
0.0409462744165 -0.0131028078133 0.885 2.22806343724e-38
0.0425841253931 -0.0131028078133 0.885 2.30151950274e-38
0.0442219763698 -0.0131028078133 0.885 2.31977898225e-38
0.0458598273464 -0.0131028078133 0.885 2.34865764165e-38
0.0474976783231 -0.0131028078133 0.885 2.34808296915e-38
0.0491355292998 -0.0131028078133 0.885 1.86637709321e-38
0.0508881223787 -0.0131324186784 0.887 2.17965810412e-38
0.0525296747135 -0.0131324186784 0.887 2.34865848243e-38
0.0542933718669 -0.0131620295435 0.889 2.34801122267e-38
0.0559386255599 -0.0131620295435 0.889 2.34829820859e-38
0.0575838792528 -0.0131620295435 0.889 1.94910078623e-38
0.0592291329458 -0.0131620295435 0.889 2.34701251725e-38
0.0608743866387 -0.0131620295435 0.889 2.34829975002e-38
0.0626602919409 -0.0131916404086 0.891 2.348656941e-38
0.064309246992 -0.0131916404086 0.891 1.81278247162e-38
0.0659582020431 -0.0131916404086 0.891 1.85748052952e-38
0.0676071570942 -0.0131916404086 0.891 1.60848436591e-38
0.069489297708 -0.0132360567063 0.894 1.52622702502e-38
0.0713029631963 -0.0132656675714 0.896 1.59151632307e-38
0.0729611716427 -0.0132656675714 0.896 2.09916429735e-38
0.0747859412054 -0.0132952784365 0.898 2.33015910062e-38
0.076873507196 -0.0133693055993 0.903 2.22824518565e-38
0.0788056161447 -0.013413721897 0.906 1.8594998006e-38
0.0806599965725 -0.0134433327621 0.908 1.59191387144e-38
0.0823404131678 -0.0134433327621 0.908 2.00607898309e-38
0.0840208297631 -0.0134433327621 0.908 1.87768150805e-38
0.0858900156234 -0.0134729436272 0.91 1.85964021071e-38
0.0875741335768 -0.0134729436272 0.91 1.87829878002e-38
0.0895525095023 -0.0135173599249 0.913 1.84170176868e-38
0.0914420528324 -0.01354697079 0.915 1.20566374624e-38
0.0931354241812 -0.01354697079 0.915 1.03867381084e-38
0.0951397096136 -0.0135913870877 0.918 1.72088812093e-38
0.0970496104135 -0.0136209979528 0.92 2.34892178641e-38
0.0990742533158 -0.0136654142505 0.923 2.34928948713e-38
0.101000810227 -0.0136950251156 0.925 1.40777624674e-38
0.103045810599 -0.0137394414132 0.928 1.53598454648e-38
0.105327697892 -0.013813468576 0.933 1.4816072997e-38
0.107283865669 -0.0138430794411 0.935 1.67503833582e-38
0.109014250599 -0.0138430794411 0.935 1.89644335306e-38
0.110744635529 -0.0138430794411 0.935 1.9790243939e-38
0.112475020459 -0.0138430794411 0.935 1.92349345809e-38
0.114571839845 -0.0138874957388 0.938 1.87725411202e-38
0.116555767808 -0.0139171066039 0.94 1.55453171257e-38
0.118295406133 -0.0139171066039 0.94 2.34936613815e-38
0.120801225594 -0.0140059391993 0.946 2.35098365697e-38
-0.0141077265481 -0.0109726762041 0.847 2.26562622348e-38
-0.0125402013761 -0.0109726762041 0.847 1.74039980075e-38
-0.0109467666971 -0.0109467666971 0.845 9.18606074265e-39
-0.00938294288323 -0.0109467666971 0.845 1.10382003632e-38
-0.00783762586006 -0.0109726762041 0.847 1.15931972317e-38
-0.00627010068805 -0.0109726762041 0.847 1.10364221154e-38
-0.00470257551603 -0.0109726762041 0.847 1.14963422844e-38
-0.00313505034402 -0.0109726762041 0.847 1.1037537549e-38
-0.00156752517201 -0.0109726762041 0.847 1.14984820672e-38
0.0 -0.0109985857111 0.849 9.101063583e-39
0.00157122653015 -0.0109985857111 0.849 1.61846525435e-38
0.003160959851 -0.0110633594785 0.854 2.34957535201e-38
0.0047414397765 -0.0110633594785 0.854 2.26533629483e-38
0.006321919702 -0.0110633594785 0.854 1.5703869843e-38
0.0079023996275 -0.0110633594785 0.854 2.34695296207e-38
0.00952729585067 -0.0111151784924 0.858 2.34842348468e-38
0.0111151784924 -0.0111151784924 0.858 2.34885326291e-38
0.0127030611342 -0.0111151784924 0.858 2.34849298908e-38
0.0143242559993 -0.0111410879994 0.86 2.34910703807e-38
0.0159528535806 -0.0111669975064 0.862 8.91952256434e-39
0.0175888538782 -0.0111929070134 0.864 1.96066388077e-38
0.0191878405943 -0.0111929070134 0.864 2.34870780813e-38
0.0207868273105 -0.0111929070134 0.864 2.34896466614e-38
0.0225153615616 -0.0112576807808 0.869 2.34831390314e-38
0.0241236016732 -0.0112576807808 0.869 2.34838677066e-38
0.0257910635149 -0.0112835902878 0.871 2.34849312921e-38
0.0274030049846 -0.0112835902878 0.871 2.34852858206e-38
0.0290815709008 -0.0113094997948 0.873 2.34856403491e-38
0.0308730282403 -0.0113742735622 0.878 2.34863788334e-38
0.0324979244634 -0.0113742735622 0.878 2.34863858399e-38
0.0342005492075 -0.0114001830692 0.88 2.34813411654e-38
0.0359105766679 -0.0114260925761 0.882 2.11728294636e-38
0.0376705724632 -0.0114649568366 0.885 1.93216861663e-38
0.0393084234398 -0.0114649568366 0.885 1.97736889989e-38
0.0409462744165 -0.0114649568366 0.885 2.34779878582e-38
0.0425841253931 -0.0114649568366 0.885 2.34858561491e-38
0.0442219763698 -0.0114649568366 0.885 2.34819058887e-38
0.0458598273464 -0.0114649568366 0.885 2.34865736139e-38
0.0474976783231 -0.0114649568366 0.885 2.348656941e-38
0.0492465700439 -0.0114908663436 0.887 1.81080944338e-38
0.0508881223787 -0.0114908663436 0.887 2.3460770104e-38
0.052648118174 -0.0115167758506 0.889 2.348656941e-38
0.0542933718669 -0.0115167758506 0.889 2.34915916637e-38
0.0559386255599 -0.0115167758506 0.889 2.15411635676e-38
0.0575838792528 -0.0115167758506 0.889 2.15199983556e-38
0.0592291329458 -0.0115167758506 0.889 2.27271329047e-38
0.0612167622666 -0.011581549618 0.894 1.84840459962e-38
0.0628712693549 -0.011581549618 0.894 1.75560052597e-38
0.0645257764432 -0.011581549618 0.894 1.85708592387e-38
0.066328337857 -0.011607459125 0.896 1.5444901479e-38
0.0679865463034 -0.011607459125 0.896 1.45301702753e-38
0.0696447547499 -0.011607459125 0.896 2.34812907187e-38
0.0717008591963 -0.0116722328924 0.901 1.81318744688e-38
0.073368321038 -0.0116722328924 0.901 2.34846089934e-38
0.0752023439961 -0.0116981423994 0.903 1.79545905949e-38
0.0771289009076 -0.0117370066599 0.906 2.20980704058e-38
0.0789795799773 -0.0117629161668 0.908 1.63833762839e-38
0.0806599965725 -0.0117629161668 0.908 1.85928315986e-38
0.0825217797166 -0.0117888256738 0.91 1.74803925958e-38
0.08420589767 -0.0117888256738 0.91 1.8682874834e-38
0.0858900156234 -0.0117888256738 0.91 1.73034996842e-38
0.0875741335768 -0.0117888256738 0.91 1.60120602169e-38
0.0897486814837 -0.0118535994412 0.915 1.10332033329e-38
0.0914420528324 -0.0118535994412 0.915 1.0478932337e-38
0.0934407862277 -0.0118924637017 0.918 2.34874732475e-38
0.0956578997532 -0.0119572374691 0.923 2.34971954563e-38
0.0975770539484 -0.0119831469761 0.925 2.10903756607e-38
0.0992889320879 -0.0119831469761 0.925 1.32476290532e-38
0.101328380423 -0.0120220112366 0.928 1.57304160411e-38
0.10360101432 -0.012086785004 0.933 1.5275218248e-38
0.105553480739 -0.012112694511 0.935 1.68421684077e-38
0.107283865669 -0.012112694511 0.935 1.86846741013e-38
0.109364028943 -0.0121515587715 0.938 1.99721366835e-38
0.11109996591 -0.0121515587715 0.938 1.91423549953e-38
0.112835902878 -0.0121515587715 0.938 1.91427263394e-38
0.114571839845 -0.0121515587715 0.938 1.8772187993e-38
0.116555767808 -0.0121774682784 0.94 1.25933011431e-38
0.118295406133 -0.0121774682784 0.94 2.35058694937e-38
-0.0141743509946 -0.00944956732974 0.851 2.33913385677e-38
-0.0125698122412 -0.0094273591809 0.849 1.77724498205e-38
-0.0109985857111 -0.0094273591809 0.849 8.26519465422e-39
-0.0094273591809 -0.0094273591809 0.849 1.14041284377e-38
-0.00785613265075 -0.0094273591809 0.849 1.11300680892e-38
-0.0062849061206 -0.0094273591809 0.849 1.10396310889e-38
-0.00471367959045 -0.0094273591809 0.849 1.11314876046e-38
-0.00314985577658 -0.00944956732974 0.851 1.1406285036e-38
-0.00157492788829 -0.00944956732974 0.851 1.17750591477e-38
0.0 -0.00944956732974 0.851 9.10141390761e-39
0.0015804799255 -0.00948287955299 0.854 1.36953705372e-38
0.003160959851 -0.00948287955299 0.854 2.34957310994e-38
0.00475254385092 -0.00950508770183 0.856 2.32065661548e-38
0.00633672513455 -0.00950508770183 0.856 1.54283633545e-38
0.00793941320889 -0.00952729585067 0.858 2.34616178895e-38
0.0095495039995 -0.0095495039995 0.86 2.34856711777e-38
0.0111410879994 -0.0095495039995 0.86 2.34856557634e-38
0.0127326719993 -0.0095495039995 0.86 2.33005470389e-38
0.0143575682225 -0.00957171214834 0.862 2.3485297031e-38
0.0159528535806 -0.00957171214834 0.862 2.34928696479e-38
0.0175888538782 -0.00959392029717 0.864 2.34907046418e-38
0.0191878405943 -0.00959392029717 0.864 2.3485658566e-38
0.0208590037943 -0.00962723252043 0.867 2.34834795469e-38
0.0226189995895 -0.00969385696694 0.873 2.34838522923e-38
0.0242346424173 -0.00969385696694 0.873 2.34824467899e-38
0.0259095069754 -0.00971606511577 0.875 2.34838480884e-38
0.0275288511614 -0.00971606511577 0.875 2.34892346797e-38
0.0292481320171 -0.00974937733903 0.878 2.34842236364e-38
0.0309433540449 -0.00977158548786 0.88 2.01590628922e-38
0.0325719516262 -0.00977158548786 0.88 1.80334780932e-38
0.0342005492075 -0.00977158548786 0.88 2.12513077828e-38
0.0360327214865 -0.00982710585995 0.885 2.34765417182e-38
0.0377557037004 -0.00984931400879 0.887 2.348656941e-38
0.0393084234398 -0.00982710585995 0.885 2.34901763522e-38
0.0409462744165 -0.00982710585995 0.885 1.94171089865e-38
0.0425841253931 -0.00982710585995 0.885 2.17144313201e-38
0.0443219130396 -0.00984931400879 0.887 2.34862106776e-38
0.0459634653743 -0.00984931400879 0.887 2.34844170156e-38
0.0476050177091 -0.00984931400879 0.887 2.24652582476e-38
0.0492465700439 -0.00984931400879 0.887 2.02238981695e-38
0.0510028644811 -0.00987152215763 0.889 2.34820306043e-38
0.0527665616345 -0.00989373030646 0.891 2.3484452048e-38
0.0545987339134 -0.00992704252972 0.894 2.02482919732e-38
0.0562532410017 -0.00992704252972 0.894 1.71976315852e-38
0.05790774809 -0.00992704252972 0.894 1.70961439452e-38
0.0596955040713 -0.00994925067855 0.896 1.66347804388e-38
0.0613537125177 -0.00994925067855 0.896 2.28132721226e-38
0.0630119209642 -0.00994925067855 0.896 2.3487010819e-38
0.0646701294106 -0.00994925067855 0.896 1.75714377597e-38
0.066328337857 -0.00994925067855 0.896 1.52644786965e-38
0.0681383019871 -0.00997145882739 0.898 1.61864097718e-38
0.0700333973545 -0.0100047710506 0.901 2.25525199056e-38
0.0722579135962 -0.0100824995716 0.908 1.55474667175e-38
0.0741011899496 -0.0101047077204 0.91 2.08015091926e-38
0.075785307903 -0.0101047077204 0.91 1.90592229639e-38
0.0774694258564 -0.0101047077204 0.91 1.3152206233e-38
0.0791535438098 -0.0101047077204 0.91 1.47202648197e-38
0.0808376617632 -0.0101047077204 0.91 1.56414770289e-38
0.0825217797166 -0.0101047077204 0.91 1.67482029378e-38
0.08420589767 -0.0101047077204 0.91 1.43511347783e-38
0.0863619387862 -0.0101602280925 0.915 1.4259613173e-38
0.0880553101349 -0.0101602280925 0.915 1.39859003465e-38
0.0907295413906 -0.0102712688367 0.925 1.63725582598e-38
0.0924414195301 -0.0102712688367 0.925 2.34925011064e-38
0.0941532976695 -0.0102712688367 0.925 2.34903977574e-38
0.0961760898927 -0.0103045810599 0.928 1.45387504258e-38
0.0978935200693 -0.0103045810599 0.928 1.42574607785e-38
0.100147647176 -0.010360101432 0.933 1.63819721829e-38
0.102092710878 -0.0103823095809 0.935 1.57351370157e-38
0.104156218041 -0.0104156218041 0.938 1.85931623051e-38
0.105892155008 -0.0104156218041 0.938 1.99761191738e-38
0.107628091976 -0.0104156218041 0.938 2.02523179037e-38
0.109597214506 -0.0104378299529 0.94 1.9142433468e-38
0.111336852831 -0.0104378299529 0.94 1.99721506965e-38
0.113076491157 -0.0104378299529 0.94 1.7300587786e-38
0.114816129482 -0.0104378299529 0.94 1.84016412387e-38
0.116555767808 -0.0104378299529 0.94 1.42481337359e-38
-0.0142243193295 -0.0079023996275 0.854 2.3480620898e-38
-0.012643839404 -0.0079023996275 0.854 1.84163548726e-38
-0.0110633594785 -0.0079023996275 0.854 7.53051068496e-39
-0.00948287955299 -0.0079023996275 0.854 1.1497030322e-38
-0.0079023996275 -0.0079023996275 0.854 1.17768766318e-38
-0.006321919702 -0.0079023996275 0.854 1.08574468743e-38
-0.0047414397765 -0.0079023996275 0.854 1.0855276263e-38
-0.003160959851 -0.0079023996275 0.854 1.12215350439e-38
-0.00158418128364 -0.00792090641819 0.856 1.13137152595e-38
0.0 -0.00792090641819 0.856 9.83897894652e-39
0.00158788264178 -0.00793941320889 0.858 1.19468933719e-38
0.00317576528356 -0.00793941320889 0.858 2.34942919658e-38
0.00476364792533 -0.00793941320889 0.858 2.34892767186e-38
0.00636633599967 -0.00795791999959 0.86 1.34079824391e-38
0.00797642679028 -0.00797642679028 0.862 2.34584005083e-38
0.00957171214834 -0.00797642679028 0.862 2.3488912381e-38
0.0111929070134 -0.00799493358098 0.864 2.34834865534e-38
0.0127918937296 -0.00799493358098 0.864 2.34859990815e-38
0.0143908804458 -0.00799493358098 0.864 2.33005372298e-38
0.0161194146968 -0.00805970734842 0.871 2.34846005857e-38
0.0177313561665 -0.00805970734842 0.871 2.34824201652e-38
0.0193432976362 -0.00805970734842 0.871 2.29288778446e-38
0.0210514744175 -0.00809672092981 0.875 2.34863942477e-38
0.0226708186035 -0.00809672092981 0.875 2.34856501582e-38
0.0242901627894 -0.00809672092981 0.875 2.34820768471e-38
0.0259095069754 -0.00809672092981 0.875 2.3492114348e-38
0.0276232357939 -0.00812448111586 0.878 1.693262923e-38
0.0293147564636 -0.00814298790655 0.88 2.18048360905e-38
0.0309433540449 -0.00814298790655 0.88 2.34790388321e-38
0.0325719516262 -0.00814298790655 0.88 2.34876456072e-38
0.0342782777284 -0.00816149469725 0.882 2.34783185646e-38
0.0360327214865 -0.00818925488329 0.885 2.34804709591e-38
0.0377557037004 -0.00820776167399 0.887 2.34822646211e-38
0.0393972560352 -0.00820776167399 0.887 2.34840989208e-38
0.04103880837 -0.00820776167399 0.887 1.52565305317e-38
0.0426803607048 -0.00820776167399 0.887 2.34557758762e-38
0.0443219130396 -0.00820776167399 0.887 2.34865792191e-38
0.0459634653743 -0.00820776167399 0.887 2.34876456072e-38
0.0477123570952 -0.00822626846469 0.889 1.8860356291e-38
0.0493576107881 -0.00822626846469 0.889 2.29915439119e-38
0.0511176065834 -0.00824477525538 0.891 2.07874849976e-38
0.0529442268251 -0.00827253544143 0.894 1.55334719498e-38
0.0545987339134 -0.00827253544143 0.894 1.65468909992e-38
0.0562532410017 -0.00827253544143 0.894 1.82906892289e-38
0.0580372956249 -0.00829104223213 0.896 2.31074312949e-38
0.0598287529643 -0.00830954902282 0.898 2.06206562115e-38
0.0614906627689 -0.00830954902282 0.898 2.34791215087e-38
0.0631525725735 -0.00830954902282 0.898 2.02439871843e-38
0.064814482378 -0.00830954902282 0.898 1.64643825456e-38
0.0668465279965 -0.00835581599956 0.903 1.84913061236e-38
0.068745324722 -0.00838357618561 0.906 1.66542472771e-38
0.0709661396056 -0.00844834995305 0.913 2.27362777784e-38
0.0726558095962 -0.00844834995305 0.913 1.76741052929e-38
0.0743454795868 -0.00844834995305 0.913 2.09002460837e-38
0.075785307903 -0.008420589767 0.91 2.16370656319e-38
0.0774694258564 -0.008420589767 0.91 1.77716833102e-38
0.0794144895587 -0.00844834995305 0.913 1.64801849884e-38
0.0811041595493 -0.00844834995305 0.913 1.28835394823e-38
0.0827938295399 -0.00844834995305 0.913 1.36164409999e-38
0.0855939069723 -0.00855939069723 0.925 1.29681975277e-38
0.0873057851117 -0.00855939069723 0.925 1.73888611814e-38
0.0890176632512 -0.00855939069723 0.925 2.22849531742e-38
0.0907295413906 -0.00855939069723 0.925 2.35004086336e-38
0.0924414195301 -0.00855939069723 0.925 2.30257846399e-38
0.094458659716 -0.00858715088327 0.928 1.33394645494e-38
0.0963833659485 -0.00860565767397 0.93 1.63815209648e-38
0.0981044974833 -0.00860565767397 0.93 1.48192525433e-38
0.100147647176 -0.00863341786002 0.933 1.72084706288e-38
0.102420281074 -0.00867968483676 0.938 2.07132918491e-38
0.104711421762 -0.0087259518135 0.943 2.07143876645e-38
0.106795286394 -0.00875371199954 0.946 1.96069288765e-38
0.108546028794 -0.00875371199954 0.946 1.99753708804e-38
0.10994699285 -0.0087259518135 0.943 1.89587470614e-38
0.111692183213 -0.0087259518135 0.943 1.81304101119e-38
0.113437373575 -0.0087259518135 0.943 1.83129460524e-38
0.115548998394 -0.00875371199954 0.946 1.65605872903e-38
-0.0142576315527 -0.00633672513455 0.856 2.2098799081e-38
-0.0126734502691 -0.00633672513455 0.856 1.90631732243e-38
-0.0110892689855 -0.00633672513455 0.856 7.62234618111e-39
-0.00950508770183 -0.00633672513455 0.856 1.14091380797e-38
-0.0079023996275 -0.006321919702 0.854 1.094854809e-38
-0.006321919702 -0.006321919702 0.854 1.10389262358e-38
-0.00475254385092 -0.00633672513455 0.856 1.1038222784e-38
-0.00316836256728 -0.00633672513455 0.856 1.14048318895e-38
-0.00158788264178 -0.00635153056711 0.858 1.28814165151e-38
0.0 -0.00636633599967 0.86 9.47448159777e-39
0.00159158399992 -0.00636633599967 0.86 8.54070114269e-39
0.00319057071611 -0.00638114143223 0.862 2.34982632457e-38
0.00478585607417 -0.00638114143223 0.862 2.34885704642e-38
0.00639594686478 -0.00639594686478 0.864 1.28569694621e-38
0.00802269376702 -0.00641815501362 0.867 2.34555096295e-38
0.00962723252043 -0.00641815501362 0.867 2.34889277953e-38
0.0112317712738 -0.00641815501362 0.867 2.34853138466e-38
0.0128363100272 -0.00641815501362 0.867 2.34834865534e-38
0.0144741610039 -0.00643296044618 0.869 2.3484573961e-38
0.0161564282782 -0.00646257131129 0.873 2.34856417504e-38
0.0177720711061 -0.00646257131129 0.873 2.34842026169e-38
0.0194321302315 -0.00647737674385 0.875 2.34863690243e-38
0.0211236509012 -0.00649958489268 0.878 2.34867361645e-38
0.0227485471244 -0.00649958489268 0.878 2.34889151836e-38
0.0243734433476 -0.00649958489268 0.878 2.34871439424e-38
0.026057561301 -0.00651439032524 0.88 2.3485658566e-38
0.0277490819706 -0.0065291957578 0.882 1.67391715692e-38
0.0293813809101 -0.0065291957578 0.882 2.34845137052e-38
0.0310136798495 -0.0065291957578 0.882 2.34833408183e-38
0.0327570195332 -0.00655140390664 0.885 2.21832945759e-38
0.0343948705098 -0.00655140390664 0.885 1.86565962839e-38
0.0361141513656 -0.00656620933919 0.887 2.34790724632e-38
0.0377557037004 -0.00656620933919 0.887 2.348656941e-38
0.0393972560352 -0.00656620933919 0.887 2.34837023533e-38
0.04103880837 -0.00656620933919 0.887 1.93123591237e-38
0.0427765960164 -0.00658101477175 0.889 2.34791957775e-38
0.0444218497093 -0.00658101477175 0.889 2.19070706226e-38
0.0460671034023 -0.00658101477175 0.889 1.66365741009e-38
0.0478196964812 -0.00659582020431 0.891 1.93783658866e-38
0.0496352126486 -0.00661802835314 0.894 2.25370159394e-38
0.0514044618392 -0.0066328337857 0.896 1.47880260083e-38
0.0530626702856 -0.0066328337857 0.896 2.19957279738e-38
0.054720878732 -0.0066328337857 0.896 2.34880379708e-38
0.0563790871785 -0.0066328337857 0.896 2.23684145108e-38
0.0581668431598 -0.00664763921826 0.898 2.09012550186e-38
0.0598287529643 -0.00664763921826 0.898 1.6194974508e-38
0.0618330383968 -0.00668465279965 0.903 1.71980085345e-38
0.0637151790106 -0.00670686094849 0.906 1.76593201928e-38
0.0653918942478 -0.00670686094849 0.906 2.14508134478e-38
0.0672166638105 -0.00672166638105 0.908 2.01619327515e-38
0.069276469615 -0.00675867996244 0.913 2.21001905704e-38
0.0711215966475 -0.006773485395 0.915 1.84995821923e-38
0.0728149679962 -0.006773485395 0.915 1.70280450438e-38
0.074508339345 -0.006773485395 0.915 2.08963182441e-38
0.0762017106937 -0.006773485395 0.915 2.18236289042e-38
0.0778950820425 -0.006773485395 0.915 1.41721132943e-38
0.0795884533912 -0.006773485395 0.915 9.37044919978e-39
0.081548322526 -0.00679569354383 0.918 1.59091236343e-38
0.083700662284 -0.00683270712523 0.923 1.93275856328e-38
0.0855939069723 -0.00684751255778 0.925 2.2558357715e-38
0.0873057851117 -0.00684751255778 0.925 2.34968381251e-38
0.089306369186 -0.00686972070662 0.928 2.34964541694e-38
0.0910237993627 -0.00686972070662 0.928 1.90602711352e-38
0.0927412295394 -0.00686972070662 0.928 1.45358371263e-38
0.0946622344137 -0.00688452613918 0.93 1.65656067414e-38
0.0966942800322 -0.00690673428801 0.933 1.64752061749e-38
0.0984209636042 -0.00690673428801 0.933 1.83176544153e-38
0.100362325948 -0.00692153972057 0.935 2.24675073317e-38
0.102420281074 -0.00694374786941 0.938 2.10806170182e-38
0.105044543995 -0.00700296959964 0.946 2.0158709765e-38
0.107021069241 -0.00701777503219 0.948 1.89604832702e-38
0.108775512999 -0.00701777503219 0.948 1.89594238886e-38
0.110296771194 -0.00700296959964 0.946 1.80353418202e-38
0.112047513594 -0.00700296959964 0.946 1.79431461903e-38
0.115001197389 -0.00707699676242 0.956 1.78523924966e-38
-0.014290943776 -0.00476364792533 0.858 1.83212991926e-38
-0.0127030611342 -0.00476364792533 0.858 2.02610101581e-38
-0.0111151784924 -0.00476364792533 0.858 6.7961854481e-39
-0.00952729585067 -0.00476364792533 0.858 1.11307491203e-38
-0.00793941320889 -0.00476364792533 0.858 1.05794278577e-38
-0.00635153056711 -0.00476364792533 0.858 1.13130272219e-38
-0.00476364792533 -0.00476364792533 0.858 1.11311568981e-38
-0.00318316799983 -0.00477475199975 0.86 1.0854525167e-38
-0.00159158399992 -0.00477475199975 0.86 1.14991981307e-38
0.0 -0.00478585607417 0.862 1.1406299049e-38
0.00159528535806 -0.00478585607417 0.862 8.26519465422e-39
0.00319797343239 -0.00479696014859 0.864 2.34971814433e-38
0.00479696014859 -0.00479696014859 0.864 2.34910773872e-38
0.00641815501362 -0.00481361626021 0.867 1.12039305313e-38
0.00804120055772 -0.00482472033463 0.869 1.63467183161e-38
0.00964944066926 -0.00482472033463 0.869 2.34808759343e-38
0.0112576807808 -0.00482472033463 0.869 2.34834921586e-38
0.0128659208924 -0.00482472033463 0.869 2.34824201652e-38
0.0145740976737 -0.00485803255789 0.875 2.34859990815e-38
0.0162489622317 -0.00487468866951 0.878 2.34852816167e-38
0.0178738584549 -0.00487468866951 0.878 2.34805872669e-38
0.0195431709757 -0.00488579274393 0.88 2.2834514406e-38
0.021171768557 -0.00488579274393 0.88 2.02512192857e-38
0.0228003661383 -0.00488579274393 0.88 1.58126680571e-38
0.0244289637197 -0.00488579274393 0.88 1.64521856437e-38
0.0261167830312 -0.00489689681835 0.882 1.74591475098e-38
0.0278434666032 -0.00491355292998 0.885 2.29811532838e-38
0.0294813175799 -0.00491355292998 0.885 2.34840961182e-38
0.0311191685565 -0.00491355292998 0.885 2.34858953854e-38
0.0327570195332 -0.00491355292998 0.885 1.89564965761e-38
0.0344725990308 -0.00492465700439 0.887 2.32577205552e-38
0.0361141513656 -0.00492465700439 0.887 2.34891015563e-38
0.0378408349376 -0.00493576107881 0.889 2.34869295437e-38
0.0394860886305 -0.00493576107881 0.889 1.94185439161e-38
0.0411313423234 -0.00493576107881 0.889 1.90393637621e-38
0.042872831328 -0.00494686515323 0.891 1.78394276832e-38
0.0445217863791 -0.00494686515323 0.891 1.99577187236e-38
0.0461707414302 -0.00494686515323 0.891 2.34672020639e-38
0.0480880449463 -0.00497462533928 0.896 2.34740361965e-38
0.0497462533928 -0.00497462533928 0.896 2.34863311893e-38
0.0514044618392 -0.00497462533928 0.896 2.0894369038e-38
0.0531811137461 -0.00498572941369 0.898 2.34802187254e-38
0.0548430235506 -0.00498572941369 0.898 1.6926788618e-38
0.0565049333552 -0.00498572941369 0.898 1.71980183436e-38
0.0583611644621 -0.00500238552532 0.901 1.59155808176e-38
0.0603617485364 -0.00503014571137 0.906 1.79441649343e-38
0.0620384637735 -0.00503014571137 0.906 1.79431461903e-38
0.0638558306199 -0.00504124978578 0.908 2.15365827229e-38
0.0656806001826 -0.0050523538602 0.91 2.02566773432e-38
0.06773485395 -0.00508011404625 0.915 1.77594639876e-38
0.0696558588243 -0.00509677015787 0.918 2.1171084847e-38
0.0713547822102 -0.00509677015787 0.918 1.73935877612e-38
0.0730537055962 -0.00509677015787 0.918 2.13594193606e-38
0.0747526289822 -0.00509677015787 0.918 2.21924044172e-38
0.0764515523681 -0.00509677015787 0.918 1.13140613802e-38
0.0785761319401 -0.00512453034392 0.923 1.2869166364e-38
0.0802843087214 -0.00512453034392 0.923 2.1180075578e-38
0.0819924855027 -0.00512453034392 0.923 2.34961206603e-38
0.0838820288328 -0.00513563441834 0.925 2.34885760694e-38
0.0858715088327 -0.00515229052996 0.928 2.19165041638e-38
0.0877777082745 -0.00516339460438 0.93 1.70262724012e-38
0.0894988398093 -0.00516339460438 0.93 1.51790443318e-38
0.0912199713441 -0.00516339460438 0.93 1.55524861686e-38
0.0929411028789 -0.00516339460438 0.93 1.61078810059e-38
0.0949675964602 -0.00518005071601 0.933 1.65649215065e-38
0.0966942800322 -0.00518005071601 0.933 2.06193207741e-38
0.0984209636042 -0.00518005071601 0.933 2.24646654984e-38
0.100362325948 -0.00519115479043 0.935 2.02515724129e-38
0.103512181725 -0.00526333127414 0.948 1.96951784499e-38
0.105266625483 -0.00526333127414 0.948 2.01543797527e-38
0.107359743511 -0.00527998738577 0.951 2.03412639224e-38
0.109463965613 -0.0052966434974 0.954 1.85002057701e-38
0.111229513445 -0.0052966434974 0.954 1.7760517764e-38
0.112995061278 -0.0052966434974 0.954 1.7577571243e-38
0.115001197389 -0.00530774757182 0.956 1.6195002534e-38
-0.0127326719993 -0.00318316799983 0.86 2.07205183453e-38
-0.0111410879994 -0.00318316799983 0.86 6.70578488157e-39
-0.0095495039995 -0.00318316799983 0.86 1.14055381439e-38
-0.00795791999959 -0.00318316799983 0.86 1.12233343111e-38
-0.00636633599967 -0.00318316799983 0.86 1.12211847193e-38
-0.00477475199975 -0.00318316799983 0.86 1.13133803491e-38
-0.00319057071611 -0.00319057071611 0.862 1.13148054697e-38
-0.00159528535806 -0.00319057071611 0.862 1.1408815781e-38
0.0 -0.00319057071611 0.862 1.17743556958e-38
0.0015989867162 -0.00319797343239 0.864 7.16316870032e-39
0.00320907750681 -0.00320907750681 0.867 2.34913898767e-38
0.00481361626021 -0.00320907750681 0.867 2.34953919851e-38
0.00644776587873 -0.00322388293937 0.871 2.34871201203e-38
0.00804120055772 -0.00321648022309 0.869 1.785343226e-38
0.00964944066926 -0.00321648022309 0.869 1.5902248864e-38
0.0112835902878 -0.00322388293937 0.871 1.66233010018e-38
0.0129547534877 -0.00323868837192 0.875 1.64424998688e-38
0.0146240660085 -0.00324979244634 0.878 1.81988537328e-38
0.0162859758131 -0.00325719516262 0.88 1.73708993377e-38
0.0179145733944 -0.00325719516262 0.88 2.04187613327e-38
0.0195431709757 -0.00325719516262 0.88 2.29130908161e-38
0.0212198862128 -0.0032645978789 0.882 2.34856137244e-38
0.0228521851523 -0.0032645978789 0.882 2.34910857949e-38
0.0245677646499 -0.00327570195332 0.885 2.3487813763e-38
0.0262056156265 -0.00327570195332 0.885 1.97009546021e-38
0.0278434666032 -0.00327570195332 0.885 2.31852538064e-38
0.0295479420264 -0.0032831046696 0.887 2.34891449966e-38
0.0311894943612 -0.0032831046696 0.887 2.34919658104e-38
0.032831046696 -0.0032831046696 0.887 1.81274659838e-38
0.0345503275517 -0.00329050738588 0.889 2.3462216244e-38
0.0361955812446 -0.00329050738588 0.889 1.94138803948e-38
0.0378408349376 -0.00329050738588 0.889 1.65504783232e-38
0.0394860886305 -0.00329050738588 0.889 1.4887394885e-38
0.0412238762769 -0.00329791010215 0.891 1.47033651603e-38
0.0430171842954 -0.00330901417657 0.894 2.3488780659e-38
0.0447716280535 -0.00331641689285 0.896 1.92330792618e-38
0.0464298364999 -0.00331641689285 0.896 2.10687129877e-38
0.0480880449463 -0.00331641689285 0.896 2.34715811216e-38
0.0498572941369 -0.00332381960913 0.898 1.86806313552e-38
0.0515192039415 -0.00332381960913 0.898 1.48052549729e-38
0.0531811137461 -0.00332381960913 0.898 1.74774428626e-38
0.0550262407785 -0.00333492368355 0.901 1.60992167775e-38
0.0566937026203 -0.00333492368355 0.901 1.92313066192e-38
0.0586850332993 -0.00335343047424 0.906 1.79430859345e-38
0.0604949974294 -0.00336083319052 0.908 1.95129157625e-38
0.0623123642758 -0.0033682359068 0.91 1.97009167671e-38
0.0642074596432 -0.00337933998122 0.913 2.01626334007e-38
0.0660414826012 -0.0033867426975 0.915 1.88715470606e-38
0.0679569354383 -0.00339784677192 0.918 1.78438039383e-38
0.069807614508 -0.00340524948819 0.92 2.190435911e-38
0.0715102392521 -0.00340524948819 0.92 1.87789800866e-38
0.0732128639962 -0.00340524948819 0.92 1.86836077131e-38
0.0749154887403 -0.00340524948819 0.92 1.462731389e-38
0.0766181134844 -0.00340524948819 0.92 1.68414649558e-38
0.0787463944145 -0.00342375627889 0.925 2.34909849015e-38
0.0804582725539 -0.00342375627889 0.925 2.26584454578e-38
0.0821701506934 -0.00342375627889 0.925 1.42639585995e-38
0.0841540786561 -0.00343486035331 0.928 1.44404185099e-38
0.0860565767397 -0.00344226306959 0.93 1.33362359577e-38
0.0877777082745 -0.00344226306959 0.93 1.46309208323e-38
0.0894988398093 -0.00344226306959 0.93 1.60164140512e-38
0.0912199713441 -0.00344226306959 0.93 1.73971022177e-38
0.0932409128882 -0.00345336714401 0.933 1.76744682292e-38
0.0949675964602 -0.00345336714401 0.933 2.23720915179e-38
0.0966942800322 -0.00345336714401 0.933 2.11721386235e-38
0.0984209636042 -0.00345336714401 0.933 2.09844655227e-38
0.102401774283 -0.00353109566493 0.954 2.03412499094e-38
0.104167322116 -0.00353109566493 0.954 2.01586354962e-38
0.106154951436 -0.00353849838121 0.956 1.92313066192e-38
0.107924200627 -0.00353849838121 0.956 1.83083315766e-38
0.109693449818 -0.00353849838121 0.956 1.73002752964e-38
0.111462699008 -0.00353849838121 0.956 1.63779882914e-38
0.113231948199 -0.00353849838121 0.956 1.65637920599e-38
0.115362079808 -0.00354960245563 0.959 1.59184576834e-38
-0.0128659208924 -0.00160824011154 0.869 2.09967577129e-38
-0.0112317712738 -0.0016045387534 0.867 7.8149854836e-39
-0.00962723252043 -0.0016045387534 0.867 1.20501914895e-38
-0.00799493358098 -0.0015989867162 0.864 1.13158592461e-38
-0.00639594686478 -0.0015989867162 0.864 1.10389416501e-38
-0.00481361626021 -0.0016045387534 0.867 1.1406285036e-38
-0.00320907750681 -0.0016045387534 0.867 1.10382199814e-38
-0.0016045387534 -0.0016045387534 0.867 1.10378724594e-38
0.0 -0.00160824011154 0.869 1.14070053034e-38
0.00161194146968 -0.00161194146968 0.871 9.47017680889e-39
0.00323128565565 -0.00161564282782 0.873 9.64272709659e-39
0.00485803255789 -0.00161934418596 0.875 1.90530838753e-38
0.00649958489268 -0.00162489622317 0.878 2.16435522425e-38
0.00809672092981 -0.00161934418596 0.875 2.34921157493e-38
0.00971606511577 -0.00161934418596 0.875 2.34914122975e-38
0.0113742735622 -0.00162489622317 0.878 2.34910703807e-38
0.0129991697854 -0.00162489622317 0.878 2.34906990366e-38
0.0146573782318 -0.00162859758131 0.88 2.27516948641e-38
0.0163229893945 -0.00163229893945 0.882 2.25658756813e-38
0.0179552883339 -0.00163229893945 0.882 2.03524196595e-38
0.0196542117199 -0.00163785097666 0.885 1.62905192412e-38
0.0212920626966 -0.00163785097666 0.885 1.38862105725e-38
0.0229299136732 -0.00163785097666 0.885 9.55089160043e-39
0.0245677646499 -0.00163785097666 0.885 8.81620763117e-39
0.0262056156265 -0.00163785097666 0.885 2.17030317571e-38
