# .PCD v0.7 - Point Cloud Data file format
VERSION 0.7
FIELDS x y z rgb
SIZE 4 4 4 4
TYPE F F F F
COUNT 1 1 1 1
WIDTH 856
HEIGHT 1
VIEWPOINT 0 0 0 1 0 0 0
POINTS 856
DATA ascii
0.0151570615806 -0.162180558912 0.819 2.20405190779e-39
0.0166727677387 -0.162180558912 0.819 2.75506488474e-39
0.0181884738967 -0.162180558912 0.819 3.21424236553e-39
0.0197041800548 -0.162180558912 0.819 3.30607786169e-39
0.0212198862128 -0.162180558912 0.819 3.94892633479e-39
0.022791112743 -0.162576604233 0.821 3.67341984632e-39
0.0243105202592 -0.162576604233 0.821 4.77544580022e-39
0.0258299277754 -0.162576604233 0.821 5.05095228869e-39
0.0274159597381 -0.162972649554 0.823 3.58158435016e-39
0.0289390686124 -0.162972649554 0.823 2.93873587706e-39
0.0305362046496 -0.163368694875 0.825 2.93873587706e-39
0.0320630148821 -0.163368694875 0.825 2.75506488474e-39
0.0335083952355 -0.162972649554 0.823 2.11221641163e-39
0.0350315041098 -0.162972649554 0.823 1.83670992316e-39
0.0365546129841 -0.162972649554 0.823 2.47955839627e-39
0.0382627897654 -0.163764740196 0.827 2.75506488474e-39
0.0397933013561 -0.163764740196 0.827 3.30607786169e-39
0.0413238129467 -0.163764740196 0.827 3.30607786169e-39
0.0428543245373 -0.163764740196 0.827 3.489748854e-39
0.0443848361279 -0.163764740196 0.827 3.489748854e-39
0.0459153477185 -0.163764740196 0.827 2.93873587706e-39
0.0473311172068 -0.163368694875 0.825 2.75506488474e-39
0.0488579274393 -0.163368694875 0.825 4.49993931174e-39
0.0502625928532 -0.162972649554 0.823 4.77544580022e-39
0.0517857017275 -0.162972649554 0.823 1.27092025391e-38
-0.0397988533933 -0.183420802595 0.935 1.49140265623e-38
-0.0380684684631 -0.183420802595 0.935 1.60218034451e-38
-0.036338083533 -0.183420802595 0.935 1.65782240328e-38
-0.0139411654318 -0.164195948419 0.837 8.83527369807e-39
-0.0123033144552 -0.163018916531 0.831 8.92600777364e-39
-0.0107654001483 -0.163018916531 0.831 1.00323371151e-38
-0.00918306954371 -0.162234228606 0.827 9.6664412705e-39
-0.00763405116239 -0.161841884643 0.825 9.47952627224e-39
-0.00609243549736 -0.16144954068 0.823 9.75036783813e-39
-0.00456932662302 -0.16144954068 0.823 1.41775405232e-38
-0.00303141231612 -0.160664852754 0.819 8.64548743926e-39
-0.00151200479992 -0.160272508792 0.817 5.41829427332e-39
0.0 -0.160272508792 0.817 4.49993931174e-39
0.00151200479992 -0.160272508792 0.817 2.47955839627e-39
0.00302400959984 -0.160272508792 0.817 1.83670992316e-39
0.00453601439976 -0.160272508792 0.817 3.03057137321e-39
0.00604801919968 -0.160272508792 0.817 3.94892633479e-39
0.00756002399961 -0.160272508792 0.817 4.22443282327e-39
0.00907202879953 -0.160272508792 0.817 4.86728129637e-39
0.0105840335994 -0.160272508792 0.817 3.76525534248e-39
0.0121256492645 -0.160664852754 0.819 5.05095228869e-39
0.0136413554225 -0.160664852754 0.819 6.70399121953e-39
0.0151200479992 -0.160272508792 0.817 6.3366492349e-39
0.0166320527991 -0.160272508792 0.817 6.15297824259e-39
0.0181440575991 -0.160272508792 0.817 6.06114274643e-39
0.019656062399 -0.160272508792 0.817 6.15297824259e-39
0.0212198862128 -0.160664852754 0.819 6.42848473106e-39
0.0227355923709 -0.160664852754 0.819 7.25500419648e-39
0.024251298529 -0.160664852754 0.819 7.4386751888e-39
0.025767004687 -0.160664852754 0.819 8.72652452945e-39
0.0273493352916 -0.161057196717 0.821 8.17838141176e-39
0.0288687428078 -0.161057196717 0.821 9.56272976986e-39
0.030388150324 -0.161057196717 0.821 8.08833957763e-39
0.0319852863611 -0.16144954068 0.823 7.4386751888e-39
0.0334269653564 -0.161057196717 0.821 9.4655132876e-39
0.0349463728726 -0.161057196717 0.821 1.08530902374e-38
0.0364657803888 -0.161057196717 0.821 1.05754313544e-38
0.038170255812 -0.161841884643 0.825 1.02952613447e-38
0.0396970660444 -0.161841884643 0.825 1.27820070008e-38
0.0412238762769 -0.161841884643 0.825 1.30636175454e-38
0.0427506865094 -0.161841884643 0.825 1.14955827807e-38
0.0442774967419 -0.161841884643 0.825 1.25089990275e-38
0.0458043069744 -0.161841884643 0.825 1.11243045486e-38
0.0473311172068 -0.161841884643 0.825 1.09377805126e-38
0.0487394839789 -0.16144954068 0.823 1.21341614973e-38
0.0502625928532 -0.16144954068 0.823 1.00215891559e-38
0.0517857017275 -0.16144954068 0.823 8.91740940626e-39
0.0533088106019 -0.16144954068 0.823 1.10479435914e-38
-0.0397988533933 -0.181690417665 0.935 1.59307050319e-38
-0.0380684684631 -0.181690417665 0.935 1.82337754918e-38
-0.036338083533 -0.181690417665 0.935 1.56541153397e-38
-0.0139078532086 -0.162258287433 0.835 8.28280056812e-39
-0.0123033144552 -0.161481002224 0.831 9.29588190459e-39
-0.0107394906413 -0.16109235962 0.829 9.66609094588e-39
-0.00916086139487 -0.16031507441 0.825 9.6664412705e-39
-0.0076155443717 -0.159926431806 0.823 9.6664412705e-39
-0.00609243549736 -0.159926431806 0.823 7.62844883593e-39
-0.00454711847418 -0.159149146596 0.819 1.40846414415e-38
-0.00303141231612 -0.159149146596 0.819 1.15968293973e-38
-0.00150830344178 -0.158371861387 0.815 1.01216965169e-38
0.0 -0.158371861387 0.815 9.01171679291e-39
0.00150460208364 -0.157983218782 0.813 9.84218231481e-39
0.00300920416729 -0.157983218782 0.813 8.91988129675e-39
0.00452491032535 -0.158371861387 0.815 1.01137427468e-38
0.00603321376713 -0.158371861387 0.815 1.0299924866e-38
0.00754151720891 -0.158371861387 0.815 9.56237103745e-39
0.00907202879953 -0.158760503992 0.817 9.28184229528e-39
0.0105840335994 -0.158760503992 0.817 8.72580706464e-39
0.0121256492645 -0.159149146596 0.819 1.21341558921e-38
0.0136413554225 -0.159149146596 0.819 1.13065308022e-38
0.0151200479992 -0.158760503992 0.817 1.05693343048e-38
0.0166320527991 -0.158760503992 0.817 1.07465467125e-38
0.0181440575991 -0.158760503992 0.817 9.09314904927e-39
0.019656062399 -0.158760503992 0.817 1.01054919014e-38
0.0212198862128 -0.159149146596 0.819 1.01123260341e-38
0.0227355923709 -0.159149146596 0.819 1.12165183954e-38
0.024251298529 -0.159149146596 0.819 1.10339250016e-38
0.025767004687 -0.159149146596 0.819 1.19580084713e-38
0.0273493352916 -0.159537789201 0.821 1.33423526255e-38
0.0288687428078 -0.159537789201 0.821 1.31633563649e-38
0.030388150324 -0.159537789201 0.821 1.45470250932e-38
0.0319075578402 -0.159537789201 0.821 1.5470433137e-38
0.0334269653564 -0.159537789201 0.821 1.53775060294e-38
0.0349463728726 -0.159537789201 0.821 1.61165003927e-38
0.0364657803888 -0.159537789201 0.821 1.63931125057e-38
0.0380777218585 -0.159926431806 0.823 1.75909242161e-38
0.0396008307328 -0.159926431806 0.823 1.73121793269e-38
0.0411239396072 -0.159926431806 0.823 1.77731630814e-38
0.0427506865094 -0.16031507441 0.825 1.80501129073e-38
0.0442774967419 -0.16031507441 0.825 1.75909270187e-38
0.0458043069744 -0.16031507441 0.825 1.80519079706e-38
0.0473311172068 -0.16031507441 0.825 1.82359433005e-38
0.0487394839789 -0.159926431806 0.823 1.98029214862e-38
0.0502625928532 -0.159926431806 0.823 4.50065677656e-39
0.0517857017275 -0.159926431806 0.823 2.38772290011e-39
0.0533088106019 -0.159926431806 0.823 0.0
-0.0139078532086 -0.16071297041 0.835 8.46790088487e-39
-0.0123033144552 -0.159943087917 0.831 9.48134375635e-39
-0.0107394906413 -0.159558146671 0.829 9.57424564064e-39
-0.00916086139487 -0.158788264178 0.825 1.03092953488e-38
-0.0076155443717 -0.158403322931 0.823 1.0036683943e-38
-0.0060776300648 -0.158018381685 0.821 7.53770074738e-39
-0.00454711847418 -0.157633440438 0.819 4.22443282327e-39
-0.00302400959984 -0.157248499192 0.817 1.30798473842e-38
-0.00150830344178 -0.156863557945 0.815 7.82072520211e-39
0.0 -0.156478616699 0.813 9.37834131273e-39
0.00150460208364 -0.156478616699 0.813 1.57494975223e-38
0.00300920416729 -0.156478616699 0.813 1.38083698441e-38
0.00451380625093 -0.156478616699 0.813 1.50990694258e-38
0.00601840833457 -0.156478616699 0.813 1.5653689345e-38
0.00752301041821 -0.156478616699 0.813 1.6209026729e-38
0.00904982065069 -0.156863557945 0.815 1.71309900341e-38
0.0105581240925 -0.156863557945 0.815 1.77753028641e-38
0.0120960383994 -0.157248499192 0.817 1.75898354072e-38
0.0136080431993 -0.157248499192 0.817 1.77745966097e-38
0.0151200479992 -0.157248499192 0.817 1.78675167109e-38
0.0166320527991 -0.157248499192 0.817 1.77742616994e-38
0.0181884738967 -0.157633440438 0.819 1.83274354786e-38
0.0197041800548 -0.157633440438 0.819 1.86076026857e-38
0.0212198862128 -0.157633440438 0.819 1.59318190642e-38
0.0227355923709 -0.157633440438 0.819 1.9065341033e-38
0.024251298529 -0.157633440438 0.819 1.74043875684e-38
0.025767004687 -0.157633440438 0.819 1.57416222249e-38
0.0273493352916 -0.158018381685 0.821 1.94323382982e-38
0.0288687428078 -0.158018381685 0.821 1.78689600483e-38
0.030388150324 -0.158018381685 0.821 1.74058323071e-38
0.0319075578402 -0.158018381685 0.821 1.74976397773e-38
0.0334269653564 -0.158018381685 0.821 1.7129951672e-38
0.0349463728726 -0.158018381685 0.821 1.74991069368e-38
0.0364657803888 -0.158018381685 0.821 1.71306551238e-38
0.037985187905 -0.158018381685 0.821 1.6668623198e-38
0.0395045954212 -0.158018381685 0.821 1.74962076503e-38
0.0411239396072 -0.158403322931 0.823 1.68512165918e-38
0.0426470484815 -0.158403322931 0.823 1.71277838633e-38
0.0441701573558 -0.158403322931 0.823 1.72206997605e-38
0.0458043069744 -0.158788264178 0.825 1.70366994631e-38
0.0473311172068 -0.158788264178 0.825 1.69455576097e-38
0.0487394839789 -0.158403322931 0.823 1.91579024018e-38
0.0502625928532 -0.158403322931 0.823 3.58158435016e-39
0.0517857017275 -0.158403322931 0.823 2.47955839627e-39
0.0533088106019 -0.158403322931 0.823 5.51012976948e-40
0.0549651683692 -0.158788264178 0.825 1.74087610209e-38
-0.0123033144552 -0.15840517361 0.831 9.84903746689e-39
-0.0107394906413 -0.158023933722 0.829 9.48240033539e-39
-0.00913865324604 -0.156880214057 0.823 1.03085666736e-38
-0.0076155443717 -0.156880214057 0.823 1.03125267431e-38
-0.0060776300648 -0.156498974169 0.821 7.26437047542e-39
-0.00453601439976 -0.155736494392 0.817 4.31626831943e-39
-0.00301660688356 -0.155355254504 0.815 1.05015941358e-38
-0.00150460208364 -0.154974014615 0.813 1.56120343469e-39
0.0 -0.154974014615 0.813 1.04018987565e-38
0.00150460208364 -0.154974014615 0.813 1.81484420205e-38
0.00300920416729 -0.154974014615 0.813 1.72214284357e-38
0.00451380625093 -0.154974014615 0.813 1.6853381598e-38
0.00601840833457 -0.154974014615 0.813 1.72214410474e-38
0.00752301041821 -0.154974014615 0.813 1.77742490877e-38
0.00904982065069 -0.155355254504 0.815 1.67604685033e-38
0.0105581240925 -0.155355254504 0.815 1.66693266499e-38
0.0120960383994 -0.155736494392 0.817 1.66668225295e-38
0.0136080431993 -0.155736494392 0.817 1.67593740892e-38
0.0151200479992 -0.155736494392 0.817 1.71281496022e-38
0.0166320527991 -0.155736494392 0.817 1.73128953904e-38
0.0181884738967 -0.15611773428 0.819 1.56548384097e-38
0.0197041800548 -0.15611773428 0.819 7.71418167727e-39
0.0212198862128 -0.15611773428 0.819 1.5000094314e-38
0.0227355923709 -0.15611773428 0.819 1.07512788974e-38
0.024251298529 -0.15611773428 0.819 1.13876015236e-38
0.025767004687 -0.15611773428 0.819 1.79364311681e-38
0.0273493352916 -0.156498974169 0.821 1.43536949506e-38
0.0288687428078 -0.156498974169 0.821 1.57372908114e-38
0.030388150324 -0.156498974169 0.821 1.43564709228e-38
0.0319075578402 -0.156498974169 0.821 1.38879663995e-38
0.0334269653564 -0.156498974169 0.821 1.84178346438e-38
0.0349463728726 -0.156498974169 0.821 1.68526206929e-38
0.0364657803888 -0.156498974169 0.821 1.67607936045e-38
0.037985187905 -0.156498974169 0.821 1.66668225295e-38
0.0395045954212 -0.156498974169 0.821 1.69440876476e-38
0.0410240029374 -0.156498974169 0.821 1.66679197462e-38
0.0425434104536 -0.156498974169 0.821 1.68519326554e-38
0.0440628179698 -0.156498974169 0.821 1.67604404773e-38
0.0456932662302 -0.156880214057 0.823 1.71288796787e-38
0.0472163751045 -0.156880214057 0.823 1.71295831305e-38
0.0487394839789 -0.156880214057 0.823 1.88802589331e-38
0.0502625928532 -0.156880214057 0.823 3.58158435016e-39
0.0517857017275 -0.156880214057 0.823 3.21424236553e-39
0.0533088106019 -0.156880214057 0.823 5.51012976948e-40
0.0549651683692 -0.157261453945 0.825 1.70417581505e-38
-0.0123329253203 -0.157244797834 0.833 8.74446535369e-39
-0.0107135811343 -0.156112182243 0.827 9.48203319519e-39
-0.00913865324604 -0.155357105183 0.823 1.04929579333e-38
-0.007597037581 -0.154979566652 0.821 1.06784197851e-38
-0.00606282463224 -0.154602028122 0.819 7.81642041323e-39
-0.00453601439976 -0.154224489592 0.817 8.36529500872e-39
-0.00300920416729 -0.153469412532 0.813 8.92705874749e-39
-0.00150460208364 -0.153469412532 0.813 2.66322938858e-39
0.0 -0.153469412532 0.813 1.09550725357e-38
0.00150460208364 -0.153469412532 0.813 1.71339271557e-38
0.00300920416729 -0.153469412532 0.813 1.70381035641e-38
0.00451380625093 -0.153469412532 0.813 1.63913244488e-38
0.00601840833457 -0.153469412532 0.813 1.62987588762e-38
0.00752301041821 -0.153469412532 0.813 1.66675259814e-38
0.00904982065069 -0.153846951062 0.815 1.68519200437e-38
0.0105581240925 -0.153846951062 0.815 1.63913146397e-38
0.0120960383994 -0.154224489592 0.817 1.66682672682e-38
0.0136080431993 -0.154224489592 0.817 1.67604685033e-38
0.0151200479992 -0.154224489592 0.817 1.69441156735e-38
0.0166320527991 -0.154224489592 0.817 1.74054623644e-38
0.0181884738967 -0.154602028122 0.819 9.19866402104e-39
0.0197041800548 -0.154602028122 0.819 8.72437213501e-39
0.0212198862128 -0.154602028122 0.819 1.19472240783e-38
0.0227355923709 -0.154602028122 0.819 1.31414442608e-38
0.024251298529 -0.154602028122 0.819 1.21298188734e-38
0.025767004687 -0.154602028122 0.819 1.49914440986e-38
0.0273493352916 -0.154979566652 0.821 1.12957660274e-38
0.0288687428078 -0.154979566652 0.821 1.01019494189e-38
0.030388150324 -0.154979566652 0.821 1.71045181049e-38
0.0319075578402 -0.154979566652 0.821 1.3707891139e-38
0.0334269653564 -0.154979566652 0.821 9.64703188547e-39
0.0349463728726 -0.154979566652 0.821 1.61061560075e-38
0.0364657803888 -0.154979566652 0.821 1.77749497369e-38
0.037985187905 -0.154979566652 0.821 1.66682672682e-38
0.0395045954212 -0.154979566652 0.821 1.71295831305e-38
0.0410240029374 -0.154979566652 0.821 1.69448317371e-38
0.0425434104536 -0.154979566652 0.821 1.66693238473e-38
0.0440628179698 -0.154979566652 0.821 1.67611663499e-38
0.045582225486 -0.154979566652 0.821 1.67615222797e-38
0.0472163751045 -0.155357105183 0.823 1.69448373422e-38
0.0487394839789 -0.155357105183 0.823 1.88798889903e-38
0.0502625928532 -0.155357105183 0.823 3.39791335785e-39
0.0517857017275 -0.155357105183 0.823 2.47955839627e-39
0.0533088106019 -0.155357105183 0.823 3.67341984632e-40
0.0548319194762 -0.155357105183 0.823 1.64896563647e-38
0.0563550283506 -0.155357105183 0.823 1.53760809088e-38
-0.018965759106 -0.159628472475 0.854 8.83560860841e-39
-0.0173852791805 -0.159628472475 0.854 9.48132694077e-39
-0.015804799255 -0.159628472475 0.854 9.56850732343e-39
-0.0139411654318 -0.156450856513 0.837 8.92743009158e-39
-0.0123329253203 -0.155703182169 0.833 8.09696316838e-39
-0.0107135811343 -0.154581670652 0.827 9.29622942661e-39
-0.00913865324604 -0.153833996308 0.823 1.00355727133e-38
-0.007597037581 -0.153460159136 0.821 9.94340090548e-39
-0.00606282463224 -0.153086321964 0.819 9.3841118598e-39
-0.00453601439976 -0.152712484792 0.817 1.11354546805e-38
-0.00300920416729 -0.151964810448 0.813 9.6625190361e-39
-0.00150460208364 -0.151964810448 0.813 3.21424236553e-39
0.0 -0.151964810448 0.813 1.25220381097e-38
0.00150460208364 -0.151964810448 0.813 1.73183254219e-38
0.00300920416729 -0.151964810448 0.813 1.61161528707e-38
0.00451380625093 -0.151964810448 0.813 1.78671481694e-38
0.00601840833457 -0.151964810448 0.813 1.61147235463e-38
0.00752301041821 -0.151964810448 0.813 1.78649929724e-38
0.00904982065069 -0.15233864762 0.815 1.68515641139e-38
0.0105581240925 -0.15233864762 0.815 1.66686203955e-38
0.0120960383994 -0.152712484792 0.817 1.6668623198e-38
0.0136080431993 -0.152712484792 0.817 1.75902067513e-38
0.0151200479992 -0.152712484792 0.817 1.08499205002e-38
0.0166320527991 -0.152712484792 0.817 1.61088801317e-38
0.0181440575991 -0.152712484792 0.817 1.80536806132e-38
0.0197041800548 -0.153086321964 0.819 1.41818341017e-38
0.0212198862128 -0.153086321964 0.819 1.83277886058e-38
0.0227355923709 -0.153086321964 0.819 1.82345013644e-38
0.024251298529 -0.153086321964 0.819 1.88805924422e-38
0.025767004687 -0.153086321964 0.819 9.38372229883e-39
0.0273493352916 -0.153460159136 0.821 1.72095720494e-38
0.0288687428078 -0.153460159136 0.821 1.77705342455e-38
0.030388150324 -0.153460159136 0.821 1.75902235669e-38
0.0319075578402 -0.153460159136 0.821 1.84185380956e-38
0.0334269653564 -0.153460159136 0.821 1.80494038503e-38
0.0349463728726 -0.153460159136 0.821 1.47314149516e-38
0.0364657803888 -0.153460159136 0.821 1.12218671516e-38
0.0378926539515 -0.153086321964 0.819 1.77749651512e-38
0.0394083601096 -0.153086321964 0.819 1.67604432799e-38
0.0409240662676 -0.153086321964 0.819 1.73121793269e-38
0.0425434104536 -0.153460159136 0.821 1.69448373422e-38
0.0440628179698 -0.153460159136 0.821 1.69455576097e-38
0.045582225486 -0.153460159136 0.821 1.67608160253e-38
0.0472163751045 -0.153833996308 0.823 1.65767750902e-38
0.0487394839789 -0.153833996308 0.823 1.86976473225e-38
0.0502625928532 -0.153833996308 0.823 3.03057137321e-39
0.0517857017275 -0.153833996308 0.823 2.29588740395e-39
0.0533088106019 -0.153833996308 0.823 9.1835496158e-40
0.0548319194762 -0.153833996308 0.823 1.81502721163e-38
0.0563550283506 -0.153833996308 0.823 1.67604404773e-38
-0.0221785379709 -0.158418128364 0.856 9.11470942744e-39
-0.0205462390315 -0.15804799255 0.854 9.02143760036e-39
-0.018965759106 -0.15804799255 0.854 9.11363323022e-39
-0.0173852791805 -0.15804799255 0.854 9.29658535642e-39
-0.0155271973945 -0.155271973945 0.839 9.38769918387e-39
-0.0139411654318 -0.154901838131 0.837 9.29765174456e-39
-0.0123329253203 -0.154161566504 0.833 7.27079683017e-39
-0.0107654001483 -0.15379143069 0.831 7.63815002519e-39
-0.00916086139487 -0.152681023248 0.825 9.57674976099e-39
-0.0076155443717 -0.152310887434 0.823 1.00359230379e-38
-0.0060776300648 -0.15194075162 0.821 8.64906215164e-39
-0.00453601439976 -0.151200479992 0.817 1.0396440699e-38
-0.00301660688356 -0.150830344178 0.815 8.09337304172e-39
-0.00150460208364 -0.150460208364 0.813 2.93873587706e-39
0.0 -0.150460208364 0.813 1.39950045827e-38
0.00150460208364 -0.150460208364 0.813 1.68562710754e-38
0.00300920416729 -0.150460208364 0.813 1.67593740892e-38
0.00451380625093 -0.150460208364 0.813 1.63909587099e-38
0.00601840833457 -0.150460208364 0.813 1.77738959605e-38
0.00752301041821 -0.150460208364 0.813 1.7497990102e-38
0.00904982065069 -0.150830344178 0.815 1.66668099178e-38
0.0105581240925 -0.150830344178 0.815 1.64831543398e-38
0.0120960383994 -0.151200479992 0.817 1.74054567592e-38
0.0136080431993 -0.151200479992 0.817 9.74321000557e-39
0.0151200479992 -0.151200479992 0.817 1.29715620453e-38
0.0166320527991 -0.151200479992 0.817 6.43680283874e-39
0.0181440575991 -0.151200479992 0.817 5.51443455836e-39
0.0197041800548 -0.151570615806 0.819 1.81487923451e-38
0.0212198862128 -0.151570615806 0.819 1.74980503578e-38
0.0227355923709 -0.151570615806 0.819 1.69448541578e-38
0.024251298529 -0.151570615806 0.819 1.80519247862e-38
0.025767004687 -0.151570615806 0.819 1.85150483235e-38
0.0273493352916 -0.15194075162 0.821 1.84239316934e-38
0.0288687428078 -0.15194075162 0.821 1.83310326117e-38
0.030388150324 -0.15194075162 0.821 1.60275697883e-38
0.0319075578402 -0.15194075162 0.821 1.79615242197e-38
0.0334269653564 -0.15194075162 0.821 1.56580782118e-38
0.0349463728726 -0.15194075162 0.821 1.78721802322e-38
0.0364657803888 -0.15194075162 0.821 8.55505043897e-39
0.0378926539515 -0.151570615806 0.819 1.84203219486e-38
0.0394083601096 -0.151570615806 0.819 1.65749772243e-38
0.0409240662676 -0.151570615806 0.819 1.77724596296e-38
0.0425434104536 -0.15194075162 0.821 1.68512292035e-38
0.0440628179698 -0.15194075162 0.821 1.75902067513e-38
0.045582225486 -0.15194075162 0.821 1.72221416967e-38
0.0472163751045 -0.152310887434 0.823 1.70388294367e-38
0.0487394839789 -0.152310887434 0.823 1.76860191325e-38
0.0503847376718 -0.152681023248 0.825 3.21424236553e-39
0.0517857017275 -0.152310887434 0.823 2.38772290011e-39
0.0533088106019 -0.152310887434 0.823 2.38988089974e-39
0.0548319194762 -0.152310887434 0.823 1.76896288773e-38
0.0564919786017 -0.152681023248 0.825 1.56537271801e-38
-0.0221785379709 -0.15683394708 0.856 8.9299678431e-39
-0.0205462390315 -0.156467512624 0.854 9.20618899379e-39
-0.018965759106 -0.156467512624 0.854 9.29804410813e-39
-0.0173242067712 -0.155917860941 0.851 9.38843066167e-39
-0.0155271973945 -0.153719254206 0.839 9.2958762994e-39
-0.0139744776551 -0.153719254206 0.839 9.02214385478e-39
-0.0123329253203 -0.152619950839 0.833 6.34741120711e-39
-0.0107654001483 -0.152253516383 0.831 9.57531202877e-39
-0.00918306954371 -0.151520647471 0.827 8.47078475711e-39
-0.00763405116239 -0.151154213015 0.825 9.94407773264e-39
-0.0060776300648 -0.150421344104 0.821 5.33255722808e-39
-0.00453601439976 -0.149688475192 0.817 9.10393204095e-39
-0.00301660688356 -0.149322040736 0.815 7.1724957429e-39
-0.00150830344178 -0.149322040736 0.815 3.94892633479e-39
0.0 -0.149322040736 0.815 1.55590904883e-38
0.00150460208364 -0.148955606281 0.813 1.75005656885e-38
0.00300920416729 -0.148955606281 0.813 1.72199963087e-38
0.00452491032535 -0.149322040736 0.815 1.68519326554e-38
0.00603321376713 -0.149322040736 0.815 1.67604685033e-38
0.00754151720891 -0.149322040736 0.815 1.65764275682e-38
0.00904982065069 -0.149322040736 0.815 1.74051064345e-38
0.0105840335994 -0.149688475192 0.817 1.81430246007e-38
0.0120960383994 -0.149688475192 0.817 1.54697310865e-38
0.0136080431993 -0.149688475192 0.817 2.03366620583e-38
0.0151200479992 -0.149688475192 0.817 7.35975405929e-39
0.0166320527991 -0.149688475192 0.817 0.0
0.0181884738967 -0.150054909648 0.819 7.5482651365e-39
0.0197041800548 -0.150054909648 0.819 1.27142121811e-38
0.0212198862128 -0.150054909648 0.819 1.62137533087e-38
0.0227355923709 -0.150054909648 0.819 9.10965214128e-39
0.024251298529 -0.150054909648 0.819 1.63955731858e-38
0.025767004687 -0.150054909648 0.819 6.53182208501e-39
0.0273493352916 -0.150421344104 0.821 2.66322938858e-39
0.0288687428078 -0.150421344104 0.821 1.66715519118e-38
0.030388150324 -0.150421344104 0.821 7.07133320417e-39
0.0319075578402 -0.150421344104 0.821 1.79396135169e-38
0.0334269653564 -0.150421344104 0.821 4.86728129637e-39
0.0349463728726 -0.150421344104 0.821 1.40763597676e-38
0.0364657803888 -0.150421344104 0.821 9.56639977054e-39
0.037985187905 -0.150421344104 0.821 1.83288423822e-38
0.0395045954212 -0.150421344104 0.821 1.71281467996e-38
0.0410240029374 -0.150421344104 0.821 1.71274461503e-38
0.0425434104536 -0.150421344104 0.821 1.73103926713e-38
0.0440628179698 -0.150421344104 0.821 1.7127430736e-38
0.0456932662302 -0.15078777856 0.823 1.7312189136e-38
0.0473311172068 -0.151154213015 0.825 1.722144385e-38
0.0488579274393 -0.151154213015 0.825 1.7962248691e-38
0.0503847376718 -0.151154213015 0.825 3.94892633479e-39
0.0519115479043 -0.151154213015 0.825 1.19386145005e-39
0.0534383581368 -0.151154213015 0.825 6.81275019725e-39
0.0549651683692 -0.151154213015 0.825 1.75970534956e-38
0.0564919786017 -0.151154213015 0.825 1.76809940762e-38
-0.0205462390315 -0.154887032699 0.854 9.48095419538e-39
-0.018965759106 -0.154887032699 0.854 9.11183536429e-39
-0.0173242067712 -0.154342933052 0.851 9.20473724858e-39
-0.0155271973945 -0.152166534466 0.839 9.6657153979e-39
-0.0139744776551 -0.152166534466 0.839 1.00352167835e-38
-0.0123921470505 -0.151803801369 0.837 7.08462872399e-39
-0.0107913096553 -0.151078335174 0.833 7.82504680657e-39
-0.00918306954371 -0.149990135881 0.827 8.5640551829e-39
-0.00763405116239 -0.149627402783 0.825 9.11291436411e-39
-0.0060776300648 -0.148901936588 0.821 5.88608133188e-39
-0.00453601439976 -0.148176470392 0.817 1.27874370323e-38
-0.00301660688356 -0.147813737295 0.815 6.34418261545e-39
-0.00150830344178 -0.147813737295 0.815 3.94892633479e-39
0.0 -0.147813737295 0.815 1.76734691034e-38
0.00150830344178 -0.147813737295 0.815 1.68551850691e-38
0.00301660688356 -0.147813737295 0.815 1.69430366737e-38
0.00452491032535 -0.147813737295 0.815 1.68522885852e-38
0.00604801919968 -0.148176470392 0.817 1.62080121889e-38
0.00756002399961 -0.148176470392 0.817 1.66682672682e-38
0.00907202879953 -0.148176470392 0.817 1.64831571424e-38
0.0105840335994 -0.148176470392 0.817 1.74973020644e-38
0.0120960383994 -0.148176470392 0.817 1.65767933071e-38
0.0136080431993 -0.148176470392 0.817 1.92281873288e-38
0.0151570615806 -0.14853920349 0.819 1.87891395005e-38
0.0166727677387 -0.14853920349 0.819 7.25500419648e-39
0.0181884738967 -0.14853920349 0.819 3.76525534248e-39
0.0197041800548 -0.14853920349 0.819 1.37756186964e-39
0.0212198862128 -0.14853920349 0.819 7.90972166758e-39
0.0227355923709 -0.14853920349 0.819 1.30747732824e-38
0.0243105202592 -0.148901936588 0.821 4.40810381558e-39
0.0258299277754 -0.148901936588 0.821 9.74607706223e-39
0.0273493352916 -0.148901936588 0.821 1.65307256201e-39
0.0288687428078 -0.148901936588 0.821 1.38191430267e-38
0.030388150324 -0.148901936588 0.821 1.12283747817e-38
0.0319852863611 -0.149264669685 0.823 1.41624247167e-38
0.0335083952355 -0.149264669685 0.823 6.42848473106e-39
0.0350315041098 -0.149264669685 0.823 2.0340060207e-38
0.0364657803888 -0.148901936588 0.821 8.3746234526e-39
0.037985187905 -0.148901936588 0.821 1.82362894213e-38
0.0395045954212 -0.148901936588 0.821 1.69451876669e-38
0.0410240029374 -0.148901936588 0.821 1.69437849671e-38
0.0425434104536 -0.148901936588 0.821 1.685228298e-38
0.0440628179698 -0.148901936588 0.821 1.71288502514e-38
0.0456932662302 -0.149264669685 0.823 1.69437653489e-38
0.0473311172068 -0.149627402783 0.825 1.68519326554e-38
0.0488579274393 -0.149627402783 0.825 1.74083560457e-38
0.0503847376718 -0.149627402783 0.825 5.23462328101e-39
0.0519115479043 -0.149627402783 0.825 2.8469003809e-39
0.0534383581368 -0.149627402783 0.825 9.85054526404e-39
0.0550984172622 -0.149990135881 0.827 1.69527672903e-38
0.0566289288529 -0.149990135881 0.827 1.63898600919e-38
-0.0205462390315 -0.153306552773 0.854 1.01223943635e-38
-0.018965759106 -0.153306552773 0.854 9.56957931675e-39
-0.0173242067712 -0.152768005164 0.851 7.91292923976e-39
-0.0156752517201 -0.152049941685 0.847 8.74230875535e-39
-0.0140077898783 -0.150972846467 0.841 9.66825595201e-39
-0.0122737035901 -0.148818656029 0.829 5.7935283709e-39
-0.0106617621204 -0.147741560811 0.823 8.19237758082e-39
-0.00913865324604 -0.147741560811 0.823 8.37857371297e-39
-0.0076155443717 -0.147741560811 0.823 9.38875576291e-39
-0.0060776300648 -0.147382529071 0.821 7.08568250044e-39
-0.00453601439976 -0.146664465592 0.817 9.46551889279e-39
-0.00302400959984 -0.146664465592 0.817 5.32753497438e-39
-0.00151200479992 -0.146664465592 0.817 3.489748854e-39
0.0 -0.146664465592 0.817 1.83188385125e-38
0.00151200479992 -0.146664465592 0.817 1.68559039352e-38
0.00302400959984 -0.146664465592 0.817 1.71277838633e-38
0.00453601439976 -0.146664465592 0.817 1.64831543398e-38
0.00604801919968 -0.146664465592 0.817 1.69462834823e-38
0.00756002399961 -0.146664465592 0.817 1.65764121539e-38
0.00909423694836 -0.147023497332 0.819 1.69434094191e-38
0.0106099431064 -0.147023497332 0.819 1.67593740892e-38
0.0121256492645 -0.147023497332 0.819 1.5931423898e-38
0.0136413554225 -0.147023497332 0.819 1.9871383324e-38
0.0151570615806 -0.147023497332 0.819 1.4090756708e-38
0.0166727677387 -0.147023497332 0.819 1.2779547722e-38
0.0181884738967 -0.147023497332 0.819 1.35199644032e-38
0.0197041800548 -0.147023497332 0.819 6.90633591518e-39
0.0212717052268 -0.147382529071 0.821 1.83670992316e-40
0.022791112743 -0.147382529071 0.821 1.53793613485e-38
0.0243105202592 -0.147382529071 0.821 6.3366492349e-39
0.0258299277754 -0.147382529071 0.821 1.61936797082e-38
0.0273493352916 -0.147382529071 0.821 2.29588740395e-39
0.0288687428078 -0.147382529071 0.821 0.0
0.030388150324 -0.147382529071 0.821 3.49773345265e-39
0.0319852863611 -0.147741560811 0.823 1.38973607044e-38
0.0335083952355 -0.147741560811 0.823 7.5434250516e-39
0.0350315041098 -0.147741560811 0.823 1.61997837643e-38
0.0365546129841 -0.147741560811 0.823 1.10432996883e-38
0.0380777218585 -0.147741560811 0.823 1.83281193122e-38
0.0396008307328 -0.147741560811 0.823 1.73132485176e-38
0.0412238762769 -0.14810059255 0.825 1.74050938229e-38
0.0427506865094 -0.14810059255 0.825 1.69448345397e-38
0.0442774967419 -0.14810059255 0.825 1.70370343734e-38
0.0458043069744 -0.14810059255 0.825 1.77724498205e-38
0.0473311172068 -0.14810059255 0.825 1.80511792954e-38
0.0488579274393 -0.14810059255 0.825 1.68541004641e-38
0.0503847376718 -0.14810059255 0.825 4.95911679253e-39
0.0519115479043 -0.14810059255 0.825 3.03057137321e-39
0.0534383581368 -0.14810059255 0.825 1.30791747609e-38
0.0550984172622 -0.14845962429 0.827 1.7227927658e-38
-0.0188991346595 -0.151193077276 0.851 9.02036840963e-39
-0.0173242067712 -0.151193077276 0.851 7.45302588637e-39
-0.0157492788829 -0.151193077276 0.851 6.990268088e-39
-0.0140077898783 -0.149416425369 0.841 9.94372740802e-39
-0.0122737035901 -0.147284443081 0.829 6.3470524747e-39
-0.0106617621204 -0.146218451937 0.823 8.46863376397e-39
-0.00913865324604 -0.146218451937 0.823 8.10309104657e-39
-0.0076155443717 -0.146218451937 0.823 1.06798729316e-38
-0.0060776300648 -0.145863121555 0.821 8.55829864881e-39
-0.00454711847418 -0.145507791174 0.819 1.29765170367e-38
-0.00302400959984 -0.145152460792 0.817 4.68434318315e-39
-0.00151200479992 -0.145152460792 0.817 2.93873587706e-39
0.0 -0.145152460792 0.817 1.96056396819e-38
0.00151200479992 -0.145152460792 0.817 1.67637055027e-38
0.00302400959984 -0.145152460792 0.817 1.69448317371e-38
0.00453601439976 -0.145152460792 0.817 1.74051064345e-38
0.00606282463224 -0.145507791174 0.819 1.65757087021e-38
0.0075785307903 -0.145507791174 0.819 1.69434122217e-38
0.00909423694836 -0.145507791174 0.819 1.76806045152e-38
0.0106099431064 -0.145507791174 0.819 1.72203466333e-38
0.0121256492645 -0.145507791174 0.819 1.50094746059e-38
0.0136413554225 -0.145507791174 0.819 2.18986558253e-38
0.0151570615806 -0.145507791174 0.819 3.58230181498e-39
0.0166727677387 -0.145507791174 0.819 1.9417261728e-38
0.0181884738967 -0.145507791174 0.819 5.78563625795e-39
0.0197522977106 -0.145863121555 0.821 6.70399121953e-39
0.0212717052268 -0.145863121555 0.821 1.28569694621e-39
0.022791112743 -0.145863121555 0.821 6.154060045e-39
0.0243105202592 -0.145863121555 0.821 9.37009046737e-39
0.0258299277754 -0.145863121555 0.821 5.87747175411e-39
0.0273493352916 -0.145863121555 0.821 1.43457790155e-38
0.0288687428078 -0.145863121555 0.821 4.04080106731e-39
0.030388150324 -0.145863121555 0.821 6.70399121953e-39
0.0319852863611 -0.146218451937 0.823 1.58334843458e-38
0.0335898251145 -0.146573782318 0.825 6.15297824259e-39
0.035116635347 -0.146573782318 0.825 1.86930314453e-38
0.0366434455795 -0.146573782318 0.825 1.30632798324e-38
0.038170255812 -0.146573782318 0.825 1.82352202305e-38
0.0396970660444 -0.146573782318 0.825 1.70363309216e-38
0.0412238762769 -0.146573782318 0.825 1.73114730725e-38
0.0427506865094 -0.146573782318 0.825 1.69434094191e-38
0.0442774967419 -0.146573782318 0.825 1.71288796787e-38
0.0458043069744 -0.146573782318 0.825 1.77724498205e-38
0.0474458593092 -0.146929112699 0.827 1.79586557617e-38
0.0489763708998 -0.146929112699 0.827 1.52867551382e-38
0.0505068824904 -0.146929112699 0.827 4.22443282327e-39
0.052037394081 -0.146929112699 0.827 2.57139389242e-39
0.0535679056716 -0.146929112699 0.827 1.5650247756e-38
0.0550984172622 -0.146929112699 0.827 1.68562360429e-38
-0.0188991346595 -0.149618149388 0.851 9.48132694077e-39
-0.0173242067712 -0.149618149388 0.851 8.92884960692e-39
-0.0157492788829 -0.149618149388 0.851 7.9143543603e-39
-0.0141743509946 -0.149618149388 0.851 1.01259704772e-38
-0.0122737035901 -0.145750230132 0.829 4.5917748079e-39
-0.0106876716274 -0.145046972085 0.825 8.56188877547e-39
-0.00916086139487 -0.145046972085 0.825 7.91868577386e-39
-0.00763405116239 -0.145046972085 0.825 9.48276887689e-39
-0.00609243549736 -0.144695343062 0.823 7.54629491086e-39
-0.00454711847418 -0.143992085016 0.819 9.93009277397e-39
-0.00303141231612 -0.143992085016 0.819 5.14278778485e-39
-0.00151570615806 -0.143992085016 0.819 3.21424236553e-39
0.0 -0.143992085016 0.819 2.00658961625e-38
0.00151570615806 -0.143992085016 0.819 1.68555494067e-38
0.00303141231612 -0.143992085016 0.819 1.66686203955e-38
0.00454711847418 -0.143992085016 0.819 1.67604685033e-38
0.00606282463224 -0.143992085016 0.819 1.69441310878e-38
0.0075785307903 -0.143992085016 0.819 1.79568578958e-38
0.00909423694836 -0.143992085016 0.819 1.67600873501e-38
0.0106099431064 -0.143992085016 0.819 1.71299306525e-38
0.0121256492645 -0.143992085016 0.819 1.46396130866e-38
0.0136413554225 -0.143992085016 0.819 2.12521849956e-38
0.0151570615806 -0.143992085016 0.819 1.39081366896e-38
0.0167134826782 -0.144343714039 0.821 1.79607689198e-38
0.0182328901944 -0.144343714039 0.821 1.55640524861e-38
0.0197522977106 -0.144343714039 0.821 1.86976473225e-38
0.0212717052268 -0.144343714039 0.821 3.489748854e-39
0.022791112743 -0.144343714039 0.821 1.89818054276e-38
0.0243105202592 -0.144343714039 0.821 1.744874427e-39
0.0258299277754 -0.144343714039 0.821 2.13530798864e-38
0.0273493352916 -0.144343714039 0.821 1.8142674276e-38
0.0288687428078 -0.144343714039 0.821 1.89728076902e-38
0.030388150324 -0.144343714039 0.821 1.88805896396e-38
0.0320630148821 -0.145046972085 0.825 1.86961983798e-38
0.0335898251145 -0.145046972085 0.825 1.8973511142e-38
0.035116635347 -0.145046972085 0.825 1.66689763253e-38
0.0366434455795 -0.145046972085 0.825 1.47238647555e-38
0.0382627897654 -0.145398601109 0.827 1.79571956087e-38
0.0397933013561 -0.145398601109 0.827 1.73121793269e-38
0.0413238129467 -0.145398601109 0.827 1.76809548398e-38
0.0428543245373 -0.145398601109 0.827 1.69441184761e-38
0.0443848361279 -0.145398601109 0.827 1.72199963087e-38
0.0459153477185 -0.145398601109 0.827 1.72189201115e-38
0.0474458593092 -0.145398601109 0.827 1.80501283216e-38
0.0489763708998 -0.145398601109 0.827 1.46413857292e-38
0.0505068824904 -0.145398601109 0.827 3.94892633479e-39
0.052037394081 -0.145398601109 0.827 2.47955839627e-39
0.0535679056716 -0.145398601109 0.827 1.77671585175e-38
-0.0173242067712 -0.148043221499 0.851 8.18915879825e-39
-0.0157492788829 -0.148043221499 0.851 8.3746234526e-39
-0.0142243193295 -0.148565112997 0.854 9.47987939945e-39
-0.0122737035901 -0.144216017183 0.829 4.77652199744e-39
-0.0107135811343 -0.143868089518 0.827 9.20833998693e-39
-0.00913865324604 -0.143172234188 0.823 7.36195129528e-39
-0.0076155443717 -0.143172234188 0.823 8.83701411077e-39
-0.00609243549736 -0.143172234188 0.823 8.37892684018e-39
-0.0045582225486 -0.142824306523 0.821 9.7478356918e-39
-0.00303141231612 -0.142476378858 0.819 4.68361030406e-39
-0.00151570615806 -0.142476378858 0.819 3.30607786169e-39
0.0 -0.142476378858 0.819 2.08037919078e-38
0.00151570615806 -0.142476378858 0.819 1.6947005151e-38
0.00303141231612 -0.142476378858 0.819 1.65771282174e-38
0.00454711847418 -0.142476378858 0.819 1.68519326554e-38
0.00606282463224 -0.142476378858 0.819 1.74058098864e-38
0.0075785307903 -0.142476378858 0.819 1.68519326554e-38
0.00909423694836 -0.142476378858 0.819 1.71292300033e-38
0.0106099431064 -0.142476378858 0.819 1.7314358346e-38
0.0121256492645 -0.142476378858 0.819 1.52856831449e-38
0.0136413554225 -0.142476378858 0.819 1.87672091795e-38
0.015194075162 -0.142824306523 0.821 1.75012551274e-38
0.0167134826782 -0.142824306523 0.821 1.7130341233e-38
0.0182328901944 -0.142824306523 0.821 1.81430217981e-38
0.0197522977106 -0.142824306523 0.821 1.84178346438e-38
0.0212717052268 -0.142824306523 0.821 1.62980428127e-38
0.0228466331151 -0.143172234188 0.823 1.94337634187e-38
0.0243697419894 -0.143172234188 0.823 1.33477630389e-38
0.0258928508638 -0.143172234188 0.823 1.93351106056e-38
0.0274159597381 -0.143172234188 0.823 1.77731532723e-38
0.0289390686124 -0.143172234188 0.823 1.82330538231e-38
0.0304621774868 -0.143172234188 0.823 1.36175298088e-38
0.0320630148821 -0.143520161853 0.825 2.02526542153e-38
0.0336712549936 -0.143868089518 0.827 1.61151004956e-38
0.0352017665842 -0.143868089518 0.827 1.37154161118e-38
0.0367322781748 -0.143868089518 0.827 1.85996643299e-38
0.0382627897654 -0.143868089518 0.827 1.69448373422e-38
0.0397933013561 -0.143868089518 0.827 1.76824037825e-38
0.0413238129467 -0.143868089518 0.827 1.70370343734e-38
0.0429579625652 -0.144216017183 0.829 1.72214256331e-38
0.044492175514 -0.144216017183 0.829 1.69434122217e-38
0.0460263884627 -0.144216017183 0.829 1.8049388436e-38
0.0475606014115 -0.144216017183 0.829 1.86036370111e-38
0.0490948143602 -0.144216017183 0.829 1.16911479943e-38
0.0507511721276 -0.144563944848 0.831 3.03057137321e-39
0.0521632402577 -0.144216017183 0.829 2.11221641163e-39
0.0536974532065 -0.144216017183 0.829 1.78647449425e-38
0.0554981639413 -0.144911872513 0.833 1.78704258065e-38
-0.0173852791805 -0.146984633071 0.854 8.92492597122e-39
-0.015804799255 -0.146984633071 0.854 8.55759799958e-39
-0.0142243193295 -0.146984633071 0.854 8.65047325919e-39
-0.012643839404 -0.146984633071 0.854 7.0781491199e-39
-0.0110633594785 -0.146984633071 0.854 1.03132203858e-38
-0.00913865324604 -0.141649125314 0.823 9.29800767437e-39
-0.0076155443717 -0.141649125314 0.823 9.85010946022e-39
-0.00609243549736 -0.141649125314 0.823 6.53361995094e-39
-0.0045582225486 -0.141304899007 0.821 1.22396344302e-38
-0.00303141231612 -0.1409606727 0.819 3.94892633479e-39
-0.00151570615806 -0.1409606727 0.819 2.11221641163e-39
0.0 -0.1409606727 0.819 2.06280158311e-38
0.00151570615806 -0.1409606727 0.819 1.59335734899e-38
0.00303141231612 -0.1409606727 0.819 1.67608160253e-38
0.00454711847418 -0.1409606727 0.819 1.70359777944e-38
0.00606282463224 -0.1409606727 0.819 1.69441282852e-38
0.0075785307903 -0.1409606727 0.819 1.68519326554e-38
0.0091164450972 -0.141304899007 0.821 1.71281496022e-38
0.0106358526134 -0.141304899007 0.821 1.70355854308e-38
0.0121552601296 -0.141304899007 0.821 1.7683105833e-38
0.0136746676458 -0.141304899007 0.821 1.32552310974e-38
0.015194075162 -0.141304899007 0.821 1.42689780506e-38
0.0167541976177 -0.141649125314 0.823 1.53760809088e-38
0.0182773064921 -0.141649125314 0.823 1.3897293442e-38
0.0198004153664 -0.141649125314 0.823 1.65644688871e-38
0.0213235242407 -0.141649125314 0.823 1.67506510063e-38
0.0229021534872 -0.141993351621 0.825 1.19569098533e-38
0.0243697419894 -0.141649125314 0.823 1.63732645142e-38
0.0258928508638 -0.141649125314 0.823 1.76643564595e-38
0.0274825841846 -0.141993351621 0.825 1.78573446853e-38
0.0290093944171 -0.141993351621 0.825 1.12193560248e-38
0.0305362046496 -0.141993351621 0.825 1.82164540415e-38
0.032140743403 -0.142337577927 0.827 1.084304573e-38
0.0336712549936 -0.142337577927 0.827 1.73063387149e-38
0.0352017665842 -0.142337577927 0.827 1.84196184967e-38
0.0367322781748 -0.142337577927 0.827 1.71285027294e-38
0.0383553237189 -0.142681804234 0.829 1.69448373422e-38
0.0398895366677 -0.142681804234 0.829 1.72210458813e-38
0.0414237496164 -0.142681804234 0.829 1.66686203955e-38
0.0429579625652 -0.142681804234 0.829 1.72210753085e-38
0.044492175514 -0.142681804234 0.829 1.72207249839e-38
0.0460263884627 -0.142681804234 0.829 1.72203466333e-38
0.0475606014115 -0.142681804234 0.829 1.85135993808e-38
0.0492132578207 -0.143026030541 0.831 8.92742448639e-39
0.0507511721276 -0.143026030541 0.831 2.47955839627e-39
0.0522890864345 -0.143026030541 0.831 1.744874427e-39
0.0538270007414 -0.143026030541 0.831 1.98937494488e-38
0.0554981639413 -0.143370256848 0.833 1.66711413314e-38
-0.0173242067712 -0.144893365723 0.851 8.27955656218e-39
-0.0157492788829 -0.144893365723 0.851 8.27954395049e-39
-0.0141743509946 -0.144893365723 0.851 9.38372229883e-39
-0.012643839404 -0.145404153146 0.854 7.16890841883e-39
-0.0110633594785 -0.145404153146 0.854 1.23382746317e-38
-0.00913865324604 -0.140126016439 0.823 9.75684183703e-39
-0.0076155443717 -0.140126016439 0.823 1.11365266738e-38
-0.00609243549736 -0.140126016439 0.823 5.05740947201e-39
-0.0045582225486 -0.13978549149 0.821 1.21488737299e-38
-0.0030388150324 -0.13978549149 0.821 5.14494017929e-39
-0.0015194075162 -0.13978549149 0.821 2.11221641163e-39
0.0 -0.13978549149 0.821 2.00769650191e-38
0.0015194075162 -0.13978549149 0.821 1.65785897717e-38
0.0030388150324 -0.13978549149 0.821 1.74068888862e-38
0.0045582225486 -0.13978549149 0.821 1.67597398281e-38
0.0060776300648 -0.13978549149 0.821 1.69441310878e-38
0.007597037581 -0.13978549149 0.821 1.70366840488e-38
0.0091164450972 -0.13978549149 0.821 1.71285237488e-38
0.0106358526134 -0.13978549149 0.821 1.68519326554e-38
0.0121552601296 -0.13978549149 0.821 1.72224948239e-38
0.0136746676458 -0.13978549149 0.821 1.77760217303e-38
0.0152310887434 -0.140126016439 0.823 1.69448345397e-38
0.0167541976177 -0.140126016439 0.823 1.33488196179e-38
0.0182773064921 -0.140126016439 0.823 1.84076626182e-38
0.0198485330222 -0.140466541388 0.825 1.80417289386e-38
0.0213753432547 -0.140466541388 0.825 1.65655450843e-38
0.0229021534872 -0.140466541388 0.825 1.36164059675e-38
0.0244289637197 -0.140466541388 0.825 1.72126983463e-38
0.0259557739521 -0.140466541388 0.825 1.91459255038e-38
0.0275492086311 -0.140807066337 0.827 1.59201854844e-38
0.0290797202217 -0.140807066337 0.827 1.40773771103e-38
0.0306102318124 -0.140807066337 0.827 1.68432039672e-38
0.032140743403 -0.140807066337 0.827 2.03505601364e-38
0.0336712549936 -0.140807066337 0.827 1.722144385e-38
0.0352868978214 -0.141147591286 0.829 1.74962104529e-38
0.0368211107702 -0.141147591286 0.829 1.70366784436e-38
0.0383553237189 -0.141147591286 0.829 1.79575613476e-38
0.0398895366677 -0.141147591286 0.829 1.69444814124e-38
0.0414237496164 -0.141147591286 0.829 1.71274461503e-38
0.0429579625652 -0.141147591286 0.829 1.79575417294e-38
0.044492175514 -0.141147591286 0.829 1.81430091864e-38
0.0460263884627 -0.141147591286 0.829 1.71281467996e-38
0.0476753435138 -0.141488116234 0.831 1.92515203496e-38
0.0492132578207 -0.141488116234 0.831 5.7931696385e-39
0.0507511721276 -0.141488116234 0.831 2.93873587706e-39
0.0522890864345 -0.141488116234 0.831 2.29588740395e-39
0.0539565482763 -0.141828641183 0.833 1.94301929103e-38
0.0554981639413 -0.141828641183 0.833 1.78671635837e-38
-0.0173242067712 -0.143318437834 0.851 8.18844273473e-39
-0.0157492788829 -0.143318437834 0.851 8.18628893899e-39
-0.0141743509946 -0.143318437834 0.851 8.09515549336e-39
-0.0125994231063 -0.143318437834 0.851 6.24911852763e-39
-0.011024495218 -0.143318437834 0.851 1.12330284939e-38
-0.00913865324604 -0.138602907565 0.823 1.03070995141e-38
-0.0076155443717 -0.138602907565 0.823 1.14141855568e-38
-0.00609243549736 -0.138602907565 0.823 4.04363169021e-39
-0.0045582225486 -0.138266083974 0.821 1.33502937839e-38
-0.0030388150324 -0.138266083974 0.821 2.75506488474e-39
-0.0015194075162 -0.138266083974 0.821 2.11221641163e-39
0.0 -0.138266083974 0.821 1.95248870553e-38
0.0015194075162 -0.138266083974 0.821 1.66700847523e-38
0.00304621774868 -0.138602907565 0.823 1.67597370255e-38
0.0045582225486 -0.138266083974 0.821 1.77724498205e-38
0.0060776300648 -0.138266083974 0.821 1.72217815629e-38
0.0076155443717 -0.138602907565 0.823 1.685228298e-38
0.00913865324604 -0.138602907565 0.823 1.69448513552e-38
0.0106617621204 -0.138602907565 0.823 1.6944498228e-38
0.0121848709947 -0.138602907565 0.823 1.70374029149e-38
0.0137079798691 -0.138602907565 0.823 1.66689889369e-38
0.0152310887434 -0.138602907565 0.823 1.72217941746e-38
0.0167949125573 -0.138939731156 0.825 1.4637802609e-38
0.0183217227897 -0.138939731156 0.825 1.60023366068e-38
0.0198485330222 -0.138939731156 0.825 1.68367467839e-38
0.0213753432547 -0.138939731156 0.825 1.67488573442e-38
0.0229576738593 -0.139276554746 0.827 1.46305424817e-38
0.0244881854499 -0.139276554746 0.827 1.4906766435e-38
0.0260186970405 -0.139276554746 0.827 1.58261975938e-38
0.0275492086311 -0.139276554746 0.827 1.55485387108e-38
0.0290797202217 -0.139276554746 0.827 1.39869765438e-38
0.0306102318124 -0.139276554746 0.827 1.58330135095e-38
0.032140743403 -0.139276554746 0.827 1.7405488989e-38
0.0337526848727 -0.139613378337 0.829 1.70370343734e-38
0.0352868978214 -0.139613378337 0.829 1.74962076503e-38
0.0368211107702 -0.139613378337 0.829 1.71285265514e-38
0.0383553237189 -0.139613378337 0.829 1.72214256331e-38
0.0398895366677 -0.139613378337 0.829 1.74965831983e-38
0.0415236862862 -0.139950201928 0.831 1.74040400464e-38
0.0430616005931 -0.139950201928 0.831 1.72203466333e-38
0.0445995149 -0.139950201928 0.831 1.75894976943e-38
0.0461374292069 -0.139950201928 0.831 1.71292272007e-38
0.0476753435138 -0.139950201928 0.831 1.96188777485e-38
0.0492132578207 -0.139950201928 0.831 4.13259732711e-39
0.0507511721276 -0.139950201928 0.831 3.30607786169e-39
0.0522890864345 -0.139950201928 0.831 2.11221641163e-39
0.0539565482763 -0.140287025518 0.833 2.0721282053e-38
-0.0173242067712 -0.141743509946 0.851 8.73874245076e-39
-0.0157492788829 -0.141743509946 0.851 7.72888970595e-39
-0.0141410387714 -0.141410387714 0.849 7.72818485283e-39
-0.0125698122412 -0.141410387714 0.849 6.80551249068e-39
-0.0109985857111 -0.141410387714 0.849 1.11411958003e-38
-0.00913865324604 -0.137079798691 0.823 9.66282872306e-39
-0.0076155443717 -0.137079798691 0.823 1.10446813686e-38
-0.00609243549736 -0.137079798691 0.823 6.89806545165e-39
-0.00456932662302 -0.137079798691 0.823 1.18773189031e-38
-0.0030388150324 -0.136746676458 0.821 2.47955839627e-39
-0.0015194075162 -0.136746676458 0.821 1.83670992316e-39
0.0 -0.137079798691 0.823 1.93423132797e-38
0.00152310887434 -0.137079798691 0.823 1.65778709056e-38
0.00304621774868 -0.137079798691 0.823 1.69437807632e-38
0.00456932662302 -0.137079798691 0.823 1.72189229141e-38
0.00609243549736 -0.137079798691 0.823 1.69430618971e-38
0.0076155443717 -0.137079798691 0.823 1.6851935458e-38
0.00913865324604 -0.137079798691 0.823 1.70370343734e-38
0.0106617621204 -0.137079798691 0.823 1.69444659982e-38
0.0121848709947 -0.137079798691 0.823 1.77745966097e-38
0.0137412920923 -0.137412920923 0.825 1.67597398281e-38
0.0152681023248 -0.137412920923 0.825 1.75894976943e-38
0.0167949125573 -0.137412920923 0.825 1.75884313061e-38
0.0183217227897 -0.137412920923 0.825 1.79561096024e-38
0.0198485330222 -0.137412920923 0.825 1.86951109722e-38
0.0213753432547 -0.137412920923 0.825 1.40821233082e-38
0.0229576738593 -0.137746043156 0.827 1.61031390119e-38
0.0244881854499 -0.137746043156 0.827 1.66595357775e-38
0.0260186970405 -0.137746043156 0.827 1.64755200658e-38
0.0275492086311 -0.137746043156 0.827 1.82348320708e-38
0.0290797202217 -0.137746043156 0.827 1.78678824498e-38
0.0306102318124 -0.137746043156 0.827 1.78678824498e-38
0.032140743403 -0.137746043156 0.827 1.70384791121e-38
0.0337526848727 -0.138079165388 0.829 1.75894850826e-38
0.0352868978214 -0.138079165388 0.829 1.72196235633e-38
0.0368211107702 -0.138079165388 0.829 1.70366840488e-38
0.0384478576724 -0.138412287621 0.831 1.72206997605e-38
0.0399857719793 -0.138412287621 0.831 1.74962104529e-38
0.0415236862862 -0.138412287621 0.831 1.75884088854e-38
0.043165238621 -0.138745409853 0.833 1.74969363255e-38
0.044706854286 -0.138745409853 0.833 1.70366966605e-38
0.0462484699511 -0.138745409853 0.833 1.73121919386e-38
0.0477900856161 -0.138745409853 0.833 1.869584245e-38
0.0493317012812 -0.138745409853 0.833 3.67341984632e-39
0.0508733169462 -0.138745409853 0.833 3.58158435016e-39
0.0524149326112 -0.138745409853 0.833 2.93873587706e-39
0.0539565482763 -0.138745409853 0.833 1.91528381091e-38
0.0554981639413 -0.138745409853 0.833 1.8506749834e-38
-0.0172834918317 -0.139839161183 0.849 8.46394782191e-39
-0.0157122653015 -0.139839161183 0.849 6.98990094781e-39
-0.0141410387714 -0.139839161183 0.849 7.4498057025e-39
-0.0125402013761 -0.139509740309 0.847 4.77903312428e-39
-0.0109726762041 -0.139509740309 0.847 1.16940192549e-38
-0.00940515103207 -0.139509740309 0.847 9.93728003379e-39
-0.0076155443717 -0.135556689816 0.823 1.07663050209e-38
