# .PCD v0.7 - Point Cloud Data file format
VERSION 0.7
FIELDS x y z rgb
SIZE 4 4 4 4
TYPE F F F F
COUNT 1 1 1 1
WIDTH 880
HEIGHT 1
VIEWPOINT 0 0 0 1 0 0 0
POINTS 880
DATA ascii
0.0581631418016 -0.129251426226 0.873 4.41599592853e-39
0.0599157348806 -0.129547534877 0.875 8.65730458921e-39
0.0617460564805 -0.129991697854 0.878 1.03218874168e-38
0.0635153056711 -0.130287806505 0.88 3.77529984987e-39
0.0651439032524 -0.130287806505 0.88 1.56122165157e-39
0.067151890043 -0.131028078133 0.885 3.04205081023e-39
0.0692561121452 -0.131916404086 0.891 0.0
0.0711438047963 -0.132360567063 0.894 1.63801967377e-38
-0.0813280917167 -0.136700409481 0.935 1.78551922909e-38
-0.0795977067866 -0.136700409481 0.935 1.84994714897e-38
-0.0778673218564 -0.136700409481 0.935 2.01607836867e-38
-0.0761369369263 -0.136700409481 0.935 1.33459217327e-38
-0.0742473935961 -0.136408002188 0.933 2.20405190779e-39
-0.0725207100241 -0.136408002188 0.933 2.57139389242e-39
-0.0705663929266 -0.135969391249 0.93 2.20405190779e-39
-0.0686972070662 -0.135676983956 0.928 2.38772290011e-39
-0.0667632474384 -0.135238373016 0.925 5.51012976948e-40
-0.0650513692989 -0.135238373016 0.925 1.71325048378e-38
-0.0632025409083 -0.134945965723 0.923 4.49993931174e-39
-0.0612944907875 -0.134507354784 0.92 1.43533446259e-38
-0.0594623185085 -0.134214947491 0.918 1.34442970888e-38
-0.0575746258575 -0.133776336551 0.915 1.36268848774e-38
-0.0558812545087 -0.133776336551 0.915 1.58392072487e-38
-0.0538917745088 -0.133045318319 0.91 6.42848473106e-40
-0.0522076565554 -0.133045318319 0.91 0.0
-0.050523538602 -0.133045318319 0.91 6.81275019725e-39
-0.0484637327975 -0.132021892793 0.903 1.39085290531e-38
-0.0467925695976 -0.132021892793 0.903 1.37753244237e-39
-0.0451214063976 -0.132021892793 0.903 0.0
-0.0433540078861 -0.1317294855 0.901 1.47303457609e-38
-0.0416865460443 -0.1317294855 0.901 1.72218095889e-38
-0.0400190842026 -0.1317294855 0.901 1.65303893084e-39
-0.038223925505 -0.131290874561 0.898 0.0
-0.0364805858214 -0.130998467268 0.896 1.88791294866e-38
-0.0348223773749 -0.130998467268 0.896 1.46936793853e-39
-0.0330901417657 -0.130706059975 0.894 0.0
-0.0314356346774 -0.130706059975 0.894 0.0
-0.0296811909194 -0.130267449035 0.891 0.0
-0.0280322358683 -0.130267449035 0.891 0.0
-0.026324059087 -0.129975041742 0.889 0.0
-0.0246788053941 -0.129975041742 0.889 1.51088701073e-38
-0.0229817326872 -0.129682634449 0.887 1.501306193e-38
-0.0213401803524 -0.129682634449 0.887 1.02217982727e-38
-0.0196542117199 -0.129390227156 0.885 1.39114003137e-38
-0.0179552883339 -0.128951616217 0.882 1.50126961911e-38
-0.0162859758131 -0.128659208924 0.88 1.49158272308e-38
-0.0146573782318 -0.128659208924 0.88 1.45495670486e-38
-0.0130287806505 -0.128659208924 0.88 1.39045465629e-38
-0.0113742735622 -0.128366801631 0.878 1.45477649788e-38
-0.00974937733903 -0.128366801631 0.878 1.42708081464e-38
-0.00809672092981 -0.127928190691 0.875 1.44555693489e-38
-0.00647737674385 -0.127928190691 0.875 1.43648030435e-38
-0.00483582440905 -0.127343376105 0.871 1.43644527189e-38
-0.00322388293937 -0.127343376105 0.871 1.43630093815e-38
-0.00161194146968 -0.127343376105 0.871 1.4272257089e-38
0.0 -0.127050968812 0.869 1.3996396072e-38
0.00160824011154 -0.127050968812 0.869 1.43633737191e-38
0.00320907750681 -0.126758561519 0.867 1.44559252787e-38
0.00481361626021 -0.126758561519 0.867 1.48254140526e-38
0.00639594686478 -0.126319950579 0.864 1.41804089812e-38
0.00797642679028 -0.126027543286 0.862 1.39970995239e-38
0.00957171214834 -0.126027543286 0.862 1.39974526511e-38
0.0111669975064 -0.126027543286 0.862 1.63005385252e-38
0.0127622828645 -0.126027543286 0.862 9.01175182537e-39
0.0143242559993 -0.125735135993 0.86 6.88766221185e-39
0.0158788264178 -0.1254427287 0.858 1.77580738995e-38
0.0173852791805 -0.124857914114 0.854 1.70377910746e-38
0.018965759106 -0.124857914114 0.854 2.8469003809e-39
0.0204740625478 -0.124419303175 0.851 1.01019045774e-39
0.0220489904361 -0.124419303175 0.851 2.57139389242e-39
0.0236239183244 -0.124419303175 0.851 2.93873587706e-39
0.0251396244824 -0.124126895882 0.849 2.8469003809e-39
0.0266479279242 -0.123834488589 0.847 2.11221641163e-39
0.0281488286497 -0.123542081296 0.845 9.9301502272e-39
0.0297126524636 -0.123542081296 0.845 1.21398633808e-38
0.0312764762774 -0.123542081296 0.845 1.30535548211e-38
0.0328403000913 -0.123542081296 0.845 1.12050067285e-38
0.0344041239052 -0.123542081296 0.845 1.08545321735e-38
0.0360530789563 -0.123834488589 0.847 1.92854541932e-39
0.037798269319 -0.124419303175 0.851 1.28928427028e-39
0.0393731972073 -0.124419303175 0.851 7.36118898891e-40
0.041092478063 -0.124857914114 0.854 1.07827884947e-38
0.0426729579885 -0.124857914114 0.854 1.38228606715e-38
0.0444607139698 -0.1254427287 0.858 7.27545194367e-39
0.0461559359976 -0.125735135993 0.86 3.67341984632e-39
0.0478585607417 -0.126027543286 0.862 6.42848473106e-40
0.0494538460997 -0.126027543286 0.862 3.58947646311e-39
0.0511675749183 -0.126319950579 0.864 1.03193272445e-38
0.0529497788624 -0.126758561519 0.867 3.13281010917e-39
0.0546801637925 -0.127050968812 0.869 2.57677487853e-39
0.0565474989738 -0.127635783398 0.873 7.54564610967e-39
0.0582963906946 -0.127928190691 0.875 9.67580895073e-39
0.0601211602573 -0.128366801631 0.878 4.32882395367e-39
0.0618867080898 -0.128659208924 0.88 1.65303893084e-39
0.0636596586385 -0.128951616217 0.882 2.66790552156e-39
0.0655140390664 -0.129390227156 0.885 6.0791480304e-39
0.0673036457267 -0.129682634449 0.887 3.13245137676e-39
0.0691006551034 -0.129975041742 0.889 0.0
0.0707459087963 -0.129975041742 0.889 1.76720047465e-38
-0.0815890374655 -0.135403083453 0.938 1.86860123413e-38
-0.0795977067866 -0.134970024551 0.935 1.96983551935e-38
-0.0778673218564 -0.134970024551 0.935 1.99753008155e-38
-0.0761369369263 -0.134970024551 0.935 1.5373152195e-38
-0.0744065519961 -0.134970024551 0.935 2.75506488474e-39
-0.0725207100241 -0.134681318616 0.933 2.11221641163e-39
-0.0707940264521 -0.134681318616 0.933 2.20405190779e-39
-0.0688452613918 -0.134248259714 0.93 2.20405190779e-39
-0.0669797768895 -0.133959553779 0.928 1.83670992316e-40
-0.0650513692989 -0.133526494877 0.925 1.68551990821e-38
-0.0633394911595 -0.133526494877 0.925 4.49993931174e-39
-0.061494364127 -0.133237788942 0.923 1.33388325637e-38
-0.0595918660434 -0.13280473004 0.92 1.35350605916e-38
-0.0577633951226 -0.132516024105 0.918 1.344212928e-38
-0.0558812545087 -0.132082965202 0.915 1.58399555421e-38
-0.0540694396995 -0.131794259268 0.913 9.1835496158e-40
-0.0522076565554 -0.131361200365 0.91 0.0
-0.050523538602 -0.131361200365 0.91 8.92928681204e-39
-0.0488394206486 -0.131361200365 0.91 1.30784012442e-38
-0.0467925695976 -0.130350729593 0.903 0.0
-0.0451214063976 -0.130350729593 0.903 0.0
-0.0433540078861 -0.130062023658 0.901 1.5934963578e-38
-0.0416865460443 -0.130062023658 0.901 1.61176172276e-38
-0.0400190842026 -0.130062023658 0.901 1.28569694621e-39
-0.0383516223608 -0.130062023658 0.901 0.0
-0.0365620157004 -0.129628964756 0.898 1.85921856e-38
-0.0348223773749 -0.129340258821 0.896 1.92854541932e-39
-0.0331641689285 -0.129340258821 0.896 0.0
-0.0314356346774 -0.129051552886 0.894 0.0
-0.0296811909194 -0.128618493984 0.891 5.42009213925e-39
-0.0279693127799 -0.128329788049 0.889 1.56120343469e-39
-0.026324059087 -0.128329788049 0.889 0.0
-0.0246788053941 -0.128329788049 0.889 1.32639233517e-38
-0.0230335517011 -0.128329788049 0.889 1.6580037313e-38
-0.0213401803524 -0.128041082114 0.887 2.20405190779e-39
-0.0196986280176 -0.128041082114 0.887 0.0
-0.0180163607432 -0.127752376179 0.885 1.57512729675e-38
-0.0163229893945 -0.127319317277 0.882 8.28097888012e-39
-0.0146573782318 -0.127030611342 0.88 1.14242749057e-38
-0.0130287806505 -0.127030611342 0.88 1.48330273072e-38
-0.0113742735622 -0.126741905407 0.878 1.41804300006e-38
-0.00974937733903 -0.126741905407 0.878 1.43630093815e-38
-0.00809672092981 -0.126308846505 0.875 1.46396130866e-38
-0.00647737674385 -0.126308846505 0.875 1.38105558697e-38
-0.00484692848347 -0.12602014057 0.873 1.46406696657e-38
-0.00322388293937 -0.125731434635 0.871 1.41786097139e-38
-0.00161194146968 -0.125731434635 0.871 1.41804089812e-38
0.0 -0.125731434635 0.871 1.44566287306e-38
0.00160824011154 -0.1254427287 0.869 1.47321590411e-38
0.00321648022309 -0.1254427287 0.869 1.43630233944e-38
0.00481361626021 -0.125154022766 0.867 1.45484740358e-38
0.00641815501362 -0.125154022766 0.867 1.42704550192e-38
0.00799493358098 -0.124720963863 0.864 1.43640995917e-38
0.00959392029717 -0.124720963863 0.864 1.42729759551e-38
0.0111669975064 -0.124432257928 0.862 1.41804145864e-38
0.0127622828645 -0.124432257928 0.862 1.64842137214e-38
0.0143242559993 -0.124143551994 0.86 7.16318411461e-39
0.0159158399992 -0.124143551994 0.86 7.34683969264e-39
0.01742599412 -0.123566140124 0.856 1.82269833982e-38
0.018965759106 -0.123277434189 0.854 1.67618866173e-38
0.0205462390315 -0.123277434189 0.854 3.39791335785e-39
0.0220489904361 -0.122844375287 0.851 2.11221641163e-39
0.0236239183244 -0.122844375287 0.851 2.8469003809e-39
0.0251396244824 -0.122555669352 0.849 2.8469003809e-39
0.0267108510126 -0.122555669352 0.849 3.94892633479e-39
0.0281488286497 -0.121978257482 0.845 1.16706638134e-38
0.0297126524636 -0.121978257482 0.845 1.01937400735e-38
0.0313505034402 -0.122266963417 0.847 1.19404081626e-38
0.0329180286122 -0.122266963417 0.847 1.09284240428e-38
0.0344855537843 -0.122266963417 0.847 7.99435168703e-39
0.0361382101935 -0.122555669352 0.849 2.47955839627e-39
0.037798269319 -0.122844375287 0.851 1.65841991695e-39
0.0393731972073 -0.122844375287 0.851 1.10453708074e-39
0.041092478063 -0.123277434189 0.854 8.19954662376e-39
0.0426729579885 -0.123277434189 0.854 0.0
0.0445643519977 -0.124143551994 0.86 1.83670992316e-40
0.0461559359976 -0.124143551994 0.86 3.86718158888e-39
0.0478585607417 -0.124432257928 0.862 8.10986352205e-39
0.0495685882021 -0.124720963863 0.864 8.75163579793e-39
0.0511675749183 -0.124720963863 0.864 4.69365481145e-39
0.0529497788624 -0.125154022766 0.867 3.861416647e-39
0.0548060099692 -0.125731434635 0.871 9.76547663817e-39
0.0565474989738 -0.12602014057 0.873 8.84241611635e-39
0.0584962640342 -0.126741905407 0.878 1.93141527857e-39
0.0601211602573 -0.126741905407 0.878 2.11903653126e-39
0.0618867080898 -0.127030611342 0.88 1.65734371973e-39
0.0636596586385 -0.127319317277 0.882 9.7661744848e-39
0.0655140390664 -0.127752376179 0.885 8.47619937438e-39
0.0674554014104 -0.128329788049 0.889 2.02647936639e-39
0.0691006551034 -0.128329788049 0.889 0.0
0.0707459087963 -0.128329788049 0.889 1.8869816457e-38
-0.0815890374655 -0.133667146486 0.938 1.88686071364e-38
-0.0795977067866 -0.133239639621 0.935 1.87764129078e-38
-0.0778673218564 -0.133239639621 0.935 2.05281060532e-38
-0.0761369369263 -0.133239639621 0.935 1.6110341686e-38
-0.0744065519961 -0.133239639621 0.935 3.12240686937e-39
-0.072676167066 -0.133239639621 0.935 1.744874427e-39
-0.0709457821358 -0.133239639621 0.935 2.11221641163e-39
-0.0690673428801 -0.132954635044 0.933 2.29588740395e-39
-0.067124129857 -0.132527128179 0.93 8.26519465422e-40
-0.0652623467129 -0.132242123602 0.928 1.70392428198e-38
-0.0633394911595 -0.131814616737 0.925 4.86728129637e-39
-0.061494364127 -0.131529612161 0.923 1.30626058079e-38
-0.0595918660434 -0.131102105295 0.92 1.47328821111e-38
-0.0577633951226 -0.130817100719 0.918 1.34406915478e-38
-0.0560644717366 -0.130817100719 0.918 1.61179829665e-38
-0.0540694396995 -0.130104589277 0.913 9.1835496158e-40
-0.0523797697089 -0.130104589277 0.913 0.0
-0.050523538602 -0.129677082412 0.91 1.09532718672e-38
-0.0488394206486 -0.129677082412 0.91 1.26166944196e-38
-0.0471553026952 -0.129677082412 0.91 9.1835496158e-41
-0.0451214063976 -0.128679566393 0.903 9.1835496158e-40
-0.0433540078861 -0.128394561817 0.901 1.54729232444e-38
-0.0416865460443 -0.128394561817 0.901 1.57502738417e-38
-0.0400190842026 -0.128394561817 0.901 1.01019045774e-39
-0.0383516223608 -0.128394561817 0.901 0.0
-0.0365620157004 -0.127967054951 0.898 1.71149101343e-38
-0.0348223773749 -0.127682050375 0.896 2.20405190779e-39
-0.0331641689285 -0.127682050375 0.896 0.0
-0.0314356346774 -0.127397045798 0.894 8.7438165525e-39
-0.0296811909194 -0.126969538933 0.891 1.47306568492e-38
-0.0279693127799 -0.126684534356 0.889 2.93873587706e-39
-0.026324059087 -0.126684534356 0.889 0.0
-0.0246788053941 -0.126684534356 0.889 3.95720660742e-39
-0.0230335517011 -0.126684534356 0.889 1.76867379986e-38
-0.0213401803524 -0.126399529779 0.887 3.39791335785e-39
-0.0196986280176 -0.126399529779 0.887 0.0
-0.0180163607432 -0.126114525203 0.885 3.30607786169e-39
-0.0163229893945 -0.125687018338 0.882 1.83670992316e-40
-0.014690690455 -0.125687018338 0.882 0.0
-0.0130287806505 -0.125402013761 0.88 1.34504403812e-38
-0.0114001830692 -0.125402013761 0.88 1.38170368751e-38
-0.00974937733903 -0.125117009184 0.878 1.50108759044e-38
-0.00812448111586 -0.125117009184 0.878 1.41786125165e-38
-0.00647737674385 -0.124689502319 0.875 1.47317862957e-38
-0.00484692848347 -0.124404497742 0.873 1.42719067644e-38
-0.00323128565565 -0.124404497742 0.873 1.6021084579e-38
-0.00161194146968 -0.124119493166 0.871 1.41793383891e-38
0.0 -0.124119493166 0.871 1.42722725033e-38
0.00160824011154 -0.123834488589 0.869 1.42719039618e-38
0.00321648022309 -0.123834488589 0.869 1.42719039618e-38
0.00482472033463 -0.123834488589 0.869 1.45484740358e-38
0.00643296044618 -0.123834488589 0.869 1.43637268463e-38
0.00802269376702 -0.123549484012 0.867 1.46403193411e-38
0.00959392029717 -0.123121977147 0.864 1.43644555215e-38
0.0111929070134 -0.123121977147 0.864 1.4548118106e-38
0.0127622828645 -0.12283697257 0.862 1.48257811928e-38
0.0143242559993 -0.122551967994 0.86 1.61154466163e-38
0.0159158399992 -0.122551967994 0.86 6.61215572338e-39
0.0175074239991 -0.122551967994 0.86 7.98968816575e-39
0.0190101754037 -0.12198195884 0.856 1.80504786462e-38
0.0205462390315 -0.121696954263 0.854 5.42475145665e-39
0.022126718957 -0.121696954263 0.854 1.56120343469e-39
0.0236239183244 -0.121269447398 0.851 2.93873587706e-39
0.0251988462126 -0.121269447398 0.851 1.28569694621e-39
0.0267737741009 -0.121269447398 0.851 1.26916484732e-38
0.0283487019892 -0.121269447398 0.851 1.39859003465e-38
0.0298533040729 -0.120984442822 0.849 7.71418167727e-39
0.031424530603 -0.120984442822 0.849 1.88629402854e-38
0.0329957571332 -0.120984442822 0.849 1.12207909544e-38
0.0345669836633 -0.120984442822 0.849 5.87747175411e-39
0.0362233414307 -0.121269447398 0.851 2.8469003809e-39
0.037798269319 -0.121269447398 0.851 1.01270158459e-39
0.0393731972073 -0.121269447398 0.851 1.19744877412e-39
0.041092478063 -0.121696954263 0.854 3.67341984632e-40
0.0429727679978 -0.122551967994 0.86 8.84103863995e-39
0.0445643519977 -0.122551967994 0.86 6.08015556399e-39
0.0462632753836 -0.12283697257 0.862 7.4655955336e-39
0.0479696014859 -0.123121977147 0.864 4.04686028187e-39
0.0497407013555 -0.123549484012 0.867 2.84797657812e-39
0.051345240109 -0.123549484012 0.867 9.20911350368e-39
0.053071923681 -0.123834488589 0.869 8.38400374452e-39
0.0548060099692 -0.124119493166 0.871 4.0482952115e-39
0.0565474989738 -0.124404497742 0.873 1.01019045774e-39
0.0584962640342 -0.125117009184 0.878 3.31292740858e-39
0.0601211602573 -0.125117009184 0.878 8.47365601767e-39
0.0618867080898 -0.125402013761 0.88 7.55455136141e-39
0.0636596586385 -0.125687018338 0.882 4.32811489664e-39
0.0656620933919 -0.126399529779 0.887 1.37753244237e-39
0.0674554014104 -0.126684534356 0.889 2.21337895037e-39
0.0692561121452 -0.126969538933 0.891 0.0
-0.0795977067866 -0.131509254691 0.935 1.88686225507e-38
-0.0778673218564 -0.131509254691 0.935 1.96976545443e-38
-0.0761369369263 -0.131509254691 0.935 1.72156186523e-38
-0.0744065519961 -0.131509254691 0.935 3.85709083864e-39
-0.072676167066 -0.131509254691 0.935 2.38772290011e-39
-0.0709457821358 -0.131509254691 0.935 2.11221641163e-39
-0.0690673428801 -0.131227951472 0.933 2.38772290011e-39
-0.0673406593081 -0.131227951472 0.933 8.26519465422e-40
-0.0654029983222 -0.130805996644 0.93 1.75909620512e-38
-0.0635449165362 -0.130524693426 0.928 5.05095228869e-39
-0.06162761302 -0.130102738598 0.925 1.18637024859e-38
-0.0597861873457 -0.129821435379 0.923 1.47328793085e-38
-0.0578892412993 -0.129399480551 0.92 1.31655367853e-38
-0.0561866165552 -0.129399480551 0.92 1.54726107549e-38
-0.05418788316 -0.128696222505 0.915 1.19386145005e-39
-0.0523797697089 -0.128414919286 0.913 0.0
-0.050523538602 -0.127992964458 0.91 1.29776128521e-38
-0.0487320812626 -0.12771166124 0.908 1.36294212276e-38
-0.0470516646673 -0.12771166124 0.908 4.5917748079e-40
-0.0451214063976 -0.127008403193 0.903 0.0
-0.0433540078861 -0.126727099975 0.901 1.63949005625e-38
-0.0416865460443 -0.126727099975 0.901 1.58424848858e-38
-0.0400190842026 -0.126727099975 0.901 9.1835496158e-40
-0.0383516223608 -0.126727099975 0.901 0.0
-0.0365620157004 -0.126305145147 0.898 1.72067330187e-38
-0.0348223773749 -0.126023841928 0.896 2.75506488474e-39
-0.0331641689285 -0.126023841928 0.896 0.0
-0.0314356346774 -0.12574253871 0.894 1.23279232399e-38
-0.0296811909194 -0.125320583882 0.891 1.85110714384e-38
-0.0279693127799 -0.125039280663 0.889 8.74412904206e-39
-0.026324059087 -0.125039280663 0.889 0.0
-0.0246788053941 -0.125039280663 0.889 0.0
-0.0230335517011 -0.125039280663 0.889 1.68580086855e-38
-0.0213401803524 -0.124757977445 0.887 4.13259732711e-39
-0.0196986280176 -0.124757977445 0.887 0.0
-0.0180163607432 -0.124476674226 0.885 0.0
-0.0163229893945 -0.124054719398 0.882 0.0
-0.014690690455 -0.124054719398 0.882 0.0
-0.0130287806505 -0.12377341618 0.88 0.0
-0.0114001830692 -0.12377341618 0.88 1.56624516643e-38
-0.00974937733903 -0.123492112961 0.878 1.39996190585e-38
-0.00812448111586 -0.123492112961 0.878 1.57487996757e-38
-0.00647737674385 -0.123070158133 0.875 1.27095991065e-38
-0.00484692848347 -0.122788854915 0.873 1.24369540695e-38
-0.00323128565565 -0.122788854915 0.873 1.35411786607e-38
-0.00161194146968 -0.122507551696 0.871 1.501306193e-38
0.0 -0.122507551696 0.871 1.52842356036e-38
0.00161194146968 -0.122507551696 0.871 1.44559196735e-38
0.00322388293937 -0.122507551696 0.871 1.43644555215e-38
0.00482472033463 -0.122226248477 0.869 1.43640743683e-38
0.00643296044618 -0.122226248477 0.869 1.44552190243e-38
0.00802269376702 -0.121944945259 0.867 1.55590484493e-38
0.00962723252043 -0.121944945259 0.867 1.426975437e-38
0.0111929070134 -0.121522990431 0.864 1.44559070619e-38
0.0127918937296 -0.121522990431 0.864 1.44552190243e-38
0.0143575682225 -0.121241687212 0.862 1.60239544382e-38
0.0159158399992 -0.120960383994 0.86 1.28893226411e-38
0.0175074239991 -0.120960383994 0.86 6.61215572338e-39
0.0190545917013 -0.120679080775 0.858 2.02426825755e-38
0.0206424743431 -0.120679080775 0.858 1.66682672682e-38
0.0221785379709 -0.120397777557 0.856 5.05095228869e-39
0.0237071988825 -0.120116474338 0.854 1.744874427e-39
0.0251988462126 -0.11969451951 0.851 6.24481373874e-39
0.0267737741009 -0.11969451951 0.851 1.6280776013e-38
0.0283487019892 -0.11969451951 0.851 1.55542896397e-38
0.0298533040729 -0.119413216291 0.849 8.36169367167e-39
0.031424530603 -0.119413216291 0.849 1.65534126422e-38
0.0329957571332 -0.119413216291 0.849 1.51851455853e-38
0.0345669836633 -0.119413216291 0.849 4.68361030406e-39
0.0362233414307 -0.11969451951 0.851 2.66538178302e-39
0.037798269319 -0.11969451951 0.851 1.19744877412e-39
0.0395119981375 -0.120116474338 0.854 1.75061414551e-39
0.041092478063 -0.120116474338 0.854 0.0
0.0429727679978 -0.120960383994 0.86 1.22519196138e-38
0.0446679900256 -0.121241687212 0.862 1.01162538737e-39
0.0463706147697 -0.121522990431 0.864 1.28713187584e-39
0.0481361626021 -0.121944945259 0.867 8.65625221406e-39
0.0497407013555 -0.121944945259 0.867 8.1073523952e-39
0.0514636835694 -0.122226248477 0.869 2.02468850696e-39
0.0531940684996 -0.122507551696 0.871 4.59185888581e-40
0.054931856146 -0.122788854915 0.873 2.85084643737e-39
0.056871367811 -0.123492112961 0.878 5.15857901724e-39
0.0584962640342 -0.123492112961 0.878 9.95347063625e-39
0.0602581105085 -0.12377341618 0.88 5.43443723163e-39
0.0620273596991 -0.124054719398 0.882 2.21015035871e-39
0.0638761880897 -0.124476674226 0.885 2.67293197915e-39
0.0656620933919 -0.124757977445 0.887 2.67220890914e-39
0.0676071570942 -0.125320583882 0.891 1.93607879986e-39
0.0692561121452 -0.125320583882 0.891 0.0
-0.0795977067866 -0.129778869761 0.935 1.93288720248e-38
-0.0778673218564 -0.129778869761 0.935 1.96994944491e-38
-0.0761369369263 -0.129778869761 0.935 1.90584564536e-38
-0.0746452895961 -0.130195272551 0.938 4.86728129637e-39
-0.072676167066 -0.129778869761 0.935 1.37753244237e-39
-0.0709457821358 -0.129778869761 0.935 2.20405190779e-39
-0.0690673428801 -0.1295012679 0.933 2.47955839627e-39
-0.0673406593081 -0.1295012679 0.933 1.83670992316e-40
-0.0654029983222 -0.12908486511 0.93 1.69463381329e-38
-0.0635449165362 -0.128807263249 0.928 4.96055172216e-39
-0.06162761302 -0.128390860458 0.925 1.08495505574e-38
-0.0597861873457 -0.128113258598 0.923 1.42719067644e-38
-0.0580780105644 -0.128113258598 0.923 1.37187077618e-38
-0.0561866165552 -0.127696855807 0.92 1.53807710548e-38
-0.05418788316 -0.127002851156 0.915 2.38772290011e-39
-0.0523797697089 -0.126725249296 0.913 0.0
-0.050523538602 -0.126308846505 0.91 1.42640286644e-38
-0.0487320812626 -0.126031244645 0.908 1.53811452015e-38
-0.0470516646673 -0.126031244645 0.908 2.38772290011e-39
-0.0451214063976 -0.125337239993 0.903 0.0
-0.0434502431977 -0.125337239993 0.903 1.6948746965e-38
-0.0416865460443 -0.125059638133 0.901 1.55648105886e-38
-0.0400190842026 -0.125059638133 0.901 1.65303893084e-39
-0.038436753598 -0.125337239993 0.903 0.0
-0.036684160519 -0.125059638133 0.901 1.66571311493e-38
-0.0349001058959 -0.124643235342 0.898 3.67341984632e-39
-0.0331641689285 -0.124365633482 0.896 0.0
-0.0315059604821 -0.124365633482 0.896 1.55533045269e-38
-0.0297811275891 -0.124088031621 0.894 1.52835321518e-38
-0.0280322358683 -0.123671628831 0.891 1.10482967186e-38
-0.026324059087 -0.12339402697 0.889 1.83670992316e-40
-0.0246788053941 -0.12339402697 0.889 0.0
-0.0230335517011 -0.12339402697 0.889 1.55665538039e-38
-0.0213401803524 -0.12311642511 0.887 2.8469003809e-39
-0.0196986280176 -0.12311642511 0.887 0.0
-0.0180163607432 -0.122838823249 0.885 7.81499108879e-39
-0.0163785097666 -0.122838823249 0.885 7.80601717343e-39
-0.014690690455 -0.122422420459 0.882 2.02038091548e-39
-0.0130583915156 -0.122422420459 0.882 0.0
-0.0114001830692 -0.122144818598 0.88 1.54701542786e-38
-0.00977158548786 -0.122144818598 0.88 1.58421191469e-38
-0.00812448111586 -0.121867216738 0.878 1.0867854318e-38
-0.00647737674385 -0.121450813947 0.875 0.0
-0.00484692848347 -0.121173212087 0.873 0.0
-0.00323128565565 -0.121173212087 0.873 0.0
-0.00161194146968 -0.120895610226 0.871 9.94091500201e-39
0.0 -0.120895610226 0.871 1.59318344785e-38
0.00161194146968 -0.120895610226 0.871 1.41800614591e-38
0.00322388293937 -0.120895610226 0.871 1.43637520696e-38
0.00483582440905 -0.120895610226 0.871 1.45481209086e-38
0.00643296044618 -0.120618008366 0.869 1.40882147526e-38
0.00804120055772 -0.120618008366 0.869 1.49147328167e-38
0.00962723252043 -0.120340406505 0.867 1.48229099323e-38
0.0112317712738 -0.120340406505 0.867 1.43633737191e-38
0.0127918937296 -0.119924003715 0.864 1.49140293649e-38
0.0143575682225 -0.119646401854 0.862 1.46377956025e-38
0.0159528535806 -0.119646401854 0.862 1.71292454176e-38
0.0175074239991 -0.119368799994 0.86 6.24481373874e-39
0.0190545917013 -0.119091198133 0.858 1.27809770464e-38
0.0206424743431 -0.119091198133 0.858 1.81434197668e-38
0.0221785379709 -0.118813596273 0.856 2.11221641163e-39
0.0237071988825 -0.118535994412 0.854 8.26519465422e-40
0.025287678808 -0.118535994412 0.854 1.22267088531e-38
0.0267737741009 -0.118119591622 0.851 1.08365885466e-38
0.0283487019892 -0.118119591622 0.851 1.11120950351e-38
0.0298533040729 -0.117841989761 0.849 1.01019045774e-38
0.031424530603 -0.117841989761 0.849 1.2403912853e-38
0.0329957571332 -0.117841989761 0.849 1.39830304873e-38
0.0345669836633 -0.117841989761 0.849 4.49993931174e-39
0.0362233414307 -0.118119591622 0.851 2.02325077473e-39
0.037798269319 -0.118119591622 0.851 1.38183723125e-39
0.0395119981375 -0.118535994412 0.854 1.01306031699e-39
0.041092478063 -0.118535994412 0.854 1.28749060825e-39
0.0430727046675 -0.119646401854 0.862 1.744874427e-39
0.0446679900256 -0.119646401854 0.862 7.82899286305e-39
0.0463706147697 -0.119924003715 0.864 9.12293084553e-39
0.0481361626021 -0.120340406505 0.867 6.54045968875e-39
0.0498554434579 -0.120618008366 0.869 1.38111976644e-39
0.0514636835694 -0.120618008366 0.869 1.47403145982e-39
0.0531940684996 -0.120895610226 0.871 2.30020200192e-39
0.054931856146 -0.121173212087 0.873 1.12437834596e-38
0.056871367811 -0.121867216738 0.878 2.486374312e-39
0.0586295129272 -0.122144818598 0.88 9.1835496158e-41
0.0602581105085 -0.122144818598 0.88 7.55170812683e-39
0.062238337113 -0.122838823249 0.885 8.48151029556e-39
0.0640205410571 -0.12311642511 0.887 2.76726178657e-39
0.0656620933919 -0.12311642511 0.887 2.764404539e-39
0.0676071570942 -0.123671628831 0.891 1.38291342847e-39
0.0692561121452 -0.123671628831 0.891 0.0
-0.0781171635308 -0.128459335584 0.938 1.93295810818e-38
-0.0763812265635 -0.128459335584 0.938 1.93354006743e-38
-0.0746452895961 -0.128459335584 0.938 5.23462328101e-39
-0.072676167066 -0.128048484831 0.935 1.37753244237e-39
-0.0709457821358 -0.128048484831 0.935 2.38772290011e-39
-0.0692153972057 -0.128048484831 0.935 2.29588740395e-39
-0.0673406593081 -0.127774584328 0.933 1.83670992316e-40
-0.0656139757361 -0.127774584328 0.933 1.69448541578e-38
-0.0636818667874 -0.127363733575 0.93 6.34346515063e-39
-0.0618274863596 -0.127089833072 0.928 9.55881173935e-39
-0.0599157348806 -0.126678982319 0.925 1.52860516864e-38
-0.0580780105644 -0.126405081817 0.923 1.30740642254e-38
-0.0563698337831 -0.126405081817 0.923 1.49194439822e-38
-0.0544839918111 -0.125994231063 0.92 1.83670992316e-39
-0.0524945118112 -0.125309479807 0.915 0.0
-0.0506900997183 -0.125035579305 0.913 1.45413260123e-38
-0.0488394206486 -0.124624728552 0.91 1.6580037313e-38
-0.0470516646673 -0.124350828049 0.908 1.46936793853e-39
-0.0452713114023 -0.124076927547 0.906 0.0
-0.0434502431977 -0.123666076794 0.903 1.70381259849e-38
-0.0417790799978 -0.123666076794 0.903 1.35390234637e-38
-0.0401079167979 -0.123666076794 0.903 1.19386145005e-39
-0.038436753598 -0.123666076794 0.903 0.0
-0.036684160519 -0.123392176291 0.901 1.55575812898e-38
-0.0349001058959 -0.122981325538 0.898 4.04076183095e-39
-0.0332381960913 -0.122981325538 0.898 0.0
-0.0315059604821 -0.122707425035 0.896 1.62065632463e-38
-0.0298477520357 -0.122707425035 0.896 1.57499109054e-38
-0.0281266205009 -0.122433524533 0.894 1.09578961521e-38
-0.0264721134126 -0.122433524533 0.894 0.0
-0.0246788053941 -0.121748773277 0.889 0.0
-0.0230335517011 -0.121748773277 0.889 1.17912217242e-38
-0.0213401803524 -0.121474872775 0.887 1.37753244237e-39
-0.0196986280176 -0.121474872775 0.887 0.0
-0.0180570756828 -0.121474872775 0.887 1.2884636699e-38
-0.0163785097666 -0.121200972273 0.885 1.8139058926e-38
-0.0147406587899 -0.121200972273 0.885 2.20405190779e-39
-0.0131028078133 -0.121200972273 0.885 0.0
-0.0114260925761 -0.120790121519 0.882 1.03097031267e-38
-0.00977158548786 -0.120516221017 0.88 1.82370251029e-38
-0.00814298790655 -0.120516221017 0.88 1.744874427e-39
-0.00647737674385 -0.119831469761 0.875 0.0
-0.00485803255789 -0.119831469761 0.875 3.67341984632e-40
-0.00323128565565 -0.119557569259 0.873 0.0
-0.00161564282782 -0.119557569259 0.873 0.0
0.0 -0.119283668757 0.871 4.97315920444e-39
0.00161194146968 -0.119283668757 0.871 1.55684287412e-38
0.00322388293937 -0.119283668757 0.871 1.45502690991e-38
0.00483582440905 -0.119283668757 0.871 1.55640524861e-38
0.00644776587873 -0.119283668757 0.871 1.47368449832e-38
0.00804120055772 -0.119009768254 0.869 1.51070554258e-38
0.00964944066926 -0.119009768254 0.869 1.51045386937e-38
0.0112317712738 -0.118735867752 0.867 1.49176391097e-38
0.0127918937296 -0.118325016998 0.864 1.47328652955e-38
0.0143575682225 -0.118051116496 0.862 1.47328680981e-38
0.0159528535806 -0.118051116496 0.862 1.60247153433e-38
0.0175481389386 -0.118051116496 0.862 6.70542614916e-39
0.019099007999 -0.117777215994 0.86 8.0815236619e-39
0.0206905919989 -0.117777215994 0.86 1.90639018995e-38
0.0222303569849 -0.117503315492 0.858 4.87015115563e-39
0.0237627192546 -0.117229414989 0.856 1.15849281694e-38
0.025287678808 -0.116955514487 0.854 1.57422710261e-38
0.0268681587335 -0.116955514487 0.854 1.03860206436e-38
0.0283487019892 -0.116544663733 0.851 1.81207005148e-38
0.0299236298775 -0.116544663733 0.851 9.37762384791e-39
0.0314985577658 -0.116544663733 0.851 1.1666713553e-38
0.0330734856541 -0.116544663733 0.851 7.99435168703e-39
0.0346484135424 -0.116544663733 0.851 4.95911679253e-39
0.0362233414307 -0.116544663733 0.851 2.02360950714e-39
0.037931518212 -0.116955514487 0.854 1.38291342847e-39
0.0395119981375 -0.116955514487 0.854 4.59536213197e-40
0.041092478063 -0.116955514487 0.854 8.19812850972e-39
0.0429727679978 -0.117777215994 0.86 8.56977808583e-39
0.0447716280535 -0.118325016998 0.864 7.09724881796e-39
0.0463706147697 -0.118325016998 0.864 2.11257514404e-39
0.0481361626021 -0.118735867752 0.867 3.67348991124e-40
0.0498554434579 -0.119009768254 0.869 2.48711139499e-39
0.0514636835694 -0.119009768254 0.869 5.71174999382e-39
0.0531940684996 -0.119283668757 0.871 8.57264374119e-39
0.0550577023227 -0.119831469761 0.875 3.03882221857e-39
0.056871367811 -0.120242320515 0.878 3.03705097731e-39
0.0586295129272 -0.120516221017 0.88 9.67503543398e-39
0.0603950607596 -0.120790121519 0.882 7.7368743046e-39
0.062238337113 -0.121200972273 0.885 1.28605567862e-39
0.0640205410571 -0.121474872775 0.887 5.53524103796e-40
0.0658101477175 -0.121748773277 0.889 8.93891793639e-39
0.0676071570942 -0.12202267378 0.891 2.48099332589e-39
0.0696447547499 -0.122707425035 0.896 0.0
-0.0781171635308 -0.126723398617 0.938 1.99763728088e-38
-0.0763812265635 -0.126723398617 0.938 1.89658978875e-38
-0.0746452895961 -0.126723398617 0.938 5.41829427332e-39
-0.0729093526288 -0.126723398617 0.938 1.28569694621e-39
-0.0709457821358 -0.1263180999 0.935 2.20405190779e-39
-0.0692153972057 -0.1263180999 0.935 2.57139389242e-39
-0.0674850122756 -0.1263180999 0.935 1.83670992316e-40
-0.0656139757361 -0.126047900756 0.933 1.75866460519e-38
-0.0636818667874 -0.12564260204 0.93 6.71188333248e-39
-0.0619607352526 -0.12564260204 0.93 9.00384009424e-39
-0.0601100561829 -0.125372402896 0.928 1.43644555215e-38
-0.0582038567412 -0.12496710418 0.925 1.408644211e-38
-0.0563698337831 -0.124696905035 0.923 1.49179950396e-38
-0.0546616570018 -0.124696905035 0.923 6.70692273592e-39
-0.052781367067 -0.124291606319 0.92 2.29588740395e-39
-0.0508011404625 -0.123616108459 0.915 1.50873251434e-38
-0.0490004297277 -0.123345909315 0.913 1.61175892016e-38
-0.0473107597371 -0.123345909315 0.913 1.1020259539e-39
-0.0454711847418 -0.122940610598 0.91 0.0
-0.0437870667884 -0.122940610598 0.91 1.744874427e-39
-0.0420104148815 -0.122670411454 0.908 6.42848473106e-40
-0.0403299982863 -0.122670411454 0.908 0.0
-0.0385644504538 -0.12240021231 0.906 0.0
-0.0367655903981 -0.121994913594 0.903 1.31705408221e-38
-0.0350944271982 -0.121994913594 0.903 3.12240686937e-39
-0.0334232639983 -0.121994913594 0.903 0.0
-0.0317521007983 -0.121994913594 0.903 1.5837790536e-38
-0.0300809375984 -0.121994913594 0.903 1.59335889042e-38
-0.0281266205009 -0.120779017445 0.894 7.82360066656e-39
-0.0264721134126 -0.120779017445 0.894 0.0
-0.0248176063243 -0.120779017445 0.894 1.56193070859e-39
-0.023163099236 -0.120779017445 0.894 7.36979856668e-39
-0.0215085921477 -0.120779017445 0.894 0.0
-0.0197430443153 -0.120103519584 0.889 6.42848473106e-40
-0.0180977906223 -0.120103519584 0.889 1.65767358538e-38
-0.016415523348 -0.11983332044 0.887 1.74072770459e-38
-0.0147739710132 -0.11983332044 0.887 1.46936793853e-39
-0.0131324186784 -0.11983332044 0.887 0.0
-0.0114649568366 -0.119563121296 0.885 6.25705548213e-39
-0.0097937936367 -0.11915782258 0.882 1.70395637171e-38
-0.00814298790655 -0.118887623436 0.88 3.85709083864e-39
-0.00649958489268 -0.118617424291 0.878 0.0
-0.00485803255789 -0.118212125575 0.875 6.34348757141e-39
-0.00323868837192 -0.118212125575 0.875 6.88766221185e-39
-0.00161564282782 -0.117941926431 0.873 1.92854541932e-39
0.0 -0.117941926431 0.873 0.0
0.00161194146968 -0.117671727287 0.871 1.68512292035e-38
0.00322388293937 -0.117671727287 0.871 1.6393475442e-38
0.00483582440905 -0.117671727287 0.871 6.8952796703e-39
0.00644776587873 -0.117671727287 0.871 4.5917748079e-40
0.00804120055772 -0.117401528143 0.869 4.5917748079e-40
0.00964944066926 -0.117401528143 0.869 1.30715783219e-38
0.0112317712738 -0.117131328999 0.867 1.53808074886e-38
0.0127918937296 -0.116726030282 0.864 1.59295881971e-38
0.0143908804458 -0.116726030282 0.864 1.24233250406e-38
0.0159528535806 -0.116455831138 0.862 1.74954915868e-38
0.0175481389386 -0.116455831138 0.862 6.06150147883e-39
0.019099007999 -0.116185631994 0.86 8.0815236619e-39
0.0206905919989 -0.116185631994 0.86 1.75877026309e-38
0.0222821759988 -0.116185631994 0.86 9.65851272379e-39
0.0238182396267 -0.11591543285 0.858 1.25864852273e-38
0.025287678808 -0.115375034561 0.854 1.15780884316e-38
0.0268681587335 -0.115375034561 0.854 9.91823358506e-39
0.028448638659 -0.115375034561 0.854 1.71951947272e-38
0.0299236298775 -0.114969735845 0.851 1.26037043829e-38
0.0314985577658 -0.114969735845 0.851 7.25500419648e-39
0.0330734856541 -0.114969735845 0.851 8.72616579704e-39
0.0346484135424 -0.114969735845 0.851 4.96055172216e-39
0.0363510382865 -0.115375034561 0.854 2.66645798024e-39
0.037931518212 -0.115375034561 0.854 1.56371456153e-39
0.0395119981375 -0.115375034561 0.854 8.84960617877e-39
0.041092478063 -0.115375034561 0.854 7.00430769732e-39
0.0429727679978 -0.116185631994 0.86 9.1835496158e-40
0.0449270850953 -0.117131328999 0.867 0.0
0.0465316238487 -0.117131328999 0.867 6.42848473106e-40
0.0481361626021 -0.117131328999 0.867 5.80218839541e-39
0.0498554434579 -0.117401528143 0.869 8.28859914117e-39
0.0515821270299 -0.117671727287 0.871 6.43570141815e-40
0.0531940684996 -0.117671727287 0.871 3.0352348945e-39
0.0550577023227 -0.118212125575 0.875 3.68063232952e-39
0.0570009153459 -0.118887623436 0.88 7.83231253911e-39
0.0587627618202 -0.11915782258 0.882 6.8169919277e-39
0.0606004861364 -0.119563121296 0.885 0.0
0.0623789887223 -0.11983332044 0.887 4.87955386832e-39
0.0641648940246 -0.120103519584 0.889 8.57337802158e-39
0.0659582020431 -0.120373718729 0.891 4.79303910244e-39
0.0676071570942 -0.120373718729 0.891 7.18256687496e-39
-0.0781171635308 -0.124987461649 0.938 1.88682498053e-38
-0.0763812265635 -0.124987461649 0.938 2.03477309148e-38
-0.0746452895961 -0.124987461649 0.938 5.96930725027e-39
-0.0729093526288 -0.124987461649 0.938 1.56120343469e-39
-0.0709457821358 -0.12458771497 0.935 2.20405190779e-39
-0.0692153972057 -0.12458771497 0.935 2.47955839627e-39
-0.0674850122756 -0.12458771497 0.935 5.51012976948e-40
-0.0656139757361 -0.124321217184 0.933 1.67601349943e-38
-0.0638872921641 -0.124321217184 0.933 6.89985911368e-39
-0.0619607352526 -0.123921470505 0.93 8.26807292126e-39
-0.0601100561829 -0.123654972719 0.928 1.40878658293e-38
-0.0582038567412 -0.12325522604 0.925 1.37176343672e-38
-0.0564919786017 -0.12325522604 0.925 1.34424936176e-38
-0.0546616570018 -0.122988728254 0.923 1.48254308682e-38
-0.0529534802205 -0.122988728254 0.923 1.17822323945e-38
-0.0509677015787 -0.122322483789 0.918 1.40856405673e-38
-0.0491077691137 -0.12192273711 0.915 1.39971023265e-38
-0.0473107597371 -0.121656239324 0.913 1.32624197585e-38
-0.0456210897465 -0.121656239324 0.913 1.1020259539e-39
-0.0437870667884 -0.121256492645 0.91 0.0
-0.042102948835 -0.121256492645 0.91 0.0
-0.0404188308816 -0.121256492645 0.91 0.0
-0.038649581691 -0.120989994859 0.908 7.17938732875e-39
-0.0368877352167 -0.120723497073 0.906 1.18798048066e-38
-0.0352110199796 -0.120723497073 0.906 1.56120343469e-39
-0.0335343047424 -0.120723497073 0.906 0.0
-0.0317521007983 -0.120323750394 0.903 1.65699956082e-38
-0.0300809375984 -0.120323750394 0.903 1.74076091536e-38
-0.0284097743985 -0.120323750394 0.903 1.65303893084e-39
-0.0267386111986 -0.120323750394 0.903 0.0
-0.0248731266964 -0.119391008143 0.896 6.71516517349e-39
-0.02321491825 -0.119391008143 0.896 3.31253504501e-39
-0.0215567098035 -0.119391008143 0.896 0.0
-0.0197430443153 -0.118458265892 0.889 4.04687990005e-39
-0.0180977906223 -0.118458265892 0.889 1.61179129016e-38
-0.0164525369294 -0.118458265892 0.889 1.60268439157e-38
-0.0148072832364 -0.118458265892 0.889 5.51012976948e-40
-0.0131324186784 -0.118191768105 0.887 0.0
-0.0114649568366 -0.117925270319 0.885 5.15322885971e-39
-0.00982710585995 -0.117925270319 0.885 1.63963467025e-38
-0.00816149469725 -0.11752552364 0.882 6.25019472485e-39
-0.00649958489268 -0.116992528068 0.878 2.93873587706e-39
-0.00485803255789 -0.116592781389 0.875 1.4160041108e-38
-0.00323868837192 -0.116592781389 0.875 1.65706598237e-38
-0.00161934418596 -0.116592781389 0.875 2.02038091548e-39
0.0 -0.116326283603 0.873 0.0
0.00161564282782 -0.116326283603 0.873 1.39020900867e-38
0.00323128565565 -0.116326283603 0.873 1.26152917199e-38
0.00483582440905 -0.116059785817 0.871 0.0
0.00644776587873 -0.116059785817 0.871 0.0
0.00805970734842 -0.116059785817 0.871 0.0
0.00964944066926 -0.115793288031 0.869 0.0
0.0112576807808 -0.115793288031 0.869 6.2620959527e-39
0.0128659208924 -0.115793288031 0.869 1.55641225511e-38
0.0144408487806 -0.115526790245 0.867 1.21474766353e-38
0.015989867162 -0.115127043566 0.864 1.70327337884e-38
0.0175888538782 -0.115127043566 0.864 6.06114274643e-39
0.0191434242967 -0.11486054578 0.862 8.90804312733e-39
0.0207387096547 -0.11486054578 0.862 1.80490381114e-38
0.0222821759988 -0.114594047994 0.86 9.19502905282e-39
0.0238737599988 -0.114594047994 0.86 1.06529175543e-38
0.0253469005382 -0.114061052422 0.856 1.59030055652e-38
0.0269310818219 -0.114061052422 0.856 8.17335915806e-39
0.028448638659 -0.113794554636 0.854 1.20351289323e-38
0.0299236298775 -0.113394807957 0.851 1.0199479792e-38
0.0314985577658 -0.113394807957 0.851 3.21424236553e-39
0.0331900784355 -0.113794554636 0.854 1.58255810224e-38
0.034770558361 -0.113794554636 0.854 5.1456576441e-39
0.0363510382865 -0.113794554636 0.854 1.28569694621e-39
0.037931518212 -0.113794554636 0.854 2.85335756422e-39
0.0395119981375 -0.113794554636 0.854 2.20763923186e-39
0.041092478063 -0.113794554636 0.854 0.0
0.0430727046675 -0.11486054578 0.862 7.17464813734e-43
0.0449270850953 -0.115526790245 0.867 5.1575252408e-39
0.0465316238487 -0.115526790245 0.867 7.5499046557e-39
0.0481361626021 -0.115526790245 0.867 8.56654248767e-39
0.0498554434579 -0.115793288031 0.869 1.46936793853e-39
0.0515821270299 -0.116059785817 0.871 5.71107456797e-39
0.0533162133182 -0.116326283603 0.873 8.47650766004e-39
0.0552464715878 -0.116992528068 0.878 3.96076450422e-39
0.0570009153459 -0.117259025854 0.88 0.0
0.0587627618202 -0.11752552364 0.882 1.65662625491e-39
0.0606004861364 -0.117925270319 0.885 8.19636847885e-39
0.0623789887223 -0.118191768105 0.887 9.0279662499e-39
0.0641648940246 -0.118458265892 0.889 7.73787062781e-39
0.0659582020431 -0.118724763678 0.891 8.0166463456e-39
0.0679865463034 -0.119391008143 0.896 1.84244964167e-39
0.0698002117917 -0.119657505929 0.898 0.0
-0.0785335663215 -0.123908515752 0.943 1.96987139259e-38
-0.0765440863216 -0.12351432111 0.94 2.14530218942e-38
-0.0748044479961 -0.12351432111 0.94 5.78563625795e-39
-0.0729093526288 -0.123251524682 0.938 1.46936793853e-39
-0.0711734156614 -0.123251524682 0.938 2.20405190779e-39
-0.0692153972057 -0.12285733004 0.935 2.38772290011e-39
-0.0674850122756 -0.12285733004 0.935 1.28569694621e-39
-0.0656139757361 -0.122594533612 0.933 1.62941345912e-38
-0.0638872921641 -0.122594533612 0.933 1.08628292617e-38
-0.0621606085921 -0.122594533612 0.933 6.15297824259e-39
-0.0602396037178 -0.12220033897 0.93 1.42733262797e-38
-0.0583926260063 -0.121937542542 0.928 1.35346724319e-38
-0.0564919786017 -0.121543347901 0.925 1.33517301148e-38
-0.0547801004623 -0.121543347901 0.925 1.37197867617e-38
-0.0529534802205 -0.121280551473 0.923 1.44562756033e-38
-0.0510787423229 -0.120886356831 0.92 1.32588282305e-38
-0.0491077691137 -0.120229365761 0.915 1.32588310331e-38
-0.047414397765 -0.120229365761 0.915 1.57466584916e-38
-0.0457210264162 -0.120229365761 0.915 7.08107362979e-39
-0.0439314197559 -0.119966569333 0.913 1.83670992316e-40
-0.0422417497652 -0.119966569333 0.913 0.0
-0.0404188308816 -0.119572374691 0.91 9.1835496158e-41
-0.038649581691 -0.119309578264 0.908 1.54561328862e-38
-0.0368877352167 -0.119046781836 0.906 8.9249511946e-39
-0.0352110199796 -0.119046781836 0.906 0.0
-0.0335343047424 -0.119046781836 0.906 0.0
-0.0317521007983 -0.118652587194 0.903 7.36592257513e-39
-0.0300809375984 -0.118652587194 0.903 1.50173807318e-38
-0.0284097743985 -0.118652587194 0.903 7.34683969264e-40
-0.0267386111986 -0.118652587194 0.903 0.0
-0.0250674479987 -0.118652587194 0.903 1.25162997925e-38
-0.02321491825 -0.117732799696 0.896 1.28569694621e-39
-0.0215567098035 -0.117732799696 0.896 0.0
-0.0198540850594 -0.117470003268 0.894 4.23127256107e-39
-0.0181385055618 -0.117075808626 0.891 1.61172360744e-38
-0.0164525369294 -0.116813012199 0.889 1.65796841858e-38
-0.0148072832364 -0.116813012199 0.889 6.42848473106e-40
-0.0131620295435 -0.116813012199 0.889 0.0
-0.0114908663436 -0.116550215771 0.887 5.15322885971e-39
-0.00982710585995 -0.116287419343 0.885 1.65782240328e-38
-0.00818925488329 -0.116287419343 0.885 1.65778765108e-38
-0.0065291957578 -0.115893224701 0.882 1.2982237137e-38
-0.00487468866951 -0.115367631845 0.878 1.584054689e-38
-0.00324979244634 -0.115367631845 0.878 1.87893875303e-38
-0.00161934418596 -0.114973437203 0.875 1.46936793853e-39
0.0 -0.114973437203 0.875 0.0
0.00161564282782 -0.114710640775 0.873 1.34375120016e-38
0.00323128565565 -0.114710640775 0.873 2.57139389242e-39
0.00484692848347 -0.114710640775 0.873 0.0
0.00644776587873 -0.114447844348 0.871 0.0
0.00805970734842 -0.114447844348 0.871 5.23749874545e-39
0.00964944066926 -0.11418504792 0.869 2.02038091548e-39
0.0112576807808 -0.11418504792 0.869 0.0
0.0128363100272 -0.113922251492 0.867 1.62076800812e-38
0.0144408487806 -0.113922251492 0.867 1.51971000625e-38
0.015989867162 -0.11352805685 0.864 1.6118295456e-38
0.0175888538782 -0.11352805685 0.864 6.06150147883e-39
0.0191434242967 -0.113265260422 0.862 9.92111045081e-39
0.0207387096547 -0.113265260422 0.862 1.18669492945e-38
0.0223339950128 -0.113265260422 0.862 1.30531960887e-38
0.0238737599988 -0.113002463994 0.86 1.0561799523e-38
0.0253469005382 -0.112476871138 0.856 1.75725658049e-38
0.0269310818219 -0.112476871138 0.856 8.17694648213e-39
0.0285152631055 -0.112476871138 0.856 1.38786855997e-38
0.0300291185845 -0.11221407471 0.854 5.51012976948e-39
0.03160959851 -0.11221407471 0.854 7.89785687348e-39
0.0331900784355 -0.11221407471 0.854 1.49986299571e-38
0.034770558361 -0.11221407471 0.854 4.22443282327e-39
0.0363510382865 -0.11221407471 0.854 1.19673130931e-39
0.037931518212 -0.11221407471 0.854 1.19744877412e-39
0.039604532091 -0.112476871138 0.856 4.41491973131e-39
0.0411887133746 -0.112476871138 0.856 5.43049678035e-39
0.0431726413373 -0.11352805685 0.864 7.28083853497e-39
0.0449270850953 -0.113922251492 0.867 6.90886946281e-39
0.0465316238487 -0.113922251492 0.867 3.58230181498e-39
0.0482472033463 -0.11418504792 0.869 3.03057137321e-39
0.0499701855602 -0.114447844348 0.871 8.29358355981e-39
0.0515821270299 -0.114447844348 0.871 8.10849445345e-39
0.0533162133182 -0.114710640775 0.873 2.75506488474e-40
0.0553723177646 -0.115630428273 0.88 8.2903059227e-40
0.0570009153459 -0.115630428273 0.88 5.79787519874e-39
0.0589626351597 -0.116287419343 0.885 8.75346729502e-39
0.0607374363875 -0.116550215771 0.887 5.15139736261e-39
0.0626602919409 -0.117075808626 0.891 8.18845814901e-39
0.064309246992 -0.117075808626 0.891 6.71444630738e-39
0.0659582020431 -0.117075808626 0.891 2.02038091548e-39
0.0679865463034 -0.117732799696 0.896 8.29748057084e-40
0.0698002117917 -0.117995596124 0.898 0.0
0.0717008591963 -0.118389790766 0.901 1.96141315506e-38
-0.0787834079959 -0.122551967994 0.946 1.94221452532e-38
-0.0767883759588 -0.122163325389 0.943 2.1270431303e-38
-0.0748044479961 -0.121774682784 0.94 4.13259732711e-39
-0.0730648096706 -0.121774682784 0.94 9.1835496158e-40
-0.0711734156614 -0.121515587715 0.938 2.29588740395e-39
-0.0694374786941 -0.121515587715 0.938 2.20405190779e-39
-0.0674850122756 -0.12112694511 0.935 1.65303893084e-39
-0.0657546273454 -0.12112694511 0.935 6.99497925344e-39
-0.0638872921641 -0.12086785004 0.933 1.56602292049e-38
-0.0621606085921 -0.12086785004 0.933 6.52035385838e-39
-0.0602396037178 -0.120479207436 0.93 1.60213956672e-38
-0.058518472183 -0.120479207436 0.93 1.33513797902e-38
-0.0566751958296 -0.120220112366 0.928 1.29822343344e-38
-0.0547801004623 -0.119831469761 0.925 1.36268848774e-38
-0.0530682223228 -0.119831469761 0.925 1.35343221073e-38
-0.0512453034392 -0.119572374691 0.923 1.31669843266e-38
-0.0492687781928 -0.118924637017 0.918 1.37194392396e-38
-0.0475698548068 -0.118924637017 0.918 1.38101999399e-38
-0.0457210264162 -0.118535994412 0.915 1.5931423898e-38
-0.0439314197559 -0.118276899343 0.913 9.569904418e-39
-0.0422417497652 -0.118276899343 0.913 8.27739155605e-39
-0.0404188308816 -0.117888256738 0.91 1.05768662841e-38
-0.0387347129282 -0.117888256738 0.91 1.68522157177e-38
-0.0369691650957 -0.117629161668 0.908 3.03236503525e-39
-0.0352887485005 -0.117629161668 0.908 0.0
-0.0336083319052 -0.117629161668 0.908 3.489748854e-39
-0.0318575895053 -0.117370066599 0.906 7.34683969264e-40
-0.0300809375984 -0.116981423994 0.903 0.0
-0.0284097743985 -0.116981423994 0.903 0.0
-0.0267386111986 -0.116981423994 0.903 0.0
-0.0250674479987 -0.116981423994 0.903 1.57363127051e-38
-0.02321491825 -0.11607459125 0.896 2.02038091548e-39
-0.0215567098035 -0.11607459125 0.896 0.0
-0.0198985013571 -0.11607459125 0.896 4.04687990005e-39
-0.0181995779711 -0.11581549618 0.894 1.67637055027e-38
-0.0164895505108 -0.115426853575 0.891 1.65785743574e-38
-0.0148072832364 -0.115167758506 0.889 1.01019045774e-39
-0.0131620295435 -0.115167758506 0.889 0.0
-0.0115167758506 -0.115167758506 0.889 9.47814038806e-39
-0.00984931400879 -0.114908663436 0.887 1.584065479e-38
-0.00820776167399 -0.114908663436 0.887 4.40810381558e-39
-0.00655140390664 -0.114649568366 0.885 5.14279479134e-39
-0.00487468866951 -0.113742735622 0.878 1.01246084151e-38
-0.00324979244634 -0.113742735622 0.878 1.20624570549e-38
-0.00161934418596 -0.113354093017 0.875 1.01019045774e-39
0.0 -0.113354093017 0.875 0.0
0.00161934418596 -0.113354093017 0.875 1.61047014596e-38
0.00323868837192 -0.113354093017 0.875 1.28569694621e-39
0.00484692848347 -0.113094997948 0.873 0.0
0.00644776587873 -0.112835902878 0.871 4.23379209571e-39
0.00805970734842 -0.112835902878 0.871 1.50069284466e-38
0.00964944066926 -0.112576807808 0.869 3.58158435016e-39
0.0112576807808 -0.112576807808 0.869 0.0
0.0128363100272 -0.112317712738 0.867 3.58842268667e-39
0.0144408487806 -0.112317712738 0.867 1.54751162765e-38
0.016045387534 -0.112317712738 0.867 1.58431785285e-38
0.0175888538782 -0.111929070134 0.864 6.52175515684e-39
0.0191878405943 -0.111929070134 0.864 1.09313023098e-38
0.0207387096547 -0.111669975064 0.862 1.09363161558e-38
0.0223339950128 -0.111669975064 0.862 1.12979184219e-38
0.0239292803708 -0.111669975064 0.862 1.1020259539e-38
0.0254653439987 -0.111410879994 0.86 1.31496951061e-38
0.0270569279986 -0.111410879994 0.86 1.04821609287e-38
0.0285152631055 -0.110892689855 0.856 7.07133320417e-39
0.0300291185845 -0.110633594785 0.854 3.85709083864e-39
0.03160959851 -0.110633594785 0.854 1.45384001011e-38
0.0332678069564 -0.110892689855 0.856 7.34683969264e-39
0.03485198824 -0.110892689855 0.856 4.86728129637e-39
0.0364361695237 -0.110892689855 0.856 1.93320894061e-39
0.0380203508073 -0.110892689855 0.856 0.0
