# .PCD v0.7 - Point Cloud Data file format
VERSION 0.7
FIELDS x y z rgb
SIZE 4 4 4 4
TYPE F F F F
COUNT 1 1 1 1
WIDTH 854
HEIGHT 1
VIEWPOINT 0 0 0 1 0 0 0
POINTS 854
DATA ascii
0.0304862363147 -0.195753727915 0.867 4.86728129637e-39
-0.0491077691137 -0.204897933199 0.915 7.71884519856e-39
-0.0473107597371 -0.204450068864 0.913 4.86728129637e-39
-0.0456210897465 -0.204450068864 0.913 4.14771173235e-39
-0.0437870667884 -0.203778272361 0.91 4.60903600238e-39
-0.0413626772071 -0.200195357683 0.894 4.14909901783e-39
-0.0395749212258 -0.19952356118 0.891 2.02721224549e-39
-0.0377557037004 -0.198627832511 0.887 9.02788497459e-39
-0.0360327214865 -0.198179968176 0.885 5.51910088225e-39
-0.0342782777284 -0.197508171673 0.882 6.44893247825e-39
-0.0325719516262 -0.197060307339 0.88 7.64034305729e-39
-0.0308730282403 -0.196612443004 0.878 4.78369664557e-39
-0.0291481953473 -0.195940646501 0.875 2.57932524173e-39
-0.0274030049846 -0.195044917832 0.871 6.08311370505e-39
-0.0257910635149 -0.195044917832 0.871 4.96736763789e-39
-0.0241791220453 -0.195044917832 0.871 6.24481794264e-39
-0.0225671805756 -0.195044917832 0.871 6.24481373874e-39
-0.0209552391059 -0.195044917832 0.871 6.52032022722e-39
-0.0192988813385 -0.194597053497 0.869 6.70399121953e-39
-0.017690641227 -0.194597053497 0.869 7.25751532333e-39
-0.0160824011154 -0.194597053497 0.869 6.70614361397e-39
-0.0144408487806 -0.194149189162 0.867 7.07133320417e-39
-0.0128363100272 -0.194149189162 0.867 7.34684109394e-39
-0.0111929070134 -0.19347739266 0.864 1.4452700891e-38
-0.00959392029717 -0.19347739266 0.864 5.41829427332e-39
-0.00797642679028 -0.193029528325 0.862 1.39941834218e-38
-0.00638114143223 -0.193029528325 0.862 6.70399121953e-39
-0.00478585607417 -0.193029528325 0.862 7.98968816575e-39
-0.00319057071611 -0.193029528325 0.862 8.26662958385e-39
-0.00159528535806 -0.193029528325 0.862 7.99399295463e-39
0.0 -0.193029528325 0.862 8.45388790023e-39
0.00159528535806 -0.193029528325 0.862 8.36133493926e-39
0.00319057071611 -0.193029528325 0.862 8.63935395588e-39
0.00477475199975 -0.19258166399 0.86 8.92059876157e-39
0.00636633599967 -0.19258166399 0.86 5.23462328101e-39
0.00797642679028 -0.193029528325 0.862 6.42848473106e-39
0.00957171214834 -0.193029528325 0.862 5.51012976948e-39
0.0111929070134 -0.19347739266 0.864 5.60196526564e-39
0.0127918937296 -0.19347739266 0.864 4.95911679253e-39
0.0143908804458 -0.19347739266 0.864 2.26361760226e-38
0.015989867162 -0.19347739266 0.864 1.71173918338e-38
0.0175888538782 -0.19347739266 0.864 2.22863474662e-38
0.0191434242967 -0.193029528325 0.862 2.06268765754e-38
0.0207387096547 -0.193029528325 0.862 1.75866306376e-38
0.0223339950128 -0.193029528325 0.862 1.75001607133e-38
0.0239292803708 -0.193029528325 0.862 1.7592722082e-38
0.0255245657289 -0.193029528325 0.862 1.90660542939e-38
0.0270569279986 -0.19258166399 0.86 1.33531902678e-38
0.0286485119985 -0.19258166399 0.86 1.38101999399e-38
0.0302400959984 -0.19258166399 0.86 8.45137677338e-39
0.0318316799983 -0.19258166399 0.86 5.78563625795e-39
-0.0473107597371 -0.202760398873 0.913 4.13259732711e-39
-0.0456210897465 -0.202760398873 0.913 4.88311176513e-39
-0.0437870667884 -0.202094154408 0.91 4.14630763128e-39
-0.0413626772071 -0.198540850594 0.894 9.03112898054e-39
-0.0395749212258 -0.197874606129 0.891 2.48027586108e-39
-0.0377557037004 -0.196986280176 0.887 8.47650766004e-39
-0.0360327214865 -0.196542117199 0.885 5.70353137833e-39
-0.0342782777284 -0.195875872734 0.882 5.33973187622e-39
-0.0324979244634 -0.194987546781 0.878 8.19533151798e-39
-0.0307675395333 -0.194321302315 0.875 8.6584032072e-39
-0.0290815709008 -0.193877139339 0.873 3.49624807628e-39
-0.0273400818963 -0.192988813385 0.869 1.84320914544e-39
-0.0256726200545 -0.192544650409 0.867 6.26680711814e-39
-0.0239848007429 -0.191878405943 0.864 4.50282038138e-39
-0.0223858140267 -0.191878405943 0.864 6.61215992727e-39
-0.0208590037943 -0.192544650409 0.867 6.79582671569e-39
-0.0192544650409 -0.192544650409 0.867 6.70399121953e-39
-0.0175888538782 -0.191878405943 0.864 6.79582671569e-39
-0.015989867162 -0.191878405943 0.864 6.70399121953e-39
-0.0143575682225 -0.191434242967 0.862 7.34683969264e-39
-0.0127622828645 -0.191434242967 0.862 6.61215572338e-39
-0.0111669975064 -0.191434242967 0.862 7.71418868376e-39
-0.00957171214834 -0.191434242967 0.862 6.3366492349e-39
-0.00795791999959 -0.19099007999 0.86 5.6938007618e-39
-0.00636633599967 -0.19099007999 0.86 8.99987862348e-39
-0.00477475199975 -0.19099007999 0.86 1.42460079662e-38
-0.00318316799983 -0.19099007999 0.86 8.90804312733e-39
-0.00159158399992 -0.19099007999 0.86 7.71418167727e-39
0.0 -0.19099007999 0.86 8.63935395588e-39
0.00159158399992 -0.19099007999 0.86 8.91450171195e-39
0.00318316799983 -0.19099007999 0.86 8.36420479851e-39
0.00477475199975 -0.19099007999 0.86 9.38551876346e-39
0.00636633599967 -0.19099007999 0.86 7.08317137359e-39
0.00795791999959 -0.19099007999 0.86 7.07133320417e-39
0.00952729585067 -0.190545917013 0.858 6.15297824259e-39
0.0111151784924 -0.190545917013 0.858 5.05095228869e-39
0.0127030611342 -0.190545917013 0.858 1.67435912646e-38
0.014290943776 -0.190545917013 0.858 1.87814870096e-38
0.0159158399992 -0.19099007999 0.86 2.20882599153e-38
0.0175481389386 -0.191434242967 0.862 2.11785831951e-38
0.019099007999 -0.19099007999 0.86 2.23775593846e-38
0.0206905919989 -0.19099007999 0.86 1.75873495037e-38
0.0222821759988 -0.19099007999 0.86 4.5917748079e-39
0.0238737599988 -0.19099007999 0.86 9.75142301587e-39
0.0254653439987 -0.19099007999 0.86 1.26112377634e-38
0.0270569279986 -0.19099007999 0.86 3.30607786169e-39
0.0286485119985 -0.19099007999 0.86 1.16792579769e-38
0.0301697701938 -0.190545917013 0.858 2.30203728252e-38
0.0316836256728 -0.190101754037 0.856 1.49143096246e-38
0.0332678069564 -0.190101754037 0.856 7.98968816575e-39
-0.0473107597371 -0.201070728883 0.913 3.86283055715e-39
-0.0454711847418 -0.200410036455 0.91 3.40511042676e-39
-0.0435945961652 -0.199529113218 0.906 3.22181217983e-39
-0.0414552111606 -0.197326805125 0.896 1.05026437083e-38
-0.0395749212258 -0.196225651078 0.891 5.80034428663e-39
-0.0378408349376 -0.19578518946 0.889 6.90776243702e-39
-0.0360327214865 -0.194904266222 0.885 7.18006135331e-39
-0.0342005492075 -0.193803112176 0.88 5.15749581353e-39
-0.0324979244634 -0.193362650557 0.878 4.97243052924e-39
-0.0306972137286 -0.192261496511 0.873 7.09109431511e-39
-0.0287817608915 -0.190279419227 0.864 7.08749998455e-39
-0.027119851087 -0.189838957609 0.862 2.11834849371e-39
-0.0255245657289 -0.189838957609 0.862 2.3074341033e-39
-0.0238737599988 -0.18939849599 0.86 4.14267126177e-39
-0.0222821759988 -0.18939849599 0.86 4.96200066477e-39
-0.0207387096547 -0.189838957609 0.862 6.61251445578e-39
-0.0191434242967 -0.189838957609 0.862 7.07384433101e-39
-0.0174667090596 -0.188958034372 0.858 6.98093263763e-39
-0.0158788264178 -0.188958034372 0.858 6.98165010245e-39
-0.014290943776 -0.188958034372 0.858 5.6938007618e-39
-0.0127030611342 -0.188958034372 0.858 8.44886564654e-39
-0.0111410879994 -0.18939849599 0.86 1.42481519528e-38
-0.0095495039995 -0.18939849599 0.86 1.74003616379e-38
-0.00793941320889 -0.188958034372 0.858 2.12786569249e-38
-0.00635153056711 -0.188958034372 0.858 1.98976198351e-38
-0.00476364792533 -0.188958034372 0.858 2.10010961329e-38
-0.00317576528356 -0.188958034372 0.858 2.08145496762e-38
-0.00158788264178 -0.188958034372 0.858 5.14278778485e-39
0.0 -0.188958034372 0.858 8.72616719834e-39
0.00158788264178 -0.188958034372 0.858 8.91485904306e-39
0.00316836256728 -0.188517572753 0.856 8.17909887657e-39
0.00475254385092 -0.188517572753 0.856 7.71848646615e-39
0.00633672513455 -0.188517572753 0.856 8.00116760276e-39
0.00792090641819 -0.188517572753 0.856 7.726382783e-39
0.00948287955299 -0.188077111134 0.854 5.60196526564e-39
0.0110633594785 -0.188077111134 0.854 1.24201384879e-38
0.012643839404 -0.188077111134 0.854 1.41738761277e-38
0.0142243193295 -0.188077111134 0.854 1.73027401804e-38
0.0158418128364 -0.188517572753 0.856 1.8962595027e-38
0.0174667090596 -0.188958034372 0.858 1.8500547687e-38
0.0190545917013 -0.188958034372 0.858 2.274366122e-38
0.0206424743431 -0.188958034372 0.858 1.63833090216e-38
0.0222303569849 -0.188958034372 0.858 1.24111631713e-38
0.0238182396267 -0.188958034372 0.858 5.87747175411e-39
0.0254061222684 -0.188958034372 0.858 1.04868440681e-38
0.0269940049102 -0.188958034372 0.858 1.11307687385e-38
0.0285152631055 -0.188517572753 0.856 1.77793862479e-38
0.0300994443891 -0.188517572753 0.856 2.16475921859e-38
0.03160959851 -0.188077111134 0.854 2.03517568453e-38
0.0331900784355 -0.188077111134 0.854 1.34277239318e-38
0.034770558361 -0.188077111134 0.854 1.70089425431e-38
0.0363510382865 -0.188077111134 0.854 8.44886564654e-39
-0.0491077691137 -0.199817819152 0.915 0.0
-0.0473107597371 -0.199381058892 0.913 4.3277869928e-39
-0.0454711847418 -0.198725918501 0.91 3.95863453055e-39
-0.0435945961652 -0.19785239798 0.906 2.57427215947e-39
-0.0414552111606 -0.195668596678 0.896 6.26061618153e-39
-0.0397081701189 -0.195231836418 0.894 6.26131683076e-39
-0.0379259661748 -0.194576696027 0.891 6.99744974263e-39
-0.0361141513656 -0.193703175506 0.887 7.82326435493e-39
-0.0342005492075 -0.192174514595 0.88 4.8791194658e-39
-0.0324979244634 -0.191737754334 0.878 2.7647772844e-39
-0.0306972137286 -0.190645853683 0.873 6.63302386011e-39
-0.028715136445 -0.188243672251 0.862 7.27441498281e-39
-0.0270569279986 -0.18780691199 0.86 7.45806215305e-39
-0.0254653439987 -0.18780691199 0.86 3.12746415553e-39
-0.0238182396267 -0.18737015173 0.858 3.31654135732e-39
-0.0222303569849 -0.18737015173 0.858 3.4051622748e-39
-0.0206424743431 -0.18737015173 0.858 4.86873584418e-39
-0.0190101754037 -0.186933391469 0.856 6.3366492349e-39
-0.01742599412 -0.186933391469 0.856 6.79582671569e-39
-0.0158418128364 -0.186933391469 0.856 7.07240940139e-39
-0.0142576315527 -0.186933391469 0.856 4.77544580022e-39
-0.012643839404 -0.186496631209 0.854 2.03428165611e-38
-0.0110633594785 -0.186496631209 0.854 1.89742552315e-38
-0.00948287955299 -0.186496631209 0.854 2.03524574946e-38
-0.0079023996275 -0.186496631209 0.854 1.82340655606e-38
-0.006321919702 -0.186496631209 0.854 1.76838835536e-38
-0.0047414397765 -0.186496631209 0.854 1.86975422251e-38
-0.003160959851 -0.186496631209 0.854 1.76859616793e-38
-0.0015804799255 -0.186496631209 0.854 1.79583054371e-38
0.0 -0.186496631209 0.854 5.6938007618e-39
0.0015804799255 -0.186496631209 0.854 8.91055425417e-39
0.00314985577658 -0.185841490818 0.851 8.91557650787e-39
0.00472478366487 -0.185841490818 0.851 8.82517594134e-39
0.00629971155316 -0.185841490818 0.851 6.15513063703e-39
0.0079023996275 -0.186496631209 0.854 7.07959105602e-39
0.00944956732974 -0.185841490818 0.851 5.70061667753e-39
0.011024495218 -0.185841490818 0.851 3.489748854e-39
0.0125994231063 -0.185841490818 0.851 1.33444980134e-38
0.0141743509946 -0.185841490818 0.851 6.88766221185e-39
0.015804799255 -0.186496631209 0.854 1.78559686102e-38
0.0173852791805 -0.186496631209 0.854 1.82246824661e-38
0.018965759106 -0.186496631209 0.854 1.83104195113e-38
0.0205462390315 -0.186496631209 0.854 1.95175540604e-38
0.0221785379709 -0.186933391469 0.856 1.73077624341e-38
0.0237627192546 -0.186933391469 0.856 1.2869983321e-38
0.0253469005382 -0.186933391469 0.856 7.25500419648e-39
0.0268681587335 -0.186496631209 0.854 9.10139989463e-39
0.028448638659 -0.186496631209 0.854 5.6938007618e-39
0.0300291185845 -0.186496631209 0.854 1.71386018874e-38
0.03160959851 -0.186496631209 0.854 2.10036268779e-38
0.0330734856541 -0.185841490818 0.851 2.2472236714e-38
0.0346484135424 -0.185841490818 0.851 1.29564434362e-38
0.0362233414307 -0.185841490818 0.851 1.81181823815e-38
0.037798269319 -0.185841490818 0.851 8.90840185973e-39
-0.0491077691137 -0.198124447804 0.915 2.29590842343e-39
-0.0473107597371 -0.197691388901 0.913 4.14194679046e-39
-0.0454711847418 -0.197041800548 0.91 3.95898485517e-39
-0.0436908314768 -0.196608741646 0.908 3.49799969936e-39
-0.0415477451141 -0.194443447134 0.898 3.59129114462e-39
-0.0397970027142 -0.194010388232 0.896 2.9484622897e-39
-0.0380536630306 -0.193577329329 0.894 9.85516814768e-39
-0.0362770111237 -0.192927740976 0.891 9.4838478767e-39
-0.0343948705098 -0.191628564269 0.885 3.67915956483e-39
-0.0323868837192 -0.189463269758 0.875 2.85947703462e-39
-0.030626887924 -0.188597151953 0.871 2.39743670106e-39
-0.028715136445 -0.186648386893 0.862 6.4486115809e-39
-0.0270569279986 -0.18621532799 0.86 8.46931339373e-39
-0.0254653439987 -0.18621532799 0.86 4.59647476295e-39
-0.0238182396267 -0.185782269088 0.858 2.85807013096e-39
-0.0222303569849 -0.185782269088 0.858 3.31654135732e-39
-0.0205943566873 -0.185349210186 0.856 4.60401655128e-39
-0.018965759106 -0.184916151283 0.854 5.14279899524e-39
-0.0173852791805 -0.184916151283 0.854 6.24481373874e-39
-0.015804799255 -0.184916151283 0.854 7.53051068496e-39
-0.0141743509946 -0.18426656293 0.851 7.8099632299e-39
-0.0125994231063 -0.18426656293 0.851 2.93873587706e-39
-0.011024495218 -0.18426656293 0.851 2.04515096778e-38
-0.00944956732974 -0.18426656293 0.851 1.65774603252e-38
-0.00787463944145 -0.18426656293 0.851 1.6483159945e-38
-0.00629971155316 -0.18426656293 0.851 2.09074711786e-38
-0.00472478366487 -0.18426656293 0.851 1.55611531996e-38
-0.00314985577658 -0.18426656293 0.851 1.86990346079e-38
-0.00157492788829 -0.18426656293 0.851 1.99868769421e-38
0.0 -0.18426656293 0.851 1.4174318938e-38
0.00157122653015 -0.183833504028 0.849 7.34683969264e-39
0.00313505034402 -0.183400445125 0.847 8.91631359086e-39
0.00469147144162 -0.182967386223 0.845 8.54895198805e-39
0.00625529525549 -0.182967386223 0.845 8.55182184731e-39
0.00781911906936 -0.182967386223 0.845 4.86728129637e-39
0.0093607347344 -0.182534327321 0.843 7.72606188565e-39
0.0109208571901 -0.182534327321 0.843 5.79568076535e-39
0.0124809796459 -0.182534327321 0.843 4.95911679253e-39
0.0140744143248 -0.182967386223 0.845 4.68361030406e-39
0.0156382381387 -0.182967386223 0.845 3.94892633479e-39
0.0172020619526 -0.182967386223 0.845 1.49085965308e-38
0.0187658857665 -0.182967386223 0.845 1.53738360287e-38
0.0203297095803 -0.182967386223 0.845 1.55567895562e-38
0.0219453524082 -0.183400445125 0.847 2.11782300679e-38
0.0235128775802 -0.183400445125 0.847 2.29318121636e-38
0.0251396244824 -0.183833504028 0.849 1.31597956655e-38
0.0267108510126 -0.183833504028 0.849 8.91127171899e-39
0.0282820775427 -0.183833504028 0.849 1.07641470212e-38
0.0298533040729 -0.183833504028 0.849 6.89627178961e-39
0.0313505034402 -0.183400445125 0.847 1.74173187507e-38
0.0329180286122 -0.183400445125 0.847 1.99919804711e-38
0.0344855537843 -0.183400445125 0.847 1.55497326171e-38
0.0360530789563 -0.183400445125 0.847 1.70903930163e-38
0.0375317715329 -0.182967386223 0.845 1.452148783e-38
0.0390955953468 -0.182967386223 0.845 7.71418167727e-39
-0.0491077691137 -0.196431076455 0.915 8.65513818178e-39
-0.047414397765 -0.196431076455 0.915 4.87553214173e-39
-0.0454711847418 -0.195357682594 0.91 3.49765778254e-39
-0.0436908314768 -0.19492832505 0.908 3.68239516298e-39
-0.0415477451141 -0.192781537329 0.898 3.03525030879e-39
-0.0397970027142 -0.192352179785 0.896 2.30309288065e-39
-0.0380536630306 -0.191922822241 0.894 9.57609815721e-39
-0.0362770111237 -0.191278785925 0.891 1.18783530614e-38
-0.0346280560726 -0.191278785925 0.891 2.75649981437e-39
-0.0323128565565 -0.187414568027 0.873 2.76551857128e-39
-0.0305565621193 -0.186555852939 0.869 2.58112450896e-39
-0.028715136445 -0.185053101535 0.862 5.15898959769e-39
-0.0270569279986 -0.18462374399 0.86 6.63081541373e-39
-0.0254061222684 -0.184194386446 0.858 7.36911333173e-39
-0.0238182396267 -0.184194386446 0.858 2.94806291963e-39
-0.0222303569849 -0.184194386446 0.858 1.93827323326e-39
-0.0205462390315 -0.183335671358 0.854 4.42539023344e-39
-0.018965759106 -0.183335671358 0.854 8.64941527885e-39
-0.0173242067712 -0.182691635042 0.851 6.15297824259e-39
-0.0157492788829 -0.182691635042 0.851 1.05715441525e-38
-0.0141410387714 -0.182262277497 0.849 7.90466858532e-39
-0.0125698122412 -0.182262277497 0.849 5.96930725027e-39
-0.011024495218 -0.182691635042 0.851 5.14278778485e-39
-0.00944956732974 -0.182691635042 0.851 1.90646894292e-38
-0.00787463944145 -0.182691635042 0.851 1.76813023619e-38
-0.00629971155316 -0.182691635042 0.851 1.40838987533e-38
-0.00470257551603 -0.181832919953 0.847 2.25651750321e-38
-0.00313505034402 -0.181832919953 0.847 1.39937924595e-38
-0.00156752517201 -0.181832919953 0.847 1.50015586709e-38
0.0 -0.181832919953 0.847 2.34834879547e-38
0.00156382381387 -0.181403562409 0.845 6.70470868435e-39
0.00312024491147 -0.180974204865 0.843 6.79582671569e-39
0.0046803673672 -0.180974204865 0.843 9.00742041182e-39
0.00624048982293 -0.180974204865 0.843 8.36528099574e-39
0.00778210548797 -0.180544847321 0.841 8.18627352471e-39
0.00933852658556 -0.180544847321 0.841 3.94892633479e-39
0.0108949476832 -0.180544847321 0.841 7.44769254442e-39
0.0124513687807 -0.180544847321 0.841 6.16195075665e-39
0.0140077898783 -0.180544847321 0.841 7.26546488952e-39
0.0156012245573 -0.180974204865 0.843 4.31626831943e-39
0.0171613470131 -0.180974204865 0.843 3.39791335785e-39
0.0187214694688 -0.180974204865 0.843 2.57139389242e-39
0.0202815919245 -0.180974204865 0.843 5.96930725027e-39
0.0218417143803 -0.180974204865 0.843 1.40655823811e-38
0.0234573572081 -0.181403562409 0.845 1.80496546827e-38
0.025021181022 -0.181403562409 0.845 2.16485885091e-38
0.0266479279242 -0.181832919953 0.847 1.38045344902e-38
0.0282154530962 -0.181832919953 0.847 1.36214282212e-38
0.0297829782682 -0.181832919953 0.847 9.47268793573e-39
0.0313505034402 -0.181832919953 0.847 8.0815236619e-39
0.0328403000913 -0.181403562409 0.845 1.87902086912e-38
0.0344041239052 -0.181403562409 0.845 2.17418785531e-38
0.0359679477191 -0.181403562409 0.845 2.24715570842e-38
0.0373541063422 -0.180544847321 0.841 1.64715936275e-38
0.0389105274398 -0.180544847321 0.841 1.34371070263e-38
0.0404669485374 -0.180544847321 0.841 5.23462328101e-39
-0.0492687781928 -0.195376189385 0.918 7.1778781303e-39
-0.047414397765 -0.194737705106 0.915 4.96450758772e-39
-0.0456210897465 -0.19431204892 0.913 3.68168890856e-39
-0.0437870667884 -0.193673564641 0.91 3.31326512151e-39
-0.0415477451141 -0.191119627525 0.898 4.13691192508e-39
-0.0398858353096 -0.191119627525 0.898 2.20548823872e-39
-0.0381387942678 -0.190693971339 0.896 5.43341568505e-39
-0.0363991559423 -0.190268315153 0.894 1.13298484087e-38
-0.0346280560726 -0.189629830874 0.891 3.12420053141e-39
-0.0322388293937 -0.185373269014 0.871 2.85807013096e-39
-0.0303807476077 -0.183883472363 0.864 2.67367326604e-39
-0.028715136445 -0.183457816176 0.862 2.85661698445e-39
-0.0270569279986 -0.18303215999 0.86 6.63551116488e-39
-0.0254061222684 -0.182606503804 0.858 7.09357461339e-39
-0.0237627192546 -0.182180847618 0.856 2.30306205209e-39
-0.0221785379709 -0.182180847618 0.856 1.84715940581e-39
-0.0205462390315 -0.181755191432 0.854 1.28751723292e-39
-0.0188991346595 -0.181116707153 0.851 1.57477557083e-38
-0.0172834918317 -0.180691050967 0.849 4.49993931174e-39
-0.0157122653015 -0.180691050967 0.849 6.52032302981e-39
-0.0141077265481 -0.180265394781 0.847 7.53051068496e-39
-0.012510590511 -0.179839738595 0.845 7.07384433101e-39
-0.0109467666971 -0.179839738595 0.845 5.51012976948e-39
-0.00938294288323 -0.179839738595 0.845 1.30608065406e-38
-0.00781911906936 -0.179839738595 0.845 1.78661224189e-38
-0.00625529525549 -0.179839738595 0.845 1.9342606151e-38
-0.00469147144162 -0.179839738595 0.845 1.66657084972e-38
-0.00312764762774 -0.179839738595 0.845 2.12748439918e-38
-0.00156382381387 -0.179839738595 0.845 1.67578845089e-38
0.0 -0.179414082409 0.843 2.10900855919e-38
0.00155642109759 -0.178988426223 0.841 2.30279482447e-38
0.00310543947891 -0.178562770037 0.839 5.78563625795e-39
0.00465815921836 -0.178562770037 0.839 6.52032022722e-39
0.00621087895782 -0.178562770037 0.839 8.08619979488e-39
0.00776359869727 -0.178562770037 0.839 8.08618718319e-39
0.00931631843672 -0.178562770037 0.839 7.26361377425e-39
0.0108690381762 -0.178562770037 0.839 4.13259732711e-39
0.0124217579156 -0.178562770037 0.839 9.65855055885e-39
0.0139744776551 -0.178562770037 0.839 5.97684063081e-39
0.0155271973945 -0.178562770037 0.839 7.17536560216e-39
0.017079917134 -0.178562770037 0.839 6.52534248091e-39
0.0186326368734 -0.178562770037 0.839 5.51012976948e-39
0.0201853566129 -0.178562770037 0.839 6.24481373874e-39
0.0217898953663 -0.178988426223 0.841 5.60196526564e-39
0.023401836836 -0.179414082409 0.843 4.22443282327e-39
0.0249619592917 -0.179414082409 0.843 5.41829427332e-39
0.0265220817475 -0.179414082409 0.843 1.07490732537e-38
0.0280822042032 -0.179414082409 0.843 1.23217743422e-38
0.0296423266589 -0.179414082409 0.843 1.20527474579e-38
0.0312764762774 -0.179839738595 0.845 1.44509002224e-38
0.0327625715704 -0.179414082409 0.843 1.04890371002e-38
0.0343226940261 -0.179414082409 0.843 1.43716007423e-38
0.0357976852446 -0.178988426223 0.841 1.78689025951e-38
0.0373541063422 -0.178988426223 0.841 1.5102291011e-38
0.0388179934863 -0.178562770037 0.839 5.14280039653e-39
0.0403707132258 -0.178562770037 0.839 5.41829427332e-39
-0.0475698548068 -0.193677265999 0.918 3.85709083864e-39
-0.0456210897465 -0.19262237893 0.913 4.59861034181e-39
-0.0439314197559 -0.19262237893 0.913 4.04686028187e-39
-0.0415477451141 -0.18945771772 0.898 3.76884266655e-39
-0.0398858353096 -0.18945771772 0.898 3.67700717039e-39
-0.0381387942678 -0.189035762892 0.896 3.40547196176e-39
-0.0362770111237 -0.187980875823 0.891 5.79787519874e-39
-0.0346280560726 -0.187980875823 0.891 3.49660120349e-39
-0.0322388293937 -0.183761327544 0.871 3.04210265828e-39
-0.0303807476077 -0.182284485646 0.864 3.13429828814e-39
-0.028715136445 -0.181862530818 0.862 2.85807013096e-39
-0.0270569279986 -0.181440575991 0.86 2.11870162093e-39
-0.0254061222684 -0.181018621163 0.858 7.92515416757e-39
-0.0237627192546 -0.180596666335 0.856 3.40727263029e-39
-0.0221785379709 -0.180596666335 0.856 1.10599443115e-39
-0.0205462390315 -0.180174711507 0.854 9.48245778863e-39
-0.0188991346595 -0.179541779265 0.851 1.03024359928e-38
-0.0172834918317 -0.179119824437 0.849 1.18686616812e-38
-0.0156382381387 -0.178275914781 0.845 5.96930725027e-39
-0.0140411021016 -0.177853959954 0.843 7.07133320417e-39
-0.0124809796459 -0.177853959954 0.843 6.61287318819e-39
-0.0109208571901 -0.177853959954 0.843 7.7156166069e-39
-0.0093607347344 -0.177853959954 0.843 4.68361030406e-39
-0.00778210548797 -0.177432005126 0.841 1.72178256974e-38
-0.00622568439037 -0.177432005126 0.841 1.68541284901e-38
-0.0046803673672 -0.177853959954 0.843 1.92489615786e-38
-0.00312024491147 -0.177853959954 0.843 1.73150435809e-38
-0.00155642109759 -0.177432005126 0.841 1.88830923586e-38
0.0 -0.177010050298 0.839 1.46373583974e-38
0.00155271973945 -0.177010050298 0.839 2.17361556502e-38
0.00309803676263 -0.17658809547 0.837 2.15542685108e-38
0.00464705514394 -0.17658809547 0.837 5.23462328101e-39
0.00619607352526 -0.17658809547 0.837 6.24481373874e-39
0.00774509190657 -0.17658809547 0.837 7.62521604037e-39
0.00929411028789 -0.17658809547 0.837 7.44441490731e-39
0.0108431286692 -0.17658809547 0.837 5.23462328101e-39
0.0123921470505 -0.17658809547 0.837 3.30607786169e-39
0.0139411654318 -0.17658809547 0.837 1.06798673264e-38
0.0154901838131 -0.17658809547 0.837 7.91507182512e-39
0.0169984872549 -0.176166140642 0.835 5.60949864618e-39
0.0185438042781 -0.176166140642 0.835 8.74161371131e-39
0.0200891213013 -0.176166140642 0.835 9.29152807027e-39
0.0216862573384 -0.17658809547 0.837 9.47304806944e-39
0.0232352757197 -0.17658809547 0.837 1.03031590628e-38
0.024784294101 -0.17658809547 0.837 9.57279950062e-39
0.0263962355707 -0.177010050298 0.839 8.00978418702e-39
0.0279489553102 -0.177010050298 0.839 6.89918088523e-39
0.0295720008543 -0.177432005126 0.841 7.63491302574e-39
0.0311284219519 -0.177432005126 0.841 6.07046978901e-39
0.0326848430495 -0.177432005126 0.841 4.40810381558e-39
0.0342412641471 -0.177432005126 0.841 4.13259732711e-39
0.0357976852446 -0.177432005126 0.841 4.86728129637e-39
0.0372652737469 -0.177010050298 0.839 6.42848473106e-39
0.0387254595329 -0.17658809547 0.837 5.96930725027e-39
0.0402744779142 -0.17658809547 0.837 6.3366492349e-39
0.0417235596257 -0.176166140642 0.835 6.24481373874e-39
0.0432688766489 -0.176166140642 0.835 4.68361030406e-39
-0.0475698548068 -0.191978342613 0.918 2.11221641163e-39
-0.0458709314209 -0.191978342613 0.918 4.41277013947e-39
-0.0441720080349 -0.191978342613 0.918 4.68972697185e-39
-0.0415477451141 -0.187795807916 0.898 4.22912016663e-39
-0.0398858353096 -0.187795807916 0.898 3.95144166554e-39
-0.0381387942678 -0.187377554446 0.896 3.2185625687e-39
-0.0362770111237 -0.186331920772 0.891 3.68243019545e-39
-0.0346280560726 -0.186331920772 0.891 3.31724200655e-39
-0.0322388293937 -0.182149386074 0.871 2.12231416837e-39
-0.0303807476077 -0.18068549893 0.864 2.12303303448e-39
-0.0286485119985 -0.179848991991 0.86 2.21486853064e-39
-0.0269940049102 -0.179430738521 0.858 3.50164167407e-39
-0.0253469005382 -0.179012485051 0.856 2.76407102997e-39
-0.0237071988825 -0.178594231581 0.854 3.04066352475e-39
-0.022126718957 -0.178594231581 0.854 5.51012976948e-40
-0.0204740625478 -0.177966851377 0.851 1.1141180386e-38
-0.0188547183618 -0.177548597907 0.849 1.05765075517e-38
-0.0172427768921 -0.177130344437 0.847 1.14966561753e-38
-0.0156012245573 -0.176293837498 0.843 1.01126665496e-38
-0.0140077898783 -0.175875584028 0.841 6.97949770801e-39
-0.0124513687807 -0.175875584028 0.841 6.7961854481e-39
-0.0108690381762 -0.175457330558 0.839 7.53051068496e-39
-0.00931631843672 -0.175457330558 0.839 7.4386751888e-39
-0.00774509190657 -0.175039077089 0.837 2.93873587706e-39
-0.00619607352526 -0.175039077089 0.837 1.87004541233e-38
-0.00465815921836 -0.175457330558 0.839 1.59339392288e-38
-0.00310543947891 -0.175457330558 0.839 1.70381007615e-38
-0.00154901838131 -0.175039077089 0.837 1.86046487486e-38
0.0 -0.174620823619 0.835 1.67618922225e-38
0.00154531702318 -0.174620823619 0.835 2.08156034526e-38
0.00309063404635 -0.174620823619 0.835 2.19201559476e-38
0.00463595106953 -0.174620823619 0.835 2.03539120424e-38
0.0061812680927 -0.174620823619 0.835 5.87747175411e-39
0.00772658511588 -0.174620823619 0.835 8.91055425417e-39
0.00927190213905 -0.174620823619 0.835 7.71848646615e-39
0.0108172191622 -0.174620823619 0.835 7.53553293865e-39
0.0123625361854 -0.174620823619 0.835 3.94892633479e-39
0.0138745409853 -0.174202570149 0.833 4.31627392462e-39
0.0154161566504 -0.174202570149 0.833 9.38912850831e-39
0.0169984872549 -0.174620823619 0.835 9.30015726621e-39
0.0184993879804 -0.174202570149 0.833 8.10089521187e-39
0.0200410036455 -0.174202570149 0.833 1.04003699399e-38
0.0216344383245 -0.174620823619 0.835 1.00315930256e-38
0.0231797553476 -0.174620823619 0.835 6.06759992975e-39
0.024784294101 -0.175039077089 0.837 3.21424236553e-39
0.0263333124823 -0.175039077089 0.837 2.8472591133e-39
0.0278823308637 -0.175039077089 0.837 2.47955839627e-39
0.0295016750496 -0.175457330558 0.839 2.20405190779e-39
0.0310543947891 -0.175457330558 0.839 2.29588740395e-39
0.0326071145285 -0.175457330558 0.839 2.93873587706e-39
0.034159834268 -0.175457330558 0.839 4.04076183095e-39
0.0357125540074 -0.175457330558 0.839 5.41829427332e-39
0.0371764411516 -0.175039077089 0.837 6.24624866837e-39
0.0386329255794 -0.174620823619 0.835 7.72386745226e-39
0.0401782426026 -0.174620823619 0.835 9.47917875022e-39
0.0417235596257 -0.174620823619 0.835 8.37967092967e-39
0.0432688766489 -0.174620823619 0.835 6.53323459386e-39
0.0448141936721 -0.174620823619 0.835 5.88249400781e-39
0.0463595106953 -0.174620823619 0.835 3.30607786169e-39
-0.0496444660439 -0.191730351618 0.925 9.39017948215e-39
-0.0476734928347 -0.190693971339 0.92 3.67557224076e-39
-0.0459708680906 -0.190693971339 0.92 4.59967953254e-39
-0.0442682433465 -0.190693971339 0.92 4.32237237554e-39
-0.0416865460443 -0.186755726279 0.901 3.95216193295e-39
-0.0400190842026 -0.186755726279 0.901 3.67593377576e-39
-0.0383516223608 -0.186755726279 0.901 4.0436386967e-39
-0.036684160519 -0.186755726279 0.901 3.68061971783e-39
-0.0348223773749 -0.185719346 0.896 3.59201981983e-39
-0.0322388293937 -0.180537444605 0.871 3.13429828814e-39
-0.0303807476077 -0.179086512214 0.864 2.67548794755e-39
-0.0286485119985 -0.178257407991 0.86 2.85807013096e-39
-0.0269940049102 -0.177842855879 0.858 3.13429828814e-39
-0.0253469005382 -0.177428303768 0.856 2.48857855448e-39
-0.0236239183244 -0.176391923488 0.851 1.19783973639e-39
-0.0220489904361 -0.176391923488 0.851 7.36450025719e-39
-0.020425944892 -0.175977371377 0.849 1.02149052855e-38
-0.0188103020641 -0.175562819265 0.847 1.03982175455e-38
-0.0172020619526 -0.175148267154 0.845 7.63813040702e-39
-0.0155642109759 -0.17431916293 0.841 1.28903764175e-38
-0.0139744776551 -0.173904610819 0.839 7.90538605013e-39
-0.0123921470505 -0.173490058707 0.837 7.71418167727e-39
-0.0108431286692 -0.173490058707 0.837 6.79762037773e-39
-0.00927190213905 -0.173075506596 0.835 7.16316870032e-39
-0.00772658511588 -0.173075506596 0.835 6.97949770801e-39
-0.0061812680927 -0.173075506596 0.835 2.57139389242e-39
-0.00463595106953 -0.173075506596 0.835 1.83303053378e-38
-0.00309063404635 -0.173075506596 0.835 1.98006710009e-38
-0.00154531702318 -0.173075506596 0.835 1.82309616845e-38
0.0 -0.172660954484 0.833 2.20162948314e-38
0.00154161566504 -0.172660954484 0.833 2.01749003674e-38
0.00308323133007 -0.172660954484 0.833 1.98986736116e-38
0.00462484699511 -0.172660954484 0.833 2.02653261573e-38
0.00616646266014 -0.172660954484 0.833 5.32932863642e-39
0.00770807832518 -0.172660954484 0.833 8.35703015038e-39
0.00924969399022 -0.172660954484 0.833 9.09924750019e-39
0.0107913096553 -0.172660954484 0.833 8.82842134858e-39
0.0123329253203 -0.172660954484 0.833 7.35867786207e-39
0.0138745409853 -0.172660954484 0.833 6.16302274998e-39
0.0154161566504 -0.172660954484 0.833 6.99386522116e-39
0.0169577723154 -0.172660954484 0.833 1.0499750027e-38
0.0184549716828 -0.172246402372 0.831 1.15121685493e-38
0.0199928859897 -0.172246402372 0.831 8.46931339373e-39
0.0215826193105 -0.172660954484 0.833 4.31734451665e-39
0.0231242349755 -0.172660954484 0.833 2.11221641163e-39
0.0246658506406 -0.172660954484 0.833 1.83670992316e-39
0.026270389394 -0.173075506596 0.835 1.56120343469e-39
0.0278157064172 -0.173075506596 0.835 1.56120343469e-39
0.0293610234403 -0.173075506596 0.835 2.02038091548e-39
0.0309803676263 -0.173490058707 0.837 1.28569694621e-39
0.0325293860076 -0.173490058707 0.837 1.28569694621e-39
0.0340784043889 -0.173490058707 0.837 1.19386145005e-39
0.0356274227702 -0.173490058707 0.837 9.1835496158e-40
0.0371764411516 -0.173490058707 0.837 1.01019045774e-39
0.0386329255794 -0.173075506596 0.835 5.51012976948e-40
0.0401782426026 -0.173075506596 0.835 4.5917748079e-40
0.0417235596257 -0.173075506596 0.835 1.56120343469e-39
0.0432688766489 -0.173075506596 0.835 2.20405190779e-39
0.044706854286 -0.172660954484 0.833 4.95911679253e-39
0.0462484699511 -0.172660954484 0.833 6.06114274643e-39
0.0477900856161 -0.172660954484 0.833 9.09459378799e-39
-0.0496444660439 -0.190018473478 0.925 0.0
-0.0478289498766 -0.189607622725 0.923 3.5902219539e-39
-0.0461207730953 -0.189607622725 0.923 4.4145680054e-39
-0.044412596314 -0.189607622725 0.923 4.59896066642e-39
-0.0416865460443 -0.185088264437 0.901 4.32344296756e-39
-0.0400190842026 -0.185088264437 0.901 3.67593377576e-39
-0.0383516223608 -0.185088264437 0.901 3.67521350835e-39
-0.036684160519 -0.185088264437 0.901 3.76705040581e-39
-0.0348223773749 -0.184061137553 0.896 4.14087759974e-39
-0.0323128565565 -0.179336353888 0.873 3.31759513377e-39
-0.0303807476077 -0.177487525498 0.864 3.04175233366e-39
-0.0286485119985 -0.176665823991 0.86 2.39638292462e-39
-0.0269940049102 -0.176254973237 0.858 7.73503720232e-39
-0.0253469005382 -0.175844122484 0.856 3.12243909924e-39
-0.0236239183244 -0.1748169956 0.851 5.70320067189e-39
-0.0220489904361 -0.1748169956 0.851 1.07638233213e-38
-0.020425944892 -0.174406144847 0.849 1.22410259195e-38
-0.0188103020641 -0.173995294093 0.847 2.8469003809e-39
-0.0171206320735 -0.172762741833 0.841 1.92854541932e-39
-0.0154901838131 -0.171941040326 0.837 2.66322938858e-39
-0.0139078532086 -0.171530189572 0.835 1.40892503122e-38
-0.0123625361854 -0.171530189572 0.835 6.52354881888e-39
-0.0107913096553 -0.171119338819 0.833 7.71418167727e-39
-0.00924969399022 -0.171119338819 0.833 7.25500419648e-39
-0.00768957153448 -0.170708488066 0.831 7.25536292889e-39
-0.00615165722759 -0.170708488066 0.831 6.15297824259e-39
-0.00461374292069 -0.170708488066 0.831 5.96930725027e-39
-0.00307582861379 -0.170708488066 0.831 2.0356793112e-38
-0.0015379143069 -0.170708488066 0.831 1.67607781903e-38
0.0 -0.170708488066 0.831 8.2709652013e-39
0.0015379143069 -0.170708488066 0.831 7.34683969264e-39
0.00307582861379 -0.170708488066 0.831 6.97949770801e-39
0.00461374292069 -0.170708488066 0.831 7.25500419648e-39
0.00615165722759 -0.170708488066 0.831 7.44584983693e-39
0.00768957153448 -0.170708488066 0.831 8.37640870684e-39
0.00922748584138 -0.170708488066 0.831 6.99025968021e-39
0.0107654001483 -0.170708488066 0.831 4.04076183095e-39
0.0123033144552 -0.170708488066 0.831 2.75506488474e-39
0.0138079165388 -0.170297637312 0.829 2.57139389242e-39
0.0153421294876 -0.170297637312 0.829 3.30607786169e-39
0.0168763424363 -0.170297637312 0.829 3.03057137321e-39
0.0184105553851 -0.170297637312 0.829 3.85709083864e-39
0.0199447683338 -0.170297637312 0.829 1.744874427e-39
0.0214789812826 -0.170297637312 0.829 8.26519465422e-40
0.0230131942314 -0.170297637312 0.829 3.489748854e-39
0.0246066289103 -0.170708488066 0.831 3.21424236553e-39
0.0262074663056 -0.171119338819 0.833 3.489748854e-39
0.0277490819706 -0.171119338819 0.833 3.39791335785e-39
0.0292906976357 -0.171119338819 0.833 3.85709083864e-39
0.0309063404635 -0.171530189572 0.835 3.67341984632e-39
0.0324516574867 -0.171530189572 0.835 3.76525534248e-39
0.0339969745099 -0.171530189572 0.835 3.30607786169e-39
0.035542291533 -0.171530189572 0.835 3.85709083864e-39
0.0369987759609 -0.171119338819 0.833 4.31626831943e-39
0.0385403916259 -0.171119338819 0.833 6.52104469852e-39
0.0400820072909 -0.171119338819 0.833 7.07563799305e-39
0.041623622956 -0.171119338819 0.833 7.9089733742e-39
0.043165238621 -0.171119338819 0.833 9.8468458361e-39
0.044706854286 -0.171119338819 0.833 1.05887128613e-38
0.0462484699511 -0.171119338819 0.833 7.91686688845e-39
0.0477900856161 -0.171119338819 0.833 7.9089733742e-39
-0.0496444660439 -0.188306595339 0.925 0.0
-0.0478289498766 -0.187899445944 0.923 4.32453738166e-39
-0.0461207730953 -0.187899445944 0.923 4.59896066642e-39
-0.044412596314 -0.187899445944 0.923 4.59967953254e-39
-0.0416865460443 -0.183420802595 0.901 4.41528827281e-39
-0.0400190842026 -0.183420802595 0.901 4.22877264461e-39
-0.036684160519 -0.183420802595 0.901 3.49190124844e-39
-0.0350166986772 -0.183420802595 0.901 3.30715405891e-39
-0.0318316799983 -0.175074239991 0.86 5.06462335651e-39
-0.0302400959984 -0.175074239991 0.86 3.59418762855e-39
-0.0286485119985 -0.175074239991 0.86 1.56733131287e-39
-0.0270569279986 -0.175074239991 0.86 1.04047279781e-38
-0.0254061222684 -0.174667090596 0.858 8.92490355045e-39
-0.0237071988825 -0.173852791805 0.854 1.00290818988e-38
-0.022126718957 -0.173852791805 0.854 1.15006022318e-38
-0.020425944892 -0.172834918317 0.849 7.1724957429e-39
-0.0186326368734 -0.17079917134 0.839 4.59285100512e-39
-0.0170392021945 -0.170392021945 0.837 3.86247182474e-39
-0.0154531702318 -0.169984872549 0.835 3.67341984632e-40
-0.0138745409853 -0.169577723154 0.833 1.01223971661e-38
-0.0123329253203 -0.169577723154 0.833 1.47317288425e-38
-0.0107654001483 -0.169170573759 0.831 5.05095228869e-39
-0.00920527769254 -0.168763424363 0.829 7.80601717343e-39
-0.00767106474379 -0.168763424363 0.829 7.89821140199e-39
-0.00613685179503 -0.168763424363 0.829 7.62378111074e-39
-0.00460263884627 -0.168763424363 0.829 7.07133320417e-39
-0.00306102318124 -0.168356274968 0.827 5.05095228869e-39
-0.00153051159062 -0.168356274968 0.827 5.6938007618e-39
0.0 -0.168763424363 0.829 6.15333697499e-39
0.00153421294876 -0.168763424363 0.829 9.66499513049e-39
0.00306102318124 -0.168356274968 0.827 6.4360181116e-39
0.00459153477185 -0.168356274968 0.827 6.15297824259e-39
0.00612204636247 -0.168356274968 0.827 3.489748854e-39
0.00767106474379 -0.168763424363 0.829 2.20405190779e-39
0.00920527769254 -0.168763424363 0.829 3.30607786169e-39
0.0107394906413 -0.168763424363 0.829 3.76525534248e-39
0.0122737035901 -0.168763424363 0.829 4.5917748079e-39
0.0137746043156 -0.168356274968 0.827 5.23462328101e-39
0.0153051159062 -0.168356274968 0.827 5.41829427332e-39
0.0168763424363 -0.168763424363 0.829 4.86728129637e-39
0.0184105553851 -0.168763424363 0.829 4.68361030406e-39
0.0199447683338 -0.168763424363 0.829 5.05095228869e-39
0.0214789812826 -0.168763424363 0.829 4.77544580022e-39
0.0230131942314 -0.168763424363 0.829 6.42850014534e-39
0.0246066289103 -0.169170573759 0.831 5.96930725027e-39
0.0261445432172 -0.169170573759 0.831 7.35473881208e-39
0.0276824575241 -0.169170573759 0.831 7.35652546762e-39
0.0292906976357 -0.169577723154 0.833 8.18770845434e-39
0.0308323133007 -0.169577723154 0.833 9.20579102502e-39
0.0323739289658 -0.169577723154 0.833 7.73430152062e-39
0.0338341147517 -0.169170573759 0.831 8.84276924356e-39
0.0353720290586 -0.169170573759 0.831 9.02750101881e-39
0.0369099433655 -0.169170573759 0.831 8.65879276818e-39
0.0384478576724 -0.169170573759 0.831 9.0275136305e-39
0.0399857719793 -0.169170573759 0.831 6.629746223e-39
0.0415236862862 -0.169170573759 0.831 6.07477457789e-39
0.043165238621 -0.169577723154 0.833 5.89217978279e-39
0.044706854286 -0.169577723154 0.833 2.85120797238e-39
0.0460263884627 -0.168763424363 0.829 2.20763923186e-39
0.0475606014115 -0.168763424363 0.829 0.0
0.0490948143602 -0.168763424363 0.829 1.64874479183e-38
-0.0478289498766 -0.186191269162 0.923 5.05098451855e-39
-0.0461207730953 -0.186191269162 0.923 4.87554615472e-39
-0.0417790799978 -0.182156788791 0.903 4.8737384797e-39
-0.0401079167979 -0.182156788791 0.903 4.59644253308e-39
-0.038436753598 -0.182156788791 0.903 4.59536353327e-39
-0.0303807476077 -0.174289552065 0.864 4.23738922887e-39
-0.0287817608915 -0.174289552065 0.864 2.02830385699e-39
-0.027119851087 -0.173886104028 0.862 9.75937538465e-39
-0.0254061222684 -0.173079207954 0.858 9.93545274059e-39
-0.0237071988825 -0.172272311879 0.854 1.03935540242e-38
-0.022126718957 -0.172272311879 0.854 1.24232647848e-38
-0.0204740625478 -0.171667139824 0.851 2.66322938858e-39
-0.0185882205758 -0.168843003563 0.837 1.56407329394e-39
-0.0170392021945 -0.168843003563 0.837 4.97098859312e-39
-0.0154531702318 -0.168439555526 0.835 3.12635292585e-39
-0.0138745409853 -0.168036107489 0.833 5.97291279122e-39
-0.0123033144552 -0.167632659452 0.831 1.11346951767e-38
-0.0107394906413 -0.167229211415 0.829 1.15938726575e-38
-0.00920527769254 -0.167229211415 0.829 7.34683969264e-39
-0.00767106474379 -0.167229211415 0.829 7.98968816575e-39
-0.00613685179503 -0.167229211415 0.829 7.992558025e-39
-0.00459153477185 -0.166825763377 0.827 6.70901347323e-39
-0.00305362046496 -0.16642231534 0.825 7.72314998744e-39
-0.00152681023248 -0.16642231534 0.825 5.6938007618e-39
0.0 -0.16642231534 0.825 4.49993931174e-39
0.00152681023248 -0.16642231534 0.825 3.489748854e-39
0.00305362046496 -0.16642231534 0.825 5.23462328101e-39
0.00456932662302 -0.166018867303 0.823 7.16388616514e-39
0.00609243549736 -0.166018867303 0.823 6.70578488157e-39
0.00763405116239 -0.16642231534 0.825 8.73549283962e-39
0.00918306954371 -0.166825763377 0.827 7.90287492328e-39
0.0107135811343 -0.166825763377 0.827 6.98595489133e-39
0.0122440927249 -0.166825763377 0.827 9.10785707795e-39
0.0137746043156 -0.166825763377 0.827 9.56812476895e-39
0.0153051159062 -0.166825763377 0.827 9.01386918735e-39
0.0168356274968 -0.166825763377 0.827 7.54704880943e-39
0.0183661390874 -0.166825763377 0.827 8.28852347105e-39
0.019896650678 -0.166825763377 0.827 8.28854449053e-39
0.0214271622687 -0.166825763377 0.827 9.57996574097e-39
0.0229576738593 -0.166825763377 0.827 8.19746009035e-39
0.0245474071801 -0.167229211415 0.829 7.7371461565e-39
0.0261445432172 -0.167632659452 0.831 6.0773179346e-39
0.0276824575241 -0.167632659452 0.831 4.96665017308e-39
0.029220371831 -0.167632659452 0.831 4.87554615472e-39
0.0307582861379 -0.167632659452 0.831 3.22141701367e-39
0.0322962004448 -0.167632659452 0.831 2.02649197808e-39
0.0338341147517 -0.167632659452 0.831 1.28928427028e-39
0.0352868978214 -0.167229211415 0.829 9.23377215276e-40
0.0368211107702 -0.167229211415 0.829 5.53524103796e-40
0.0383553237189 -0.167229211415 0.829 1.47439019222e-39
0.0398895366677 -0.167229211415 0.829 1.65770245213e-39
0.0415236862862 -0.167632659452 0.831 1.65770245213e-39
0.0430616005931 -0.167632659452 0.831 1.19960116856e-39
0.044706854286 -0.168036107489 0.833 1.1963725769e-39
0.0460263884627 -0.167229211415 0.829 1.84244964167e-39
0.0475606014115 -0.167229211415 0.829 0.0
0.0490948143602 -0.167229211415 0.829 1.60261670885e-38
-0.0303807476077 -0.172690565349 0.864 4.7815750797e-39
-0.0287817608915 -0.172690565349 0.864 1.93249147579e-39
-0.027119851087 -0.17229081867 0.862 1.02193039614e-38
-0.0254061222684 -0.171491325312 0.858 1.02131116235e-38
-0.0237071988825 -0.170691831954 0.854 1.03045883873e-38
-0.022126718957 -0.170691831954 0.854 1.18729664701e-38
-0.0204740625478 -0.170092211935 0.851 4.40810381558e-39
-0.0185882205758 -0.167293985182 0.837 7.18039626364e-39
-0.0170392021945 -0.167293985182 0.837 2.94268193353e-39
-0.0154531702318 -0.166894238503 0.835 4.32846522126e-39
-0.0138745409853 -0.166494491824 0.833 2.29588740395e-39
-0.0123033144552 -0.166094745145 0.831 9.38408103124e-39
-0.0107394906413 -0.165694998466 0.829 1.75851270444e-38
-0.00920527769254 -0.165694998466 0.829 1.58399163057e-38
-0.00767106474379 -0.165694998466 0.829 7.91040830383e-39
-0.00612204636247 -0.165295251787 0.827 7.07492052823e-39
-0.00459153477185 -0.165295251787 0.827 6.71582938896e-39
-0.00304621774868 -0.164495758429 0.823 7.27042968998e-39
-0.00152310887434 -0.164495758429 0.823 8.18879025675e-39
0.0 -0.164495758429 0.823 8.09770865917e-39
0.00152310887434 -0.164495758429 0.823 8.28134181642e-39
0.00304621774868 -0.164495758429 0.823 8.65262565364e-39
0.00456932662302 -0.164495758429 0.823 1.01302710622e-38
0.00609243549736 -0.164495758429 0.823 8.01377928894e-39
0.0076155443717 -0.164495758429 0.823 7.64351279442e-39
0.00916086139487 -0.164895505108 0.825 7.27477511651e-39
0.0106876716274 -0.164895505108 0.825 6.90703656442e-39
0.0122440927249 -0.165295251787 0.827 5.61452089988e-39
0.0137746043156 -0.165295251787 0.827 6.44068443549e-39
0.0153051159062 -0.165295251787 0.827 3.58481294182e-39
0.0168356274968 -0.165295251787 0.827 2.57714061743e-39
0.0183661390874 -0.165295251787 0.827 2.20799796427e-39
0.019896650678 -0.165295251787 0.827 1.1963725769e-39
0.0214271622687 -0.165295251787 0.827 1.28928427028e-39
0.0229576738593 -0.165295251787 0.827 1.1963725769e-39
0.0245474071801 -0.165694998466 0.829 1.47439019222e-39
0.0261445432172 -0.166094745145 0.831 1.47367272741e-39
0.0276824575241 -0.166094745145 0.831 2.48816797403e-39
0.029220371831 -0.166094745145 0.831 1.84280837408e-39
0.0307582861379 -0.166094745145 0.831 1.56873821653e-39
0.0322962004448 -0.166094745145 0.831 2.48816797403e-39
0.0338341147517 -0.166094745145 0.831 2.3037795169e-39
0.0352868978214 -0.165694998466 0.829 2.11974979218e-39
0.0368211107702 -0.165694998466 0.829 1.84496637371e-39
0.0383553237189 -0.165694998466 0.829 1.9378724619e-39
0.0398895366677 -0.165694998466 0.829 1.7502554131e-39
0.0415236862862 -0.166094745145 0.831 2.0268395001e-39
0.0430616005931 -0.166094745145 0.831 1.19960116856e-39
0.044706854286 -0.166494491824 0.833 1.84280837408e-39
0.0461374292069 -0.166094745145 0.831 2.12046725699e-39
0.0475606014115 -0.165694998466 0.829 0.0
0.0490948143602 -0.165694998466 0.829 1.7132510443e-38
-0.0365620157004 -0.177824349088 0.898 1.05887128613e-38
-0.0349001058959 -0.177824349088 0.898 3.94892633479e-39
-0.0332381960913 -0.177824349088 0.898 4.77831565947e-39
-0.0304862363147 -0.171685646614 0.867 4.31985564349e-39
-0.0288816975613 -0.171685646614 0.867 4.87447696399e-39
-0.027119851087 -0.170695533312 0.862 9.75799370437e-39
-0.0254061222684 -0.16990344267 0.858 1.07662769949e-38
-0.0237627192546 -0.169507397349 0.856 1.06726478367e-38
-0.0221785379709 -0.169507397349 0.856 1.17800547767e-38
-0.0205462390315 -0.169111352028 0.854 2.57139389242e-39
-0.0186326368734 -0.166141012122 0.839 9.57531763396e-39
-0.0170392021945 -0.165744966801 0.837 2.47955839627e-39
-0.0154161566504 -0.164952876159 0.833 2.75901094122e-39
-0.0138412287621 -0.164556830838 0.831 1.1020259539e-39
-0.0122737035901 -0.164160785517 0.829 1.07695195995e-38
-0.0107135811343 -0.163764740196 0.827 1.03027947252e-38
-0.00918306954371 -0.163764740196 0.827 1.62105135067e-38
-0.00763405116239 -0.163368694875 0.825 1.31687990081e-38
-0.00610724092991 -0.163368694875 0.825 7.4544594147e-39
-0.00458043069744 -0.163368694875 0.825 7.00430209212e-39
-0.00304621774868 -0.162972649554 0.823 7.36981257966e-39
-0.0015194075162 -0.162576604233 0.821 6.44570388659e-39
0.0 -0.162576604233 0.821 4.69329607904e-39
0.0015194075162 -0.162576604233 0.821 3.49800390326e-39
0.0030388150324 -0.162576604233 0.821 3.50051082621e-39
0.0045582225486 -0.162576604233 0.821 6.44283402733e-40
0.0060776300648 -0.162576604233 0.821 8.31185789308e-40
0.0076155443717 -0.162972649554 0.823 1.10884186963e-39
0.00913865324604 -0.162972649554 0.823 1.19960116856e-39
0.0106876716274 -0.163368694875 0.825 1.19960116856e-39
0.0122144818598 -0.163368694875 0.825 1.84280837408e-39
0.0137412920923 -0.163368694875 0.825 1.38147849885e-39
0.0153051159062 -0.163764740196 0.827 1.7502554131e-39
0.0168356274968 -0.163764740196 0.827 2.02719683121e-39
0.0183661390874 -0.163764740196 0.827 2.02719683121e-39
0.019896650678 -0.163764740196 0.827 1.7502554131e-39
0.0214271622687 -0.163764740196 0.827 1.84280837408e-39
0.0229576738593 -0.163764740196 0.827 1.84244964167e-39
0.0244881854499 -0.163764740196 0.827 1.84280837408e-39
0.0260816201289 -0.164160785517 0.829 1.93500260264e-39
0.0276158330776 -0.164160785517 0.829 1.93643753227e-39
0.0291500460264 -0.164160785517 0.829 2.0268395001e-39
0.0306842589751 -0.164160785517 0.829 1.7502554131e-39
0.0322184719239 -0.164160785517 0.829 1.65985484657e-39
0.0337526848727 -0.164160785517 0.829 1.84352583889e-39
0.0352868978214 -0.164160785517 0.829 2.02719683121e-39
0.0368211107702 -0.164160785517 0.829 2.11868900924e-39
0.0383553237189 -0.164160785517 0.829 2.11903653126e-39
0.0399857719793 -0.164556830838 0.831 1.56909554764e-39
0.0415236862862 -0.164556830838 0.831 1.10884186963e-39
0.0430616005931 -0.164556830838 0.831 1.10884186963e-39
0.044706854286 -0.164952876159 0.833 1.47439019222e-39
0.0461374292069 -0.164556830838 0.831 2.12046725699e-39
0.0475606014115 -0.164160785517 0.829 0.0
0.0490948143602 -0.164160785517 0.829 1.51982140948e-38
0.0509954617648 -0.16534892148 0.835 1.61158137565e-38
-0.0401079167979 -0.177143299191 0.903 1.07692141165e-38
-0.038436753598 -0.177143299191 0.903 6.80587122308e-39
-0.0365620157004 -0.176162439284 0.898 8.27667409124e-39
-0.0349001058959 -0.176162439284 0.898 4.95911679253e-39
-0.0332381960913 -0.176162439284 0.898 4.77723946225e-39
-0.0288816975613 -0.170081107861 0.867 2.93873587706e-39
-0.027119851087 -0.169100247954 0.862 8.09487663497e-39
-0.0254653439987 -0.168707903991 0.86 1.04003699399e-38
-0.0238737599988 -0.168707903991 0.86 1.10403485537e-38
-0.0222821759988 -0.168707903991 0.86 1.20566879091e-38
-0.0203297095803 -0.16576532427 0.845 3.30607786169e-39
-0.0187658857665 -0.16576532427 0.845 9.02574098794e-39
-0.0169984872549 -0.163803604457 0.835 2.20405190779e-39
-0.015379143069 -0.163018916531 0.831 2.29624613636e-39
-0.0138079165388 -0.162626572568 0.829 6.42848473106e-40
-0.0122440927249 -0.162234228606 0.827 1.04947277733e-38
