# .PCD v0.7 - Point Cloud Data file format
VERSION 0.7
FIELDS x y z rgb
SIZE 4 4 4 4
TYPE F F F F
COUNT 1 1 1 1
WIDTH 852
HEIGHT 1
VIEWPOINT 0 0 0 1 0 0 0
POINTS 852
DATA ascii
0.0524519461926 -0.111991993222 0.766 1.59487677691e-38
0.0539398921646 -0.112138196869 0.767 1.17041786688e-38
0.0553593630111 -0.112138196869 0.767 1.23549753068e-38
0.0569268881831 -0.112430604162 0.769 1.2723780247e-38
0.0583500603877 -0.112430604162 0.769 9.59130925204e-39
0.0599286896341 -0.112723011455 0.771 8.77055893239e-39
0.0615147215968 -0.113015418748 0.773 1.16235367447e-38
0.0629452965177 -0.113015418748 0.773 1.97284634923e-38
0.0643758714385 -0.113015418748 0.773 1.01019045774e-39
-0.0519966791415 -0.126741905407 0.878 7.27475970223e-39
-0.0501996697648 -0.126308846505 0.875 5.89580914582e-39
-0.0483582440905 -0.125731434635 0.871 2.58147763617e-39
-0.0467463026208 -0.125731434635 0.871 4.24352271225e-39
-0.0451343611511 -0.125731434635 0.871 3.96300798306e-39
-0.0434224830117 -0.1254427287 0.869 1.19895096608e-39
-0.0408518897839 -0.122555669352 0.849 1.27108070258e-38
-0.0391881293003 -0.122266963417 0.847 5.97976794331e-39
-0.0376206041283 -0.122266963417 0.847 7.37383710885e-39
-0.0358828164819 -0.121689551547 0.843 1.22555573846e-38
-0.034159834268 -0.121112139677 0.839 5.43805258167e-39
-0.0325293860076 -0.120823433743 0.837 5.25620467865e-39
-0.0309063404635 -0.120534727808 0.835 1.03190553926e-38
-0.0292906976357 -0.120246021873 0.833 8.29356394163e-39
-0.0274825841846 -0.119091198133 0.825 6.72842566086e-39
-0.0257040815987 -0.117936374394 0.817 8.29041382268e-39
-0.0241920767987 -0.117936374394 0.817 8.84425882383e-39
-0.0225690312546 -0.117358962524 0.813 9.02650189301e-39
-0.021012610157 -0.117070256589 0.811 8.01166893346e-39
-0.0194154741199 -0.11649284472 0.807 1.06860190267e-38
-0.017877559813 -0.116204138785 0.805 9.30238112687e-39
-0.0163470482224 -0.11591543285 0.803 6.99350929135e-39
-0.0148054325574 -0.115482373947 0.8 6.16960464886e-39
-0.0132582648551 -0.114904962078 0.796 7.55327197591e-39
-0.0117555134506 -0.114616256143 0.794 8.66247117665e-39
-0.0102342552553 -0.114038844273 0.79 1.07789755616e-38
-0.00873890656699 -0.113605785371 0.787 9.11729622441e-39
-0.00719914158102 -0.112306608664 0.778 9.67042235944e-39
-0.00574450783226 -0.112017902729 0.776 8.01307303452e-39
-0.00428062068815 -0.111296137892 0.771 8.65844244356e-39
-0.00284634440915 -0.111007431957 0.769 8.47406659812e-39
-0.00142317220458 -0.111007431957 0.769 9.94812468261e-39
0.0 -0.110718726022 0.767 6.81630529145e-39
0.00141762016737 -0.110574373055 0.766 2.57462248409e-39
0.00281673354404 -0.109852608218 0.761 9.29956591826e-39
0.00420289216722 -0.109275196348 0.757 1.14239540084e-38
0.00558905079041 -0.108986490413 0.755 1.03194113224e-38
0.00697706009266 -0.108842137445 0.754 9.49073946255e-39
0.00837247211119 -0.108842137445 0.754 8.38120815408e-39
0.00974197462275 -0.108553431511 0.752 1.08722698094e-38
0.011104074418 -0.108264725576 0.75 8.57200334779e-39
0.0124754276087 -0.108120372608 0.749 1.26260971323e-38
0.0137690522784 -0.107398607771 0.744 8.65879276818e-39
0.0151459575062 -0.107398607771 0.744 7.73869178871e-39
0.0164784464364 -0.107109901836 0.742 1.10512884909e-38
0.017851650306 -0.107109901836 0.742 2.8469003809e-39
0.0192766731897 -0.107398607771 0.744 1.83670992316e-40
0.0206535784175 -0.107398607771 0.744 2.000322449e-38
0.0220304836454 -0.107398607771 0.744 1.69636455702e-38
0.0234073888732 -0.107398607771 0.744 1.72384500082e-38
0.024784294101 -0.107398607771 0.744 1.7053690207e-38
0.0262315251335 -0.107687313706 0.746 1.74221027836e-38
0.0276491453009 -0.107831666673 0.747 1.72380996836e-38
0.0291093310869 -0.108120372608 0.749 1.76068625848e-38
0.03049548971 -0.108120372608 0.749 1.71455200979e-38
0.032009345189 -0.108553431511 0.752 1.84359085914e-38
0.0334010558494 -0.108553431511 0.752 1.77901986668e-38
0.0348853004633 -0.108842137445 0.754 1.8067121868e-38
0.0362807124818 -0.108842137445 0.754 1.16101501405e-38
0.0377260928352 -0.108986490413 0.755 1.97205293404e-38
0.0391233555328 -0.108986490413 0.755 1.70489888506e-38
0.0406279576165 -0.109275196348 0.757 1.50169547371e-38
0.0421399624164 -0.109563902283 0.759 1.99988790634e-38
0.0436593699326 -0.109852608218 0.761 1.88950790657e-38
0.0450677367046 -0.109852608218 0.761 1.48413706382e-38
0.0465371758859 -0.109996961185 0.762 1.2901998787e-38
0.047947393337 -0.109996961185 0.762 1.5948048903e-38
0.049487158323 -0.11028566712 0.764 1.75146935796e-38
0.0510343260252 -0.110574373055 0.766 1.64965115168e-38
0.0525204213182 -0.110718726022 0.767 1.38311745753e-38
0.0539398921646 -0.110718726022 0.767 1.21713127222e-38
0.0555037159785 -0.111007431957 0.769 1.00530034649e-38
0.0569268881831 -0.111007431957 0.769 1.15324649562e-38
0.0585018160714 -0.111296137892 0.771 1.28202694553e-38
0.0599286896341 -0.111296137892 0.771 1.33781375844e-38
0.0615943007968 -0.111729196794 0.774 1.5494321072e-38
0.0630267263967 -0.111729196794 0.774 1.99135301779e-38
0.0646257131129 -0.112017902729 0.776 2.75506488474e-40
-0.0519966791415 -0.125117009184 0.878 1.06820197208e-38
-0.0500849276625 -0.124404497742 0.873 3.7742656916e-39
-0.0483582440905 -0.124119493166 0.871 5.25696558372e-39
-0.0467463026208 -0.124119493166 0.871 6.45154169599e-39
-0.0450307231232 -0.123834488589 0.869 5.5274442133e-39
-0.0433225463419 -0.123549484012 0.867 0.0
-0.0409481250955 -0.121269447398 0.851 1.30817251241e-38
-0.0392806632538 -0.120984442822 0.849 3.40010498864e-39
-0.0376206041283 -0.120699438245 0.847 1.27175865078e-38
-0.0358828164819 -0.120129429091 0.843 5.1546932166e-39
-0.034159834268 -0.119559419938 0.839 5.06644364321e-39
-0.0325293860076 -0.119274415361 0.837 5.07075964248e-39
-0.0309063404635 -0.118989410784 0.835 9.12340168181e-39
-0.0292906976357 -0.118704406208 0.833 4.14880334385e-39
-0.0274825841846 -0.117564387901 0.825 8.48198533574e-39
-0.025767004687 -0.116709374171 0.819 4.97534242745e-39
-0.024251298529 -0.116709374171 0.819 9.3964362798e-39
-0.0226245516267 -0.116139365017 0.815 9.76478579803e-39
-0.021064429171 -0.11585436044 0.813 1.02254360435e-38
-0.0194154741199 -0.11499934671 0.807 1.1699827637e-38
-0.017877559813 -0.114714342134 0.805 1.29912671043e-38
-0.0163470482224 -0.114429337557 0.803 5.24724197368e-39
-0.0148424461388 -0.114286835268 0.802 6.99901359172e-39
-0.0132915770784 -0.113716826115 0.798 6.44941592622e-39
-0.0117851243157 -0.113431821538 0.796 6.08063761066e-39
-0.0102601647623 -0.112861812385 0.792 8.7532178639e-39
-0.00876111471582 -0.11243430552 0.789 9.11872975273e-39
-0.00722690176707 -0.111294287213 0.781 1.02246947566e-38
-0.00575931326482 -0.110866780348 0.778 9.30203080226e-39
-0.00429172476257 -0.110154268906 0.773 7.17975306765e-39
-0.00285374712543 -0.109869264329 0.771 8.74918913081e-39
-0.00142317220458 -0.109584259752 0.769 7.18225438541e-39
0.0 -0.109584259752 0.769 9.48962543027e-39
0.00141947084644 -0.109299255176 0.767 3.12889628256e-39
0.00281673354404 -0.108444241446 0.761 8.10524484231e-39
0.00421399624164 -0.108159236869 0.759 1.17006011538e-38
0.00560385622296 -0.107874232292 0.757 1.06878603328e-38
0.00698631348801 -0.107589227715 0.755 1.00414105227e-38
0.00837247211119 -0.107446725427 0.754 1.08718760446e-38
0.00974197462275 -0.10716172085 0.752 8.65885022141e-39
0.0111336852831 -0.10716172085 0.752 8.56618936046e-39
0.0124754276087 -0.106734213985 0.749 1.12442935322e-38
0.0138060658597 -0.10630670712 0.746 7.6464513173e-39
0.0151459575062 -0.106021702543 0.744 5.15933992231e-39
0.016522862734 -0.106021702543 0.744 1.08654076509e-38
0.0178997679619 -0.106021702543 0.744 2.75506488474e-39
0.0192766731897 -0.106021702543 0.744 9.1835496158e-41
0.0207090987896 -0.10630670712 0.746 1.94486031695e-38
0.0220897053756 -0.10630670712 0.746 1.70543964614e-38
0.0235017735058 -0.106449209408 0.747 1.70540265186e-38
0.0248842307708 -0.106449209408 0.747 1.71462361614e-38
0.0262666880358 -0.106449209408 0.747 1.77912552459e-38
0.0277231724637 -0.106734213985 0.749 1.73306330264e-38
0.0291093310869 -0.106734213985 0.749 1.74231789808e-38
0.0305362046496 -0.106876716274 0.75 1.71458732251e-38
0.032009345189 -0.10716172085 0.752 1.74228286562e-38
0.0334010558494 -0.10716172085 0.752 1.77923272392e-38
0.0348853004633 -0.107446725427 0.754 1.73313490899e-38
0.0362807124818 -0.107446725427 0.754 1.87124856719e-38
0.0377260928352 -0.107589227715 0.755 1.87128416017e-38
0.0392269935607 -0.107874232292 0.757 1.86210159146e-38
0.0407352970025 -0.108159236869 0.759 1.78841725444e-38
0.0422510031606 -0.108444241446 0.761 1.3368388751e-38
0.0437167409838 -0.108586743734 0.762 1.19836494306e-38
0.0451269584349 -0.108586743734 0.762 1.39237807856e-38
0.0466593207045 -0.108871748311 0.764 1.30921746068e-38
0.0480732395138 -0.108871748311 0.764 1.18002923291e-38
0.0496167058579 -0.109156752887 0.766 1.35560744634e-38
0.0511009504718 -0.109299255176 0.767 1.25400882352e-38
0.0525204213182 -0.109299255176 0.767 6.18764916919e-39
0.0540805437739 -0.109584259752 0.769 1.22671503268e-38
0.0555037159785 -0.109584259752 0.769 1.50297023492e-38
0.0570749425087 -0.109869264329 0.771 1.4022772713e-38
0.0585018160714 -0.109869264329 0.771 7.10383492075e-39
0.0600841466759 -0.110154268906 0.773 1.16217641022e-38
0.0617534591968 -0.110581775771 0.776 1.45731158693e-38
0.0631895861548 -0.110581775771 0.776 2.00064488777e-38
0.0647922742292 -0.110866780348 0.778 4.5917748079e-40
-0.0519966791415 -0.123492112961 0.878 1.29868936518e-38
-0.0500849276625 -0.122788854915 0.873 1.01019045774e-39
-0.0483582440905 -0.122507551696 0.871 7.09726423225e-39
-0.0467463026208 -0.122507551696 0.871 4.97245575261e-39
-0.0450307231232 -0.122226248477 0.869 8.56731600443e-39
-0.0433225463419 -0.121944945259 0.867 2.20949595233e-39
-0.0415736546211 -0.121522990431 0.864 8.8450169263e-39
-0.0392806632538 -0.119413216291 0.849 3.13289418708e-39
-0.0376206041283 -0.119131913073 0.847 7.92957246163e-39
-0.0358828164819 -0.118569306636 0.843 5.6203376898e-39
-0.034159834268 -0.118006700199 0.839 4.14630202609e-39
-0.0325293860076 -0.11772539698 0.837 3.40979076363e-39
-0.0309063404635 -0.117444093761 0.835 1.18882196039e-38
-0.0292906976357 -0.117162790543 0.833 6.08415486981e-39
-0.0275492086311 -0.116318880887 0.827 9.77267931228e-39
-0.0259557739521 -0.116037577668 0.825 1.16111997131e-38
-0.0243697419894 -0.11575627445 0.823 5.61567416851e-39
-0.0227355923709 -0.115193668013 0.819 1.07803852678e-38
-0.021064429171 -0.114349758357 0.813 8.74920874899e-39
-0.0194154741199 -0.113505848701 0.807 1.3265384906e-38
-0.017877559813 -0.113224545482 0.805 1.16087011979e-38
-0.0163877631619 -0.113224545482 0.805 9.21268541347e-39
-0.0148609529295 -0.112943242264 0.803 6.16925432425e-39
-0.0133248893016 -0.112521287436 0.8 6.08170680139e-39
-0.0117851243157 -0.111958680999 0.796 6.54196888719e-39
-0.0102601647623 -0.111396074562 0.792 6.6316561928e-39
-0.00877221879024 -0.111114771343 0.79 1.00421139745e-38
-0.00724540855776 -0.110130210078 0.783 9.85483603994e-39
-0.00577411869737 -0.10970825525 0.78 8.93070352479e-39
-0.00429727679978 -0.108864345594 0.774 6.90174245882e-39
-0.00286114984171 -0.108723693985 0.773 6.81167820392e-39
-0.00142687356272 -0.108442390766 0.771 7.64356744506e-39
0.0 -0.108161087548 0.769 8.47260224122e-39
0.00142317220458 -0.108161087548 0.769 4.60366622667e-39
0.00282043490218 -0.107176526283 0.762 7.92485849359e-39
0.00421399624164 -0.106754571455 0.759 1.1149555947e-38
0.00560385622296 -0.106473268236 0.757 1.12406823861e-38
0.00698631348801 -0.106191965018 0.755 1.16091089757e-38
0.00837247211119 -0.106051313408 0.754 9.94634082966e-39
0.00976788412972 -0.106051313408 0.754 1.16980395802e-38
0.0111336852831 -0.10577001019 0.752 1.06860610656e-38
0.0124754276087 -0.105348055362 0.749 1.20696989654e-38
0.0138615862318 -0.105348055362 0.749 6.90926462898e-39
0.0151866724457 -0.104926100534 0.746 6.81842685732e-39
0.0165672790317 -0.104926100534 0.746 1.26167000248e-38
0.0179478856177 -0.104926100534 0.746 2.8469003809e-39
0.0193284922036 -0.104926100534 0.746 2.75513494966e-40
0.0207090987896 -0.104926100534 0.746 1.96315931307e-38
0.0221193162407 -0.105066752143 0.747 1.77916083731e-38
0.0235017735058 -0.105066752143 0.747 1.75164662222e-38
0.0249508552173 -0.105348055362 0.749 1.72391562626e-38
0.0263370138405 -0.105348055362 0.749 1.81614698923e-38
0.0277231724637 -0.105348055362 0.749 1.70536930096e-38
0.0291481953473 -0.105488706971 0.75 1.7421752459e-38
0.0305362046496 -0.105488706971 0.75 1.75139480889e-38
0.032009345189 -0.10577001019 0.752 1.72388003328e-38
0.0334898884448 -0.106051313408 0.754 1.71466047029e-38
0.03493156744 -0.106191965018 0.755 1.82533151976e-38
0.0363288301376 -0.106191965018 0.755 1.76061409161e-38
0.037826029505 -0.106473268236 0.757 1.80671162628e-38
0.0394342696166 -0.107035874673 0.761 1.29034603413e-38
0.0408426363886 -0.107035874673 0.761 1.39204330836e-38
0.0423065235327 -0.107176526283 0.762 1.72398989508e-38
0.0437167409838 -0.107176526283 0.762 1.3455166961e-38
0.0452454018953 -0.107457829501 0.764 1.47502091666e-38
0.0467814655231 -0.10773913272 0.766 1.26384173484e-38
0.0481990856905 -0.10773913272 0.766 1.18990348254e-38
0.0496814796253 -0.107879784329 0.767 1.13502218871e-38
0.0511009504718 -0.107879784329 0.767 1.1990543819e-38
0.0526573715693 -0.108161087548 0.769 1.42014284581e-38
0.0540805437739 -0.108161087548 0.769 1.30039572632e-38
0.0555037159785 -0.108161087548 0.769 1.03256120681e-38
0.0570749425087 -0.108442390766 0.771 1.31868042921e-38
0.0586535717551 -0.108723693985 0.773 1.61381980981e-38
0.0601618751969 -0.108864345594 0.774 1.59513083233e-38
0.0619126175968 -0.109426952032 0.778 1.45687690415e-38
0.063352445913 -0.109426952032 0.778 1.95437008885e-38
0.0647922742292 -0.109426952032 0.778 1.83670992316e-40
-0.0521151226019 -0.122144818598 0.88 1.39999819948e-38
-0.0501996697648 -0.121450813947 0.875 1.19386145005e-39
-0.0483582440905 -0.120895610226 0.871 2.58042105713e-39
-0.0467463026208 -0.120895610226 0.871 7.83627541117e-39
-0.0450307231232 -0.120618008366 0.869 4.97888210737e-39
-0.0434224830117 -0.120618008366 0.869 8.66670449931e-39
-0.0415736546211 -0.119924003715 0.864 2.3977674075e-39
-0.0393731972073 -0.118119591622 0.851 3.60358613735e-39
-0.0377094367236 -0.117841989761 0.849 5.16620208089e-39
-0.0360530789563 -0.117564387901 0.847 1.10605917114e-38
-0.0343226940261 -0.11700918418 0.843 3.86968290664e-39
-0.0325293860076 -0.116176378599 0.837 5.43814226477e-39
-0.0309803676263 -0.116176378599 0.837 5.89514773294e-39
-0.0292906976357 -0.115621174878 0.833 9.4003571129e-39
-0.0275492086311 -0.114788369296 0.827 1.06013637838e-38
-0.0259557739521 -0.114510767436 0.825 1.10612923606e-38
-0.0243697419894 -0.114233165575 0.823 6.817810286e-39
-0.022791112743 -0.113955563715 0.821 6.9114296351e-39
-0.0211680671989 -0.113400359994 0.817 1.09665785974e-38
-0.0196079447432 -0.113122758134 0.815 8.93541749283e-39
-0.0179219761107 -0.112012350692 0.807 1.2344487989e-38
-0.0163877631619 -0.111734748831 0.805 1.29916482575e-38
-0.0148609529295 -0.111457146971 0.803 4.50933922184e-39
-0.0133582015249 -0.111318346041 0.802 5.06758009627e-39
-0.0118443460459 -0.11104074418 0.8 5.80546883512e-39
-0.0102860742692 -0.110207938599 0.794 4.97428304581e-39
-0.00877221879024 -0.109652734878 0.79 9.58154920823e-39
-0.00730092892985 -0.109513933948 0.789 1.1330319245e-38
-0.00578152141365 -0.108403526506 0.781 1.09600947894e-38
-0.00433058902303 -0.108264725576 0.78 7.18010339226e-39
-0.00287225391613 -0.107709521855 0.776 6.25745064829e-39
-0.00143612695806 -0.107709521855 0.776 7.5463495615e-39
0.0 -0.107015517204 0.771 6.904226961e-39
0.00142317220458 -0.106737915343 0.769 6.35249091404e-39
0.00282783761846 -0.106043910692 0.764 5.33584327298e-39
0.00422510031606 -0.105627507901 0.761 1.24370745812e-38
0.00561866165552 -0.105349906041 0.759 1.1703457e-38
0.0070048202787 -0.105072304181 0.757 1.06878631354e-38
0.00838357618561 -0.10479470232 0.755 1.07761085049e-38
0.00976788412972 -0.10465590139 0.754 1.09601242167e-38
0.0111336852831 -0.104378299529 0.752 1.02254388461e-38
0.0124920837203 -0.104100697669 0.75 1.23466347783e-38
0.0138800930225 -0.104100697669 0.75 4.97496828076e-39
0.015247744855 -0.103961896739 0.749 7.09614739737e-39
0.0165894871805 -0.103684294878 0.747 1.36348344436e-38
0.0179719444456 -0.103684294878 0.747 2.57139389242e-39
0.0193544017106 -0.103684294878 0.747 8.26519465422e-40
0.0207368589757 -0.103684294878 0.747 2.00914852738e-38
0.0221785379709 -0.103961896739 0.749 1.73313518925e-38
0.0235646965941 -0.103961896739 0.749 1.71466047029e-38
0.0249841674406 -0.104100697669 0.75 1.70536930096e-38
0.0263721767428 -0.104100697669 0.75 1.74213965292e-38
0.0278342132079 -0.104378299529 0.752 1.74217720772e-38
0.0292259238682 -0.104378299529 0.752 1.74228314588e-38
0.0306176345286 -0.104378299529 0.752 1.72395304093e-38
0.0320944764262 -0.10465590139 0.754 1.81611139625e-38
0.0335343047424 -0.10479470232 0.755 1.83465800182e-38
0.0350241013935 -0.105072304181 0.757 1.40148553767e-38
0.0364250654493 -0.105072304181 0.757 1.05975200221e-38
0.0380259028445 -0.105627507901 0.761 1.70518180722e-38
0.0394860886305 -0.105766308832 0.762 1.67767754135e-38
0.0408963060816 -0.105766308832 0.762 1.33626055922e-38
0.0424175642769 -0.106043910692 0.764 1.44746718496e-38
0.0438314830861 -0.106043910692 0.764 1.16203221661e-38
0.0453638453558 -0.106321512553 0.766 1.24507862867e-38
0.0467814655231 -0.106321512553 0.766 9.60104547377e-39
0.0482620087789 -0.106460313483 0.767 1.07016084721e-38
0.0496814796253 -0.106460313483 0.767 1.39284527147e-38
0.0511009504718 -0.106460313483 0.767 1.46649051226e-38
0.0526573715693 -0.106737915343 0.769 9.40151038154e-39
0.0542211953832 -0.107015517204 0.771 1.15270068987e-38
0.0556480689459 -0.107015517204 0.771 1.09735304391e-38
0.0572229968342 -0.107293119064 0.773 1.5857237756e-38
0.0587294495969 -0.107431919994 0.774 1.18090070043e-38
0.0603173322387 -0.107709521855 0.776 1.43897657743e-38
0.0620717759968 -0.108264725576 0.78 1.50300933115e-38
0.0635153056711 -0.108264725576 0.78 2.00972221897e-38
0.0649588353455 -0.108264725576 0.78 1.83670992316e-40
0.0666577587314 -0.108681128366 0.783 1.1020259539e-39
-0.0522335660624 -0.120790121519 0.882 1.57520759115e-38
-0.0501996697648 -0.119831469761 0.875 1.19386145005e-39
-0.0484692848347 -0.119557569259 0.873 3.50484644366e-39
-0.0468536420069 -0.119557569259 0.873 3.41054045831e-39
-0.0451343611511 -0.119283668757 0.871 6.73059346958e-39
-0.0434224830117 -0.119009768254 0.869 7.37339990373e-39
-0.0417180075885 -0.118735867752 0.867 8.94291303831e-39
-0.0393731972073 -0.116544663733 0.851 2.39712140891e-39
-0.037798269319 -0.116544663733 0.851 1.27194039919e-38
-0.0360530789563 -0.115996862729 0.847 1.05956254666e-38
-0.0344041239052 -0.115722962227 0.845 4.88314399499e-39
-0.0327625715704 -0.115449061724 0.843 6.26647080651e-39
-0.0310543947891 -0.11490126072 0.839 6.35609365239e-39
-0.0293610234403 -0.114353459715 0.835 4.60868287517e-39
-0.0275492086311 -0.113257857706 0.827 9.12445265566e-39
-0.0259557739521 -0.112983957203 0.825 9.957070572e-39
-0.0244289637197 -0.112983957203 0.825 4.88135173425e-39
-0.022791112743 -0.112436156199 0.821 5.24655393613e-39
-0.0211680671989 -0.111888355194 0.817 8.75461916236e-39
-0.0196079447432 -0.111614454692 0.815 1.18864161327e-38
-0.0179219761107 -0.110518852683 0.807 1.25313749613e-38
-0.0164284781015 -0.110518852683 0.807 1.26239713626e-38
-0.0148979665109 -0.11024495218 0.805 1.07793104719e-38
-0.0133748576365 -0.109971051678 0.803 5.61463020116e-39
-0.011873956911 -0.109834101427 0.802 5.89514773294e-39
-0.0103378932832 -0.109286300422 0.798 5.80474716641e-39
-0.00879442693908 -0.108464598915 0.792 8.10569746171e-39
-0.0073101823252 -0.108190698413 0.79 1.10533582087e-38
-0.00579632684621 -0.107232046655 0.783 9.76122790122e-39
-0.00433614106024 -0.106958146153 0.781 9.30131193614e-39
-0.00288705934869 -0.106821195901 0.78 8.84065888807e-39
-0.0014398283162 -0.106547295399 0.778 7.27191086245e-39
0.0 -0.105999494394 0.774 7.27300807915e-39
0.00142687356272 -0.105588643641 0.771 7.27621004614e-39
0.00283524033474 -0.104903892385 0.766 1.83889314617e-39
0.00423065235327 -0.104356091381 0.762 1.13360967985e-38
0.00563346708808 -0.104219141129 0.761 1.13342989326e-38
0.0070048202787 -0.103671340125 0.757 1.17009388667e-38
0.00840578433445 -0.103671340125 0.757 9.48716755277e-39
0.00978083888321 -0.103397439623 0.755 1.15140238684e-38
0.0111632961483 -0.103260489371 0.754 1.07782594981e-38
0.0125253959435 -0.102986588869 0.752 1.18842118903e-38
0.0138800930225 -0.102712688367 0.75 5.52779453792e-39
0.0152681023248 -0.102712688367 0.75 5.16395439815e-39
0.0166339034782 -0.102575738116 0.749 1.29019805701e-38
0.0180200621014 -0.102575738116 0.749 3.31074138298e-39
0.0194062207246 -0.102575738116 0.749 1.46936793853e-39
0.0207923793478 -0.102575738116 0.749 2.02744444064e-38
0.0222081488361 -0.102712688367 0.75 1.72380996836e-38
0.0236590812267 -0.102986588869 0.752 1.71451697733e-38
0.0250507918871 -0.102986588869 0.752 1.80681980653e-38
0.0264425025475 -0.102986588869 0.752 1.74235447197e-38
0.0278342132079 -0.102986588869 0.752 1.76994099406e-38
0.0293036523892 -0.103260489371 0.754 1.86199271057e-38
0.0306990644077 -0.103260489371 0.754 1.63175572951e-38
0.0321370420448 -0.103397439623 0.755 1.31865380453e-38
0.0336231373378 -0.103671340125 0.757 9.77126960602e-39
0.035116635347 -0.103945240627 0.759 1.44750642132e-38
0.0366175360725 -0.104219141129 0.761 1.7607257751e-38
0.0380259028445 -0.104219141129 0.761 1.15197201467e-38
0.0394860886305 -0.104356091381 0.762 1.33698306871e-38
0.0408963060816 -0.104356091381 0.762 1.21724183467e-38
0.0424175642769 -0.104629991883 0.764 9.68600900226e-39
0.0439462251884 -0.104903892385 0.766 9.42388211152e-39
0.045423067086 -0.105040842636 0.767 1.13469624668e-38
0.0468425379324 -0.105040842636 0.767 1.51248252916e-38
0.0483878549556 -0.105314743139 0.769 1.540065548e-38
0.0498110271602 -0.105314743139 0.769 8.75819387474e-39
0.0512341993648 -0.105314743139 0.769 1.2361812242e-38
0.0527943218205 -0.105588643641 0.771 1.39262722943e-38
0.0543618469925 -0.105862544143 0.773 1.08825973791e-38
0.0558645983971 -0.105999494394 0.774 9.78076760701e-39
0.0574450783226 -0.106273394897 0.776 8.85509646615e-39
0.0590329609644 -0.106547295399 0.778 1.40198916434e-38
0.0604727892806 -0.106547295399 0.778 1.48489460577e-38
0.0620717759968 -0.106821195901 0.78 1.43850798323e-38
0.0635967355502 -0.106958146153 0.781 2.00057426233e-38
0.0650421159036 -0.106958146153 0.781 1.83670992316e-40
0.0666577587314 -0.107232046655 0.783 1.1020259539e-39
-0.0524112312531 -0.119563121296 0.885 1.84254016555e-38
-0.0503717829183 -0.118617424291 0.878 5.51024187336e-40
-0.0485803255789 -0.118212125575 0.875 4.23777178335e-39
-0.0468536420069 -0.117941926431 0.873 4.69982612989e-39
-0.0451343611511 -0.117671727287 0.871 4.88387267019e-39
-0.0434224830117 -0.117401528143 0.869 7.09478253267e-39
-0.0417180075885 -0.117131328999 0.867 7.4664166945e-39
-0.0395119981375 -0.115375034561 0.854 8.11283987998e-39
-0.037931518212 -0.115375034561 0.854 6.544428166e-39
-0.0361382101935 -0.114699536701 0.849 1.45607816402e-38
-0.0344855537843 -0.114429337557 0.847 5.24865167993e-39
-0.0328403000913 -0.114159138413 0.845 1.52061650622e-38
-0.0311284219519 -0.113618740124 0.841 4.69760647312e-39
-0.0295016750496 -0.11334854098 0.839 5.34734653207e-39
-0.0276158330776 -0.111997545259 0.829 9.86203591145e-39
-0.0260186970405 -0.111727346115 0.827 1.29941537792e-38
-0.0244289637197 -0.111457146971 0.825 1.28100497856e-38
-0.022791112743 -0.110916748683 0.821 6.17342598978e-39
-0.0211680671989 -0.110376350394 0.817 4.60692704819e-39
-0.0196079447432 -0.11010615125 0.815 9.12093819911e-39
-0.0179219761107 -0.109025354673 0.807 1.21615190473e-38
-0.0164284781015 -0.109025354673 0.807 1.23469851029e-38
-0.0148979665109 -0.108755155529 0.805 1.27161249535e-38
-0.0133748576365 -0.108484956385 0.803 1.07793104719e-38
-0.011873956911 -0.108349856813 0.802 4.05044760594e-39
-0.0103378932832 -0.107809458525 0.798 5.99095871284e-39
-0.00881663508791 -0.107269060236 0.794 5.06360881642e-39
-0.0073286891159 -0.106998861092 0.792 1.0407638475e-38
-0.00581113227877 -0.106053164087 0.785 1.01274768731e-38
-0.00434724513466 -0.105782964943 0.783 9.76264041008e-39
-0.00289076070683 -0.105512765799 0.781 9.02650189301e-39
-0.0014398283162 -0.105107467083 0.778 6.90604304381e-39
0.0 -0.104837267939 0.776 7.36701839053e-39
0.00143242559993 -0.104567068795 0.774 4.0519385875e-39
0.00284634440915 -0.103891570934 0.769 4.42107423417e-39
0.0042528605021 -0.103486272218 0.766 8.02137012273e-39
0.00564086980436 -0.10294587393 0.762 1.23506018542e-38
0.0070418338601 -0.102810774357 0.761 1.05938500215e-38
0.00840578433445 -0.102270376069 0.757 1.03162023489e-38
0.00978083888321 -0.102000176925 0.755 1.07771622814e-38
0.0111781015808 -0.102000176925 0.755 1.08686544594e-38
0.0125587081668 -0.101865077353 0.754 1.18831398969e-38
0.0139171066039 -0.101594878209 0.752 9.30203080226e-39
0.0153088172643 -0.101594878209 0.752 3.59131917059e-39
0.016656111627 -0.101324679064 0.75 1.20761281227e-38
0.0180200621014 -0.101189579492 0.749 1.65303893084e-39
0.0194062207246 -0.101189579492 0.749 3.67341984632e-40
0.0207923793478 -0.101189579492 0.749 2.00011015228e-38
0.0222081488361 -0.101324679064 0.75 1.76987064888e-38
0.0236590812267 -0.101594878209 0.752 1.74217468538e-38
0.0250507918871 -0.101594878209 0.752 1.81593118927e-38
0.0264425025475 -0.101594878209 0.752 1.72391562626e-38
0.0279082403706 -0.101865077353 0.754 1.6593784051e-38
0.0293036523892 -0.101865077353 0.754 1.29938609078e-38
0.0307397793472 -0.102000176925 0.755 1.34565738646e-38
0.032222173282 -0.102270376069 0.757 1.63229424851e-38
0.0337119699331 -0.102540575213 0.759 1.31825849824e-38
0.0352091693005 -0.102810774357 0.761 1.26268005842e-38
0.0366175360725 -0.102810774357 0.761 1.42918416364e-38
0.0380758711794 -0.10294587393 0.762 1.28148646472e-38
0.0394860886305 -0.10294587393 0.762 1.04235782451e-38
0.0410036454676 -0.103216073074 0.764 1.04304305945e-38
0.042528605021 -0.103486272218 0.766 1.24529358785e-38
0.0440035962396 -0.10362137179 0.767 1.10772027034e-38
0.0455415105465 -0.103891570934 0.769 1.27334716272e-38
0.046964682751 -0.103891570934 0.769 5.25797732121e-39
0.0483878549556 -0.103891570934 0.769 1.33766998521e-38
0.0499405746951 -0.104161770078 0.771 1.11564349211e-38
0.0515006971508 -0.104431969222 0.773 1.21730671479e-38
0.0529312720717 -0.104431969222 0.773 1.07963642742e-38
0.0544321727972 -0.104567068795 0.774 9.59154467018e-39
0.0560089513645 -0.104837267939 0.776 1.51244567501e-38
0.0575931326482 -0.105107467083 0.778 1.65062967839e-38
0.0591847166481 -0.105377666227 0.78 1.57665695415e-38
0.0606282463224 -0.105377666227 0.78 1.52144887751e-38
0.0620717759968 -0.105377666227 0.78 1.55818195494e-38
0.0635967355502 -0.105512765799 0.781 2.00046748339e-38
0.0650421159036 -0.105512765799 0.781 4.5917748079e-40
0.0666577587314 -0.105782964943 0.783 1.65303893084e-39
-0.0524112312531 -0.117925270319 0.885 2.21190450413e-38
-0.0503717829183 -0.116992528068 0.878 0.0
-0.0485803255789 -0.116592781389 0.875 5.80510029362e-39
-0.0468536420069 -0.116326283603 0.873 5.43809462062e-39
-0.0451343611511 -0.116059785817 0.871 8.47660995483e-39
-0.0434224830117 -0.115793288031 0.869 9.5825847678e-39
-0.0417180075885 -0.115526790245 0.867 7.37240638312e-39
-0.0396970660444 -0.114327550208 0.858 9.67802300231e-39
-0.037931518212 -0.113794554636 0.854 6.45151086743e-39
-0.0362233414307 -0.113394807957 0.851 5.42694448874e-39
-0.0345669836633 -0.113128310171 0.849 1.28065927823e-38
-0.0329180286122 -0.112861812385 0.847 8.10705672122e-39
-0.0312024491147 -0.112328816813 0.843 7.37316448559e-39
-0.0295016750496 -0.111795821241 0.839 6.26786369718e-39
-0.0278157064172 -0.111262825669 0.835 4.79382523087e-39
-0.0260186970405 -0.110196834524 0.827 6.17279680677e-39
-0.0244289637197 -0.109930336738 0.825 9.30277068785e-39
-0.0228466331151 -0.109663838952 0.823 8.38585906368e-39
-0.0212198862128 -0.10913084338 0.819 4.97715710896e-39
-0.019656062399 -0.108864345594 0.817 7.37172955596e-39
-0.0180996413014 -0.108597847808 0.815 1.17005465031e-38
-0.0165099079805 -0.108064852236 0.811 1.25288596306e-38
-0.0149349800922 -0.107531856664 0.807 9.85593185534e-39
-0.0134081698598 -0.107265358878 0.805 1.39154290468e-38
-0.0118887623436 -0.106998861092 0.803 5.89835250253e-39
-0.0103378932832 -0.106332616627 0.798 5.52675617576e-39
-0.00883884323675 -0.106066118841 0.796 6.16995497348e-39
-0.0073286891159 -0.105533123269 0.792 7.55213272026e-39
-0.00584814586016 -0.105266625483 0.79 9.48675697232e-39
-0.00434724513466 -0.104333883232 0.783 8.38148841377e-39
-0.00289076070683 -0.104067385446 0.781 9.12016187977e-39
-0.00144352967434 -0.103934136553 0.78 1.03172533228e-38
0.0 -0.103401140981 0.776 9.30383006948e-39
0.00143242559993 -0.103134643195 0.774 3.31507700043e-39
0.00285374712543 -0.102734896516 0.771 4.23920110778e-39
0.00426951661373 -0.10246839873 0.769 2.78760303508e-40
0.00565567523691 -0.101802154264 0.764 1.03250921864e-38
0.00705108725545 -0.101535656478 0.762 1.16112599689e-38
0.00845020063212 -0.101402407585 0.761 8.65738586452e-39
0.00983265789716 -0.101135909799 0.759 1.10526701711e-38
0.0111781015808 -0.100602914227 0.755 1.09608248659e-38
0.0125753642784 -0.100602914227 0.755 1.12374201633e-38
0.0139541201853 -0.100469665334 0.754 1.20668024815e-38
0.0153088172643 -0.100203167548 0.752 6.81454806317e-39
0.016656111627 -0.0999366697622 0.75 1.02304723102e-38
0.0180441209293 -0.0999366697622 0.75 1.46936933983e-39
0.0194321302315 -0.0999366697622 0.75 0.0
0.0208201395338 -0.0999366697622 0.75 1.97252377032e-38
0.0222673705663 -0.100203167548 0.752 1.78816516085e-38
0.023722004315 -0.100469665334 0.754 1.62246554108e-38
0.0251174163336 -0.100469665334 0.754 1.32754420251e-38
0.0265128283521 -0.100469665334 0.754 9.76910740249e-39
0.027945253952 -0.100602914227 0.755 1.58529371711e-38
0.0293425166496 -0.100602914227 0.755 1.92638671903e-38
0.0309026391054 -0.101135909799 0.759 1.34512321149e-38
0.0323073045192 -0.101135909799 0.759 1.39240764596e-38
0.0338008025285 -0.101402407585 0.761 1.18093993678e-38
0.0352554362772 -0.101535656478 0.762 1.23571417142e-38
0.0366656537283 -0.101535656478 0.762 1.02406471383e-38
0.0380758711794 -0.101535656478 0.762 1.05157738749e-38
0.0395897266584 -0.101802154264 0.764 1.43861462204e-38
0.0411109848537 -0.10206865205 0.766 1.43894154497e-38
0.042528605021 -0.10206865205 0.766 1.26373061187e-38
0.0441183383419 -0.10246839873 0.769 9.13676586527e-39
0.0455415105465 -0.10246839873 0.769 1.19066326657e-38
0.0470868275696 -0.102734896516 0.771 9.591980474e-39
0.0485137011324 -0.102734896516 0.771 1.29149509887e-38
0.0500701222299 -0.103001394302 0.773 9.96226798801e-39
0.0515006971508 -0.103001394302 0.773 1.09726812522e-38
0.0529997471972 -0.103134643195 0.774 9.50562825873e-39
0.0545728244065 -0.103401140981 0.776 1.69673029592e-38
0.056153304332 -0.103667638767 0.778 1.6134976513e-38
0.0575931326482 -0.103667638767 0.778 1.49382508089e-38
0.0591847166481 -0.103934136553 0.78 1.65966805349e-38
0.0607059748433 -0.104067385446 0.781 1.48460523764e-38
0.0621513551968 -0.104067385446 0.781 1.18990348254e-38
0.0637595953083 -0.104333883232 0.783 1.99142784713e-38
0.0652086770199 -0.104333883232 0.783 1.83670992316e-40
0.0668280212058 -0.104600381018 0.785 9.1835496158e-40
-0.0524112312531 -0.116287419343 0.885 2.13839911292e-38
-0.0506012671229 -0.115893224701 0.882 0.0
-0.0488579274393 -0.115630428273 0.88 6.91144785198e-39
-0.0469609813929 -0.114973437203 0.875 6.45297522432e-39
-0.0451343611511 -0.114447844348 0.871 9.76807044163e-39
-0.0435224196815 -0.114447844348 0.871 7.00292181314e-39
-0.0417180075885 -0.113922251492 0.867 8.01853669723e-39
-0.0396970660444 -0.112739667566 0.858 8.38873312683e-39
-0.0380203508073 -0.112476871138 0.856 8.66246557145e-39
-0.0362233414307 -0.111819880069 0.851 1.10562462848e-38
-0.0345669836633 -0.111557083641 0.849 1.47422750147e-38
-0.0329180286122 -0.111294287213 0.847 5.80616948435e-39
-0.0312764762774 -0.111031490785 0.845 5.71758920453e-39
-0.0295720008543 -0.110505897929 0.841 6.45118856878e-39
-0.0278157064172 -0.109717508645 0.835 6.17531494011e-39
-0.0260816201289 -0.108929119362 0.829 4.51687960888e-39
-0.0244881854499 -0.108666322934 0.827 1.30859570455e-38
-0.0229021534872 -0.108403526506 0.825 5.70893618651e-39
-0.0212717052268 -0.10787793365 0.821 5.99056494797e-39
-0.0197041800548 -0.107615137222 0.819 3.5049038969e-39
-0.0181440575991 -0.107352340794 0.817 1.11499090742e-38
-0.0165913378596 -0.107089544367 0.815 9.48570739977e-39
-0.0149349800922 -0.106038358655 0.807 9.30205742693e-39
-0.0134081698598 -0.105775562227 0.805 1.08726201341e-38
-0.0118887623436 -0.105512765799 0.803 1.31785478415e-38
-0.0103378932832 -0.104855774729 0.798 3.40764397438e-39
-0.00886105138558 -0.104855774729 0.798 6.35616371732e-39
-0.00734719590659 -0.104330181874 0.794 4.32674863064e-39
-0.00584814586016 -0.103804589018 0.79 6.17099333564e-39
-0.00438055735791 -0.103673190804 0.789 7.64323253472e-39
-0.0028981634231 -0.10288480152 0.783 8.10313869072e-39
-0.00144352967434 -0.102490606878 0.78 1.45550727503e-38
0.0 -0.10222781045 0.778 8.65844244356e-39
0.00143242559993 -0.101702217595 0.774 3.59129114462e-39
0.00286114984171 -0.101570819381 0.773 3.68638325841e-39
0.00428062068815 -0.101308022953 0.771 3.40944043901e-39
0.00569268881831 -0.101045226525 0.769 7.09620765321e-39
0.00706959404614 -0.100388235455 0.764 8.38472261063e-39
0.00845020063212 -0.0999940408134 0.761 9.30240775154e-39
0.00983265789716 -0.0997312443855 0.759 9.48535427255e-39
0.0112077124459 -0.0994684479576 0.757 1.05917004296e-38
0.0125753642784 -0.0992056515297 0.755 1.1330319245e-38
0.0139541201853 -0.0990742533158 0.754 1.23459159122e-38
0.0153495322039 -0.0990742533158 0.754 1.02257611447e-38
0.0167005279247 -0.0988114568879 0.752 9.11656194401e-39
0.0180922385851 -0.0988114568879 0.752 1.31745373253e-38
0.0194839492455 -0.0988114568879 0.752 1.83670992316e-40
0.0208756599059 -0.0988114568879 0.752 1.95448093156e-38
0.0223265922965 -0.0990742533158 0.754 1.21691028745e-38
0.023722004315 -0.0990742533158 0.754 1.13386331488e-38
0.0251507285568 -0.0992056515297 0.755 1.62279204362e-38
0.0265479912544 -0.0992056515297 0.755 1.53023712083e-38
0.0280192811148 -0.0994684479576 0.757 1.35459206547e-38
0.0294979736915 -0.0997312443855 0.759 1.53949353797e-38
0.0309840689844 -0.0999940408134 0.761 1.28159758768e-38
0.0323924357565 -0.0999940408134 0.761 1.00544383945e-38
0.0338452188261 -0.100125439027 0.762 9.32767596545e-39
0.0352554362772 -0.100125439027 0.762 9.13535615901e-39
0.0367618890399 -0.100388235455 0.764 1.43879300733e-38
0.0381758078492 -0.100388235455 0.764 1.48485536942e-38
0.0396933646863 -0.100651031883 0.766 1.18003399733e-38
0.0411646545467 -0.100782430097 0.767 1.15248040575e-38
0.0426951661373 -0.101045226525 0.769 1.21785728496e-38
0.0442330804442 -0.101308022953 0.771 1.09766931697e-38
0.0456599540069 -0.101308022953 0.771 1.35582254565e-38
0.0472089723882 -0.101570819381 0.773 9.9608176441e-39
0.0486395473091 -0.101570819381 0.773 1.18042453921e-38
0.0500701222299 -0.101570819381 0.773 1.04275719457e-38
0.0515673215973 -0.101702217595 0.774 1.08804870236e-38
0.0529997471972 -0.101702217595 0.774 1.52148755335e-38
0.0545728244065 -0.101965014023 0.776 1.5123348323e-38
0.056153304332 -0.10222781045 0.778 1.63193845883e-38
0.0577411869737 -0.102490606878 0.78 1.54928735306e-38
0.0592605944899 -0.102622005092 0.781 1.04238837281e-38
0.0607059748433 -0.102622005092 0.781 7.47440689834e-39
0.0623105135968 -0.10288480152 0.783 1.48507397198e-38
0.0639224550664 -0.103147597948 0.785 1.96384146517e-38
0.0653752381361 -0.103147597948 0.785 0.0
0.0668280212058 -0.103147597948 0.785 4.5917748079e-40
0.0682808042755 -0.103147597948 0.785 2.06432549519e-38
-0.0524112312531 -0.114649568366 0.885 2.15676621215e-38
-0.0507733802764 -0.114649568366 0.885 3.22145625002e-39
-0.0489689681835 -0.114260925761 0.882 6.35757342357e-39
-0.047121990472 -0.113742735622 0.878 6.82140041267e-39
-0.0453416372069 -0.113354093017 0.875 6.26715464016e-39
-0.0436223563512 -0.113094997948 0.873 8.6674429836e-39
-0.0418142429001 -0.112576807808 0.869 6.54517085418e-39
-0.0397895999979 -0.111410879994 0.86 9.03264798807e-39
-0.0381091834027 -0.111151784924 0.858 8.38872752164e-39
-0.0363510382865 -0.110633594785 0.854 9.31027464112e-39
-0.0346484135424 -0.11024495218 0.851 6.81923260394e-39
-0.0329957571332 -0.109985857111 0.849 5.71145431985e-39
-0.0313505034402 -0.109726762041 0.847 6.63486796889e-39
-0.0296423266589 -0.109208571901 0.843 6.26786369718e-39
-0.0278823308637 -0.108431286692 0.837 7.55246622929e-39
-0.0261445432172 -0.107654001483 0.831 8.37864938308e-39
-0.0245474071801 -0.107394906413 0.829 7.45670009094e-39
-0.0229576738593 -0.107135811343 0.827 8.1027883661e-39
-0.0213235242407 -0.106617621204 0.823 6.35610346148e-39
-0.0197522977106 -0.106358526134 0.821 4.7934342686e-39
-0.0181884738967 -0.106099431064 0.819 7.0014952913e-39
-0.0166320527991 -0.105840335994 0.817 1.27143270875e-38
-0.0150830344178 -0.105581240925 0.815 8.4718959868e-39
-0.0134081698598 -0.104285765576 0.805 9.11837942812e-39
-0.0118887623436 -0.104026670506 0.803 1.34551571519e-38
-0.0103638027902 -0.103638027902 0.8 1.11502986351e-38
-0.00886105138558 -0.103378932832 0.798 8.84388327584e-39
-0.00734719590659 -0.102860742692 0.794 6.90676331122e-39
-0.00586295129272 -0.102601647623 0.792 4.78558279331e-39
-0.00438610939512 -0.102342552553 0.79 8.01131860884e-39
-0.00290556613938 -0.101694814878 0.785 7.73327997404e-39
-0.00144538035341 -0.101176624739 0.781 9.94527163893e-39
0.0 -0.101047077204 0.78 9.58147073552e-39
0.00143612695806 -0.100528887065 0.776 4.42107423417e-39
0.00286485119985 -0.100269791995 0.774 3.87006405982e-39
0.00429172476257 -0.10014024446 0.773 3.41014108825e-39
0.00570749425087 -0.0998811493901 0.771 5.90052031125e-39
0.00708810083684 -0.0992334117158 0.766 1.21644281429e-38
0.00846130470654 -0.0987152215763 0.762 8.38075973857e-39
0.00985856740414 -0.0985856740414 0.761 8.46977301962e-39
0.011237323311 -0.0983265789716 0.759 9.57826876853e-39
0.0126419887249 -0.0983265789716 0.759 1.03161869346e-38
0.013972626976 -0.0978083888321 0.755 1.05938500215e-38
0.0153698896736 -0.0978083888321 0.755 1.11480929914e-38
0.0167671523712 -0.0978083888321 0.755 1.71368460604e-38
0.0181403562409 -0.0976788412972 0.754 1.4002935932e-38
0.0195357682594 -0.0976788412972 0.754 1.37753244237e-39
0.020931180278 -0.0976788412972 0.754 2.00947531018e-38
0.0223265922965 -0.0976788412972 0.754 1.55800020653e-38
0.0237534658592 -0.0978083888321 0.755 1.13382646073e-38
0.0251507285568 -0.0978083888321 0.755 1.22623494783e-38
0.0266183170591 -0.0980674839019 0.757 1.2821756233e-38
0.0280192811148 -0.0980674839019 0.757 1.31836219432e-38
0.0295757022124 -0.0985856740414 0.761 1.02391827814e-38
0.0309840689844 -0.0985856740414 0.761 9.87690929335e-39
0.0323924357565 -0.0985856740414 0.761 1.11604426347e-38
0.0338452188261 -0.0987152215763 0.762 1.47589364535e-38
0.0353479702307 -0.098974316646 0.764 1.45698382322e-38
0.0367618890399 -0.098974316646 0.764 8.94121606587e-39
0.0382757445189 -0.0992334117158 0.766 1.28205875501e-38
0.0397451837003 -0.0993629592506 0.767 9.87077580997e-39
0.0412719939327 -0.0996220543204 0.769 1.09702261773e-38
0.0428062068815 -0.0998811493901 0.771 1.2267503454e-38
0.0442330804442 -0.0998811493901 0.771 1.1525548147e-38
0.0457783974674 -0.10014024446 0.773 1.26347263283e-38
0.0472700447975 -0.100269791995 0.774 1.15349985039e-38
0.0487024703975 -0.100269791995 0.774 1.14347818416e-38
0.0502644435323 -0.100528887065 0.776 1.54925386203e-38
0.0515673215973 -0.100269791995 0.774 1.60463780163e-38
0.0529997471972 -0.100269791995 0.774 1.63186713274e-38
0.0545728244065 -0.100528887065 0.776 1.45694724933e-38
0.0563698337831 -0.101176624739 0.781 7.38395168117e-39
0.0578152141365 -0.101176624739 0.781 9.23073413769e-39
0.0592605944899 -0.101176624739 0.781 1.44815690406e-38
0.0608614318852 -0.101435719809 0.783 1.61378898125e-38
0.0623105135968 -0.101435719809 0.783 1.38351248357e-38
0.0639224550664 -0.101694814878 0.785 1.87164359323e-38
0.0653752381361 -0.101694814878 0.785 2.75512093668e-40
0.0668280212058 -0.101694814878 0.785 0.0
0.0682808042755 -0.101694814878 0.785 2.11074546864e-38
-0.0524112312531 -0.113011717389 0.885 2.18442504124e-38
-0.0507733802764 -0.113011717389 0.885 3.68276790838e-39
-0.0489689681835 -0.112628626822 0.882 7.64542556682e-39
-0.047229329858 -0.11237323311 0.88 7.09799430875e-39
-0.0454970942488 -0.112117839399 0.878 7.00544274907e-39
-0.043722293021 -0.111734748831 0.875 8.20433205802e-39
-0.0419104782118 -0.111223961408 0.871 8.85040772149e-39
-0.0397895999979 -0.109819295994 0.86 6.63839363582e-39
-0.0380203508073 -0.109308508571 0.856 7.83376008043e-39
-0.0363510382865 -0.109053114859 0.854 9.95496442041e-39
-0.0346484135424 -0.108670024292 0.851 9.6794873592e-39
-0.0330734856541 -0.108670024292 0.851 5.98841255353e-39
-0.031424530603 -0.10841463058 0.849 6.3579083339e-39
-0.0297126524636 -0.107903843157 0.845 7.92234316285e-39
-0.0279489553102 -0.107137662022 0.839 9.11117395142e-39
-0.0262074663056 -0.106371480887 0.833 9.93627390149e-39
-0.0246066289103 -0.106116087176 0.831 9.84335660292e-39
-0.0229576738593 -0.105605299753 0.827 9.01862799694e-39
-0.0213753432547 -0.105349906041 0.825 8.55872464354e-39
-0.0198004153664 -0.105094512329 0.823 8.83638212516e-39
-0.0182328901944 -0.104839118618 0.821 4.4185785216e-39
-0.0166727677387 -0.104583724906 0.819 1.1701301803e-38
-0.0151200479992 -0.104328331195 0.817 1.18849097369e-38
-0.013441482083 -0.103051362636 0.807 8.93326790098e-39
-0.0119183732087 -0.102795968925 0.805 1.26243216872e-38
-0.0103638027902 -0.102157484646 0.8 1.29012518949e-38
-0.00888325953442 -0.102157484646 0.8 1.26239447379e-38
-0.00736570269729 -0.101646697223 0.796 7.27698496419e-39
-0.00589256215783 -0.101646697223 0.796 6.63451764427e-39
-0.00438610939512 -0.100880516088 0.79 7.09227140582e-39
-0.00290556613938 -0.100242031809 0.785 8.93360561391e-39
-0.00144908171155 -0.0999866380971 0.783 7.91803697267e-39
0.0 -0.0996035475297 0.78 9.21379524185e-39
0.00143612695806 -0.0990927601065 0.776 3.31296664494e-39
0.00286485119985 -0.0988373663949 0.774 4.33284147636e-39
0.00429172476257 -0.098709669539 0.773 3.87076751165e-39
0.00570749425087 -0.0984542758274 0.771 3.78144734623e-39
0.00711586102289 -0.0981988821158 0.769 1.40090694153e-38
0.00850572100421 -0.0978157915484 0.766 5.70743539585e-39
0.00987152215763 -0.0973050041252 0.762 8.01023400383e-39
0.0112669341762 -0.0971773072694 0.761 7.54851877152e-39
0.0126753009482 -0.0971773072694 0.761 9.11871573975e-39
0.0140466541388 -0.0969219135577 0.759 1.1699827637e-38
0.0154106046132 -0.0966665198461 0.757 9.76515854342e-39
0.0168115686689 -0.0966665198461 0.757 1.68606291136e-38
0.0181644150688 -0.0964111261345 0.755 2.29588740395e-39
0.0195616777664 -0.0964111261345 0.755 1.83670992316e-40
0.020958940464 -0.0964111261345 0.755 2.09180383703e-38
0.0224154248919 -0.0966665198461 0.757 1.47520266507e-38
0.0238163889476 -0.0966665198461 0.757 1.15281517596e-38
0.0252173530033 -0.0966665198461 0.757 1.39233730078e-38
0.0266886428637 -0.0969219135577 0.759 9.50994425801e-39
0.0281673354404 -0.0971773072694 0.761 1.15284712556e-38
0.0295757022124 -0.0971773072694 0.761 1.31872541089e-38
0.031024783924 -0.0973050041252 0.762 1.56790556498e-38
0.0324350013751 -0.0973050041252 0.762 1.35542177429e-38
0.0339340514215 -0.0975603978368 0.764 9.12408551547e-39
0.0353479702307 -0.0975603978368 0.764 1.26351971646e-38
0.0368581243516 -0.0978157915484 0.766 9.13068703253e-39
0.0383257128538 -0.0979434884042 0.767 1.32786117622e-38
0.0398488217282 -0.0981988821158 0.769 1.29132287929e-38
0.0412719939327 -0.0981988821158 0.769 1.06032036887e-38
0.0428062068815 -0.0984542758274 0.771 1.32805469554e-38
0.0443478225465 -0.098709669539 0.773 1.032993087e-38
0.0458376191976 -0.0988373663949 0.774 1.19875800728e-38
0.0472700447975 -0.0988373663949 0.774 1.41128453757e-38
0.0488283165742 -0.0990927601065 0.776 1.57690876748e-38
0.0502644435323 -0.0990927601065 0.776 1.60435389856e-38
0.0517005704903 -0.0990927601065 0.776 1.52137460869e-38
0.0532736476996 -0.0993481538181 0.778 1.09727667314e-38
0.054854127625 -0.0996035475297 0.78 1.05157500528e-38
0.0563698337831 -0.0997312443855 0.781 1.40220692612e-38
0.0578152141365 -0.0997312443855 0.781 1.54939651421e-38
0.0594123501736 -0.0999866380971 0.783 1.34634710557e-38
0.0608614318852 -0.0999866380971 0.783 1.30949870128e-38
0.0624696719967 -0.100242031809 0.785 1.30979003123e-38
0.0639224550664 -0.100242031809 0.785 1.9086665993e-38
0.0655417992524 -0.10049742552 0.787 0.0
0.0669982836802 -0.10049742552 0.787 3.67341984632e-40
0.0684547681081 -0.10049742552 0.787 2.23942278298e-38
-0.0524112312531 -0.111373866413 0.885 2.18446035396e-38
-0.0507733802764 -0.111373866413 0.885 7.27768981732e-39
-0.0491355292998 -0.111373866413 0.885 5.71255433914e-39
-0.047336669244 -0.110996327883 0.882 5.99056494797e-39
-0.0457043703046 -0.110996327883 0.882 1.12449997867e-38
-0.0439721346954 -0.110744635529 0.88 7.64894282597e-39
-0.042102948835 -0.110115404645 0.875 7.55861512696e-39
-0.0397895999979 -0.108227711994 0.86 8.29758987212e-39
-0.0380203508073 -0.107724327287 0.856 8.20183634545e-39
-0.0363510382865 -0.107472634934 0.854 7.64864434939e-39
-0.0346484135424 -0.107095096404 0.851 9.49472055149e-39
-0.0330734856541 -0.107095096404 0.851 1.03240804489e-38
-0.031424530603 -0.10684340405 0.849 5.8961888977e-39
-0.0297829782682 -0.106591711697 0.847 8.7449151705e-39
-0.0280822042032 -0.10608832699 0.843 9.75150989637e-39
-0.0263333124823 -0.105333249929 0.837 1.03943569682e-38
-0.0246658506406 -0.104829865222 0.833 9.75043089656e-39
-0.0229576738593 -0.104074788162 0.827 1.002629892e-38
-0.0213753432547 -0.103823095809 0.825 9.84190766031e-39
-0.0198004153664 -0.103571403455 0.823 1.01170498112e-38
-0.0182328901944 -0.103319711102 0.821 8.37039012994e-39
-0.0166727677387 -0.103068018748 0.819 8.74241525404e-39
-0.0151200479992 -0.102816326395 0.817 1.28065227174e-38
-0.013441482083 -0.101557864627 0.807 1.1147372724e-38
-0.0119183732087 -0.101306172274 0.805 1.22548259068e-38
-0.0103638027902 -0.10067694139 0.8 1.19796711442e-38
-0.00888325953442 -0.10067694139 0.8 1.27176313493e-38
-0.00738420948799 -0.100425249037 0.798 9.02798446678e-39
-0.00589256215783 -0.100173556683 0.796 7.73546740094e-39
-0.00439721346954 -0.0996701719762 0.792 6.44726493308e-39
-0.00291296885566 -0.0990409410925 0.787 7.5503586764e-39
-0.00144908171155 -0.0985375563856 0.783 9.30383006948e-39
0.0 -0.0981600178554 0.78 8.29401375844e-39
0.0014398283162 -0.0979083255019 0.778 3.40768601334e-39
0.00287225391613 -0.0976566331484 0.776 4.23920110778e-39
0.00429727679978 -0.0974049407949 0.774 4.05516017267e-39
0.00572229968342 -0.0972790946182 0.773 4.51541525198e-39
0.00713436781358 -0.0970274022647 0.771 1.29027022388e-38
0.00850572100421 -0.096398171381 0.766 3.68066035548e-39
0.0098974316646 -0.0961464790275 0.764 7.91587617044e-39
0.0112817396087 -0.0958947866741 0.762 6.62621074697e-39
0.0126753009482 -0.0957689404973 0.761 7.36164300962e-39
0.0140466541388 -0.0955172481439 0.759 1.06806436457e-38
0.0154513195527 -0.0955172481439 0.759 1.05016642007e-38
0.0168115686689 -0.0952655557904 0.757 1.6215256902e-38
0.0181644150688 -0.0950138634369 0.755 4.04615542874e-39
0.0195616777664 -0.0950138634369 0.755 4.5917748079e-40
0.0210144608361 -0.0952655557904 0.757 2.04581392208e-38
0.0224154248919 -0.0952655557904 0.757 9.49940929615e-39
0.023879312036 -0.0955172481439 0.759 9.60139299579e-39
0.0252839774498 -0.0955172481439 0.759 1.18951083871e-38
0.0267589686684 -0.0957689404973 0.761 1.30068509446e-38
0.0281673354404 -0.0957689404973 0.761 1.22689327784e-38
