# .PCD v0.7 - Point Cloud Data file format
VERSION 0.7
FIELDS x y z rgb
SIZE 4 4 4 4
TYPE F F F F
COUNT 1 1 1 1
WIDTH 854
HEIGHT 1
VIEWPOINT 0 0 0 1 0 0 0
POINTS 854
DATA ascii
0.0398821339514 -0.0159528535806 0.862 2.34881640877e-38
0.0414774193095 -0.0159528535806 0.862 8.0815236619e-39
0.0435224196815 -0.0161194146968 0.871 1.92332768449e-38
0.0451343611511 -0.0161194146968 0.871 2.3491808865e-38
0.0467463026208 -0.0161194146968 0.871 2.34871173177e-38
0.0488579274393 -0.0162859758131 0.88 2.34870654697e-38
0.0504865250206 -0.0162859758131 0.88 2.29248897491e-38
0.0522335660624 -0.0163229893945 0.882 2.34802635669e-38
0.0538658650018 -0.0163229893945 0.882 1.92212509014e-38
0.0558127793831 -0.016415523348 0.887 2.34675607963e-38
0.0574543317179 -0.016415523348 0.887 2.3487696054e-38
0.0590958840527 -0.016415523348 0.887 2.1078052642e-38
0.0608743866387 -0.0164525369294 0.889 2.06873804392e-38
0.0628712693549 -0.0165450708829 0.894 2.34820264004e-38
0.0645257764432 -0.0165450708829 0.894 2.34894392693e-38
0.066328337857 -0.0165820844643 0.896 2.34844366337e-38
0.0679865463034 -0.0165820844643 0.896 1.92241642009e-38
0.0696447547499 -0.0165820844643 0.896 2.04179724017e-38
0.0713029631963 -0.0165820844643 0.896 1.3228974968e-38
0.0729611716427 -0.0165820844643 0.896 1.57200128013e-38
0.0746193800891 -0.0165820844643 0.896 2.08936795991e-38
0.0771289009076 -0.0167671523712 0.906 2.34824818224e-38
0.0788056161447 -0.0167671523712 0.906 2.16370656319e-38
0.0804823313819 -0.0167671523712 0.906 1.86875439605e-38
0.0823404131678 -0.0168041659526 0.908 1.75801468296e-38
0.0846685674374 -0.0169337134875 0.915 1.91434816393e-38
0.0863619387862 -0.0169337134875 0.915 2.08055267153e-38
0.0883440160698 -0.0169892338596 0.918 1.82265728177e-38
0.0900429394558 -0.0169892338596 0.918 1.95176171189e-38
0.0919417361813 -0.017026247441 0.92 1.16817620972e-38
0.0936443609254 -0.017026247441 0.92 1.28763410121e-38
0.0956578997532 -0.0170817678131 0.923 2.3489222068e-38
0.0975770539484 -0.0171187813945 0.925 2.3497194055e-38
0.0998256290181 -0.0172113153479 0.93 1.71234496471e-38
0.101874330748 -0.01726683572 0.933 1.44436428977e-38
0.103823095809 -0.0173038493014 0.935 1.55543639086e-38
0.105892155008 -0.0173593696735 0.938 1.73961058945e-38
0.10785757618 -0.0173963832549 0.94 1.92407205423e-38
0.110296771194 -0.0175074239991 0.946 2.08976845101e-38
0.112047513594 -0.0175074239991 0.946 1.94204398729e-38
0.113798255994 -0.0175074239991 0.946 1.95115438913e-38
0.115793288031 -0.0175444375805 0.948 1.69318809366e-38
0.117547731789 -0.0175444375805 0.948 2.02372245179e-38
0.119302175547 -0.0175444375805 0.948 2.35097749126e-38
0.121056619305 -0.0175444375805 0.948 2.350988001e-38
-0.0173852791805 -0.0142243193295 0.854 1.79492446412e-38
-0.0157492788829 -0.0141743509946 0.851 2.07173121744e-38
-0.0141743509946 -0.0141743509946 0.851 1.97045741561e-38
-0.0125994231063 -0.0141743509946 0.851 2.00723197147e-38
-0.011024495218 -0.0141743509946 0.851 1.72135125007e-38
-0.00931631843672 -0.0139744776551 0.839 2.21034583984e-38
-0.00772658511588 -0.0139078532086 0.835 8.46106254837e-39
-0.0061812680927 -0.0139078532086 0.835 1.25047236658e-38
-0.00463595106953 -0.0139078532086 0.835 1.1406674597e-38
-0.00309063404635 -0.0139078532086 0.835 1.15906903087e-38
-0.00154531702318 -0.0139078532086 0.835 1.14066493736e-38
0.0 -0.0139411654318 0.837 1.14080843032e-38
0.00155271973945 -0.0139744776551 0.839 1.12247622342e-38
0.00310543947891 -0.0139744776551 0.839 1.14988450035e-38
0.0046803673672 -0.0140411021016 0.843 6.52032022722e-39
0.00624048982293 -0.0140411021016 0.843 2.34835706313e-38
0.00780061227866 -0.0140411021016 0.843 2.3496105246e-38
0.0093607347344 -0.0140411021016 0.843 1.27834293187e-38
0.0109208571901 -0.0140411021016 0.843 1.57957053392e-38
0.0124809796459 -0.0140411021016 0.843 2.34921479792e-38
0.0140744143248 -0.0140744143248 0.845 2.34874368137e-38
0.0156382381387 -0.0140744143248 0.845 2.34849326934e-38
0.0172020619526 -0.0140744143248 0.845 2.3483141834e-38
0.0188103020641 -0.0141077265481 0.847 2.34953863799e-38
0.020425944892 -0.0141410387714 0.849 7.355090538e-39
0.0220489904361 -0.0141743509946 0.851 1.01080226465e-38
0.0237071988825 -0.0142243193295 0.854 5.41829427332e-39
0.025287678808 -0.0142243193295 0.854 2.34838621014e-38
0.0268681587335 -0.0142243193295 0.854 2.34900138016e-38
0.0285152631055 -0.0142576315527 0.856 2.31172768179e-38
0.0301697701938 -0.014290943776 0.858 1.91549302477e-38
0.0317576528356 -0.014290943776 0.858 2.01677004959e-38
0.0333455354773 -0.014290943776 0.858 2.34948903203e-38
0.0349334181191 -0.014290943776 0.858 2.34935646919e-38
0.0366915632353 -0.0143575682225 0.862 2.34885662603e-38
0.0382868485934 -0.0143575682225 0.862 2.34910395521e-38
0.0398821339514 -0.0143575682225 0.862 2.34885088071e-38
0.0419104782118 -0.0145074732272 0.871 2.34885144123e-38
0.0436223563512 -0.0145407854504 0.873 2.34925081129e-38
0.0453416372069 -0.0145740976737 0.875 2.1729262663e-38
0.047229329858 -0.0146573782318 0.88 2.2920489672e-38
0.0488579274393 -0.0146573782318 0.88 2.31045193967e-38
0.0507733802764 -0.0147406587899 0.885 2.02414760575e-38
0.0524112312531 -0.0147406587899 0.885 1.94856268762e-38
0.0540490822297 -0.0147406587899 0.885 2.34625651673e-38
0.0558127793831 -0.0147739710132 0.887 2.34901567341e-38
0.0574543317179 -0.0147739710132 0.887 2.3488363072e-38
0.0590958840527 -0.0147739710132 0.887 1.90465384102e-38
0.0612167622666 -0.0148905637946 0.894 2.34568156397e-38
0.0630119209642 -0.0149238760178 0.896 2.34830367366e-38
0.0646701294106 -0.0149238760178 0.896 2.20911339784e-38
0.066328337857 -0.0149238760178 0.896 1.75707132884e-38
0.0681383019871 -0.0149571882411 0.898 1.68288630787e-38
0.0700333973545 -0.015007156576 0.901 1.41613527234e-38
0.0718600175963 -0.0150404687992 0.903 2.16287685437e-38
0.0737754704334 -0.0150904371341 0.906 1.97917265128e-38
0.0754521856705 -0.0150904371341 0.906 2.3486423675e-38
0.077299163382 -0.0151237493574 0.908 2.07126458505e-38
0.0789795799773 -0.0151237493574 0.908 2.20068837109e-38
0.0806599965725 -0.0151237493574 0.908 1.68457893629e-38
0.0825217797166 -0.0151570615806 0.91 1.86878844761e-38
0.0846685674374 -0.0152403421387 0.915 1.76715409168e-38
0.0866450926839 -0.0152903104736 0.918 1.71151805849e-38
0.0883440160698 -0.0152903104736 0.918 1.65656067414e-38
0.0902391114372 -0.0153236226969 0.92 1.23274804296e-38
0.0924414195301 -0.015406903255 0.925 1.54538473684e-38
0.0941532976695 -0.015406903255 0.925 2.34943199918e-38
0.095865175809 -0.015406903255 0.925 2.32998912312e-38
0.0978935200693 -0.0154568715899 0.928 1.47202648197e-38
0.100147647176 -0.015540152148 0.933 1.60087923889e-38
0.102420281074 -0.0156234327062 0.938 1.55543218696e-38
0.104156218041 -0.0156234327062 0.938 1.84106137528e-38
0.106456612125 -0.0157067132643 0.943 2.06207697167e-38
0.108546028794 -0.0157566815992 0.946 2.053072508e-38
0.110529956757 -0.0157899938224 0.948 1.91445242053e-38
0.112284400515 -0.0157899938224 0.948 1.91434844419e-38
0.114038844273 -0.0157899938224 0.948 1.84988212872e-38
0.115793288031 -0.0157899938224 0.948 1.49968166769e-38
0.117547731789 -0.0157899938224 0.948 2.34759755936e-38
0.119302175547 -0.0157899938224 0.948 2.35098645957e-38
0.121056619305 -0.0157899938224 0.948 2.35098645957e-38
-0.0173852791805 -0.012643839404 0.854 2.03477757564e-38
-0.015804799255 -0.012643839404 0.854 1.87818527485e-38
-0.0142243193295 -0.012643839404 0.854 2.01651977769e-38
-0.0125994231063 -0.0125994231063 0.851 1.97949677161e-38
-0.0109726762041 -0.0125402013761 0.847 2.04417622457e-38
-0.0093607347344 -0.0124809796459 0.843 2.21027129077e-38
-0.00776359869727 -0.0124217579156 0.839 1.09499900262e-38
-0.00619607352526 -0.0123921470505 0.837 1.17646348884e-38
-0.00464705514394 -0.0123921470505 0.837 1.14959737429e-38
-0.00309803676263 -0.0123921470505 0.837 1.14055773803e-38
-0.00155271973945 -0.0124217579156 0.839 1.11304212164e-38
0.0 -0.0124217579156 0.839 1.15006078369e-38
0.00155642109759 -0.0124513687807 0.841 1.15935447537e-38
0.00311284219519 -0.0124513687807 0.841 1.13169424498e-38
0.0046803673672 -0.0124809796459 0.843 6.52032022722e-39
0.00624048982293 -0.0124809796459 0.843 2.34771106454e-38
0.00780061227866 -0.0124809796459 0.843 2.34939528516e-38
0.00938294288323 -0.012510590511 0.845 1.38897600615e-38
0.0109467666971 -0.012510590511 0.845 1.58875408353e-38
0.012510590511 -0.012510590511 0.845 2.34864292802e-38
0.0140744143248 -0.012510590511 0.845 2.34849270882e-38
0.0156752517201 -0.0125402013761 0.847 2.34863704256e-38
0.0172834918317 -0.0125698122412 0.849 2.34846174012e-38
0.0188547183618 -0.0125698122412 0.849 2.34925109155e-38
0.0204740625478 -0.0125994231063 0.851 4.22443282327e-39
0.0220489904361 -0.0125994231063 0.851 5.97074498249e-39
0.0237071988825 -0.012643839404 0.854 8.17371789047e-39
0.025287678808 -0.012643839404 0.854 2.34907634963e-38
0.0268681587335 -0.012643839404 0.854 2.34842320442e-38
0.0285152631055 -0.0126734502691 0.856 2.34860215023e-38
0.0301697701938 -0.0127030611342 0.858 2.34892795212e-38
0.0317576528356 -0.0127030611342 0.858 2.34906878262e-38
0.0333455354773 -0.0127030611342 0.858 2.34860102919e-38
0.0350148479982 -0.0127326719993 0.86 2.34860186997e-38
0.0370746538027 -0.0128955317575 0.871 2.34863774321e-38
0.0386865952724 -0.0128955317575 0.871 2.34863830373e-38
0.0404836046491 -0.0129547534877 0.875 2.34885186162e-38
0.042102948835 -0.0129547534877 0.875 2.21905140655e-38
0.0438721980256 -0.0129991697854 0.878 2.25542603183e-38
0.0456007322767 -0.0130287806505 0.88 2.3478677297e-38
0.047229329858 -0.0130287806505 0.88 2.34819058887e-38
0.0488579274393 -0.0130287806505 0.88 2.34876456072e-38
0.0508881223787 -0.0131324186784 0.887 2.31099003828e-38
0.0525296747135 -0.0131324186784 0.887 2.04122326831e-38
0.0541712270483 -0.0131324186784 0.887 2.34752048795e-38
0.0559386255599 -0.0131620295435 0.889 2.34855394556e-38
0.0575838792528 -0.0131620295435 0.889 2.3490160938e-38
0.0596955040713 -0.0132656675714 0.896 1.91358627795e-38
0.0613537125177 -0.0132656675714 0.896 2.10626145368e-38
0.0631525725735 -0.0132952784365 0.898 1.69214076319e-38
0.064814482378 -0.0132952784365 0.898 1.99570012588e-38
0.0664763921826 -0.0132952784365 0.898 2.18967234347e-38
0.0683659355127 -0.0133396947342 0.901 1.55378187776e-38
0.0701888543963 -0.0133693055993 0.903 1.47169969917e-38
0.0720987551962 -0.013413721897 0.906 2.34727161734e-38
0.0737754704334 -0.013413721897 0.906 1.72991528564e-38
0.0754521856705 -0.013413721897 0.906 1.9509668954e-38
0.077299163382 -0.0134433327621 0.908 1.98878892186e-38
0.0789795799773 -0.0134433327621 0.908 1.4168853874e-38
0.08128182474 -0.01354697079 0.915 1.44415325422e-38
0.0829751960887 -0.01354697079 0.915 1.54553117253e-38
0.0849461692979 -0.0135913870877 0.918 1.60128015038e-38
0.0866450926839 -0.0135913870877 0.918 1.48117149588e-38
0.0885364866931 -0.0136209979528 0.92 1.2509367569e-38
0.0905333694092 -0.0136654142505 0.923 1.94171496242e-38
0.0924414195301 -0.0136950251156 0.925 2.34986429976e-38
0.094458659716 -0.0137394414132 0.928 2.29314590363e-38
0.0963833659485 -0.0137690522784 0.93 1.44479476866e-38
0.0984209636042 -0.013813468576 0.933 1.61071102917e-38
0.100684344106 -0.0138874957388 0.938 1.64737642388e-38
0.102638661204 -0.0139171066039 0.94 2.0160048005e-38
0.104378299529 -0.0139171066039 0.94 2.1542686779e-38
0.106456612125 -0.0139615229016 0.943 2.1448673665e-38
0.108775512999 -0.0140355500644 0.948 1.96037423238e-38
0.110879735101 -0.0140799663621 0.951 2.00668476442e-38
0.112639730896 -0.0140799663621 0.951 1.88672534821e-38
0.114399726692 -0.0140799663621 0.951 1.6193594229e-38
0.116159722487 -0.0140799663621 0.951 1.37010668155e-38
0.117919718282 -0.0140799663621 0.951 2.34925767765e-38
-0.0173852791805 -0.0110633594785 0.854 1.93346734004e-38
-0.015804799255 -0.0110633594785 0.854 1.8135819124e-38
-0.0142243193295 -0.0110633594785 0.854 1.96113247498e-38
-0.0125994231063 -0.011024495218 0.851 1.99800820458e-38
-0.0109726762041 -0.0109726762041 0.847 1.97049272833e-38
-0.00938294288323 -0.0109467666971 0.845 2.21034583984e-38
-0.00778210548797 -0.0108949476832 0.841 1.29764960172e-38
-0.00622568439037 -0.0108949476832 0.841 1.12146925035e-38
-0.00466926329278 -0.0108949476832 0.841 1.17764674526e-38
-0.00311284219519 -0.0108949476832 0.841 1.19609049552e-38
-0.00155642109759 -0.0108949476832 0.841 1.14091380797e-38
0.0 -0.0109208571901 0.843 1.13162516097e-38
0.00156012245573 -0.0109208571901 0.843 1.1500659685e-38
0.00312024491147 -0.0109208571901 0.843 1.19601720761e-38
0.00469147144162 -0.0109467666971 0.845 6.42848473106e-39
0.00625529525549 -0.0109467666971 0.845 2.3012183637e-38
0.00781911906936 -0.0109467666971 0.845 2.34975429783e-38
0.00938294288323 -0.0109467666971 0.845 1.52737693054e-38
0.0109726762041 -0.0109726762041 0.847 1.5703869843e-38
0.0125402013761 -0.0109726762041 0.847 2.34864180698e-38
0.0141410387714 -0.0109985857111 0.849 2.34871005021e-38
0.0157122653015 -0.0109985857111 0.849 2.34827732925e-38
0.0173242067712 -0.011024495218 0.851 2.34849340947e-38
0.0188991346595 -0.011024495218 0.851 2.34885466421e-38
0.0205462390315 -0.0110633594785 0.854 8.44886564654e-39
0.022126718957 -0.0110633594785 0.854 1.59066237178e-38
0.0237071988825 -0.0110633594785 0.854 2.08966881869e-38
0.025287678808 -0.0110633594785 0.854 2.348863072e-38
0.0269310818219 -0.0110892689855 0.856 2.34845991844e-38
0.0285152631055 -0.0110892689855 0.856 2.3484611796e-38
0.0302400959984 -0.0111410879994 0.86 2.34845767636e-38
0.0318316799983 -0.0111410879994 0.86 2.34845543428e-38
0.0342005492075 -0.0114001830692 0.88 2.3487066871e-38
0.0357477169098 -0.0113742735622 0.878 2.34892514953e-38
0.0373726131329 -0.0113742735622 0.878 2.32929968427e-38
0.0389975093561 -0.0113742735622 0.878 1.86749140575e-38
0.0407149395328 -0.0114001830692 0.88 2.27339488204e-38
0.0423435371141 -0.0114001830692 0.88 2.34743725082e-38
0.0439721346954 -0.0114001830692 0.88 2.34801122267e-38
0.0456007322767 -0.0114001830692 0.88 2.34862106776e-38
0.047229329858 -0.0114001830692 0.88 2.34830101119e-38
0.0489689681835 -0.0114260925761 0.882 2.34854932128e-38
0.0510028644811 -0.0115167758506 0.889 2.08936515732e-38
0.052648118174 -0.0115167758506 0.889 2.19755885123e-38
0.0542933718669 -0.0115167758506 0.889 2.34883981045e-38
0.0562532410017 -0.011581549618 0.894 2.34829820859e-38
0.05790774809 -0.011581549618 0.894 1.65583704362e-38
0.0598287529643 -0.011633368632 0.898 1.46072318817e-38
0.0614906627689 -0.011633368632 0.898 1.86709455802e-38
0.0631525725735 -0.011633368632 0.898 2.10705332744e-38
0.0650310118292 -0.0116722328924 0.901 2.34809333876e-38
0.0666984736709 -0.0116722328924 0.901 2.02450633815e-38
0.0685176911964 -0.0116981423994 0.903 1.65501322025e-38
0.0704220399591 -0.0117370066599 0.906 1.70189996622e-38
0.0722579135962 -0.0117629161668 0.908 2.20927104392e-38
0.0739383301915 -0.0117629161668 0.908 1.84991940326e-38
0.0756187467868 -0.0117629161668 0.908 2.13540187563e-38
0.0774694258564 -0.0117888256738 0.91 2.14523184423e-38
0.07984939914 -0.0118924637017 0.918 1.7679124744e-38
0.0817259877167 -0.0119183732087 0.92 1.64798556832e-38
0.0834286124608 -0.0119183732087 0.92 1.35278677266e-38
0.0851312372049 -0.0119183732087 0.92 1.29707002468e-38
0.086833861949 -0.0119183732087 0.92 1.89558113411e-38
0.0888251926279 -0.0119572374691 0.923 2.33923194766e-38
0.0910237993627 -0.0120220112366 0.928 2.35000779272e-38
0.0929411028789 -0.0120479207436 0.93 2.14555708561e-38
0.0949675964602 -0.012086785004 0.933 1.49957320719e-38
0.0966942800322 -0.012086785004 0.933 1.62000668266e-38
0.0986319410181 -0.012112694511 0.935 1.75807928282e-38
0.101221041037 -0.0122163325389 0.943 2.10820491452e-38
0.103293801595 -0.0122551967994 0.946 2.31996661611e-38
0.105044543995 -0.0122551967994 0.946 2.04323903616e-38
0.107021069241 -0.0122811063063 0.948 2.04324309992e-38
0.109463965613 -0.0123588348273 0.954 1.95108222226e-38
0.111462699008 -0.0123847443342 0.956 1.89569477942e-38
0.112995061278 -0.0123588348273 0.954 1.8037505425e-38
0.11476060911 -0.0123588348273 0.954 1.59177542315e-38
0.116526156943 -0.0123588348273 0.954 1.28698838288e-38
0.118291704775 -0.0123588348273 0.954 2.35080485129e-38
-0.0173852791805 -0.00948287955299 0.854 2.15473909379e-38
-0.015804799255 -0.00948287955299 0.854 1.86897117692e-38
-0.0142243193295 -0.00948287955299 0.854 1.91506997277e-38
-0.012643839404 -0.00948287955299 0.854 2.01659012287e-38
-0.0109985857111 -0.0094273591809 0.849 2.07209121102e-38
-0.00940515103207 -0.00940515103207 0.847 2.12729886727e-38
-0.00781911906936 -0.00938294288323 0.845 1.52799476303e-38
-0.00624048982293 -0.0093607347344 0.843 1.01097966903e-38
-0.0046803673672 -0.0093607347344 0.843 1.15931972317e-38
-0.00312024491147 -0.0093607347344 0.843 1.11325890252e-38
-0.00156012245573 -0.0093607347344 0.843 1.17761087202e-38
0.0 -0.0093607347344 0.843 1.16853648356e-38
0.00156382381387 -0.00938294288323 0.845 1.14066493736e-38
0.00312764762774 -0.00938294288323 0.845 1.19598217515e-38
0.00469147144162 -0.00938294288323 0.845 6.42848473106e-39
0.00625529525549 -0.00938294288323 0.845 2.33784157932e-38
0.00783762586006 -0.00940515103207 0.847 2.34946689151e-38
0.0094273591809 -0.0094273591809 0.849 1.8317319505e-38
0.011024495218 -0.00944956732974 0.851 1.54283633545e-38
0.0125994231063 -0.00944956732974 0.851 2.3483850891e-38
0.0141743509946 -0.00944956732974 0.851 2.34863858399e-38
0.0157492788829 -0.00944956732974 0.851 2.34845767636e-38
0.0173852791805 -0.00948287955299 0.854 2.34852900245e-38
0.018965759106 -0.00948287955299 0.854 2.34838803182e-38
0.0205462390315 -0.00948287955299 0.854 2.17331708844e-38
0.022126718957 -0.00948287955299 0.854 2.34928444245e-38
0.0243734433476 -0.00974937733903 0.878 2.3489273916e-38
0.0258502852452 -0.00969385696694 0.873 2.34845865727e-38
0.027465928073 -0.00969385696694 0.873 2.34867599866e-38
0.0290815709008 -0.00969385696694 0.873 2.34856711777e-38
0.0307675395333 -0.00971606511577 0.875 2.34863858399e-38
0.0324979244634 -0.00974937733903 0.878 2.34892627056e-38
0.0342005492075 -0.00977158548786 0.88 2.20036803426e-38
0.0358291467888 -0.00977158548786 0.88 1.96929742074e-38
0.0374577443701 -0.00977158548786 0.88 2.21775632651e-38
0.0391751745468 -0.0097937936367 0.882 2.34858673595e-38
0.0408074734862 -0.0097937936367 0.882 2.348656941e-38
0.0424397724257 -0.0097937936367 0.882 2.34872868748e-38
0.0440720713651 -0.0097937936367 0.882 1.52637051798e-38
0.0457043703046 -0.0097937936367 0.882 2.34586275186e-38
0.047336669244 -0.0097937936367 0.882 2.34887330148e-38
0.0492465700439 -0.00984931400879 0.887 2.34876456072e-38
0.0510028644811 -0.00987152215763 0.889 2.0424429585e-38
0.0529442268251 -0.00992704252972 0.894 2.345975136e-38
0.0545987339134 -0.00992704252972 0.894 1.96808011276e-38
0.0562532410017 -0.00992704252972 0.894 1.54326681434e-38
0.0580372956249 -0.00994925067855 0.896 1.84858396583e-38
0.0598287529643 -0.00997145882739 0.898 2.20932989846e-38
0.0614906627689 -0.00997145882739 0.898 2.29241736856e-38
0.0633635499874 -0.0100047710506 0.901 2.34751053873e-38
0.0651753647966 -0.0100269791995 0.903 1.84969603629e-38
0.0668465279965 -0.0100269791995 0.903 1.70175773442e-38
0.068745324722 -0.0100602914227 0.906 2.1633042504e-38
0.070577497001 -0.0100824995716 0.908 1.91449193715e-38
0.0728149679962 -0.0101602280925 0.915 1.95194570237e-38
0.0747526289822 -0.0101935403157 0.918 1.60128043064e-38
0.0764515523681 -0.0101935403157 0.918 2.18153850653e-38
0.0781504757541 -0.0101935403157 0.918 2.28378018522e-38
0.0800233629726 -0.0102157484646 0.92 1.40806211162e-38
0.0819924855027 -0.0102490606878 0.923 7.98968816575e-39
0.083700662284 -0.0102490606878 0.923 1.85888883447e-38
0.0854088390653 -0.0102490606878 0.923 2.28360011837e-38
0.0873057851117 -0.0102712688367 0.925 2.34935927179e-38
0.089306369186 -0.0103045810599 0.928 2.34921549857e-38
0.0912199713441 -0.0103267892088 0.93 1.6478403938e-38
0.0932409128882 -0.010360101432 0.933 1.71129707372e-38
0.0951711711578 -0.0103823095809 0.935 1.6199007445e-38
0.0972124701717 -0.0104156218041 0.938 1.77645605101e-38
0.100003294209 -0.0105266625483 0.948 2.15444790397e-38
0.102079756125 -0.0105599747715 0.951 2.23713278103e-38
0.10383975192 -0.0105599747715 0.951 2.10773646044e-38
0.105599747715 -0.0105599747715 0.951 1.98802913783e-38
0.107359743511 -0.0105599747715 0.951 1.98799382511e-38
0.109693449818 -0.0106154951436 0.956 1.96044275587e-38
0.111812477352 -0.0106488073669 0.959 1.74843330471e-38
0.113231948199 -0.0106154951436 0.956 1.68411174338e-38
0.115001197389 -0.0106154951436 0.956 1.58284298622e-38
0.11677044658 -0.0106154951436 0.956 1.39769320364e-38
-0.0142243193295 -0.0079023996275 0.854 1.87818947874e-38
-0.012643839404 -0.0079023996275 0.854 1.89672991859e-38
-0.011024495218 -0.00787463944145 0.851 1.97989137726e-38
-0.0094273591809 -0.00785613265075 0.849 2.20105537116e-38
-0.00783762586006 -0.00783762586006 0.847 1.49114958173e-38
-0.00627010068805 -0.00783762586006 0.847 1.03870968408e-38
-0.00470257551603 -0.00783762586006 0.847 1.17768794344e-38
-0.00313505034402 -0.00783762586006 0.847 1.11329393498e-38
-0.00156382381387 -0.00781911906936 0.845 1.12251349796e-38
0.0 -0.00781911906936 0.845 1.15917623021e-38
0.00156752517201 -0.00783762586006 0.847 1.15913993657e-38
0.00313505034402 -0.00783762586006 0.847 1.15917623021e-38
0.00470257551603 -0.00783762586006 0.847 9.10175862703e-39
0.00629971155316 -0.00787463944145 0.851 2.0334529282e-38
0.0079023996275 -0.0079023996275 0.854 2.34978933029e-38
0.00948287955299 -0.0079023996275 0.854 1.82251056582e-38
0.0110892689855 -0.00792090641819 0.856 1.50610213699e-38
0.0126734502691 -0.00792090641819 0.856 2.3487132732e-38
0.0142243193295 -0.0079023996275 0.854 2.2655906305e-38
0.015804799255 -0.0079023996275 0.854 2.34878459929e-38
0.0173852791805 -0.0079023996275 0.854 2.34845795662e-38
0.018965759106 -0.0079023996275 0.854 2.34838621014e-38
0.0205462390315 -0.0079023996275 0.854 2.34896242407e-38
0.0227485471244 -0.00812448111586 0.878 2.34863606165e-38
0.0243734433476 -0.00812448111586 0.878 2.34846075921e-38
0.0259983395707 -0.00812448111586 0.878 2.34892514953e-38
0.027465928073 -0.00807821413911 0.873 2.34834907573e-38
0.0290815709008 -0.00807821413911 0.873 2.3486757184e-38
0.0307675395333 -0.00809672092981 0.875 2.32954673319e-38
0.0324979244634 -0.00812448111586 0.878 1.81192151385e-38
0.0342005492075 -0.00814298790655 0.88 2.34822912458e-38
0.0359105766679 -0.00816149469725 0.882 2.34844170156e-38
0.0375428756073 -0.00816149469725 0.882 2.20928940093e-38
0.0391751745468 -0.00816149469725 0.882 2.34862330984e-38
0.0409462744165 -0.00818925488329 0.885 2.3483714965e-38
0.0425841253931 -0.00818925488329 0.885 2.34887218044e-38
0.0442219763698 -0.00818925488329 0.885 1.82085395078e-38
0.0458598273464 -0.00818925488329 0.885 2.34791145022e-38
0.0476050177091 -0.00820776167399 0.887 2.3484466061e-38
0.0493576107881 -0.00822626846469 0.889 1.98741340728e-38
0.0512897197369 -0.00827253544143 0.894 1.75423734282e-38
0.0529442268251 -0.00827253544143 0.894 1.98558387201e-38
0.0545987339134 -0.00827253544143 0.894 1.79222710471e-38
0.0563790871785 -0.00829104223213 0.896 2.34801598708e-38
0.0581668431598 -0.00830954902282 0.898 2.283553315e-38
0.0600286263038 -0.00833730920887 0.901 2.29255119257e-38
0.0616960881456 -0.00833730920887 0.901 1.70243638327e-38
0.0637151790106 -0.00838357618561 0.906 1.76557328688e-38
0.0653918942478 -0.00838357618561 0.906 1.78470255234e-38
0.0672166638105 -0.00840208297631 0.908 2.28356088201e-38
0.0690488360894 -0.008420589767 0.91 1.96080457114e-38
0.0711215966475 -0.00846685674374 0.915 2.07115346208e-38
0.0730537055962 -0.00849461692979 0.918 1.73092604222e-38
0.0747526289822 -0.00849461692979 0.918 2.15484867533e-38
0.0764515523681 -0.00849461692979 0.918 2.29292253666e-38
0.0783207382285 -0.00851312372049 0.92 1.31525691693e-38
0.0800233629726 -0.00851312372049 0.92 1.6276048032e-38
0.0819924855027 -0.00854088390653 0.923 2.34917023663e-38
0.083700662284 -0.00854088390653 0.923 2.34900348211e-38
0.0854088390653 -0.00854088390653 0.923 2.20073503433e-38
0.0875889390094 -0.00858715088327 0.928 1.52712960136e-38
0.0897875457442 -0.00863341786002 0.933 1.48099086851e-38
0.0917104012975 -0.00865192465071 0.935 1.65673821866e-38
0.0934407862277 -0.00865192465071 0.935 1.61078810059e-38
0.0954765332043 -0.00867968483676 0.938 1.89658922823e-38
0.0977306603112 -0.0087259518135 0.943 2.16352523516e-38
0.100003294209 -0.00877221879024 0.948 2.16348599881e-38
0.102079756125 -0.00879997897629 0.951 2.08941097978e-38
0.10383975192 -0.00879997897629 0.951 2.09862703952e-38
0.105599747715 -0.00879997897629 0.951 1.9881360569e-38
0.107359743511 -0.00879997897629 0.951 1.82204393343e-38
0.110381902431 -0.00890176632512 0.962 1.77601828537e-38
0.112162255696 -0.00890176632512 0.962 1.61024986185e-38
0.11358727858 -0.00887400613907 0.959 1.70251779871e-38
0.115362079808 -0.00887400613907 0.959 1.49057729143e-38
0.117136881036 -0.00887400613907 0.959 1.7200170738e-38
-0.00944956732974 -0.00629971155316 0.851 2.11807762272e-38
-0.00785613265075 -0.0062849061206 0.849 1.55572547873e-38
-0.0062849061206 -0.0062849061206 0.849 9.74101977607e-39
-0.00470257551603 -0.00627010068805 0.847 1.14070249216e-38
-0.00313505034402 -0.00627010068805 0.847 1.14070025008e-38
-0.00156752517201 -0.00627010068805 0.847 1.14081123292e-38
0.0 -0.00627010068805 0.847 1.14988450035e-38
0.00157122653015 -0.0062849061206 0.849 1.15913615307e-38
0.0031424530603 -0.0062849061206 0.849 1.17761535618e-38
0.0047414397765 -0.006321919702 0.854 6.70399121953e-39
0.006321919702 -0.006321919702 0.854 1.96862760007e-38
0.00792090641819 -0.00633672513455 0.856 2.34975429783e-38
0.00952729585067 -0.00635153056711 0.858 1.99804169562e-38
0.0111151784924 -0.00635153056711 0.858 1.56120343469e-38
0.0127030611342 -0.00635153056711 0.858 2.3482109077e-38
0.0142576315527 -0.00633672513455 0.856 2.3488189311e-38
0.0158418128364 -0.00633672513455 0.856 2.3487789941e-38
0.01742599412 -0.00633672513455 0.856 2.34838480884e-38
0.0194321302315 -0.00647737674385 0.875 2.34863830373e-38
0.0210033567617 -0.00646257131129 0.873 2.3482804121e-38
0.0226189995895 -0.00646257131129 0.873 2.34824131588e-38
0.0243734433476 -0.00649958489268 0.878 2.34806194967e-38
0.0259983395707 -0.00649958489268 0.878 2.34895822017e-38
0.0276232357939 -0.00649958489268 0.878 2.34906878262e-38
0.0292481320171 -0.00649958489268 0.878 2.34907256612e-38
0.0308730282403 -0.00649958489268 0.878 1.57325684356e-38
0.0324979244634 -0.00649958489268 0.878 2.34701560011e-38
0.0342782777284 -0.0065291957578 0.882 2.34876456072e-38
0.0359105766679 -0.0065291957578 0.882 2.2463823318e-38
0.0375428756073 -0.0065291957578 0.882 1.74627348339e-38
0.0393084234398 -0.00655140390664 0.885 2.34819899666e-38
0.0409462744165 -0.00655140390664 0.885 2.34909008236e-38
0.0426803607048 -0.00656620933919 0.887 2.18195399153e-38
0.0443219130396 -0.00656620933919 0.887 2.14263691974e-38
0.0459634653743 -0.00656620933919 0.887 2.29086515025e-38
0.0477123570952 -0.00658101477175 0.889 1.7834022875e-38
0.0494686515323 -0.00659582020431 0.891 2.11515801737e-38
0.0514044618392 -0.0066328337857 0.896 2.34812977252e-38
0.0530626702856 -0.0066328337857 0.896 2.34880617929e-38
0.054720878732 -0.0066328337857 0.896 2.34801332462e-38
0.0565049333552 -0.00664763921826 0.898 2.01629136604e-38
0.058490711997 -0.00668465279965 0.903 1.58240451993e-38
0.0601618751969 -0.00668465279965 0.903 1.73827375072e-38
0.0620384637735 -0.00670686094849 0.906 1.82175652712e-38
0.0637151790106 -0.00670686094849 0.906 1.97870209525e-38
0.0656806001826 -0.0067364718136 0.91 1.97891901625e-38
0.0675867996244 -0.00675867996244 0.913 2.15495559441e-38
0.0694282252987 -0.006773485395 0.915 1.55500282911e-38
0.0715102392521 -0.00681049897639 0.92 2.11749384178e-38
0.0732128639962 -0.00681049897639 0.92 1.67550104458e-38
0.0749154887403 -0.00681049897639 0.92 2.06283087025e-38
0.0766181134844 -0.00681049897639 0.92 1.31568851685e-38
0.0783207382285 -0.00681049897639 0.92 1.80335691776e-38
0.0804582725539 -0.00684751255778 0.925 2.34899675588e-38
0.0821701506934 -0.00684751255778 0.925 1.95256059214e-38
0.0838820288328 -0.00684751255778 0.925 9.47128523597e-39
0.0855939069723 -0.00684751255778 0.925 1.75657288697e-38
0.0885327853349 -0.00694374786941 0.938 1.43507564277e-38
0.0902687223023 -0.00694374786941 0.938 1.73063695434e-38
0.0920046592696 -0.00694374786941 0.938 1.73042886152e-38
0.0939404695765 -0.00695855330196 0.94 2.1082447114e-38
0.0959854699485 -0.0069807614508 0.943 2.22823916007e-38
0.0980415743949 -0.00700296959964 0.946 2.0989532618e-38
0.100636226451 -0.00706219132986 0.954 2.07125309441e-38
0.102401774283 -0.00706219132986 0.954 2.04341686093e-38
0.104167322116 -0.00706219132986 0.954 1.95122165146e-38
0.105932869948 -0.00706219132986 0.954 1.68367832177e-38
0.10769841778 -0.00706219132986 0.954 1.76690830393e-38
0.110381902431 -0.00712141306009 0.962 1.66574296259e-38
0.112162255696 -0.00712141306009 0.962 1.57347894936e-38
0.113942608962 -0.00712141306009 0.962 1.68389664407e-38
0.115722962227 -0.00712141306009 0.962 1.26926868354e-38
-0.00948287955299 -0.0047414397765 0.854 2.25665945474e-38
-0.0079023996275 -0.0047414397765 0.854 1.47292527481e-38
-0.00629971155316 -0.00472478366487 0.851 1.02949166253e-38
-0.00471367959045 -0.00471367959045 0.849 1.1408468259e-38
-0.0031424530603 -0.00471367959045 0.849 1.16839607345e-38
-0.00157122653015 -0.00471367959045 0.849 1.16836048047e-38
0.0 -0.00471367959045 0.849 1.18665569309e-38
0.00157492788829 -0.00472478366487 0.851 1.15917623021e-38
0.003160959851 -0.0047414397765 0.854 1.15931916265e-38
0.0047414397765 -0.0047414397765 0.854 8.63971128699e-39
0.00633672513455 -0.00475254385092 0.856 1.79342017022e-38
0.00795791999959 -0.00477475199975 0.86 2.34961150551e-38
0.0095495039995 -0.00477475199975 0.86 2.10864268016e-38
0.0111669975064 -0.00478585607417 0.862 1.53365418714e-38
0.0127622828645 -0.00478585607417 0.862 2.3482109077e-38
0.0143908804458 -0.00479696014859 0.864 2.34864040568e-38
0.0161564282782 -0.00484692848347 0.873 2.34871173177e-38
0.0178127860456 -0.00485803255789 0.875 2.34881809032e-38
0.0194321302315 -0.00485803255789 0.875 2.34849368973e-38
0.0210033567617 -0.00484692848347 0.873 2.34871117125e-38
0.0226189995895 -0.00484692848347 0.873 2.34889067758e-38
0.0243734433476 -0.00487468866951 0.878 2.34892486927e-38
0.0259983395707 -0.00487468866951 0.878 2.34813033304e-38
0.0276232357939 -0.00487468866951 0.878 2.08936627836e-38
0.0292481320171 -0.00487468866951 0.878 1.43307248661e-38
0.0309433540449 -0.00488579274393 0.88 1.96692978685e-38
0.0325719516262 -0.00488579274393 0.88 2.34824187639e-38
0.0343948705098 -0.00491355292998 0.885 2.34851344804e-38
0.0360327214865 -0.00491355292998 0.885 2.08021748094e-38
0.0376705724632 -0.00491355292998 0.885 2.26202390552e-38
0.0393972560352 -0.00492465700439 0.887 2.34862821438e-38
0.04103880837 -0.00492465700439 0.887 2.26464307248e-38
0.0427765960164 -0.00493576107881 0.889 1.66509233971e-38
0.0444218497093 -0.00493576107881 0.889 1.69199909192e-38
0.0461707414302 -0.00494686515323 0.891 2.23612258497e-38
0.0479807055603 -0.00496352126486 0.894 2.14429255387e-38
0.0497462533928 -0.00497462533928 0.896 2.03354639481e-38
0.0515192039415 -0.00498572941369 0.898 2.34751011834e-38
0.0533587789368 -0.00500238552532 0.901 1.94124454652e-38
0.0550262407785 -0.00500238552532 0.901 1.75613988575e-38
0.0566937026203 -0.00500238552532 0.901 1.74775017171e-38
0.0588145808341 -0.00504124978578 0.908 1.69307963316e-38
0.0604949974294 -0.00504124978578 0.908 1.98774397359e-38
0.0623123642758 -0.0050523538602 0.91 1.93242659567e-38
0.0642074596432 -0.00506900997183 0.913 2.17267024907e-38
0.0658971296338 -0.00506900997183 0.913 1.73963847529e-38
0.0679569354383 -0.00509677015787 0.918 2.14580049115e-38
0.069807614508 -0.00510787423229 0.92 1.9608058323e-38
0.0715102392521 -0.00510787423229 0.92 1.8871957641e-38
0.0734516015962 -0.00512453034392 0.923 1.90592019444e-38
0.0753226381356 -0.00513563441834 0.925 1.4170022557e-38
0.0770345162751 -0.00513563441834 0.925 1.85971504005e-38
0.0790017881261 -0.00515229052996 0.928 2.10872185352e-38
0.0807192183028 -0.00515229052996 0.928 1.43572808733e-38
0.0826143136701 -0.00516339460438 0.93 9.37762384791e-39
0.0843354452049 -0.00516339460438 0.93 1.11336428016e-38
0.0865192465071 -0.00519115479043 0.935 1.70330098442e-38
0.0894766316605 -0.00526333127414 0.948 1.63808203156e-38
0.0907498988604 -0.0052355710881 0.943 2.04410433796e-38
0.0924950892231 -0.0052355710881 0.943 2.29262574164e-38
0.0947399629346 -0.00526333127414 0.948 2.27397221701e-38
0.0964944066926 -0.00526333127414 0.948 2.11713651067e-38
0.0982488504507 -0.00526333127414 0.948 2.02529989348e-38
0.100636226451 -0.0052966434974 0.954 1.96976951819e-38
0.102616453055 -0.00530774757182 0.956 1.84058871731e-38
0.104385702246 -0.00530774757182 0.956 1.7206307024e-38
0.106154951436 -0.00530774757182 0.956 1.72985208707e-38
0.109166006283 -0.00536881998112 0.967 1.56407945965e-38
0.110611386636 -0.00535216386949 0.964 1.4719866851e-38
0.112395441259 -0.00535216386949 0.964 1.90559579385e-38
0.114534826264 -0.00536881998112 0.967 2.13720394546e-38
0.116324432924 -0.00536881998112 0.967 9.29728600566e-39
-0.00952729585067 -0.00317576528356 0.858 2.25615624846e-38
-0.00793941320889 -0.00317576528356 0.858 1.51909259414e-38
-0.006321919702 -0.003160959851 0.854 9.00490087718e-39
-0.0047414397765 -0.003160959851 0.854 1.17750871736e-38
-0.003160959851 -0.003160959851 0.854 1.18665513257e-38
-0.00157492788829 -0.00314985577658 0.851 1.15903245698e-38
0.0 -0.00314985577658 0.851 1.17743556958e-38
0.0015804799255 -0.003160959851 0.854 1.13159012851e-38
0.003160959851 -0.003160959851 0.854 1.18687093253e-38
0.00476364792533 -0.00317576528356 0.858 9.93260109822e-39
0.00636633599967 -0.00318316799983 0.86 1.6184284002e-38
0.00797642679028 -0.00319057071611 0.862 2.34975443796e-38
0.00957171214834 -0.00319057071611 0.862 2.2560461064e-38
0.0111929070134 -0.00319797343239 0.864 1.51528568661e-38
0.0127918937296 -0.00319797343239 0.864 2.34461209298e-38
0.0144408487806 -0.00320907750681 0.867 2.34826317613e-38
0.0161564282782 -0.00323128565565 0.873 2.34851961375e-38
0.0178127860456 -0.00323868837192 0.875 2.31081893974e-38
0.0194987546781 -0.00324979244634 0.878 2.15408861105e-38
0.0211236509012 -0.00324979244634 0.878 1.8490604073e-38
0.0227485471244 -0.00324979244634 0.878 1.51661299651e-38
0.0244289637197 -0.00325719516262 0.88 1.83731976825e-38
0.026057561301 -0.00325719516262 0.88 2.16194134751e-38
0.0277490819706 -0.0032645978789 0.882 2.34827592795e-38
0.0293813809101 -0.0032645978789 0.882 2.34841928078e-38
0.0310136798495 -0.0032645978789 0.882 2.01453371737e-38
0.032645978789 -0.0032645978789 0.882 2.34901735496e-38
0.0344725990308 -0.0032831046696 0.887 2.34908741989e-38
0.0361141513656 -0.0032831046696 0.887 1.95103794123e-38
0.0377557037004 -0.0032831046696 0.887 2.34643700397e-38
0.0394860886305 -0.00329050738588 0.889 1.75678826655e-38
0.0411313423234 -0.00329050738588 0.889 1.56253074459e-38
0.042872831328 -0.00329791010215 0.891 1.3048173835e-38
0.0445217863791 -0.00329791010215 0.891 1.93174262189e-38
0.0461707414302 -0.00329791010215 0.891 2.34787725853e-38
0.0480880449463 -0.00331641689285 0.896 2.22776510079e-38
0.0498572941369 -0.00332381960913 0.898 1.71133476865e-38
0.051691317095 -0.00333492368355 0.901 1.79366623823e-38
0.0534772223972 -0.00334232639983 0.903 1.78480134389e-38
0.0551483855971 -0.00334232639983 0.903 1.77598143122e-38
0.0570083180621 -0.00335343047424 0.906 1.8585997466e-38
0.0588145808341 -0.00336083319052 0.908 1.95097264072e-38
0.0606282463224 -0.0033682359068 0.91 2.07121778168e-38
0.0626547399037 -0.0033867426975 0.915 2.32017526945e-38
0.0645590886664 -0.00339784677192 0.918 2.0623945059e-38
0.0662580120524 -0.00339784677192 0.918 1.65745133945e-38
0.0683270712523 -0.00341635356261 0.923 1.38930419025e-38
0.0700352480336 -0.00341635356261 0.923 1.81271142579e-38
0.0718988818567 -0.00342375627889 0.925 1.99750051415e-38
0.0736107599962 -0.00342375627889 0.925 1.83176544153e-38
0.0755669277728 -0.00343486035331 0.928 2.01662935923e-38
0.0772843579495 -0.00343486035331 0.928 1.42701074972e-38
0.0791720506005 -0.00344226306959 0.93 1.02055936572e-38
0.0808931821353 -0.00344226306959 0.93 1.22371036851e-38
0.0828808114561 -0.00345336714401 0.933 1.03100114123e-38
0.0846074950282 -0.00345336714401 0.933 1.49118587536e-38
0.0865192465071 -0.00346076986028 0.935 1.85981439211e-38
0.0892878623953 -0.00350148479982 0.946 1.98831598363e-38
0.0912310754185 -0.0035088875161 0.948 2.34823781263e-38
0.0929855191766 -0.0035088875161 0.948 2.23713306129e-38
0.0950397729439 -0.00351999159051 0.951 2.15412000013e-38
0.0971051307856 -0.00353109566493 0.954 2.10787771133e-38
0.0988706786181 -0.00353109566493 0.954 1.78537853872e-38
0.100847203865 -0.00353849838121 0.956 1.80353670435e-38
0.102616453055 -0.00353849838121 0.956 1.66535045889e-38
0.104713272441 -0.00354960245563 0.959 1.60092281927e-38
0.106488073669 -0.00354960245563 0.959 1.61928963824e-38
0.109166006283 -0.00357921332074 0.967 1.59166794356e-38
0.110955612943 -0.00357921332074 0.967 1.93411992474e-38
0.112745219603 -0.00357921332074 0.967 1.70367541137e-38
0.114890156645 -0.00359031739516 0.97 1.77785833038e-38
0.116685315343 -0.00359031739516 0.97 5.05310468313e-39
-0.00952729585067 -0.00158788264178 0.858 1.9242850516e-38
-0.00793941320889 -0.00158788264178 0.858 1.63902160218e-38
-0.00635153056711 -0.00158788264178 0.858 7.99399295463e-39
-0.00475254385092 -0.00158418128364 0.856 1.24178978117e-38
-0.00316836256728 -0.00158418128364 0.856 1.14080786981e-38
-0.00158788264178 -0.00158788264178 0.858 1.14094912069e-38
0.0 -0.00158788264178 0.858 1.15935615693e-38
0.00159528535806 -0.00159528535806 0.862 1.13162516097e-38
0.00319057071611 -0.00159528535806 0.862 1.15931972317e-38
0.00481361626021 -0.0016045387534 0.867 1.0301023484e-38
0.00643296044618 -0.00160824011154 0.869 1.25007734055e-38
0.00804120055772 -0.00160824011154 0.869 2.34989498819e-38
0.00964944066926 -0.00160824011154 0.869 2.34907144509e-38
0.0112835902878 -0.00161194146968 0.871 2.1448044482e-38
0.0128955317575 -0.00161194146968 0.871 1.87668182172e-38
0.0145074732272 -0.00161194146968 0.871 1.65447456112e-38
0.0162489622317 -0.00162489622317 0.878 1.84722078268e-38
0.0178738584549 -0.00162489622317 0.878 2.17102162143e-38
0.0195431709757 -0.00162859758131 0.88 2.29174544595e-38
0.021171768557 -0.00162859758131 0.88 2.34852998336e-38
0.0228003661383 -0.00162859758131 0.88 2.34932199725e-38
0.0244844840917 -0.00163229893945 0.882 2.34878403877e-38
0.0261167830312 -0.00163229893945 0.882 1.9153861057e-38
0.0277490819706 -0.00163229893945 0.882 1.15802408261e-38
0.0293813809101 -0.00163229893945 0.882 1.47026476955e-38
0.0310136798495 -0.00163229893945 0.882 2.34740964524e-38
0.032645978789 -0.00163229893945 0.882 2.34869912008e-38
0.0344725990308 -0.0016415523348 0.887 1.87753535262e-38
0.0361955812446 -0.00164525369294 0.889 1.59090647797e-38
0.0378408349376 -0.00164525369294 0.889 1.74681312343e-38
0.0395749212258 -0.00164895505108 0.891 1.41613204935e-38
0.0412238762769 -0.00164895505108 0.891 1.46248027632e-38
0.0431134196071 -0.00165820844643 0.896 1.56403812135e-38
0.0447716280535 -0.00165820844643 0.896 1.79380889041e-38
0.0465334745278 -0.00166190980456 0.898 2.02404012616e-38
0.0481953843324 -0.00166190980456 0.898 1.68321098873e-38
0.0500238552532 -0.00166746184177 0.901 1.77562115739e-38
0.0518060591973 -0.00167116319991 0.903 1.74843330471e-38
0.0536548875879 -0.00167671523712 0.906 1.89601567677e-38
0.0554537476436 -0.00168041659526 0.908 1.93296203182e-38
0.0574487796807 -0.00168966999061 0.913 2.06178157796e-38
0.0591384496713 -0.00168966999061 0.913 2.20925983353e-38
0.060961368555 -0.00169337134875 0.915 2.14482953144e-38
0.0626547399037 -0.00169337134875 0.915 1.85913518274e-38
0.0646997402757 -0.0017026247441 0.92 2.09920059098e-38
0.0664023650198 -0.0017026247441 0.92 2.09924136876e-38
0.0683270712523 -0.00170817678131 0.923 2.25601107394e-38
0.0701870037173 -0.00171187813945 0.925 2.34860158971e-38
0.0721320674195 -0.00171743017665 0.928 2.06280158311e-38
0.0738494975962 -0.00171743017665 0.928 1.41735748486e-38
0.0757297875309 -0.00172113153479 0.93 1.12179645354e-38
0.0774509190657 -0.00172113153479 0.93 1.30697061872e-38
0.0794274443121 -0.001726683572 0.933 1.16882739312e-38
0.0813280917167 -0.00173038493014 0.935 1.18747825529e-38
0.0830584766468 -0.00173038493014 0.935 9.01604960776e-39
0.084788861577 -0.00173038493014 0.935 2.28352010422e-38
0.0867968483676 -0.00173593696735 0.938 1.84091059557e-38
0.0892878623953 -0.00175074239991 0.946 2.18185674142e-38
0.0915197813534 -0.00175999579526 0.951 2.19110951518e-38
0.0935740351207 -0.00176554783247 0.954 2.09862675926e-38
0.0955394562927 -0.00176924919061 0.956 1.96029786161e-38
0.0973087054833 -0.00176924919061 0.956 1.80310188144e-38
0.0990779546739 -0.00176924919061 0.956 1.87732599863e-38
0.101163669985 -0.00177480122781 0.959 1.61932270888e-38
0.102938471213 -0.00177480122781 0.959 1.61957087884e-38
0.104713272441 -0.00177480122781 0.959 1.95176465461e-38
0.106488073669 -0.00177480122781 0.959 1.95230891894e-38
0.108262874897 -0.00177480122781 0.959 2.17386891978e-38
0.110955612943 -0.00178960666037 0.967 1.71289343293e-38
0.112745219603 -0.00178960666037 0.967 2.34897209302e-38
0.114534826264 -0.00178960666037 0.967 1.31627201753e-38
-0.00795791999959 0.0 0.86 1.64842137214e-38
-0.00636633599967 0.0 0.86 7.90287492328e-39
-0.00477475199975 0.0 0.86 1.28810185464e-38
-0.00318316799983 0.0 0.86 1.12237056552e-38
-0.00159528535806 0.0 0.862 1.11329365472e-38
0.0 0.0 0.864 1.113186035e-38
0.0016045387534 0.0 0.867 1.17747116257e-38
0.00321648022309 0.0 0.869 1.12233371137e-38
0.00482472033463 0.0 0.869 1.17754403009e-38
0.00644776587873 0.0 0.871 8.36276986889e-39
0.00805970734842 0.0 0.871 1.54606492712e-38
0.0096716488181 0.0 0.871 2.31154200974e-38
0.0113094997948 0.0 0.873 2.34878319799e-38
0.0129251426226 0.0 0.873 2.34910339469e-38
0.0145740976737 0.0 0.875 2.34903304951e-38
0.0162859758131 0.0 0.88 2.34878221708e-38
0.0179145733944 0.0 0.88 2.10910384748e-38
0.0195431709757 0.0 0.88 1.73053101618e-38
0.0212920626966 0.0 0.885 1.40649335799e-38
0.0229299136732 0.0 0.885 9.91823358506e-39
0.024623285022 0.0 0.887 9.73456259275e-39
0.0262648373568 0.0 0.887 1.13915531853e-38
0.0278434666032 0.0 0.885 9.27933116843e-39
0.0294813175799 0.0 0.885 2.10699139005e-38
0.0311191685565 0.0 0.885 2.18084192107e-38
0.0329050738588 0.0 0.889 1.64543520512e-38
0.034744648854 0.0 0.894 1.42423940174e-38
0.0364805858214 0.0 0.896 1.5357372173e-38
0.0381387942678 0.0 0.896 1.42524525378e-38
0.0398858353096 0.0 0.898 1.56400757304e-38
0.0416865460443 0.0 0.901 1.48092360618e-38
0.0433540078861 0.0 0.901 1.65619913914e-38
0.0451214063976 0.0 0.903 1.63765267371e-38
0.0467925695976 0.0 0.903 1.79424231203e-38
0.0484637327975 0.0 0.903 1.74800002323e-38
0.0503014571137 0.0 0.906 1.9603386394e-38
0.0519781723508 0.0 0.906 1.92381435544e-38
0.0537733310484 0.0 0.908 2.01586523117e-38
0.0557591096901 0.0 0.913 2.19077936926e-38
0.0575746258575 0.0 0.915 2.26478600492e-38
0.0592679972062 0.0 0.915 2.34809530058e-38
0.060961368555 0.0 0.915 1.49996837335e-38
0.0628601652804 0.0 0.918 2.34838621014e-38
0.0650513692989 0.0 0.925 2.34896816939e-38
0.0667632474384 0.0 0.925 2.3486085962e-38
0.0686972070662 0.0 0.928 2.12732647284e-38
0.0705663929266 0.0 0.93 1.26015519884e-38
0.0722875244614 0.0 0.93 1.14894815271e-38
0.0740086559961 0.0 0.93 1.47303065245e-38
0.0759740771681 0.0 0.933 1.71349290841e-38
0.0778673218564 0.0 0.935 1.58424694715e-38
0.0795977067866 0.0 0.935 1.14123722765e-38
0.0813280917167 0.0 0.935 1.16889941986e-38
0.0833249744329 0.0 0.938 1.03957246355e-38
0.0857863775955 0.0 0.946 2.34823304821e-38
0.0875371199954 0.0 0.946 1.81289009134e-38
0.0894766316605 0.0 0.948 2.20951571063e-38
0.0912310754185 0.0 0.948 1.95154521127e-38
0.0940644650742 0.0 0.959 1.90509216718e-38
0.0961390763113 0.0 0.962 1.72981102903e-38
0.0979194295763 0.0 0.962 1.66530757916e-38
0.0999070588971 0.0 0.964 1.68400216184e-38
0.10169111352 0.0 0.964 1.85030616164e-38
0.103797186302 0.0 0.967 1.86901041328e-38
0.105586792962 0.0 0.967 1.79586557617e-38
0.107376399622 0.0 0.967 1.44584840497e-38
-0.00799493358098 0.0015989867162 0.864 1.74050910203e-38
-0.00638114143223 0.00159528535806 0.862 8.08869831004e-39
-0.00478585607417 0.00159528535806 0.862 1.25086430976e-38
-0.00319797343239 0.0015989867162 0.864 1.17747060205e-38
-0.0016045387534 0.0016045387534 0.867 1.16843082565e-38
0.0 0.00160824011154 0.869 1.15910308243e-38
0.00160824011154 0.00160824011154 0.869 1.17757625995e-38
0.00322388293937 0.00161194146968 0.871 1.16853494213e-38
0.00483582440905 0.00161194146968 0.871 1.15921126267e-38
0.00644776587873 0.00161194146968 0.871 1.17768444019e-38
0.00807821413911 0.00161564282782 0.873 9.46945934407e-39
0.00969385696694 0.00161564282782 0.873 8.63253663885e-39
0.0113354093017 0.00161934418596 0.875 8.72437213501e-39
0.0129991697854 0.00162489622317 0.878 8.81620763117e-39
0.0146240660085 0.00162489622317 0.878 9.82639808891e-39
0.0162859758131 0.00162859758131 0.88 1.02855755697e-38
0.0179145733944 0.00162859758131 0.88 9.92146217672e-39
0.0196986280176 0.0016415523348 0.887 1.011123162e-38
0.0213401803524 0.0016415523348 0.887 1.14955799781e-38
0.0229817326872 0.0016415523348 0.887 1.23253336403e-38
0.024623285022 0.0016415523348 0.887 1.28803206997e-38
0.0262648373568 0.0016415523348 0.887 1.27859712741e-38
0.0279693127799 0.00164525369294 0.889 1.1678207003e-38
0.0296145664729 0.00164525369294 0.889 1.59083781435e-38
0.0312598201658 0.00164525369294 0.889 1.90469377803e-38
0.0331641689285 0.00165820844643 0.896 2.0063570007e-38
0.0349001058959 0.00166190980456 0.898 1.86777614959e-38
0.0365620157004 0.00166190980456 0.898 1.56361044506e-38
0.0383516223608 0.00166746184177 0.901 1.62843731461e-38
0.0401079167979 0.00167116319991 0.903 1.65634389327e-38
0.041917880928 0.00167671523712 0.906 1.58262368301e-38
0.0435945961652 0.00167671523712 0.906 1.77601674394e-38
0.0453712480721 0.00168041659526 0.908 1.84983952925e-38
0.0470516646673 0.00168041659526 0.908 1.96976377287e-38
0.0488394206486 0.0016841179534 0.91 1.98806024666e-38
0.0508011404625 0.00169337134875 0.915 1.99745973636e-38
0.0526666249647 0.00169892338596 0.918 2.16348417712e-38
0.0543655483507 0.00169892338596 0.918 2.20029040232e-38
0.0561866165552 0.0017026247441 0.92 2.24646598932e-38
0.0578892412993 0.0017026247441 0.92 2.27404690621e-38
0.0595918660434 0.0017026247441 0.92 1.85970467044e-38
0.061494364127 0.00170817678131 0.923 1.62990573528e-38
0.0635449165362 0.00171743017665 0.928 1.77735190112e-38
0.0652623467129 0.00171743017665 0.928 1.56422939859e-38
0.0673406593081 0.001726683572 0.933 1.00100746864e-38
0.0692153972057 0.00173038493014 0.935 1.15856554433e-38
0.0709457821358 0.00173038493014 0.935 1.47299954363e-38
0.072676167066 0.00173038493014 0.935 1.7038807016e-38
0.0746452895961 0.00173593696735 0.938 1.51920679997e-38
0.0761369369263 0.00173038493014 0.935 1.06759198686e-38
0.0778673218564 0.00173038493014 0.935 1.29814608177e-38
0.0798531004982 0.00173593696735 0.938 1.18751931333e-38
0.0815890374655 0.00173593696735 0.938 1.01223971661e-38
0.0835026396236 0.00173963832549 0.94 1.4634548794e-38
0.0857863775955 0.00175074239991 0.946 2.21926818743e-38
0.0875371199954 0.00175074239991 0.946 1.78487827517e-38
0.0894766316605 0.00175444375805 0.948 1.95115410887e-38
0.0912310754185 0.00175444375805 0.948 1.75740007346e-38
0.0943587230462 0.00178035326502 0.962 1.69314955796e-38
0.0961390763113 0.00178035326502 0.962 1.56400883421e-38
0.0979194295763 0.00178035326502 0.962 1.80407550361e-38
0.0999070588971 0.00178405462316 0.964 1.81340618957e-38
0.10169111352 0.00178405462316 0.964 2.00787670889e-38
