# .PCD v0.7 - Point Cloud Data file format
VERSION 0.7
FIELDS x y z rgb
SIZE 4 4 4 4
TYPE F F F F
COUNT 1 1 1 1
WIDTH 857
HEIGHT 1
VIEWPOINT 0 0 0 1 0 0 0
POINTS 857
DATA ascii
0.0661932382849 -0.147878511062 0.761 6.98493474605e-39
0.0676016050569 -0.147878511062 0.761 7.53627842943e-39
0.069009971829 -0.147878511062 0.761 6.52397341231e-39
0.070233270694 -0.147489868457 0.759 6.43030081387e-39
0.0716379361079 -0.147489868457 0.759 6.15299365687e-39
0.073235072145 -0.147878511062 0.761 5.32645877716e-39
0.074643438917 -0.147878511062 0.761 5.32646438236e-39
0.0758519323495 -0.147489868457 0.759 9.19868924441e-39
0.0772565977634 -0.147489868457 0.759 8.3721599699e-39
0.0786612631773 -0.147489868457 0.759 1.39954754189e-38
0.0803823947121 -0.148072832364 0.762 2.12881801493e-38
-0.0629452965177 -0.148779791769 0.773 1.3180710045e-38
-0.0615147215968 -0.148779791769 0.773 1.53937933214e-38
-0.0601618751969 -0.148972262392 0.774 1.25349959166e-38
-0.0587294495969 -0.148972262392 0.774 1.23448565305e-38
-0.057297023997 -0.148972262392 0.774 1.39139801041e-38
-0.0558645983971 -0.148972262392 0.774 1.29927440729e-38
-0.0544321727972 -0.148972262392 0.774 1.13328555952e-38
-0.0529312720717 -0.148779791769 0.773 1.26203966502e-38
-0.0515006971508 -0.148779791769 0.773 1.14228974293e-38
-0.0500701222299 -0.148779791769 0.773 1.27140117954e-38
-0.0486395473091 -0.148779791769 0.773 1.3913650799e-38
-0.0472089723882 -0.148779791769 0.773 1.23470243393e-38
-0.0457783974674 -0.148779791769 0.773 1.22544629705e-38
-0.0443478225465 -0.148779791769 0.773 1.17009388667e-38
-0.0429172476257 -0.148779791769 0.773 1.11463357631e-38
-0.0414866727048 -0.148779791769 0.773 1.14225499073e-38
-0.0399524597561 -0.148394850523 0.771 1.16991395995e-38
-0.0385255861933 -0.148394850523 0.771 1.20678814813e-38
-0.0370987126306 -0.148394850523 0.771 1.26221720953e-38
-0.0356718390679 -0.148394850523 0.771 1.24377556122e-38
-0.0342449655052 -0.148394850523 0.771 1.27164780807e-38
-0.0327329607053 -0.148009909276 0.769 1.17934624004e-38
-0.0313097885007 -0.148009909276 0.769 1.17005633187e-38
-0.0298866162961 -0.148009909276 0.769 1.22522979644e-38
-0.0284634440915 -0.148009909276 0.769 1.216116592e-38
-0.027040271887 -0.148009909276 0.769 1.21626008497e-38
-0.0256170996824 -0.148009909276 0.769 1.20704052198e-38
-0.0241939274778 -0.148009909276 0.769 1.20689955136e-38
-0.0227707552732 -0.148009909276 0.769 1.21622449199e-38
-0.0214031034407 -0.148394850523 0.771 1.17942036873e-38
-0.019976229878 -0.148394850523 0.771 1.24388290069e-38
-0.0185012386595 -0.148009909276 0.769 1.23473648548e-38
-0.0170780664549 -0.148009909276 0.769 1.21640399832e-38
-0.0156548942503 -0.148009909276 0.769 1.13332031172e-38
-0.0142317220458 -0.148009909276 0.769 1.27143649226e-38
-0.0128085498412 -0.148009909276 0.769 1.21611911434e-38
-0.0113557667715 -0.14762496803 0.767 1.19771530109e-38
-0.00993629592506 -0.14762496803 0.767 1.28983834369e-38
-0.00851682507863 -0.14762496803 0.767 1.38210501939e-38
-0.00709735423219 -0.14762496803 0.767 1.28076143289e-38
-0.00567788338575 -0.14762496803 0.767 1.22573328298e-38
-0.00425841253931 -0.14762496803 0.767 1.16126640699e-38
-0.00283894169288 -0.14762496803 0.767 1.11506363481e-38
-0.00141947084644 -0.14762496803 0.767 1.1796709209e-38
0.0 -0.147432497406 0.766 1.05045396651e-38
0.00141762016737 -0.147432497406 0.766 9.49003601072e-39
0.00283524033474 -0.147432497406 0.766 1.32700568351e-38
0.0042528605021 -0.147432497406 0.766 1.38217634548e-38
0.00565567523691 -0.14704755616 0.764 1.2992354512e-38
0.00706959404614 -0.14704755616 0.764 1.26232384835e-38
0.00848351285537 -0.14704755616 0.764 1.28994764497e-38
0.0098974316646 -0.14704755616 0.764 1.28994764497e-38
0.0113113504738 -0.14704755616 0.764 1.29923811366e-38
0.0127252692831 -0.14704755616 0.764 1.28065605525e-38
0.0141391880923 -0.14704755616 0.764 1.30838733147e-38
0.0155531069015 -0.14704755616 0.764 1.30845795691e-38
0.0169670257107 -0.14704755616 0.764 1.29923937483e-38
0.0183328268642 -0.146662614913 0.762 1.36406316153e-38
0.0197430443153 -0.146662614913 0.762 1.33626182039e-38
0.0211532617663 -0.146662614913 0.762 1.39139773015e-38
0.0225634792174 -0.146662614913 0.762 1.39139801041e-38
0.0239736966685 -0.146662614913 0.762 1.39132584354e-38
0.0253839141196 -0.146662614913 0.762 1.54809695002e-38
0.0267941315707 -0.146662614913 0.762 1.35455521132e-38
0.0282043490218 -0.146662614913 0.762 1.48341679641e-38
0.0296145664729 -0.146662614913 0.762 1.52954894316e-38
0.0309840689844 -0.14647014429 0.761 1.4928504778e-38
0.0323924357565 -0.14647014429 0.761 1.55738559702e-38
0.0338008025285 -0.14647014429 0.761 1.60334075977e-38
0.0352091693005 -0.14647014429 0.761 1.57553689629e-38
0.0366175360725 -0.14647014429 0.761 1.51107296303e-38
0.0380259028445 -0.14647014429 0.761 1.69535716356e-38
0.0394342696166 -0.14647014429 0.761 1.52029280628e-38
0.0408426363886 -0.14647014429 0.761 1.66780511341e-38
0.0422510031606 -0.14647014429 0.761 1.55727629574e-38
0.0436593699326 -0.14647014429 0.761 1.4004006524e-38
0.0450677367046 -0.14647014429 0.761 1.55705797344e-38
0.0463539586581 -0.146085203044 0.759 9.94593165051e-39
0.0477586240719 -0.146085203044 0.759 1.27063607058e-38
0.0491632894858 -0.146085203044 0.759 1.48312266386e-38
0.0505679548997 -0.146085203044 0.759 8.83890446239e-39
0.0519726203136 -0.146085203044 0.759 7.36018145532e-39
0.0533772857275 -0.146085203044 0.759 6.98708994309e-39
0.0547819511413 -0.146085203044 0.759 5.69384980724e-39
0.0563346708808 -0.14647014429 0.761 5.78565587613e-39
0.0577430376528 -0.14647014429 0.761 4.68361030406e-39
0.0591514044248 -0.14647014429 0.761 4.86728129637e-39
0.0606393503968 -0.146662614913 0.762 3.94892633479e-39
0.0620495678479 -0.146662614913 0.762 3.58158435016e-39
0.063459785299 -0.146662614913 0.762 3.85709083864e-39
0.0647848715129 -0.14647014429 0.761 3.85709083864e-39
0.0660192744524 -0.146085203044 0.759 5.14278778485e-39
0.0674239398663 -0.146085203044 0.759 6.97952293138e-39
0.0688286052801 -0.146085203044 0.759 5.9693661048e-39
0.070233270694 -0.146085203044 0.759 7.25787405574e-39
0.0716379361079 -0.146085203044 0.759 6.89238598897e-39
0.0730426015218 -0.146085203044 0.759 7.63171105875e-39
0.0744472669357 -0.146085203044 0.759 8.18528981319e-39
0.0758519323495 -0.146085203044 0.759 6.06801751669e-39
0.0772565977634 -0.146085203044 0.759 7.44987296483e-39
0.0786612631773 -0.146085203044 0.759 1.66752093008e-38
-0.0615943007968 -0.147539836792 0.774 1.23513403385e-38
-0.0601618751969 -0.147539836792 0.774 1.33640503309e-38
-0.0587294495969 -0.147539836792 0.774 3.95326195224e-39
-0.057297023997 -0.147539836792 0.774 7.82510425981e-39
-0.0558645983971 -0.147539836792 0.774 8.56372587776e-39
-0.0544321727972 -0.147539836792 0.774 1.07793104719e-38
-0.0529997471972 -0.147539836792 0.774 1.20682514241e-38
-0.0515006971508 -0.147349216848 0.773 1.29888064242e-38
-0.0500701222299 -0.147349216848 0.773 1.14257939132e-38
-0.0486395473091 -0.147349216848 0.773 1.16087586511e-38
-0.0472089723882 -0.147349216848 0.773 1.11481308264e-38
-0.0457783974674 -0.147349216848 0.773 1.133108015e-38
-0.0443478225465 -0.147349216848 0.773 1.19771922473e-38
-0.0429172476257 -0.147349216848 0.773 1.36388589728e-38
-0.0414866727048 -0.147349216848 0.773 1.17938729809e-38
-0.040056097784 -0.147349216848 0.773 1.22544783848e-38
-0.0386255228631 -0.147349216848 0.773 1.18849419668e-38
-0.0371949479422 -0.147349216848 0.773 1.08704523253e-38
-0.0356718390679 -0.14696797696 0.771 1.10548379799e-38
-0.0342449655052 -0.14696797696 0.771 1.13310353085e-38
-0.0327329607053 -0.146586737071 0.769 1.17023611846e-38
-0.0313097885007 -0.146586737071 0.769 1.16101473379e-38
-0.0298866162961 -0.146586737071 0.769 1.23459131096e-38
-0.0284634440915 -0.146586737071 0.769 1.29898377799e-38
-0.027040271887 -0.146586737071 0.769 1.21622253017e-38
-0.0256170996824 -0.146586737071 0.769 1.20703996146e-38
-0.0241939274778 -0.146586737071 0.769 1.23466319757e-38
-0.0228299770035 -0.14696797696 0.771 1.20703996146e-38
-0.0214031034407 -0.14696797696 0.771 1.15183146443e-38
-0.019976229878 -0.14696797696 0.771 1.16108690066e-38
-0.0185493563153 -0.14696797696 0.771 1.03194463549e-38
-0.0171224827526 -0.14696797696 0.771 1.03194463549e-38
-0.0156548942503 -0.146586737071 0.769 1.00446713442e-38
-0.0142317220458 -0.146586737071 0.769 1.43746149353e-38
-0.0128085498412 -0.146586737071 0.769 1.23459579511e-38
-0.0113557667715 -0.146205497183 0.767 1.32668170331e-38
-0.00993629592506 -0.146205497183 0.767 1.30845795691e-38
-0.00851682507863 -0.146205497183 0.767 9.1230513572e-39
-0.00709735423219 -0.146205497183 0.767 1.83670992316e-40
-0.00567788338575 -0.146205497183 0.767 0.0
-0.00425841253931 -0.146205497183 0.767 5.6051938573e-45
-0.00283894169288 -0.146205497183 0.767 7.00649232162e-45
-0.00141947084644 -0.146205497183 0.767 0.0
0.0 -0.146014877239 0.766 1.28824030292e-39
0.00141762016737 -0.146014877239 0.766 0.0
0.00283524033474 -0.146014877239 0.766 0.0
0.0042528605021 -0.146014877239 0.766 1.30849018677e-38
0.00565567523691 -0.145633637351 0.764 1.2993800652e-38
0.00706959404614 -0.145633637351 0.764 1.37317314298e-38
0.00848351285537 -0.145633637351 0.764 1.32685952808e-38
0.0098974316646 -0.145633637351 0.764 1.30831474421e-38
0.0113113504738 -0.145633637351 0.764 1.28991261251e-38
0.0127252692831 -0.145633637351 0.764 1.29916748822e-38
0.0141391880923 -0.145633637351 0.764 1.3267891829e-38
0.0155531069015 -0.145633637351 0.764 1.31760409186e-38
0.0169670257107 -0.145633637351 0.764 1.30845795691e-38
0.0183328268642 -0.145252397462 0.762 1.29001953158e-38
0.0197430443153 -0.145252397462 0.762 1.28994820549e-38
0.0211532617663 -0.145252397462 0.762 1.34522971017e-38
0.0225634792174 -0.145252397462 0.762 1.3176785008e-38
0.0239736966685 -0.145252397462 0.762 1.35448458588e-38
0.0253839141196 -0.145252397462 0.762 1.37292399211e-38
0.0267941315707 -0.145252397462 0.762 1.12410327107e-38
0.0282043490218 -0.145252397462 0.762 1.32696868923e-38
0.0295757022124 -0.145061777518 0.761 1.32696910962e-38
0.0309840689844 -0.145061777518 0.761 1.31781947143e-38
0.0323924357565 -0.145061777518 0.761 1.2900200921e-38
0.0338008025285 -0.145061777518 0.761 1.26228881588e-38
0.0352091693005 -0.145061777518 0.761 1.32675358992e-38
0.0366175360725 -0.145061777518 0.761 1.29920252068e-38
0.0380259028445 -0.145061777518 0.761 1.3176785008e-38
0.0394342696166 -0.145061777518 0.761 1.34530033561e-38
0.0408426363886 -0.145061777518 0.761 1.3637400221e-38
0.0422510031606 -0.145061777518 0.761 1.37299461755e-38
0.0436593699326 -0.145061777518 0.761 1.28062074252e-38
0.0449492932442 -0.14468053763 0.759 1.46504731497e-38
0.0463539586581 -0.14468053763 0.759 1.24374221032e-38
0.0477586240719 -0.14468053763 0.759 1.57521740024e-38
0.0491632894858 -0.14468053763 0.759 1.71404586079e-38
0.0505679548997 -0.14468053763 0.759 1.6865316457e-38
0.0518356700624 -0.144299297741 0.757 1.68660451322e-38
0.0532366341182 -0.144299297741 0.757 1.75114145412e-38
0.0547819511413 -0.14468053763 0.759 1.72330227792e-38
0.0563346708808 -0.145061777518 0.761 1.83390017961e-38
0.0577430376528 -0.145061777518 0.761 1.70493545895e-38
0.0591514044248 -0.145061777518 0.761 1.70493419778e-38
0.0605597711968 -0.145061777518 0.761 1.73237680652e-38
0.0619681379689 -0.145061777518 0.761 1.69545973861e-38
0.0633765047409 -0.145061777518 0.761 1.52032517627e-38
0.0647848715129 -0.145061777518 0.761 1.46504353147e-38
0.0660192744524 -0.14468053763 0.759 1.27143046668e-38
0.0674239398663 -0.14468053763 0.759 8.46791629916e-39
0.0688286052801 -0.14468053763 0.759 9.65534859186e-39
0.070233270694 -0.14468053763 0.759 8.6440833382e-39
0.0716379361079 -0.14468053763 0.759 7.62561681173e-39
0.0728501308985 -0.144299297741 0.757 8.08372650309e-39
0.0742510949543 -0.144299297741 0.757 8.92140871208e-39
0.07565205901 -0.144299297741 0.757 1.05891935067e-38
0.0772565977634 -0.14468053763 0.759 1.24340884142e-38
0.0786612631773 -0.14468053763 0.759 1.85205988667e-38
-0.0603173322387 -0.146484949723 0.776 1.5116836489e-38
-0.0588812052807 -0.146484949723 0.776 4.59968513773e-39
-0.0574450783226 -0.146484949723 0.776 7.91625171842e-39
-0.0558645983971 -0.146107411192 0.774 6.99427299902e-39
-0.0544321727972 -0.146107411192 0.774 5.7067585687e-39
-0.0529997471972 -0.146107411192 0.774 8.93070352479e-39
-0.0515673215973 -0.146107411192 0.774 1.27140342162e-38
-0.0501348959974 -0.146107411192 0.774 1.45615425453e-38
-0.0487024703975 -0.146107411192 0.774 1.26246734131e-38
-0.0472700447975 -0.146107411192 0.774 1.20711605197e-38
-0.0458376191976 -0.146107411192 0.774 1.16094564978e-38
-0.0443478225465 -0.145918641927 0.773 1.26239811716e-38
-0.0429172476257 -0.145918641927 0.773 1.24406450897e-38
-0.0414866727048 -0.145918641927 0.773 1.27168830559e-38
-0.040056097784 -0.145918641927 0.773 1.10555666551e-38
-0.0386255228631 -0.145918641927 0.773 1.23441530787e-38
-0.0371949479422 -0.145918641927 0.773 1.1519064339e-38
-0.0357643730214 -0.145918641927 0.773 1.22587761672e-38
-0.0343337981005 -0.145918641927 0.773 1.09647961457e-38
-0.0328180919425 -0.145541103397 0.771 1.05020201305e-38
-0.0313912183798 -0.145541103397 0.771 1.04097894682e-38
-0.029964344817 -0.145541103397 0.771 1.06860610656e-38
-0.0285374712543 -0.145541103397 0.771 1.19771530109e-38
-0.0271105976916 -0.145541103397 0.771 1.07793104719e-38
-0.0256837241289 -0.145541103397 0.771 1.09633710252e-38
-0.0242568505662 -0.145541103397 0.771 1.03183701577e-38
-0.0228891987337 -0.145918641927 0.773 1.05023928759e-38
-0.0214586238128 -0.145918641927 0.773 1.01350550951e-38
-0.020028048892 -0.145918641927 0.773 1.05041865379e-38
-0.0185493563153 -0.145541103397 0.771 1.08726201341e-38
-0.0171224827526 -0.145541103397 0.771 1.09637395667e-38
-0.0156548942503 -0.145163564867 0.769 9.58440225191e-39
-0.0142317220458 -0.145163564867 0.769 1.43739114835e-38
-0.0128085498412 -0.145163564867 0.769 1.34512040889e-38
-0.0113557667715 -0.144786026337 0.767 1.34519299615e-38
-0.00993629592506 -0.144786026337 0.767 3.67357398915e-40
-0.00851682507863 -0.144786026337 0.767 0.0
-0.00709735423219 -0.144786026337 0.767 1.56592300791e-39
-0.00567788338575 -0.144786026337 0.767 1.37936113687e-39
-0.00425841253931 -0.144786026337 0.767 1.93323976917e-39
-0.00283894169288 -0.144786026337 0.767 2.1176324302e-39
-0.00141947084644 -0.144786026337 0.767 2.66685314641e-39
0.0 -0.144786026337 0.767 2.66720907622e-39
0.00141762016737 -0.144597257072 0.766 2.1176352328e-39
0.00283524033474 -0.144597257072 0.766 1.54142831076e-44
0.0042528605021 -0.144597257072 0.766 1.38006739129e-39
0.00567048066947 -0.144597257072 0.766 2.80259692865e-45
0.00706959404614 -0.144219718541 0.764 9.31427674954e-39
0.00848351285537 -0.144219718541 0.764 1.46512214431e-38
0.0098974316646 -0.144219718541 0.764 1.28976645708e-38
0.0113113504738 -0.144219718541 0.764 1.28998295769e-38
0.0127252692831 -0.144219718541 0.764 1.28994764497e-38
0.0141391880923 -0.144219718541 0.764 1.33600846563e-38
0.0155531069015 -0.144219718541 0.764 1.27154369159e-38
0.0169670257107 -0.144219718541 0.764 1.28998295769e-38
0.01838094452 -0.144219718541 0.764 1.31756961991e-38
0.0197430443153 -0.143842180011 0.762 1.28069108771e-38
0.0211532617663 -0.143842180011 0.762 1.28987337615e-38
0.0225634792174 -0.143842180011 0.762 1.28998295769e-38
0.0239736966685 -0.143842180011 0.762 1.29923811366e-38
0.0253839141196 -0.143842180011 0.762 1.42831199547e-38
0.0267941315707 -0.143842180011 0.762 1.25321218534e-38
0.0282043490218 -0.143842180011 0.762 1.35455647249e-38
0.0295757022124 -0.143653410746 0.761 1.3730314717e-38
0.0309840689844 -0.143653410746 0.761 1.31767878106e-38
0.0323924357565 -0.143653410746 0.761 1.41902306821e-38
0.0338008025285 -0.143653410746 0.761 1.16091061731e-38
0.0352091693005 -0.143653410746 0.761 1.39140067288e-38
0.0366175360725 -0.143653410746 0.761 1.35452144003e-38
0.0380259028445 -0.143653410746 0.761 1.35455703301e-38
0.0394342696166 -0.143653410746 0.761 1.3637400221e-38
0.0408426363886 -0.143653410746 0.761 1.42831325664e-38
0.0421399624164 -0.143275872216 0.759 1.35455549158e-38
0.0435446278303 -0.143275872216 0.759 1.31753430719e-38
0.0449492932442 -0.143275872216 0.759 1.41902362873e-38
0.0463539586581 -0.143275872216 0.759 1.21655421752e-38
0.0477586240719 -0.143275872216 0.759 1.43753492157e-38
0.0491632894858 -0.143275872216 0.759 1.48373853454e-38
0.0505679548997 -0.143275872216 0.759 1.47455554544e-38
0.0518356700624 -0.142898333686 0.757 1.53912779907e-38
0.0532366341182 -0.142898333686 0.757 1.45618928699e-38
0.0547819511413 -0.143275872216 0.759 1.5114695305e-38
0.0563346708808 -0.143653410746 0.761 1.53927101177e-38
0.0577430376528 -0.143653410746 0.761 1.4286750719e-38
0.0591514044248 -0.143653410746 0.761 1.59444461647e-38
0.0605597711968 -0.143653410746 0.761 1.35484766231e-38
0.0619681379689 -0.143653410746 0.761 1.49299635297e-38
0.0633765047409 -0.143653410746 0.761 1.50228682166e-38
0.0647848715129 -0.143653410746 0.761 1.57600675166e-38
0.0660192744524 -0.143275872216 0.759 1.70497105193e-38
0.0674239398663 -0.143275872216 0.759 1.26221720953e-38
0.0688286052801 -0.143275872216 0.759 1.41826230327e-38
0.070233270694 -0.143275872216 0.759 1.38131720939e-38
0.0716379361079 -0.143275872216 0.759 1.38138755458e-38
0.0728501308985 -0.142898333686 0.757 1.50120501925e-38
0.0742510949543 -0.142898333686 0.757 1.56624418552e-38
0.07565205901 -0.142898333686 0.757 1.75092635481e-38
0.0772565977634 -0.143275872216 0.759 1.54812932001e-38
-0.0606282463224 -0.145796497109 0.78 1.59447992919e-38
-0.0591847166481 -0.145796497109 0.78 6.63021145409e-39
-0.0575931326482 -0.145422659937 0.778 7.91589578861e-39
-0.056153304332 -0.145422659937 0.778 7.36268137178e-39
-0.0547134760158 -0.145422659937 0.778 7.45593638328e-39
-0.0531366974484 -0.145048822765 0.776 7.1776048771e-39
-0.0517005704903 -0.145048822765 0.776 9.11444177943e-39
-0.0502644435323 -0.145048822765 0.776 1.38199669902e-38
-0.0487024703975 -0.144674985592 0.774 1.38261242956e-38
-0.0472700447975 -0.144674985592 0.774 1.51165155917e-38
-0.0458376191976 -0.144674985592 0.774 1.51143449804e-38
-0.0444051935977 -0.144674985592 0.774 1.53905717363e-38
-0.0429727679978 -0.144674985592 0.774 1.47451925181e-38
-0.0415403423978 -0.144674985592 0.774 1.55749531869e-38
-0.040056097784 -0.144488067006 0.773 1.57611367074e-38
-0.0386255228631 -0.144488067006 0.773 1.52083314697e-38
-0.0371949479422 -0.144488067006 0.773 1.25371987578e-38
-0.0357643730214 -0.144488067006 0.773 8.20292795696e-39
-0.0343337981005 -0.144488067006 0.773 9.21380084705e-39
-0.0329032231797 -0.144488067006 0.773 1.12370796477e-38
-0.0314726482588 -0.144488067006 0.773 1.12374355776e-38
-0.030042073338 -0.144488067006 0.773 1.05023984811e-38
-0.0286114984171 -0.144488067006 0.773 1.03179988136e-38
-0.0271809234963 -0.144488067006 0.773 1.0778625237e-38
-0.0257503485754 -0.144488067006 0.773 1.059532699e-38
-0.0243197736545 -0.144488067006 0.773 1.02290682091e-38
-0.0228891987337 -0.144488067006 0.773 1.05956773147e-38
-0.0214586238128 -0.144488067006 0.773 1.17938729809e-38
-0.020028048892 -0.144488067006 0.773 1.10552163304e-38
-0.0185974739711 -0.144488067006 0.773 1.08719194848e-38
-0.0171224827526 -0.144114229834 0.771 1.08726201341e-38
-0.0156956091899 -0.144114229834 0.771 9.30781115842e-39
-0.0142687356272 -0.144114229834 0.771 1.53866354889e-38
-0.0128085498412 -0.143740392662 0.769 1.37281637239e-38
-0.0113557667715 -0.14336655549 0.767 8.26551695287e-40
-0.00993629592506 -0.14336655549 0.767 0.0
-0.00851682507863 -0.14336655549 0.767 1.84174198595e-39
-0.00709735423219 -0.14336655549 0.767 1.65594662516e-39
-0.00567788338575 -0.14336655549 0.767 1.65629414718e-39
-0.00425841253931 -0.14336655549 0.767 1.65664447179e-39
-0.00283894169288 -0.14336655549 0.767 1.65664447179e-39
-0.00141947084644 -0.14336655549 0.767 1.65664447179e-39
0.0 -0.14336655549 0.767 2.20658125152e-39
0.00141947084644 -0.14336655549 0.767 2.11296050112e-39
0.00283894169288 -0.14336655549 0.767 1.28787036013e-39
0.00425841253931 -0.14336655549 0.767 1.82168800362e-44
0.00567048066947 -0.143179636904 0.766 1.83720037762e-40
0.00708810083684 -0.143179636904 0.766 0.0
0.00848351285537 -0.142805799732 0.764 9.77168018647e-39
0.0098974316646 -0.142805799732 0.764 1.37310728195e-38
0.0113409613389 -0.143179636904 0.766 1.2992378334e-38
0.0127585815063 -0.143179636904 0.766 1.28994764497e-38
0.0141391880923 -0.142805799732 0.764 1.33611440379e-38
0.0155531069015 -0.142805799732 0.764 1.28998295769e-38
0.0169670257107 -0.142805799732 0.764 1.3360806325e-38
0.01838094452 -0.142805799732 0.764 1.30845795691e-38
0.0197948633292 -0.142805799732 0.764 1.31756933965e-38
0.0212087821384 -0.142805799732 0.764 1.32686078925e-38
0.0226227009477 -0.142805799732 0.764 1.32686106951e-38
0.0239736966685 -0.14243196256 0.762 1.29001855068e-38
0.0253839141196 -0.14243196256 0.762 1.47430191042e-38
0.0267941315707 -0.14243196256 0.762 1.27150865913e-38
0.0282043490218 -0.14243196256 0.762 1.30849397028e-38
0.0296145664729 -0.14243196256 0.762 1.37288643731e-38
0.031024783924 -0.14243196256 0.762 1.32675387018e-38
0.0323924357565 -0.142245043974 0.761 1.35455549158e-38
0.0338008025285 -0.142245043974 0.761 1.1056641451e-38
0.0352091693005 -0.142245043974 0.761 1.33615518157e-38
0.0366175360725 -0.142245043974 0.761 1.33611804717e-38
0.0380259028445 -0.142245043974 0.761 1.29920462263e-38
0.0394342696166 -0.142245043974 0.761 1.32675541161e-38
0.0407352970025 -0.141871206802 0.759 1.38203565511e-38
0.0421399624164 -0.141871206802 0.759 1.44664322146e-38
0.0435446278303 -0.141871206802 0.759 1.2255554582e-38
0.0449492932442 -0.141871206802 0.759 1.40991140521e-38
0.0463539586581 -0.141871206802 0.759 1.20711633223e-38
0.0477586240719 -0.141871206802 0.759 1.3823271252e-38
0.0491632894858 -0.141871206802 0.759 1.48377510843e-38
0.0505679548997 -0.141871206802 0.759 1.43771302661e-38
0.0519726203136 -0.141871206802 0.759 1.52057979221e-38
0.0533772857275 -0.141871206802 0.759 1.56671656323e-38
0.0547819511413 -0.141871206802 0.759 1.5483470818e-38
0.0561866165552 -0.141871206802 0.759 1.45643927864e-38
0.0577430376528 -0.142245043974 0.761 1.47466358555e-38
0.0591514044248 -0.142245043974 0.761 1.52072594763e-38
0.0605597711968 -0.142245043974 0.761 1.50232577776e-38
0.0619681379689 -0.142245043974 0.761 1.45615369401e-38
0.0633765047409 -0.142245043974 0.761 1.44693413102e-38
0.0647848715129 -0.142245043974 0.761 1.47452023272e-38
0.0660192744524 -0.141871206802 0.759 1.56678844985e-38
0.0674239398663 -0.141871206802 0.759 1.06875100082e-38
0.0688286052801 -0.141871206802 0.759 1.11448686036e-38
0.070233270694 -0.141871206802 0.759 1.14196632325e-38
0.0716379361079 -0.141871206802 0.759 1.10497834963e-38
0.0730426015218 -0.141871206802 0.759 8.6512860123e-39
0.0744472669357 -0.141871206802 0.759 8.65236921602e-39
0.0758519323495 -0.141871206802 0.759 3.9511081565e-39
0.0772565977634 -0.141871206802 0.759 2.02038091548e-39
-0.0607059748433 -0.144538035341 0.781 1.45625907165e-38
-0.0591847166481 -0.144352967434 0.78 9.11770400226e-39
-0.0577411869737 -0.144352967434 0.78 1.09611779931e-38
-0.056153304332 -0.14398283162 0.778 9.3931516362e-39
-0.0547134760158 -0.14398283162 0.778 8.19206929516e-39
-0.0532736476996 -0.14398283162 0.778 7.64001235085e-39
-0.0518338193833 -0.14398283162 0.778 1.02175621474e-38
-0.0502644435323 -0.143612695806 0.776 1.07764434153e-38
-0.0488283165742 -0.143612695806 0.776 1.42849500505e-38
-0.0473921896161 -0.143612695806 0.776 1.35480856608e-38
-0.0459560626581 -0.143612695806 0.776 1.37339272645e-38
-0.0445199357 -0.143612695806 0.776 1.42852975725e-38
-0.0430838087419 -0.143612695806 0.776 1.43778519348e-38
-0.0415403423978 -0.143242559993 0.774 1.45615425453e-38
-0.0401079167979 -0.143242559993 0.774 1.49328207773e-38
-0.038675491198 -0.143242559993 0.774 1.36438784238e-38
-0.0372430655981 -0.143242559993 0.774 8.01959327627e-39
-0.0358106399981 -0.143242559993 0.774 9.58621973602e-39
-0.0343782143982 -0.143242559993 0.774 1.06882316769e-38
-0.0329457887983 -0.143242559993 0.774 1.08708222681e-38
-0.0315133631984 -0.143242559993 0.774 1.08708250707e-38
-0.0300809375984 -0.143242559993 0.774 1.05023928759e-38
-0.0286485119985 -0.143242559993 0.774 1.09630207006e-38
-0.0272160863986 -0.143242559993 0.774 1.13332479588e-38
-0.0257503485754 -0.143057492086 0.773 1.06882316769e-38
-0.0243197736545 -0.143057492086 0.773 1.0690748409e-38
-0.0229188095988 -0.143242559993 0.774 1.04145188505e-38
-0.0214863839989 -0.143242559993 0.774 1.08726201341e-38
-0.020028048892 -0.143057492086 0.773 1.04105657875e-38
-0.0185974739711 -0.143057492086 0.773 9.76449572924e-39
-0.0171668990503 -0.143057492086 0.773 1.11481182147e-38
-0.0156956091899 -0.142687356272 0.771 9.49185629743e-39
-0.0142687356272 -0.142687356272 0.771 1.54799031121e-38
-0.0128418620644 -0.142687356272 0.771 1.04101720227e-38
-0.0113853776366 -0.142317220458 0.769 0.0
-0.00996220543204 -0.142317220458 0.769 8.30890115332e-40
-0.00853903322746 -0.142317220458 0.769 2.02473054591e-39
-0.00711586102289 -0.142317220458 0.769 1.65629414718e-39
-0.00569268881831 -0.142317220458 0.769 1.65629414718e-39
-0.00426951661373 -0.142317220458 0.769 1.93323976917e-39
-0.00284634440915 -0.142317220458 0.769 2.39062218663e-39
-0.00142317220458 -0.142317220458 0.769 2.39027186201e-39
0.0 -0.141947084644 0.767 2.39097251125e-39
0.00141947084644 -0.141947084644 0.767 1.38041631461e-39
0.00283894169288 -0.141947084644 0.767 1.103120368e-39
0.00425841253931 -0.141947084644 0.767 6.42848473106e-40
0.00567788338575 -0.141947084644 0.767 1.19819286361e-39
0.00709735423219 -0.141947084644 0.767 8.26893612112e-40
0.00850572100421 -0.141762016737 0.766 0.0
0.00992334117158 -0.141762016737 0.766 1.34573599931e-38
0.0113557667715 -0.141947084644 0.767 1.308529283e-38
0.0127585815063 -0.141762016737 0.766 1.32689876444e-38
0.0141762016737 -0.141762016737 0.766 1.37299489781e-38
0.015593821841 -0.141762016737 0.766 1.30838705121e-38
0.0170114420084 -0.141762016737 0.766 1.2992378334e-38
0.01838094452 -0.141391880923 0.764 1.28072808199e-38
0.0197948633292 -0.141391880923 0.764 1.32678890264e-38
0.0212087821384 -0.141391880923 0.764 1.32685896756e-38
0.0226227009477 -0.141391880923 0.764 1.36370625081e-38
0.0240366197569 -0.141391880923 0.764 1.3084945308e-38
0.0253839141196 -0.141021745109 0.762 1.46515451431e-38
0.0267941315707 -0.141021745109 0.762 1.32682575679e-38
0.0282043490218 -0.141021745109 0.762 1.3084945308e-38
0.0296145664729 -0.141021745109 0.762 1.37299615898e-38
0.031024783924 -0.141021745109 0.762 1.2990974233e-38
0.0324350013751 -0.141021745109 0.762 1.39143570534e-38
0.0338452188261 -0.141021745109 0.762 1.1149555947e-38
0.0352554362772 -0.141021745109 0.762 1.4007959587e-38
0.0366175360725 -0.140836677202 0.761 1.3544513751e-38
0.0380259028445 -0.140836677202 0.761 1.35448612731e-38
0.0394342696166 -0.140836677202 0.761 1.39125549836e-38
0.0407352970025 -0.140466541388 0.759 1.51111009744e-38
0.0421399624164 -0.140466541388 0.759 1.4098005625e-38
0.0435446278303 -0.140466541388 0.759 1.31767878106e-38
0.0449492932442 -0.140466541388 0.759 1.38221600223e-38
0.0463539586581 -0.140466541388 0.759 1.18860489925e-38
0.0477586240719 -0.140466541388 0.759 1.46512158379e-38
0.0491632894858 -0.140466541388 0.759 1.44693441128e-38
0.0505679548997 -0.140466541388 0.759 1.45615369401e-38
0.0519726203136 -0.140466541388 0.759 1.54824016272e-38
0.0533772857275 -0.140466541388 0.759 1.47448365883e-38
0.0547819511413 -0.140466541388 0.759 1.53905717363e-38
0.0561866165552 -0.140466541388 0.759 1.48381042115e-38
0.0577430376528 -0.140836677202 0.761 1.55767398424e-38
0.0591514044248 -0.140836677202 0.761 1.46547919516e-38
0.0605597711968 -0.140836677202 0.761 1.59448273179e-38
0.0619681379689 -0.140836677202 0.761 1.47452079324e-38
0.0633765047409 -0.140836677202 0.761 1.57589885168e-38
0.0647848715129 -0.140836677202 0.761 1.41920341532e-38
0.0660192744524 -0.140466541388 0.759 1.57604150386e-38
0.0674239398663 -0.140466541388 0.759 1.24403185871e-38
0.0688286052801 -0.140466541388 0.759 5.24258826148e-39
0.070233270694 -0.140466541388 0.759 7.64176537523e-39
0.0716379361079 -0.140466541388 0.759 1.13310927617e-38
0.0730426015218 -0.140466541388 0.759 1.23415971103e-38
0.0744472669357 -0.140466541388 0.759 9.94166189409e-39
0.0758519323495 -0.140466541388 0.759 8.00485021513e-39
0.0772565977634 -0.140466541388 0.759 5.4233291387e-39
-0.0608614318852 -0.143459089444 0.783 1.60380767242e-38
-0.0592605944899 -0.143092654988 0.781 1.0041745433e-38
-0.0578152141365 -0.143092654988 0.781 1.16069229501e-38
-0.0562976572994 -0.14290943776 0.78 1.23441152437e-38
-0.054854127625 -0.14290943776 0.78 1.05916822127e-38
-0.0534105979507 -0.14290943776 0.78 1.02214297312e-38
-0.0519670682764 -0.14290943776 0.78 1.09575878664e-38
-0.0503939910671 -0.142543003304 0.778 1.04065973103e-38
-0.0489541627509 -0.142543003304 0.778 1.40047688304e-38
-0.0475143344347 -0.142543003304 0.778 1.40072715494e-38
-0.0460745061185 -0.142543003304 0.778 1.40087218933e-38
-0.0446346778023 -0.142543003304 0.778 1.43778519348e-38
-0.0430838087419 -0.142176568848 0.776 1.43778491322e-38
-0.0416476817839 -0.142176568848 0.776 1.45618900673e-38
-0.0402115548258 -0.142176568848 0.776 1.41023538541e-38
-0.038675491198 -0.141810134393 0.774 1.41027041787e-38
-0.0372430655981 -0.141810134393 0.774 8.84613376117e-39
-0.0359031739516 -0.142176568848 0.776 1.02287150819e-38
-0.0343782143982 -0.141810134393 0.774 1.06875226199e-38
-0.0329457887983 -0.141810134393 0.774 1.07800769822e-38
-0.0315133631984 -0.141810134393 0.774 9.95105479769e-39
-0.0300809375984 -0.141810134393 0.774 9.95030790561e-39
-0.0286485119985 -0.141810134393 0.774 1.00414105227e-38
-0.0272160863986 -0.141810134393 0.774 1.00428594653e-38
-0.0257836607987 -0.141810134393 0.774 1.11477678901e-38
-0.0243512351987 -0.141810134393 0.774 1.0227250725e-38
-0.0229188095988 -0.141810134393 0.774 1.04141629207e-38
-0.0214863839989 -0.141810134393 0.774 9.58405192729e-39
-0.020053958399 -0.141810134393 0.774 1.08758473244e-38
-0.018621532799 -0.141810134393 0.774 1.05967745314e-38
-0.0171891071991 -0.141810134393 0.774 1.0872272612e-38
-0.0157363241294 -0.141626917165 0.773 9.39930754035e-39
-0.0143057492086 -0.141626917165 0.773 1.63082190421e-38
-0.0128918303993 -0.141810134393 0.774 0.0
-0.0114445993668 -0.141626917165 0.773 0.0
-0.010014024446 -0.141626917165 0.773 6.25741141194e-39
-0.0085612413763 -0.141260482709 0.771 6.42848473106e-40
-0.00713436781358 -0.141260482709 0.771 1.84356227265e-39
-0.00570749425087 -0.141260482709 0.771 1.84139446393e-39
-0.00428062068815 -0.141260482709 0.771 1.74814225502e-39
-0.00285374712543 -0.141260482709 0.771 2.11296050112e-39
-0.00142317220458 -0.140894048253 0.769 1.38041631461e-39
0.0 -0.140894048253 0.769 1.38041631461e-39
0.00142317220458 -0.140894048253 0.769 1.74848977704e-39
0.00284634440915 -0.140894048253 0.769 3.22327513543e-39
0.00426951661373 -0.140894048253 0.769 1.47296927558e-39
0.00567788338575 -0.140527613797 0.767 1.10563850134e-39
0.00709735423219 -0.140527613797 0.767 1.8406882095e-39
0.00851682507863 -0.140527613797 0.767 0.0
0.00993629592506 -0.140527613797 0.767 1.39165654998e-38
0.0113557667715 -0.140527613797 0.767 1.28090786858e-38
0.0127752376179 -0.140527613797 0.767 1.29001981184e-38
0.0141947084644 -0.140527613797 0.767 1.32682603705e-38
0.015593821841 -0.140344396569 0.766 1.30845795691e-38
0.0170114420084 -0.140344396569 0.766 1.3360806325e-38
0.0184290621758 -0.140344396569 0.766 1.34519299615e-38
0.0198466823432 -0.140344396569 0.766 1.3360806325e-38
0.0212087821384 -0.139977962114 0.764 1.3453355082e-38
0.0226227009477 -0.139977962114 0.764 1.29931000027e-38
0.0240366197569 -0.139977962114 0.764 1.30845795691e-38
0.0254505385661 -0.139977962114 0.764 1.45593467106e-38
0.0268644573753 -0.139977962114 0.764 1.3084945308e-38
0.0282783761846 -0.139977962114 0.764 1.1519064339e-38
0.0296922949938 -0.139977962114 0.764 1.38221572197e-38
0.031024783924 -0.139611527658 0.762 1.33601000705e-38
0.0324350013751 -0.139611527658 0.762 1.36374100301e-38
0.0338452188261 -0.139611527658 0.762 9.95245889876e-39
0.0352554362772 -0.139611527658 0.762 1.36377659599e-38
0.0366175360725 -0.13942831043 0.761 1.34522999043e-38
0.0380259028445 -0.13942831043 0.761 1.33601000705e-38
0.0394342696166 -0.13942831043 0.761 1.35448458588e-38
0.0408426363886 -0.13942831043 0.761 1.40976524978e-38
0.0421399624164 -0.139061875974 0.759 1.32675415044e-38
0.0435446278303 -0.139061875974 0.759 1.34526530315e-38
0.0449492932442 -0.139061875974 0.759 1.40065526833e-38
0.0463539586581 -0.139061875974 0.759 1.29920462263e-38
0.0477586240719 -0.139061875974 0.759 1.50199997587e-38
0.0491632894858 -0.139061875974 0.759 1.45626089334e-38
0.0505679548997 -0.139061875974 0.759 1.42853031777e-38
0.0519726203136 -0.139061875974 0.759 1.46526227416e-38
0.0533772857275 -0.139061875974 0.759 1.45593733353e-38
0.0547819511413 -0.139061875974 0.759 1.55753231297e-38
0.0561866165552 -0.139061875974 0.759 1.46530094999e-38
0.0577430376528 -0.13942831043 0.761 1.49296005934e-38
0.0591514044248 -0.13942831043 0.761 1.54845694359e-38
0.0605597711968 -0.13942831043 0.761 1.57597143894e-38
0.0619681379689 -0.13942831043 0.761 1.53927101177e-38
0.0633765047409 -0.13942831043 0.761 1.5021419274e-38
0.0647848715129 -0.13942831043 0.761 1.58511841467e-38
0.0660192744524 -0.139061875974 0.759 1.47469889828e-38
0.0674239398663 -0.139061875974 0.759 1.50217934207e-38
0.0688286052801 -0.139061875974 0.759 9.85595007222e-39
0.070233270694 -0.139061875974 0.759 1.83704623479e-40
0.0716379361079 -0.139061875974 0.759 1.13271537117e-38
0.0730426015218 -0.139061875974 0.759 1.49234250711e-38
0.0744472669357 -0.139061875974 0.759 1.43699037699e-38
0.0758519323495 -0.139061875974 0.759 1.26178112545e-38
0.0772565977634 -0.139061875974 0.759 1.04977041312e-38
-0.0610168889271 -0.14237274083 0.785 1.51143183557e-38
-0.0594123501736 -0.142010007732 0.783 9.4871395268e-39
-0.0578152141365 -0.141647274634 0.781 1.29884280737e-38
-0.0563698337831 -0.141647274634 0.781 1.19753327242e-38
-0.0549244534297 -0.141647274634 0.781 1.28976393474e-38
-0.0534105979507 -0.141465908086 0.78 1.27136236357e-38
-0.0519670682764 -0.141465908086 0.78 1.24356102243e-38
-0.050523538602 -0.141465908086 0.78 1.14221813658e-38
-0.0490800089277 -0.141465908086 0.78 1.3544851464e-38
-0.0476364792533 -0.141465908086 0.78 1.45607984558e-38
-0.046192949579 -0.141465908086 0.78 1.4745905779e-38
-0.0446346778023 -0.141103174988 0.778 1.41920159363e-38
-0.0431948494861 -0.141103174988 0.778 1.46526409585e-38
-0.0417550211699 -0.141103174988 0.778 1.44700475647e-38
-0.0402115548258 -0.14074044189 0.776 1.47459380089e-38
-0.0387754278677 -0.14074044189 0.776 1.49310201088e-38
-0.0373393009097 -0.14074044189 0.776 9.39930193516e-39
-0.0359031739516 -0.14074044189 0.776 8.38480248464e-39
-0.0344670469936 -0.14074044189 0.776 1.01368725793e-38
-0.0330309200355 -0.14074044189 0.776 1.00453804012e-38
-0.0315947930774 -0.14074044189 0.776 9.95353369468e-39
-0.0300809375984 -0.140377708793 0.774 1.03226735452e-38
-0.0286485119985 -0.140377708793 0.774 1.05963835691e-38
-0.0272160863986 -0.140377708793 0.774 1.07804245042e-38
-0.0257836607987 -0.140377708793 0.774 1.15172608679e-38
-0.0243512351987 -0.140377708793 0.774 1.09648157639e-38
-0.022978031329 -0.14074044189 0.776 1.13335982834e-38
-0.021541904371 -0.14074044189 0.776 1.06893373014e-38
-0.0201057774129 -0.14074044189 0.776 1.09648157639e-38
-0.0186696504548 -0.14074044189 0.776 1.02297688584e-38
-0.0172335234968 -0.14074044189 0.776 1.11488496925e-38
-0.0157566815992 -0.140377708793 0.774 1.1148147642e-38
-0.0143242559993 -0.140377708793 0.774 1.40065526833e-38
-0.0128918303993 -0.140377708793 0.774 1.01019045774e-39
-0.0114594047994 -0.140377708793 0.774 1.05906032129e-38
-0.0100269791995 -0.140377708793 0.774 1.30791621492e-38
-0.00858344952513 -0.140196342244 0.773 8.10133662089e-39
-0.00715287460428 -0.140196342244 0.773 5.51025588634e-40
-0.00572229968342 -0.140196342244 0.773 1.74919603147e-39
-0.00428062068815 -0.139833609146 0.771 1.74813945242e-39
-0.00285374712543 -0.139833609146 0.771 1.28822068475e-39
-0.00142687356272 -0.139833609146 0.771 8.26893612112e-40
0.0 -0.139833609146 0.771 3.67360201512e-40
0.00142687356272 -0.139833609146 0.771 1.01163099256e-39
0.00285374712543 -0.139833609146 0.771 1.4693945632e-39
0.00428062068815 -0.139833609146 0.771 1.28787036013e-39
0.00570749425087 -0.139833609146 0.771 8.29410344154e-40
0.00713436781358 -0.139833609146 0.771 1.84139446393e-39
0.0085612413763 -0.139833609146 0.771 0.0
0.00998811493901 -0.139833609146 0.771 1.16966747155e-38
0.0113853776366 -0.139470876049 0.769 1.42834884962e-38
0.0128085498412 -0.139470876049 0.769 1.29930972001e-38
0.0142317220458 -0.139470876049 0.769 1.33604531978e-38
0.0156141793108 -0.139108142951 0.767 1.35448458588e-38
0.0170336501573 -0.139108142951 0.767 1.33597497459e-38
0.0184531210037 -0.139108142951 0.767 1.33593812044e-38
0.0198725918501 -0.139108142951 0.767 1.43749596548e-38
0.0212643025105 -0.138926776402 0.766 1.3269337969e-38
0.0226819226779 -0.138926776402 0.766 1.30845767665e-38
0.0240995428453 -0.138926776402 0.766 1.35448458588e-38
0.0254505385661 -0.138564043304 0.764 1.46501382394e-38
0.0268644573753 -0.138564043304 0.764 1.39139801041e-38
0.0282783761846 -0.138564043304 0.764 1.13335828691e-38
0.0296922949938 -0.138564043304 0.764 1.40069030079e-38
0.031106213803 -0.138564043304 0.764 1.36377477431e-38
0.0324350013751 -0.138201310207 0.762 1.3729258138e-38
0.0338452188261 -0.138201310207 0.762 9.86026607149e-39
0.0352554362772 -0.138201310207 0.762 1.44693258959e-38
0.0366656537283 -0.138201310207 0.762 1.47440784858e-38
0.0380259028445 -0.138019943658 0.761 1.36359652914e-38
0.0394342696166 -0.138019943658 0.761 1.38210656082e-38
0.0408426363886 -0.138019943658 0.761 1.44664350172e-38
0.0422510031606 -0.138019943658 0.761 1.34515992551e-38
0.0436593699326 -0.138019943658 0.761 1.326828139e-38
0.0450677367046 -0.138019943658 0.761 1.42827794392e-38
0.0464761034766 -0.138019943658 0.761 1.17935170511e-38
0.0478844702487 -0.138019943658 0.761 1.59430448662e-38
0.0492928370207 -0.138019943658 0.761 1.51150610439e-38
0.0507012037927 -0.138019943658 0.761 1.49299481155e-38
0.0521095705647 -0.138019943658 0.761 1.53923569905e-38
0.0535179373367 -0.138019943658 0.761 1.44682721195e-38
0.0549263041088 -0.138019943658 0.761 1.51132659806e-38
0.0563346708808 -0.138019943658 0.761 1.49299537206e-38
0.0577430376528 -0.138019943658 0.761 1.49299537206e-38
0.0591514044248 -0.138019943658 0.761 1.50221493505e-38
0.0606393503968 -0.138201310207 0.762 1.52069119543e-38
0.0619681379689 -0.138019943658 0.761 1.47469889828e-38
0.0633765047409 -0.138019943658 0.761 1.64043579259e-38
0.0647848715129 -0.138019943658 0.761 1.51139946558e-38
0.0661932382849 -0.138019943658 0.761 1.51154169737e-38
0.0674239398663 -0.13765721056 0.759 1.55760251802e-38
0.0688286052801 -0.13765721056 0.759 1.6126323495e-38
0.070233270694 -0.13765721056 0.759 5.98087917299e-39
0.0716379361079 -0.13765721056 0.759 1.27104440895e-38
0.073235072145 -0.138019943658 0.761 1.52000287763e-38
0.0744472669357 -0.13765721056 0.759 1.38149685586e-38
0.0758519323495 -0.13765721056 0.759 1.35390683052e-38
0.0774601724611 -0.138019943658 0.761 9.94345555612e-39
-0.0611723459689 -0.1412789895 0.787 1.6221726697e-38
-0.0597158615411 -0.1412789895 0.787 9.67334827063e-39
-0.0581113227877 -0.14091995776 0.785 1.18831398969e-38
-0.056658539718 -0.14091995776 0.785 1.19735376609e-38
-0.055065105039 -0.140560926021 0.783 1.17902225984e-38
-0.0534790730763 -0.140201894281 0.781 1.21586477867e-38
-0.0520336927229 -0.140201894281 0.781 1.2344487989e-38
-0.0505883123695 -0.140201894281 0.781 1.22526580981e-38
-0.0490800089277 -0.140022378411 0.78 1.16987738606e-38
-0.0476364792533 -0.140022378411 0.78 1.48370378234e-38
-0.046192949579 -0.140022378411 0.78 1.44700321504e-38
-0.0447494199046 -0.140022378411 0.78 1.46537129518e-38
-0.0433058902303 -0.140022378411 0.78 1.4377148483e-38
-0.0417550211699 -0.139663346672 0.778 1.42852975725e-38
-0.0403151928537 -0.139663346672 0.778 1.41012664465e-38
-0.0388753645375 -0.139663346672 0.778 1.46544360218e-38
-0.0374355362213 -0.139663346672 0.778 1.01375760311e-38
-0.0359957079051 -0.139663346672 0.778 8.47842603764e-39
-0.0345558795889 -0.139663346672 0.778 1.08751564843e-38
-0.0331160512727 -0.139663346672 0.778 1.06900435558e-38
-0.0316762229565 -0.139663346672 0.778 1.01375732285e-38
-0.0302363946403 -0.139663346672 0.778 1.05985499765e-38
-0.0287965663241 -0.139663346672 0.778 1.02297688584e-38
-0.0273567380079 -0.139663346672 0.778 1.04141629207e-38
-0.0258502852452 -0.139304314932 0.776 1.05985499765e-38
-0.0244141582871 -0.139304314932 0.776 1.05960332445e-38
-0.022978031329 -0.139304314932 0.776 1.05038362133e-38
-0.021541904371 -0.139304314932 0.776 1.03183519408e-38
-0.0201057774129 -0.139304314932 0.776 1.0227250725e-38
-0.0186696504548 -0.139304314932 0.776 1.02276038522e-38
-0.0172335234968 -0.139304314932 0.776 1.13328920289e-38
-0.0157973965387 -0.139304314932 0.776 8.56989018971e-39
-0.0143612695806 -0.139304314932 0.776 1.01024370708e-39
-0.0129251426226 -0.139304314932 0.776 0.0
-0.0114594047994 -0.138945283193 0.774 8.10096807939e-39
-0.0100269791995 -0.138945283193 0.774 1.03021655422e-38
-0.00859455359955 -0.138945283193 0.774 9.57358703036e-39
-0.00716212799963 -0.138945283193 0.774 1.65305014123e-39
-0.00572229968342 -0.138765767323 0.773 2.02473054591e-39
-0.00429172476257 -0.138765767323 0.773 2.02543680034e-39
-0.00286114984171 -0.138765767323 0.773 1.103120368e-39
-0.00143057492086 -0.138765767323 0.773 3.03564407365e-39
0.0 -0.138765767323 0.773 2.66323359248e-39
0.00143057492086 -0.138765767323 0.773 0.0
0.00286114984171 -0.138765767323 0.773 7.34688173159e-40
0.00429172476257 -0.138765767323 0.773 3.67360201512e-40
0.00572229968342 -0.138765767323 0.773 1.37936113687e-39
0.00715287460428 -0.138765767323 0.773 1.84139166133e-39
0.00858344952513 -0.138765767323 0.773 0.0
0.010014024446 -0.138765767323 0.773 1.0685710741e-38
0.0114149885017 -0.138406735583 0.771 1.42842311844e-38
0.0128085498412 -0.138047703844 0.769 1.28086891248e-38
0.0142317220458 -0.138047703844 0.769 1.40061729314e-38
0.0156548942503 -0.138047703844 0.769 1.36366547303e-38
0.0170336501573 -0.137688672104 0.767 1.31749899447e-38
0.0184531210037 -0.137688672104 0.767 1.37285168511e-38
0.0198725918501 -0.137688672104 0.767 1.32678890264e-38
0.0212920626966 -0.137688672104 0.767 1.30842264419e-38
0.022711533543 -0.137688672104 0.767 1.32675387018e-38
0.0240995428453 -0.137509156235 0.766 1.30838452887e-38
0.0255171630126 -0.137509156235 0.766 1.3820712481e-38
0.0269699460823 -0.137688672104 0.767 1.4560052965e-38
0.0283894169288 -0.137688672104 0.767 1.16116074909e-38
0.0298088877752 -0.137688672104 0.767 1.3914707378e-38
0.0312283586216 -0.137688672104 0.767 1.37295958509e-38
0.0326052638495 -0.137509156235 0.766 1.43749596548e-38
0.0339340514215 -0.137150124495 0.764 1.00421560135e-38
0.0353479702307 -0.137150124495 0.764 1.36402840933e-38
0.0367618890399 -0.137150124495 0.764 1.37302965001e-38
0.0380758711794 -0.136791092756 0.762 1.39114885955e-38
0.0394860886305 -0.136791092756 0.762 1.38210628056e-38
0.0408963060816 -0.136791092756 0.762 1.39136269769e-38
0.0423065235327 -0.136791092756 0.762 1.4006175734e-38
0.0437167409838 -0.136791092756 0.762 1.35459178521e-38
0.0451269584349 -0.136791092756 0.762 1.42834884962e-38
0.0465371758859 -0.136791092756 0.762 1.09637367641e-38
0.047947393337 -0.136791092756 0.762 1.64025782768e-38
0.0493576107881 -0.136791092756 0.762 1.56675313712e-38
0.0507678282392 -0.136791092756 0.762 1.5205811935e-38
0.0521780456903 -0.136791092756 0.762 1.47459085816e-38
0.0535882631414 -0.136791092756 0.762 1.52980075649e-38
0.0549984805925 -0.136791092756 0.762 1.5205811935e-38
0.0564086980436 -0.136791092756 0.762 1.41916852299e-38
0.0577430376528 -0.136611576886 0.761 1.44689783739e-38
0.0591514044248 -0.136611576886 0.761 1.4376073687e-38
0.0606393503968 -0.136791092756 0.762 1.51168659163e-38
0.0620495678479 -0.136791092756 0.762 1.51157644957e-38
0.063459785299 -0.136791092756 0.762 1.50224996751e-38
0.0647848715129 -0.136611576886 0.761 1.50228682166e-38
0.0661932382849 -0.136611576886 0.761 1.47462827283e-38
0.0676016050569 -0.136611576886 0.761 1.5667887301e-38
0.069009971829 -0.136611576886 0.761 1.33622552676e-38
0.070418338601 -0.136611576886 0.761 1.04969684495e-38
0.071826705373 -0.136611576886 0.761 1.41851958167e-38
0.073235072145 -0.136611576886 0.761 1.45571662902e-38
0.074643438917 -0.136611576886 0.761 1.39107374995e-38
0.0760518056891 -0.136611576886 0.761 1.32639079375e-38
0.0775619598099 -0.136791092756 0.762 7.82150992925e-39
0.0794903674005 -0.137688672104 0.767 2.34980194198e-38
0.0809098382469 -0.137688672104 0.767 1.43706170308e-38
-0.0613278030108 -0.140177835453 0.789 1.52094090682e-38
-0.0597158615411 -0.139822505072 0.787 8.84538546779e-39
-0.0581113227877 -0.13946717469 0.785 1.20671850359e-38
-0.056658539718 -0.13946717469 0.785 1.22508462192e-38
-0.0552057566483 -0.13946717469 0.785 1.14207324232e-38
-0.0536160233274 -0.139111844309 0.783 1.18824364451e-38
-0.0520336927229 -0.138756513928 0.781 1.15147273203e-38
-0.0505883123695 -0.138756513928 0.781 1.23452068552e-38
-0.049142932016 -0.138756513928 0.781 1.16987738606e-38
-0.0476975516626 -0.138756513928 0.781 1.35455927509e-38
-0.0462521713092 -0.138756513928 0.781 1.40094253451e-38
-0.0448067909558 -0.138756513928 0.781 1.5483470818e-38
-0.0433058902303 -0.138578848737 0.78 1.43771302661e-38
-0.041862360556 -0.138578848737 0.78 1.41012664465e-38
-0.0404188308816 -0.138578848737 0.78 1.41030545033e-38
-0.0389753012073 -0.138578848737 0.78 1.56689410775e-38
-0.0375317715329 -0.138578848737 0.78 9.67624755715e-39
-0.0360882418586 -0.138578848737 0.78 8.10962249871e-39
-0.0346447121842 -0.138578848737 0.78 1.02304905271e-38
-0.0332011825099 -0.138578848737 0.78 1.04145188505e-38
-0.0317576528356 -0.138578848737 0.78 9.49185629743e-39
-0.0303141231612 -0.138578848737 0.78 1.0321263839e-38
-0.0288705934869 -0.138578848737 0.78 1.0690748409e-38
-0.0273567380079 -0.138223518356 0.778 1.14257967158e-38
-0.0259169096917 -0.138223518356 0.778 1.07822419883e-38
-0.0244770813755 -0.138223518356 0.778 1.087514107e-38
-0.0230372530593 -0.138223518356 0.778 1.08747907454e-38
-0.0215974247431 -0.138223518356 0.778 1.0690748409e-38
-0.0201575964269 -0.138223518356 0.778 1.05981996519e-38
-0.0186696504548 -0.137868187974 0.776 1.13335982834e-38
-0.0172335234968 -0.137868187974 0.776 1.10588316805e-38
-0.0157973965387 -0.137868187974 0.776 9.30816428563e-39
-0.0143612695806 -0.137868187974 0.776 6.16886756587e-39
-0.0129251426226 -0.137868187974 0.776 4.50284280216e-39
-0.0114890156645 -0.137868187974 0.776 1.28962030165e-38
-0.0100528887065 -0.137868187974 0.776 1.05884326016e-38
-0.00859455359955 -0.137512857593 0.774 1.16951529053e-38
-0.00716212799963 -0.137512857593 0.774 1.56120343469e-39
-0.0057297023997 -0.137512857593 0.774 1.56123005936e-39
-0.00429727679978 -0.137512857593 0.774 2.57140370151e-39
-0.00286485119985 -0.137512857593 0.774 2.66545184795e-39
-0.00143057492086 -0.137335192402 0.773 9.48570459717e-39
0.0 -0.137335192402 0.773 1.19752808762e-38
0.00143057492086 -0.137335192402 0.773 8.2878410387e-39
0.00286114984171 -0.137335192402 0.773 6.44426895696e-39
0.00429172476257 -0.137335192402 0.773 7.36119599541e-39
0.00572229968342 -0.137335192402 0.773 9.1835496158e-40
0.00715287460428 -0.137335192402 0.773 6.43965307982e-40
0.00858344952513 -0.137335192402 0.773 1.37789117478e-39
0.010014024446 -0.137335192402 0.773 0.0
0.0114149885017 -0.136979862021 0.771 1.40991350715e-38
0.0128085498412 -0.136624531639 0.769 1.30842264419e-38
0.0142317220458 -0.136624531639 0.769 1.308352299e-38
0.0156548942503 -0.136624531639 0.769 1.34519299615e-38
0.0170780664549 -0.136624531639 0.769 1.36370470938e-38
