# .PCD v0.7 - Point Cloud Data file format
VERSION 0.7
FIELDS x y z rgb
SIZE 4 4 4 4
TYPE F F F F
COUNT 1 1 1 1
WIDTH 842
HEIGHT 1
VIEWPOINT 0 0 0 1 0 0 0
POINTS 842
DATA ascii
-0.00171187813945 -0.0239662939522 0.925 5.70492146641e-39
0.0 -0.0240440224732 0.928 5.8900708286e-39
0.00172113153479 -0.0240958414871 0.93 1.5479100168e-38
0.00344226306959 -0.0240958414871 0.93 1.16965752233e-38
0.00519115479043 -0.024225389022 0.935 7.99076436297e-39
0.00694374786941 -0.0243031175429 0.938 1.20613009837e-38
0.00869819162745 -0.0243549365569 0.94 9.02757388633e-39
0.0104711421762 -0.0244326650778 0.943 8.36928870934e-39
0.0122551967994 -0.0245103935987 0.946 1.51938280306e-38
0.0140059391993 -0.0245103935987 0.946 1.31692067859e-38
0.0157899938224 -0.0245622126127 0.948 5.61165104062e-39
0.0175999579526 -0.0246399411336 0.951 6.90129404331e-39
0.0194210261571 -0.0247176696545 0.954 1.0869258419e-38
0.0212309902873 -0.0247694886685 0.956 6.99530155209e-39
0.0230724159616 -0.0248472171894 0.959 6.25846238579e-39
0.0249767647243 -0.0249767647243 0.964 1.01162861035e-38
0.0268440999056 -0.0250544932452 0.967 1.6819554253e-38
0.0287225391613 -0.0251322217661 0.97 1.73576318439e-38
0.0306120824914 -0.0252099502871 0.973 1.73605185187e-38
0.0324127932262 -0.0252099502871 0.973 2.05956346262e-38
0.0342838297657 -0.025261769301 0.975 1.75589171579e-38
0.0361992826028 -0.0253394978219 0.978 1.97698550463e-38
0.0382424322957 -0.0254949548638 0.984 1.52529432076e-38
0.0401856453188 -0.0255726833847 0.987 1.68073321278e-38
0.0420973967978 -0.0256245023987 0.989 1.7543813963e-38
-0.0647774687966 -0.0227596511988 0.946 1.71281734242e-38
-0.0628268530572 -0.0226874747151 0.943 1.36294058133e-38
-0.0610816626945 -0.0226874747151 0.943 1.19680627878e-38
-0.0591477030667 -0.0226152982314 0.94 1.24294136825e-38
-0.0572859199226 -0.0225671805756 0.938 1.17847925668e-38
-0.0555499829552 -0.0225671805756 0.938 1.15060182503e-38
-0.0538140459879 -0.0225671805756 0.938 1.39023829581e-38
-0.0519115479043 -0.0224950040919 0.935 1.68555073677e-38
-0.0500738235881 -0.022446886436 0.933 1.67626054835e-38
-0.0481916829742 -0.0223747099523 0.93 1.44617056349e-38
-0.0464705514394 -0.0223747099523 0.93 7.3604715241e-39
-0.044653184593 -0.0223265922965 0.928 1.744874427e-39
-0.0427969534861 -0.0222544158128 0.925 5.51012976948e-40
-0.0410850753467 -0.0222544158128 0.925 2.94233441151e-39
-0.03928806597 -0.022206298157 0.923 2.20620430223e-39
-0.0374577443701 -0.0221341216733 0.92 4.7801135254e-39
-0.035755119626 -0.0221341216733 0.92 9.02499970105e-39
-0.0340524948819 -0.0221341216733 0.92 8.47475043177e-39
-0.0322795443332 -0.0220860040175 0.918 4.41814832298e-39
-0.0305806209472 -0.0220860040175 0.918 7.63815002519e-39
-0.0287873129287 -0.0220138275337 0.915 8.75243173546e-39
-0.02709394158 -0.0220138275337 0.915 7.36873077725e-39
-0.0253450498591 -0.0219657098779 0.913 5.79711569497e-39
-0.0236553798685 -0.0219657098779 0.913 9.85366175183e-39
-0.0219657098779 -0.0219657098779 0.913 8.47546929788e-39
-0.0201649991431 -0.0218454157384 0.908 2.66718945804e-39
-0.0184845825479 -0.0218454157384 0.908 2.85407502904e-39
-0.0168041659526 -0.0218454157384 0.908 3.68239516298e-39
-0.0151570615806 -0.0218935333942 0.91 5.15928947556e-39
-0.0134729436272 -0.0218935333942 0.91 5.79963242702e-39
-0.0118276899343 -0.0219657098779 0.913 5.79963242702e-39
-0.0101602280925 -0.0220138275337 0.915 6.44464590625e-39
-0.00849461692979 -0.0220860040175 0.918 6.07656964122e-39
-0.00681049897639 -0.0221341216733 0.92 6.07656964122e-39
-0.00510787423229 -0.0221341216733 0.92 5.70564173382e-39
-0.00341635356261 -0.022206298157 0.923 4.32236677034e-39
-0.00171743017665 -0.0223265922965 0.928 1.51052449481e-38
0.0 -0.0223265922965 0.928 1.00409845279e-38
0.001726683572 -0.022446886436 0.933 5.70642085577e-39
0.00345336714401 -0.022446886436 0.933 9.01064059569e-39
0.00519115479043 -0.0224950040919 0.935 1.63073712565e-38
0.00694374786941 -0.0225671805756 0.938 5.0599794534e-39
0.00869819162745 -0.0226152982314 0.94 1.05855487294e-38
0.0104711421762 -0.0226874747151 0.943 1.64860872575e-38
0.0122551967994 -0.0227596511988 0.946 9.85186808979e-39
0.0140355500644 -0.0228077688546 0.948 5.96930725027e-39
0.0157899938224 -0.0228077688546 0.948 1.01274740705e-38
0.0175999579526 -0.0228799453383 0.951 1.05015969384e-38
0.0194210261571 -0.0229521218221 0.954 6.72374392269e-39
0.0212309902873 -0.0230002394779 0.956 7.2715058872e-39
0.0231445924453 -0.0231445924453 0.962 4.50639649507e-39
0.0249767647243 -0.0231927101011 0.964 1.49000051699e-38
0.0268440999056 -0.0232648865848 0.967 1.6996382705e-38
0.0287225391613 -0.0233370630686 0.97 1.70842903615e-38
0.0306120824914 -0.0234092395523 0.973 1.86505370694e-38
0.0324794176727 -0.0234573572081 0.975 1.80202484344e-38
0.0343893184726 -0.0235295336918 0.978 1.81088469311e-38
0.0363103233469 -0.0236017101755 0.981 1.65347039064e-38
0.0382424322957 -0.0236738866592 0.984 1.77264101594e-38
0.0401856453188 -0.0237460631429 0.987 1.77303730315e-38
-0.0647774687966 -0.0210089087989 0.946 1.62980456153e-38
-0.0628268530572 -0.0209422843524 0.943 1.34446572225e-38
-0.0610816626945 -0.0209422843524 0.943 1.22446566838e-38
-0.0591477030667 -0.0208756599059 0.94 1.38127068628e-38
-0.0572859199226 -0.0208312436082 0.938 1.13237891941e-38
-0.0555499829552 -0.0208312436082 0.938 1.25190687582e-38
-0.0538140459879 -0.0208312436082 0.938 1.33517581408e-38
-0.0520781090205 -0.0208312436082 0.938 1.02177975656e-38
-0.0501811629741 -0.0207646191617 0.935 1.58373771529e-38
-0.048450778044 -0.0207646191617 0.935 1.55669041285e-38
-0.0466204564441 -0.020720202864 0.933 1.70410126597e-38
-0.0447494199046 -0.0206535784175 0.93 1.57509618792e-38
-0.0429357544164 -0.0206091621199 0.928 8.28316910962e-39
-0.0410850753467 -0.0205425376733 0.925 3.58158435016e-39
-0.03928806597 -0.0204981213757 0.923 5.51012976948e-40
-0.0375798891887 -0.0204981213757 0.923 2.57354628686e-39
-0.0358717124074 -0.0204981213757 0.923 2.38916063233e-39
-0.0340524948819 -0.0204314969292 0.92 2.94233441151e-39
-0.0323498701378 -0.0204314969292 0.92 8.00799893278e-39
-0.0305806209472 -0.0203870806315 0.918 2.66322938858e-39
-0.0287873129287 -0.020320456185 0.915 1.5619208995e-39
-0.02709394158 -0.020320456185 0.915 4.41349881467e-39
-0.0254005702312 -0.020320456185 0.915 8.74592690799e-39
-0.0237071988825 -0.020320456185 0.915 2.66322938858e-39
-0.0219657098779 -0.0202760398873 0.913 2.38951656214e-39
-0.0202094154408 -0.0202094154408 0.91 3.40401180876e-39
-0.0184845825479 -0.0201649991431 0.908 3.5891205333e-39
-0.0168041659526 -0.0201649991431 0.908 4.42101818223e-39
-0.0152070299155 -0.0202760398873 0.913 4.7901538289e-39
-0.0135173599249 -0.0202760398873 0.913 6.07656964122e-39
-0.0118276899343 -0.0202760398873 0.913 6.07621931661e-39
-0.0101602280925 -0.020320456185 0.915 6.16771149464e-39
-0.00849461692979 -0.0203870806315 0.918 5.89182805688e-39
-0.00681049897639 -0.0204314969292 0.92 5.9818740949e-39
-0.00510787423229 -0.0204314969292 0.92 1.09632294941e-38
-0.00342375627889 -0.0205425376733 0.925 1.40088872465e-38
-0.00172113153479 -0.0206535784175 0.93 1.15139117646e-38
0.0 -0.0206535784175 0.93 8.37281437628e-39
0.00173038493014 -0.0207646191617 0.935 1.17880127507e-38
0.00346076986028 -0.0207646191617 0.935 1.26155817887e-38
0.00520781090205 -0.0208312436082 0.938 8.65047325919e-39
0.00694374786941 -0.0208312436082 0.938 1.46453107662e-38
0.00869819162745 -0.0208756599059 0.94 1.33545397182e-38
0.0104711421762 -0.0209422843524 0.943 3.21424236553e-39
0.0122551967994 -0.0210089087989 0.946 7.35621297807e-39
0.0140355500644 -0.0210533250966 0.948 1.52020648629e-38
0.0158399621573 -0.0211199495431 0.951 9.66829939226e-39
0.0176554783247 -0.0211865739896 0.954 6.99169460984e-39
0.0194210261571 -0.0211865739896 0.954 6.44537738405e-39
0.0212309902873 -0.0212309902873 0.956 6.8130612855e-39
0.0231445924453 -0.0213642391803 0.962 6.25451773061e-39
0.0249767647243 -0.021408655478 0.964 1.64619176616e-38
0.0268440999056 -0.0214752799245 0.967 1.67172888924e-38
0.0287225391613 -0.021541904371 0.97 1.77307289613e-38
0.0306120824914 -0.0216085288175 0.973 1.77307289613e-38
0.0324794176727 -0.0216529451152 0.975 1.6811666344e-38
0.0343893184726 -0.0217195695617 0.978 1.75431147151e-38
0.0363103233469 -0.0217861940082 0.981 1.80026663426e-38
-0.0647774687966 -0.019258166399 0.946 1.58385065995e-38
-0.0630267263967 -0.019258166399 0.946 1.30766005756e-38
-0.0610816626945 -0.0191970939897 0.943 1.021207186e-38
-0.0593364723318 -0.0191970939897 0.943 1.30740852449e-38
-0.0574080647412 -0.0191360215804 0.94 1.29832937161e-38
-0.0556684264157 -0.0191360215804 0.94 1.30755285823e-38
-0.0539287880902 -0.0191360215804 0.94 1.16014382679e-38
-0.0520781090205 -0.0190953066409 0.938 1.20587898568e-38
-0.0501811629741 -0.0190342342316 0.935 1.39960429448e-38
-0.048450778044 -0.0190342342316 0.935 1.01249110956e-38
-0.0466204564441 -0.018993519292 0.933 1.32591393188e-38
-0.0447494199046 -0.0189324468827 0.93 1.59357020623e-38
-0.0429357544164 -0.0188917319432 0.928 1.83306402482e-38
-0.0412183242397 -0.0188917319432 0.928 1.65807561791e-38
-0.03928806597 -0.0187899445944 0.923 1.17886643545e-38
-0.0375798891887 -0.0187899445944 0.923 3.76525534248e-39
-0.0358717124074 -0.0187899445944 0.923 0.0
-0.0341635356261 -0.0187899445944 0.923 1.37860863959e-39
-0.0323498701378 -0.0187288721851 0.92 3.67557224076e-39
-0.0306472453938 -0.0187288721851 0.92 3.31289377742e-39
-0.0288816975613 -0.0186881572455 0.918 2.85407502904e-39
-0.02709394158 -0.0186270848362 0.915 3.03882361987e-39
-0.0254005702312 -0.0186270848362 0.915 2.1158037357e-39
-0.0237071988825 -0.0186270848362 0.915 2.94591052519e-39
-0.0219657098779 -0.0185863698967 0.913 3.12850532029e-39
-0.0202760398873 -0.0185863698967 0.913 2.67004530431e-39
-0.0185252974874 -0.0185252974874 0.91 3.1292227851e-39
-0.016841179534 -0.0185252974874 0.91 4.05224126797e-39
-0.0152403421387 -0.0186270848362 0.915 5.06638058478e-39
-0.01354697079 -0.0186270848362 0.915 6.07656964122e-39
-0.0118535994412 -0.0186270848362 0.915 5.98402368674e-39
-0.0101602280925 -0.0186270848362 0.915 6.16841774907e-39
-0.00849461692979 -0.0186881572455 0.918 6.16912400349e-39
-0.00683270712523 -0.0187899445944 0.923 6.44175923141e-39
-0.00513563441834 -0.0188306595339 0.925 1.22587243191e-38
-0.00343486035331 -0.0188917319432 0.928 5.79855622979e-39
-0.00171743017665 -0.0188917319432 0.928 1.36258339035e-38
0.0 -0.018993519292 0.933 1.2522025498e-38
0.00173038493014 -0.0190342342316 0.935 7.63528156724e-39
0.00346076986028 -0.0190342342316 0.935 1.33524615926e-38
0.00520781090205 -0.0190953066409 0.938 1.39125101421e-38
0.00694374786941 -0.0190953066409 0.938 5.42905624553e-39
0.00869819162745 -0.0191360215804 0.94 4.31626831943e-39
0.0105044543995 -0.019258166399 0.946 1.09593633116e-38
0.0122551967994 -0.019258166399 0.946 1.36348764825e-38
0.0140355500644 -0.0192988813385 0.948 5.98293908173e-39
0.0158399621573 -0.0193599537478 0.951 1.1608978655e-38
0.0176554783247 -0.0194210261571 0.954 6.53577234538e-39
0.0194210261571 -0.0194210261571 0.954 7.18006135331e-39
0.0212976147338 -0.019522813506 0.959 5.43049958295e-39
0.0231445924453 -0.0195838859153 0.962 1.18651093896e-38
0.0249767647243 -0.0196246008548 0.964 1.709541527e-38
0.0268440999056 -0.0196856732641 0.967 1.75470383508e-38
0.0287225391613 -0.0197467456734 0.97 1.71790069273e-38
0.0306120824914 -0.0198078180827 0.973 1.7363388378e-38
0.0324794176727 -0.0198485330222 0.975 1.75459817718e-38
0.0344948071796 -0.0199706778408 0.981 1.7177559386e-38
-0.0647774687966 -0.0175074239991 0.946 1.63920279007e-38
-0.0630267263967 -0.0175074239991 0.946 1.40900322367e-38
-0.0610816626945 -0.017451903627 0.943 8.3664076397e-39
-0.0593364723318 -0.017451903627 0.943 1.00369740117e-38
-0.0574080647412 -0.0173963832549 0.94 1.0221410113e-38
-0.0556684264157 -0.0173963832549 0.94 1.29836888822e-38
-0.0539287880902 -0.0173963832549 0.94 1.32598834083e-38
-0.0520781090205 -0.0173593696735 0.938 1.43641206111e-38
-0.0501811629741 -0.0173038493014 0.935 1.15996558163e-38
-0.048450778044 -0.0173038493014 0.935 1.19659216037e-38
-0.0466204564441 -0.01726683572 0.933 1.33528021081e-38
-0.0448937728721 -0.01726683572 0.933 1.06813372885e-38
-0.0430282883699 -0.0172113153479 0.93 1.27052620878e-38
-0.0412183242397 -0.0171743017665 0.928 1.52878509536e-38
-0.0393731972073 -0.0171187813945 0.925 1.78678642329e-38
-0.0375798891887 -0.0170817678131 0.923 1.72236116587e-38
-0.0358717124074 -0.0170817678131 0.923 1.35415093671e-38
-0.0340524948819 -0.017026247441 0.92 6.16481641201e-39
-0.0323498701378 -0.017026247441 0.92 1.28569694621e-39
-0.0306472453938 -0.017026247441 0.92 3.67341984632e-40
-0.0288816975613 -0.0169892338596 0.918 2.66896910709e-39
-0.02709394158 -0.0169337134875 0.915 3.49799969936e-39
-0.0253450498591 -0.0168966999061 0.913 3.49799969936e-39
-0.0236553798685 -0.0168966999061 0.913 3.31432870705e-39
-0.0219657098779 -0.0168966999061 0.913 3.59019392793e-39
-0.0202760398873 -0.0168966999061 0.913 3.13031299531e-39
-0.0185863698967 -0.0168966999061 0.913 3.77387192673e-39
-0.0168966999061 -0.0168966999061 0.913 4.05224126797e-39
-0.0152403421387 -0.0169337134875 0.915 6.446062619e-39
-0.01354697079 -0.0169337134875 0.915 5.89217978279e-39
-0.0118924637017 -0.0169892338596 0.918 6.35101114286e-39
-0.0101935403157 -0.0169892338596 0.918 6.35101114286e-39
-0.00851312372049 -0.017026247441 0.92 6.25846518838e-39
-0.00683270712523 -0.0170817678131 0.923 4.50856570509e-39
-0.00513563441834 -0.0171187813945 0.925 1.05033261407e-38
-0.00343486035331 -0.0171743017665 0.928 1.48354697704e-38
-0.00171743017665 -0.0171743017665 0.928 8.93100200136e-39
0.0 -0.0173038493014 0.935 1.06763150348e-38
0.00173038493014 -0.0173038493014 0.935 1.10558805459e-38
0.0034718739347 -0.0173593696735 0.938 8.65879276818e-39
0.00520781090205 -0.0173593696735 0.938 4.49994631823e-39
0.00695855330196 -0.0173963832549 0.94 5.34051239946e-39
0.0087259518135 -0.017451903627 0.943 9.58108257584e-39
0.0105044543995 -0.0175074239991 0.946 1.04079313464e-38
0.0122811063063 -0.0175444375805 0.948 8.74804847386e-39
0.0140799663621 -0.0175999579526 0.951 9.57822672957e-39
0.0158399621573 -0.0175999579526 0.951 5.4333680409e-39
0.0176554783247 -0.0176554783247 0.954 7.36516307136e-39
0.0194617410967 -0.0176924919061 0.956 7.36516026876e-39
0.0212976147338 -0.0177480122781 0.959 4.87553214173e-39
0.0231445924453 -0.0178035326502 0.962 1.53591896571e-38
0.0250544932452 -0.0178960666037 0.967 1.69971001698e-38
0.0269273804637 -0.0179515869758 0.97 1.8279581136e-38
0.0288113717566 -0.0180071073479 0.973 1.67187672623e-38
0.0306750055798 -0.0180441209293 0.975 1.71790041247e-38
0.0324794176727 -0.0180441209293 0.975 1.76392339807e-38
-0.0649144190478 -0.0157899938224 0.948 1.52849852983e-38
-0.0631599752897 -0.0157899938224 0.948 1.44580706667e-38
-0.0612759839968 -0.0157566815992 0.946 1.28893198385e-38
-0.0595252415969 -0.0157566815992 0.946 1.27103025584e-38
-0.0575912819691 -0.0157067132643 0.943 7.54313077892e-39
-0.0558460916064 -0.0157067132643 0.943 1.04025223343e-38
-0.0539287880902 -0.0156567449294 0.94 1.10479309797e-38
-0.0521891497647 -0.0156567449294 0.94 1.29804616919e-38
-0.0501811629741 -0.0155734643713 0.935 1.29822245254e-38
-0.048450778044 -0.0155734643713 0.935 1.47310800413e-38
-0.0466204564441 -0.015540152148 0.933 1.16007348161e-38
-0.0448937728721 -0.015540152148 0.933 1.04933264748e-38
-0.0430282883699 -0.0154901838131 0.93 1.36311238052e-38
-0.0413071568351 -0.0154901838131 0.93 1.13256501185e-38
-0.0393731972073 -0.015406903255 0.925 1.22443035566e-38
-0.0375798891887 -0.0153735910318 0.923 1.49169230462e-38
-0.0358717124074 -0.0153735910318 0.923 1.6856208017e-38
-0.0340524948819 -0.0153236226969 0.92 1.81458986638e-38
-0.0323498701378 -0.0153236226969 0.92 1.56595075362e-38
-0.0306472453938 -0.0153236226969 0.92 9.2050875732e-39
-0.0288816975613 -0.0152903104736 0.918 2.8469003809e-39
-0.02709394158 -0.0152403421387 0.915 0.0
-0.0253450498591 -0.0152070299155 0.913 3.49656476973e-39
-0.0236553798685 -0.0152070299155 0.913 3.31361264353e-39
-0.0219657098779 -0.0152070299155 0.913 3.68310562131e-39
-0.0202760398873 -0.0152070299155 0.913 3.22069954885e-39
-0.0185863698967 -0.0152070299155 0.913 3.68238815649e-39
-0.0168966999061 -0.0152070299155 0.913 4.14443549654e-39
-0.0152403421387 -0.0152403421387 0.915 5.8925385152e-39
-0.01354697079 -0.0152403421387 0.915 7.0903712451e-39
-0.0118924637017 -0.0152903104736 0.918 5.98401527895e-39
-0.0101935403157 -0.0152903104736 0.918 2.02038091548e-39
-0.00854088390653 -0.0153735910318 0.923 1.16822021049e-38
-0.00684751255778 -0.015406903255 0.925 5.14745130614e-39
-0.00513563441834 -0.015406903255 0.925 1.02214731714e-38
-0.00343486035331 -0.0154568715899 0.928 7.3558206145e-39
-0.00171743017665 -0.0154568715899 0.928 1.52017285513e-38
0.0 -0.0155734643713 0.935 1.26217587123e-38
0.00173593696735 -0.0156234327062 0.938 4.04686028187e-39
0.0034718739347 -0.0156234327062 0.938 5.79890935701e-39
0.00520781090205 -0.0156234327062 0.938 1.08714262278e-38
0.00695855330196 -0.0156567449294 0.94 8.19527406474e-39
0.0087259518135 -0.0157067132643 0.943 9.11795623598e-39
0.0105044543995 -0.0157566815992 0.946 1.09632589213e-38
0.0122811063063 -0.0157899938224 0.948 6.8134340309e-39
0.0141243826597 -0.0158899304922 0.954 7.361935881e-39
0.0158899304922 -0.0158899304922 0.954 7.36479593116e-39
0.0176924919061 -0.0159232427154 0.956 6.90633871778e-39
0.0194617410967 -0.0159232427154 0.956 6.7194433377e-39
0.0212976147338 -0.0159732110503 0.959 8.82915843157e-39
0.0231445924453 -0.0160231793852 0.962 1.64590337893e-38
0.0250544932452 -0.0161064599433 0.967 1.71782600352e-38
0.0269273804637 -0.0161564282782 0.97 1.79129538136e-38
0.0288113717566 -0.0162063966131 0.973 1.71775565834e-38
0.0306750055798 -0.0162397088364 0.975 1.71790013221e-38
0.0324794176727 -0.0162397088364 0.975 1.77336002218e-38
-0.0653252698012 -0.0141243826597 0.954 1.52874824121e-38
-0.0633598486293 -0.0140799663621 0.951 1.34446474134e-38
-0.0612759839968 -0.0140059391993 0.946 1.17829554645e-38
-0.0595252415969 -0.0140059391993 0.946 1.26145111966e-38
-0.057774499197 -0.0140059391993 0.946 1.38105502645e-38
-0.0558460916064 -0.0139615229016 0.943 1.23390579575e-38
-0.0541009012437 -0.0139615229016 0.943 8.27709307948e-39
-0.052355710881 -0.0139615229016 0.943 1.11397314434e-38
-0.0504495114392 -0.0139171066039 0.94 1.11415881639e-38
-0.048450778044 -0.0138430794411 0.935 1.27060650318e-38
-0.0467203931138 -0.0138430794411 0.935 1.31687807912e-38
-0.0448937728721 -0.013813468576 0.933 1.30751782577e-38
-0.0431670893001 -0.013813468576 0.933 1.19709592717e-38
-0.0413071568351 -0.0137690522784 0.93 1.25212758033e-38
-0.0393731972073 -0.0136950251156 0.925 1.24298088486e-38
-0.0376613190678 -0.0136950251156 0.925 1.27082342418e-38
-0.0359494409284 -0.0136950251156 0.925 1.11383119281e-38
-0.0342375627889 -0.0136950251156 0.925 1.48243322502e-38
-0.0324553588448 -0.0136654142505 0.923 1.61197219779e-38
-0.0307471820635 -0.0136654142505 0.923 1.81444889576e-38
-0.0288816975613 -0.0135913870877 0.918 1.68562332403e-38
-0.02709394158 -0.01354697079 0.915 1.26188496167e-38
-0.0253450498591 -0.0135173599249 0.913 3.85852576826e-39
-0.0236553798685 -0.0135173599249 0.913 1.37753244237e-39
-0.0220138275337 -0.01354697079 0.915 7.34683969264e-40
-0.020320456185 -0.01354697079 0.915 4.13690211599e-39
-0.0185863698967 -0.0135173599249 0.913 3.22141701367e-39
-0.0168966999061 -0.0135173599249 0.913 4.41492393521e-39
-0.0152403421387 -0.01354697079 0.915 5.3390144114e-39
-0.0135913870877 -0.0135913870877 0.918 3.03272376765e-39
-0.0118924637017 -0.0135913870877 0.918 7.34683969264e-40
-0.0102157484646 -0.0136209979528 0.92 1.464213122e-38
-0.00854088390653 -0.0136654142505 0.923 2.34943045775e-38
-0.00684751255778 -0.0136950251156 0.925 2.29588740395e-39
-0.00515229052996 -0.0137394414132 0.928 1.22523077735e-38
-0.00343486035331 -0.0137394414132 0.928 1.4374214164e-38
-0.00171743017665 -0.0137394414132 0.928 5.6155970971e-39
0.0 -0.0138430794411 0.935 3.49118378363e-39
0.00173593696735 -0.0138874957388 0.938 1.1334887478e-38
0.0034718739347 -0.0138874957388 0.938 1.04108208238e-38
0.00521891497647 -0.0139171066039 0.94 7.36625748546e-39
0.00695855330196 -0.0139171066039 0.94 9.02575920482e-39
0.00875371199954 -0.0140059391993 0.946 9.39313201802e-39
0.0105266625483 -0.0140355500644 0.948 8.46968613912e-39
0.0123199705668 -0.0140799663621 0.951 1.1055862329e-38
0.0141243826597 -0.0141243826597 0.954 6.53649401409e-39
0.0158899304922 -0.0141243826597 0.954 7.18146405307e-39
0.0176924919061 -0.0141539935248 0.956 7.36516026876e-39
0.019522813506 -0.0141984098225 0.959 4.60074311807e-39
0.0212976147338 -0.0141984098225 0.959 1.37029263385e-38
0.0231445924453 -0.0142428261202 0.962 1.69095848768e-38
0.0250544932452 -0.014316853283 0.967 1.73616283471e-38
0.0269273804637 -0.0143612695806 0.97 1.78207707954e-38
0.0288113717566 -0.0144056858783 0.973 1.73626667093e-38
0.0306750055798 -0.0144352967434 0.975 1.72697522133e-38
-0.0654622200524 -0.0123847443342 0.956 1.48265000589e-38
-0.0633598486293 -0.0123199705668 0.951 1.46442569897e-38
-0.0614055315317 -0.0122811063063 0.948 9.937633161e-39
-0.0596510877736 -0.0122811063063 0.948 1.05826494428e-38
-0.057774499197 -0.0122551967994 0.946 1.26138091461e-38
-0.0560237567971 -0.0122551967994 0.946 1.30754921485e-38
-0.0541009012437 -0.0122163325389 0.943 1.29818713981e-38
-0.052355710881 -0.0122163325389 0.943 1.23404704663e-38
-0.0506105205183 -0.0122163325389 0.943 9.20442616032e-39
-0.0487098731137 -0.0121774682784 0.94 9.48380864035e-39
-0.0467203931138 -0.012112694511 0.935 9.66860907923e-39
-0.0449900081837 -0.012112694511 0.935 1.39974652628e-38
-0.0431670893001 -0.012086785004 0.933 1.36282973862e-38
-0.0414404057281 -0.012086785004 0.933 1.28903918318e-38
-0.0393731972073 -0.0119831469761 0.925 1.27074481134e-38
-0.0376613190678 -0.0119831469761 0.925 1.16943723821e-38
-0.0359494409284 -0.0119831469761 0.925 1.25197960321e-38
-0.0342375627889 -0.0119831469761 0.925 1.36290737056e-38
-0.0324553588448 -0.0119572374691 0.923 1.12327033926e-38
-0.0307471820635 -0.0119572374691 0.923 1.28885645386e-38
-0.0289446206497 -0.0119183732087 0.92 1.62097848315e-38
-0.0271827741753 -0.0118924637017 0.918 1.74072560264e-38
-0.0254005702312 -0.0118535994412 0.915 1.81451741925e-38
-0.0237071988825 -0.0118535994412 0.915 1.48308412816e-38
-0.0220138275337 -0.0118535994412 0.915 8.92817277977e-39
-0.020320456185 -0.0118535994412 0.915 3.85709083864e-39
-0.0186270848362 -0.0118535994412 0.915 0.0
-0.0169337134875 -0.0118535994412 0.915 1.01090932385e-39
-0.0152403421387 -0.0118535994412 0.915 8.26519465422e-40
-0.0135913870877 -0.0118924637017 0.918 1.22392841055e-38
-0.0118924637017 -0.0118924637017 0.918 2.19266033219e-38
-0.0102157484646 -0.0119183732087 0.92 2.26609607886e-38
-0.00854088390653 -0.0119572374691 0.923 2.2753159221e-38
-0.00684751255778 -0.0119831469761 0.925 1.01019045774e-39
-0.00515229052996 -0.0120220112366 0.928 7.91874322709e-39
-0.00343486035331 -0.0120220112366 0.928 2.66322938858e-39
-0.001726683572 -0.012086785004 0.933 8.18880847363e-39
0.0 -0.012112694511 0.935 1.48372059792e-38
0.00173593696735 -0.0121515587715 0.938 8.75247097182e-39
0.0034718739347 -0.0121515587715 0.938 8.93465378516e-39
0.00521891497647 -0.0121774682784 0.94 8.10202185584e-39
0.0069807614508 -0.0122163325389 0.943 8.37896747784e-39
0.00875371199954 -0.0122551967994 0.946 8.84029034658e-39
0.0105266625483 -0.0122811063063 0.948 8.1942174857e-39
0.0123199705668 -0.0123199705668 0.951 6.25883372988e-39
0.0141243826597 -0.0123588348273 0.954 7.27331636481e-39
0.0158899304922 -0.0123588348273 0.954 7.18076760774e-39
0.0176924919061 -0.0123847443342 0.956 7.1789795509e-39
0.019522813506 -0.0124236085947 0.959 5.61022732138e-39
0.0213642391803 -0.0124624728552 0.962 1.58165482525e-38
0.0231927101011 -0.0124883823621 0.964 1.71775425704e-38
0.0250544932452 -0.0125272466226 0.967 1.75441937149e-38
0.0270106610218 -0.0126049751435 0.973 1.76349404022e-38
0.0288113717566 -0.0126049751435 0.973 1.74537707276e-38
-0.0654622200524 -0.0106154951436 0.956 1.49176419123e-38
-0.0633598486293 -0.0105599747715 0.951 1.33524671978e-38
-0.061599852834 -0.0105599747715 0.951 9.37944273332e-39
-0.0596510877736 -0.0105266625483 0.948 1.3909603849e-38
-0.0578966440156 -0.0105266625483 0.948 1.0772085377e-38
-0.0560237567971 -0.0105044543995 0.946 1.07684686257e-38
-0.0541009012437 -0.0104711421762 0.943 1.34446418082e-38
-0.052355710881 -0.0104711421762 0.943 1.2523429599e-38
-0.0506105205183 -0.0104711421762 0.943 1.30747732824e-38
-0.0487098731137 -0.0104378299529 0.94 1.2064208678e-38
-0.0467203931138 -0.0103823095809 0.935 1.02199835912e-38
-0.0449900081837 -0.0103823095809 0.935 1.01248634514e-38
-0.0432596232536 -0.0103823095809 0.935 1.10425555988e-38
-0.0414404057281 -0.010360101432 0.933 1.3444997738e-38
-0.0395860253003 -0.0103267892088 0.93 1.31684332692e-38
-0.0376613190678 -0.0102712688367 0.925 1.30747858941e-38
-0.0359494409284 -0.0102712688367 0.925 1.42708501854e-38
-0.0342375627889 -0.0102712688367 0.925 1.26130846748e-38
-0.0324553588448 -0.0102490606878 0.923 1.22432105438e-38
-0.0307471820635 -0.0102490606878 0.923 1.4000297287e-38
-0.0289446206497 -0.0102157484646 0.92 1.11387351202e-38
-0.0272419959056 -0.0102157484646 0.92 1.27005621327e-38
-0.0254005702312 -0.0101602280925 0.915 1.57459452307e-38
-0.0237071988825 -0.0101602280925 0.915 1.63026839132e-38
-0.0220138275337 -0.0101602280925 0.915 1.80529771613e-38
-0.020320456185 -0.0101602280925 0.915 1.79629367285e-38
-0.0186270848362 -0.0101602280925 0.915 1.23411739182e-38
-0.0169337134875 -0.0101602280925 0.915 7.91222578794e-39
-0.0152903104736 -0.0101935403157 0.918 2.03603958504e-38
-0.0135913870877 -0.0101935403157 0.918 2.3215919822e-38
-0.0118924637017 -0.0101935403157 0.918 2.0724855364e-38
-0.0102157484646 -0.0102157484646 0.92 1.57391461306e-38
-0.00854088390653 -0.0102490606878 0.923 2.05400156888e-38
-0.00684751255778 -0.0102712688367 0.925 1.83670992316e-40
-0.00515229052996 -0.0103045810599 0.928 8.37321374634e-39
-0.00345336714401 -0.010360101432 0.933 9.94557011551e-39
-0.00173038493014 -0.0103823095809 0.935 1.32653736957e-38
0.0 -0.0104156218041 0.938 6.34992233396e-39
0.00173593696735 -0.0104156218041 0.938 9.76618009e-39
0.00347927665098 -0.0104378299529 0.94 7.17865444965e-39
0.0052355710881 -0.0104711421762 0.943 8.83882879228e-39
0.0069807614508 -0.0104711421762 0.943 1.105046733e-38
0.00875371199954 -0.0105044543995 0.946 6.16876246849e-39
0.0105266625483 -0.0105266625483 0.948 7.08929785048e-39
0.0123199705668 -0.0105599747715 0.951 7.45735589863e-39
0.0141243826597 -0.0105932869948 0.954 6.90563246336e-39
0.0158899304922 -0.0105932869948 0.954 7.2729632376e-39
0.0176924919061 -0.0106154951436 0.956 6.34958181843e-39
0.0195838859153 -0.0106821195901 0.962 1.19558953132e-38
0.021408655478 -0.010704327739 0.964 1.64525527839e-38
0.0232648865848 -0.0107376399622 0.967 1.77289282928e-38
0.0251322217661 -0.0107709521855 0.97 1.71783006729e-38
-0.0654622200524 -0.00884624595303 0.956 1.4641032602e-38
-0.0633598486293 -0.00879997897629 0.951 1.50119899366e-38
-0.061599852834 -0.00879997897629 0.951 5.05418088035e-39
-0.0596510877736 -0.00877221879024 0.948 4.86979242322e-39
-0.0578966440156 -0.00877221879024 0.948 1.15035617741e-38
-0.0560237567971 -0.00875371199954 0.946 1.35393611766e-38
-0.0542730143972 -0.00875371199954 0.946 1.07727439873e-38
-0.052355710881 -0.0087259518135 0.943 1.1320938953e-38
-0.0506105205183 -0.0087259518135 0.943 1.24322751339e-38
-0.0487098731137 -0.00869819162745 0.94 1.30762110147e-38
-0.0468702981185 -0.00867968483676 0.938 1.27992723991e-38
-0.0451343611511 -0.00867968483676 0.938 1.2156423926e-38
-0.0432596232536 -0.00865192465071 0.935 1.18783979029e-38
-0.0413071568351 -0.00860565767397 0.93 8.64975579438e-39
-0.0395860253003 -0.00860565767397 0.93 1.22357514321e-38
-0.0377834638864 -0.00858715088327 0.928 1.30722649582e-38
-0.0359494409284 -0.00855939069723 0.925 1.3072620888e-38
-0.0342375627889 -0.00855939069723 0.925 1.39956533838e-38
-0.0324553588448 -0.00854088390653 0.923 1.42729605408e-38
-0.0307471820635 -0.00854088390653 0.923 1.20617283797e-38
-0.0289446206497 -0.00851312372049 0.92 1.27982242279e-38
-0.0272419959056 -0.00851312372049 0.92 1.2978649813e-38
-0.0254838507894 -0.00849461692979 0.918 1.39971541745e-38
-0.0237849274034 -0.00849461692979 0.918 1.20585011894e-38
-0.0220860040175 -0.00849461692979 0.918 1.38080321312e-38
-0.0203870806315 -0.00849461692979 0.918 1.59332049484e-38
-0.0186270848362 -0.00846685674374 0.915 1.7314705868e-38
-0.0169337134875 -0.00846685674374 0.915 2.08177992873e-38
-0.0152903104736 -0.00849461692979 0.918 2.20155787678e-38
-0.0135913870877 -0.00849461692979 0.918 1.70341659155e-38
-0.0119183732087 -0.00851312372049 0.92 1.63915780839e-38
-0.0102157484646 -0.00851312372049 0.92 1.78621861715e-38
-0.00855939069723 -0.00855939069723 0.925 1.83288395796e-38
-0.00686972070662 -0.00858715088327 0.928 3.67341984632e-39
-0.00516339460438 -0.00860565767397 0.93 1.09637213498e-38
-0.00345336714401 -0.00863341786002 0.933 5.88648350454e-39
-0.00173038493014 -0.00865192465071 0.935 9.29942018322e-39
0.0 -0.00867968483676 0.938 9.39455853986e-39
0.00173593696735 -0.00867968483676 0.938 7.18291439698e-39
0.00347927665098 -0.00869819162745 0.94 1.03168483475e-38
0.0052355710881 -0.0087259518135 0.943 7.18291719958e-39
0.00700296959964 -0.00875371199954 0.946 7.26938992652e-39
0.00875371199954 -0.00875371199954 0.946 6.90344643775e-39
0.0105266625483 -0.00877221879024 0.948 6.71871746509e-39
0.0123588348273 -0.00882773916233 0.954 7.54738652236e-39
0.0141539935248 -0.00884624595303 0.956 6.90563246336e-39
0.0159232427154 -0.00884624595303 0.956 7.45735589863e-39
0.0177480122781 -0.00887400613907 0.959 4.96629704586e-39
0.0196246008548 -0.00892027311581 0.964 1.55435991338e-38
0.0214752799245 -0.00894803330186 0.967 1.69063408708e-38
-0.0635597219688 -0.00706219132986 0.954 1.45495698512e-38
-0.061599852834 -0.00703998318103 0.951 1.04064978181e-38
-0.0598398570387 -0.00703998318103 0.951 9.39310118945e-39
-0.0580798612435 -0.00703998318103 0.951 6.52965427629e-39
-0.0560237567971 -0.00700296959964 0.946 4.87050988804e-39
-0.0542730143972 -0.00700296959964 0.946 1.18702115173e-38
-0.052355710881 -0.0069807614508 0.943 1.46421914758e-38
-0.0506105205183 -0.0069807614508 0.943 1.10486344316e-38
-0.0487098731137 -0.00695855330196 0.94 1.04908097428e-38
-0.0468702981185 -0.00694374786941 0.938 1.31677003901e-38
-0.0451343611511 -0.00694374786941 0.938 1.19713516353e-38
-0.0432596232536 -0.00692153972057 0.935 1.28910952836e-38
-0.0413071568351 -0.00688452613918 0.93 1.31676877784e-38
-0.0395860253003 -0.00688452613918 0.93 1.28903890292e-38
-0.0377834638864 -0.00686972070662 0.928 7.7263785791e-39
-0.0360660337097 -0.00686972070662 0.928 1.2147437399e-38
-0.0342375627889 -0.00684751255778 0.925 1.13223696788e-38
-0.0325256846495 -0.00684751255778 0.925 1.35364871134e-38
-0.0307471820635 -0.00683270712523 0.923 1.39049024927e-38
-0.0290390052822 -0.00683270712523 0.923 1.35332823439e-38
-0.0272419959056 -0.00681049897639 0.92 1.37194336344e-38
-0.0254838507894 -0.00679569354383 0.918 1.26145280122e-38
-0.0237849274034 -0.00679569354383 0.918 1.23347027219e-38
-0.0220860040175 -0.00679569354383 0.918 1.41828738652e-38
-0.0203870806315 -0.00679569354383 0.918 1.1510411321e-38
-0.0186881572455 -0.00679569354383 0.918 1.06755387154e-38
-0.0169892338596 -0.00679569354383 0.918 1.58331312186e-38
-0.0152903104736 -0.00679569354383 0.918 1.75862228598e-38
-0.0136209979528 -0.00681049897639 0.92 1.82320028492e-38
-0.0119183732087 -0.00681049897639 0.92 1.57487716497e-38
-0.0102157484646 -0.00681049897639 0.92 1.74937441676e-38
-0.00855939069723 -0.00684751255778 0.925 1.98947808044e-38
-0.00686972070662 -0.00686972070662 0.928 2.38772290011e-39
-0.00516339460438 -0.00688452613918 0.93 8.93244674008e-39
-0.00345336714401 -0.00690673428801 0.933 1.04083391243e-38
-0.00173038493014 -0.00692153972057 0.935 7.27226398967e-39
0.0 -0.00694374786941 0.938 1.32649350892e-38
0.00173963832549 -0.00695855330196 0.94 1.08664866507e-38
0.0034903807254 -0.0069807614508 0.943 5.06279045812e-39
0.00525222719973 -0.00700296959964 0.946 8.00764300297e-39
0.00700296959964 -0.00700296959964 0.946 1.26231207744e-38
0.00877221879024 -0.00701777503219 0.948 6.72479769913e-39
0.0105599747715 -0.00703998318103 0.951 6.99317578232e-39
0.0123847443342 -0.00707699676242 0.956 8.93286012313e-39
0.0141984098225 -0.00709920491126 0.959 6.62724350394e-39
0.0159732110503 -0.00709920491126 0.959 6.9016695913e-39
0.0178405462316 -0.00713621849265 0.964 9.19649340971e-39
-0.0635597219688 -0.0052966434974 0.954 1.51038114198e-38
-0.0617941741363 -0.0052966434974 0.954 8.92597974767e-39
-0.0601544724806 -0.00530774757182 0.956 9.66353357619e-39
-0.0582630784714 -0.0052966434974 0.954 1.22447113345e-38
-0.0563198654482 -0.00527998738577 0.951 1.01288221196e-38
-0.0542730143972 -0.00525222719973 0.946 6.80624817237e-39
-0.0525222719973 -0.00525222719973 0.946 4.59249227271e-39
-0.0507715295974 -0.00525222719973 0.946 1.0675611583e-38
-0.0488653301556 -0.0052355710881 0.943 1.41839850948e-38
-0.0469702347883 -0.00521891497647 0.94 1.25251840247e-38
-0.0452305964628 -0.00521891497647 0.94 9.66212527123e-39
-0.0433984241838 -0.00520781090205 0.938 1.23375585681e-38
-0.0414404057281 -0.00518005071601 0.933 1.27063607058e-38
-0.0395860253003 -0.00516339460438 0.93 1.24305277148e-38
-0.0378648937655 -0.00516339460438 0.93 1.3627944259e-38
-0.0360660337097 -0.00515229052996 0.928 1.37197895643e-38
-0.0342375627889 -0.00513563441834 0.925 9.01499583132e-39
-0.0325256846495 -0.00513563441834 0.925 1.04957927601e-38
-0.0307471820635 -0.00512453034392 0.923 1.0585523506e-38
-0.0290390052822 -0.00512453034392 0.923 1.37204902135e-38
-0.0273308285009 -0.00512453034392 0.923 1.37194084111e-38
-0.0255393711615 -0.00510787423229 0.92 1.37204663914e-38
-0.0238367464174 -0.00510787423229 0.92 1.56555628811e-38
-0.0220860040175 -0.00509677015787 0.918 1.26145168018e-38
-0.0203870806315 -0.00509677015787 0.918 1.20595815905e-38
-0.0186881572455 -0.00509677015787 0.918 1.30736718618e-38
-0.0169892338596 -0.00509677015787 0.918 1.59357847389e-38
-0.0153236226969 -0.00510787423229 0.92 1.53789353538e-38
-0.0136209979528 -0.00510787423229 0.92 1.73089521365e-38
-0.0119183732087 -0.00510787423229 0.92 1.80511792954e-38
-0.0102490606878 -0.00512453034392 0.923 1.85117720877e-38
-0.00858715088327 -0.00515229052996 0.928 1.86947788645e-38
-0.00686972070662 -0.00515229052996 0.928 2.38772290011e-39
-0.00516339460438 -0.00516339460438 0.93 7.17969561441e-39
-0.00346076986028 -0.00519115479043 0.935 1.32609147639e-38
-0.00173593696735 -0.00520781090205 0.938 1.16990961592e-38
0.0 -0.00521891497647 0.94 8.38148561118e-39
0.0017451903627 -0.0052355710881 0.943 5.88357020503e-39
0.00350148479982 -0.00525222719973 0.946 1.29922368029e-38
0.00525222719973 -0.00525222719973 0.946 1.15114650974e-38
0.00700296959964 -0.00525222719973 0.946 1.08710604889e-38
0.00877221879024 -0.00526333127414 0.948 6.63188600575e-39
0.0105599747715 -0.00527998738577 0.951 1.34521878004e-38
0.0124236085947 -0.00532440368344 0.959 9.0279690525e-39
0.0142428261202 -0.00534105979507 0.962 6.62975883468e-39
0.0160231793852 -0.00534105979507 0.962 5.24360280156e-39
-0.0636929708618 -0.00353849838121 0.956 1.46432032133e-38
-0.0619237216712 -0.00353849838121 0.956 6.0647300705e-39
-0.0601544724806 -0.00353849838121 0.956 1.04026218265e-38
-0.0582630784714 -0.00353109566493 0.954 1.03154036088e-38
-0.0561422002575 -0.0035088875161 0.948 9.57170228392e-39
-0.0542730143972 -0.00350148479982 0.946 1.22446945189e-38
-0.0525222719973 -0.00350148479982 0.946 1.01313276412e-38
-0.0507715295974 -0.00350148479982 0.946 6.43960963957e-39
-0.0488653301556 -0.0034903807254 0.943 5.97540570119e-39
-0.0469702347883 -0.00347927665098 0.94 1.00302421739e-38
-0.0452305964628 -0.00347927665098 0.94 1.43690798064e-38
-0.0433984241838 -0.0034718739347 0.938 1.25252316689e-38
-0.0416624872164 -0.0034718739347 0.938 1.11361581323e-38
-0.0397137221561 -0.00345336714401 0.933 1.05843996646e-38
-0.0379870385841 -0.00345336714401 0.933 1.37209035965e-38
-0.0362603550121 -0.00345336714401 0.933 1.27992723991e-38
-0.0344226306959 -0.00344226306959 0.93 1.3442842541e-38
-0.0326311733564 -0.00343486035331 0.928 1.30780102819e-38
-0.03081380651 -0.00342375627889 0.925 1.14184889443e-38
-0.0291019283706 -0.00342375627889 0.925 8.55756156582e-39
-0.0273900502311 -0.00342375627889 0.925 1.21435558022e-38
-0.0256226517196 -0.00341635356261 0.923 1.28868171194e-38
-0.0239144749383 -0.00341635356261 0.923 1.29829433915e-38
-0.0221341216733 -0.00340524948819 0.92 1.39963568357e-38
-0.0204314969292 -0.00340524948819 0.92 1.46420765693e-38
-0.0187288721851 -0.00340524948819 0.92 1.24315688795e-38
-0.017026247441 -0.00340524948819 0.92 1.51953021966e-38
-0.0153236226969 -0.00340524948819 0.92 2.01741969156e-38
-0.0136209979528 -0.00340524948819 0.92 1.79571928061e-38
-0.0119572374691 -0.00341635356261 0.923 1.84188547891e-38
-0.0102490606878 -0.00341635356261 0.923 1.44572747292e-38
-0.00858715088327 -0.00343486035331 0.928 1.57351005819e-38
-0.00688452613918 -0.00344226306959 0.93 3.76525534248e-39
-0.00518005071601 -0.00345336714401 0.933 1.44699298556e-38
-0.00346076986028 -0.00346076986028 0.935 8.28497398204e-39
-0.00173593696735 -0.0034718739347 0.938 3.85744957104e-39
0.0 -0.00347927665098 0.94 9.02400057525e-39
0.0017451903627 -0.0034903807254 0.943 1.19767452331e-38
0.00350148479982 -0.00350148479982 0.946 8.00942125072e-39
0.00525222719973 -0.00350148479982 0.946 1.25234422107e-38
0.00701777503219 -0.0035088875161 0.948 1.07795613043e-38
0.00879997897629 -0.00351999159051 0.951 9.30131193614e-39
0.0106488073669 -0.00354960245563 0.959 9.02679756698e-39
-0.0561422002575 -0.00175444375805 0.948 1.04930181892e-38
-0.0542730143972 -0.00175074239991 0.946 1.04997948685e-38
-0.0525222719973 -0.00175074239991 0.946 9.01817397623e-39
-0.0507715295974 -0.00175074239991 0.946 1.26127735865e-38
-0.0488653301556 -0.0017451903627 0.943 9.94693357891e-39
-0.0471201397929 -0.0017451903627 0.943 7.54487259292e-39
-0.0452305964628 -0.00173963832549 0.94 6.1644646861e-39
-0.0434909581373 -0.00173963832549 0.94 8.46429814652e-39
-0.0417513198118 -0.00173963832549 0.94 1.42736611901e-38
-0.0399265502491 -0.00173593696735 0.938 1.38148872832e-38
-0.0380684684631 -0.00173038493014 0.935 1.10460882723e-38
-0.0362603550121 -0.001726683572 0.933 1.12276559156e-38
-0.0345336714401 -0.001726683572 0.933 1.32591939694e-38
-0.0327014991611 -0.00172113153479 0.93 1.3535057789e-38
-0.0309137431798 -0.00171743017665 0.928 1.37179846918e-38
-0.0291963130031 -0.00171743017665 0.928 1.33510000383e-38
-0.0273900502311 -0.00171187813945 0.925 1.40886099188e-38
-0.0256781720917 -0.00171187813945 0.925 9.65958751971e-39
-0.0239662939522 -0.00171187813945 0.925 1.06770030723e-38
-0.022206298157 -0.00170817678131 0.923 1.08653501976e-38
-0.0204314969292 -0.0017026247441 0.92 1.39988693638e-38
-0.0187288721851 -0.0017026247441 0.92 1.27989220745e-38
-0.017026247441 -0.0017026247441 0.92 1.79585604734e-38
-0.0153236226969 -0.0017026247441 0.92 1.88820147601e-38
-0.0136654142505 -0.00170817678131 0.923 1.46417234421e-38
-0.0119572374691 -0.00170817678131 0.923 1.22389169653e-38
-0.0102490606878 -0.00170817678131 0.923 1.87908518872e-38
-0.00858715088327 -0.00171743017665 0.928 2.03560742459e-38
-0.00688452613918 -0.00172113153479 0.93 2.47955839627e-39
-0.00520781090205 -0.00173593696735 0.938 4.69619396427e-39
-0.0034718739347 -0.00173593696735 0.938 7.63532360619e-39
-0.0017451903627 -0.0017451903627 0.943 1.08714262278e-38
0.0 -0.0017451903627 0.943 1.16018068094e-38
0.00175074239991 -0.00175074239991 0.946 1.15139061594e-38
0.0035088875161 -0.00175444375805 0.948 8.37933742063e-39
0.00526333127414 -0.00175444375805 0.948 1.12380185177e-38
0.00701777503219 -0.00175444375805 0.948 9.11580103894e-39
0.00882773916233 -0.00176554783247 0.954 1.23404858806e-38
-0.0563198654482 0.0 0.951 7.27294502072e-39
-0.0543877564995 0.0 0.948 7.82180139933e-39
-0.0525222719973 0.0 0.946 1.1048321942e-38
-0.0507715295974 0.0 0.946 1.04079313464e-38
-0.0488653301556 0.0 0.943 9.84863949813e-39
-0.0471201397929 0.0 0.943 1.24298242629e-38
-0.0452305964628 0.0 0.94 9.2076365351e-39
-0.0434909581373 0.0 0.94 8.37392000077e-39
-0.0417513198118 0.0 0.94 4.50354345139e-39
-0.0399265502491 0.0 0.938 8.55002958657e-39
-0.0381906132817 0.0 0.938 1.28896911826e-38
-0.036338083533 0.0 0.935 1.41836922235e-38
-0.0345336714401 0.0 0.933 1.1418811243e-38
-0.0328069878681 0.0 0.933 1.1412768844e-38
-0.0309803676263 0.0 0.93 1.37190580865e-38
-0.0291963130031 0.0 0.928 1.29836440407e-38
-0.0273900502311 0.0 0.925 1.30751362187e-38
-0.0256781720917 0.0 0.925 1.4547728545e-38
-0.0239662939522 0.0 0.925 1.41825655795e-38
-0.022206298157 0.0 0.923 1.06784632253e-38
-0.0204981213757 0.0 0.923 1.08616998151e-38
-0.0187899445944 0.0 0.923 1.03074918777e-38
-0.0170817678131 0.0 0.923 1.40875127021e-38
-0.0153735910318 0.0 0.923 1.34389399247e-38
-0.0136654142505 0.0 0.923 1.61196407026e-38
-0.0119572374691 0.0 0.923 1.78660691696e-38
-0.0102712688367 0.0 0.925 1.85110854514e-38
-0.00860565767397 0.0 0.93 1.98061262558e-38
-0.00690673428801 0.0 0.933 1.19386145005e-39
-0.00520781090205 0.0 0.938 1.12398780408e-38
-0.00347927665098 0.0 0.94 1.09600891842e-38
-0.0017451903627 0.0 0.943 1.23451115669e-38
0.0 0.0 0.946 1.04058784442e-38
0.00175074239991 0.0 0.946 1.22535997706e-38
0.0035088875161 0.0 0.948 8.74598996642e-39
0.00526333127414 0.0 0.948 1.05004829061e-38
0.00701777503219 0.0 0.948 1.17844394396e-38
-0.0543877564995 0.00175444375805 0.948 1.01284858079e-38
-0.0526333127414 0.00175444375805 0.948 7.27295062591e-39
-0.0507715295974 0.00175074239991 0.946 7.36405884817e-39
-0.0490207871974 0.00175074239991 0.946 1.05873395888e-38
-0.0471201397929 0.0017451903627 0.943 1.06852595229e-38
-0.0453749494302 0.0017451903627 0.943 9.57027996598e-39
-0.0436297590675 0.0017451903627 0.943 1.28914736342e-38
-0.0418845687048 0.0017451903627 0.943 9.29984757925e-39
-0.0400116814863 0.00173963832549 0.94 9.94015409694e-39
-0.0382720431608 0.00173963832549 0.94 5.7942598487e-39
-0.0364546763144 0.00173593696735 0.938 5.60232399804e-39
-0.0346076986028 0.00173038493014 0.935 1.26109715167e-38
-0.0328069878681 0.001726683572 0.933 1.49201880716e-38
-0.0309803676263 0.00172113153479 0.93 1.22446538813e-38
-0.0292592360915 0.00172113153479 0.93 1.1595715365e-38
-0.0274788828265 0.00171743017665 0.928 1.13223822905e-38
-0.0256781720917 0.00171187813945 0.925 1.39971303524e-38
-0.0239662939522 0.00171187813945 0.925 1.37201398889e-38
-0.0222544158128 0.00171187813945 0.925 1.4362988362e-38
-0.0204981213757 0.00170817678131 0.923 1.33513531655e-38
-0.0187899445944 0.00170817678131 0.923 1.24333793571e-38
-0.0170817678131 0.00170817678131 0.923 1.37237103974e-38
-0.015406903255 0.00171187813945 0.925 1.74058701422e-38
-0.0136950251156 0.00171187813945 0.925 1.75923591457e-38
-0.0119831469761 0.00171187813945 0.925 1.84202799096e-38
-0.0103045810599 0.00171743017665 0.928 1.53750271324e-38
-0.00860565767397 0.00172113153479 0.93 1.73111353595e-38
-0.00692153972057 0.00173038493014 0.935 2.75506488474e-39
-0.00520781090205 0.00173593696735 0.938 1.00348706627e-38
-0.0034903807254 0.0017451903627 0.943 7.91439359666e-39
-0.00175074239991 0.00175074239991 0.946 8.47225191661e-39
0.0 0.00175074239991 0.946 9.85376404661e-39
0.00175444375805 0.00175444375805 0.948 8.93286012313e-39
0.0035088875161 0.00175444375805 0.948 1.1790530884e-38
0.00527998738577 0.00175999579526 0.951 6.99886925798e-39
0.00703998318103 0.00175999579526 0.951 6.89883056061e-39
-0.0508788689834 0.0035088875161 0.948 1.0037031465e-38
-0.0490207871974 0.00350148479982 0.946 6.35173000897e-39
-0.0471201397929 0.0034903807254 0.943 6.62327642799e-39
-0.0453749494302 0.0034903807254 0.943 1.12313034955e-38
-0.0436297590675 0.0034903807254 0.943 1.02221513999e-38
-0.0418845687048 0.0034903807254 0.943 9.93586051845e-39
-0.0400116814863 0.00347927665098 0.94 1.1969862055e-38
-0.0382720431608 0.00347927665098 0.94 1.0589180895e-38
-0.0364546763144 0.0034718739347 0.938 1.01266585148e-38
-0.0346076986028 0.00346076986028 0.935 5.7942598487e-39
-0.0328069878681 0.00345336714401 0.933 5.69846428308e-39
-0.0310803042961 0.00345336714401 0.933 1.14084892785e-38
-0.0292592360915 0.00344226306959 0.93 1.48282278599e-38
-0.0274788828265 0.00343486035331 0.928 1.29876517543e-38
-0.0257614526498 0.00343486035331 0.928 1.13237723785e-38
-0.0240440224732 0.00343486035331 0.928 1.03996931127e-38
-0.0222544158128 0.00342375627889 0.925 1.40874986891e-38
-0.0205425376733 0.00342375627889 0.925 1.46428220601e-38
-0.0188306595339 0.00342375627889 0.925 1.30747858941e-38
-0.0171187813945 0.00342375627889 0.925 1.76820632669e-38
-0.015406903255 0.00342375627889 0.925 1.72217759578e-38
-0.0136950251156 0.00342375627889 0.925 1.69448485526e-38
-0.0119831469761 0.00342375627889 0.925 1.47299982389e-38
-0.0103267892088 0.00344226306959 0.93 1.92493399292e-38
-0.00865192465071 0.00346076986028 0.935 1.79604914627e-38
-0.00692153972057 0.00346076986028 0.935 7.36262391854e-39
-0.0052355710881 0.0034903807254 0.943 9.67047981268e-39
-0.00350148479982 0.00350148479982 0.946 1.04976690988e-38
-0.00175074239991 0.00350148479982 0.946 9.94593445311e-39
0.0 0.0035088875161 0.948 1.05948589564e-38
0.00175444375805 0.0035088875161 0.948 8.19780761237e-39
0.0035088875161 0.0035088875161 0.948 5.98298252198e-39
-0.0436297590675 0.0052355710881 0.943 6.8069474203e-39
-0.0418845687048 0.0052355710881 0.943 1.0679870129e-38
-0.0400116814863 0.00521891497647 0.94 1.02231701439e-38
-0.0382720431608 0.00521891497647 0.94 1.08663913624e-38
-0.0364546763144 0.00520781090205 0.938 1.03121217678e-38
-0.0346076986028 0.00519115479043 0.935 1.13274619974e-38
-0.0328069878681 0.00518005071601 0.933 1.00373327441e-38
-0.0310803042961 0.00518005071601 0.933 7.54453487999e-39
-0.0292592360915 0.00516339460438 0.93 5.33293417737e-39
-0.0274788828265 0.00515229052996 0.928 9.01315312384e-39
-0.0257614526498 0.00515229052996 0.928 1.33517329174e-38
-0.0240440224732 0.00515229052996 0.928 1.47383149453e-38
-0.0223265922965 0.00515229052996 0.928 1.19691067551e-38
-0.0205425376733 0.00513563441834 0.925 1.13177033549e-38
-0.0188306595339 0.00513563441834 0.925 1.15077908929e-38
-0.0171187813945 0.00513563441834 0.925 1.62098450873e-38
-0.0154568715899 0.00515229052996 0.928 1.44552008074e-38
-0.0137394414132 0.00515229052996 0.928 1.86021852659e-38
-0.0120220112366 0.00515229052996 0.928 1.83299339937e-38
-0.010360101432 0.00518005071601 0.933 9.75286915589e-39
-0.00865192465071 0.00519115479043 0.935 1.27913270369e-38
-0.00692153972057 0.00519115479043 0.935 4.96629144067e-39
-0.0052355710881 0.0052355710881 0.943 1.08765605853e-38
-0.00350148479982 0.00525222719973 0.946 1.07748865727e-38
-0.00175074239991 0.00525222719973 0.946 1.11426433416e-38
0.0035088875161 0.00526333127414 0.948 6.81235222848e-39
-0.0436297590675 0.0069807614508 0.943 1.22439111931e-38
-0.0418845687048 0.0069807614508 0.943 9.0214025679e-39
-0.0400116814863 0.00695855330196 0.94 7.81893154008e-39
-0.0382720431608 0.00695855330196 0.94 9.39271863497e-39
-0.0364546763144 0.00694374786941 0.938 1.03153980036e-38
-0.0346076986028 0.00692153972057 0.935 1.05015703137e-38
-0.0328773136727 0.00692153972057 0.935 9.2043560954e-39
-0.0310803042961 0.00690673428801 0.933 1.20649723857e-38
-0.0293536207241 0.00690673428801 0.933 1.02228520491e-38
-0.0275381045567 0.00688452613918 0.93 1.03106994499e-38
-0.0258169730219 0.00688452613918 0.93 6.25701904837e-39
-0.0240958414871 0.00688452613918 0.93 5.32645877716e-39
-0.0223747099523 0.00688452613918 0.93 1.27910481785e-38
-0.0206091621199 0.00686972070662 0.928 1.55669643844e-38
