# .PCD v0.7 - Point Cloud Data file format
VERSION 0.7
FIELDS x y z rgb
SIZE 4 4 4 4
TYPE F F F F
COUNT 1 1 1 1
WIDTH 852
HEIGHT 1
VIEWPOINT 0 0 0 1 0 0 0
POINTS 852
DATA ascii
0.00736570269729 -0.188561989051 0.796 7.91083429856e-39
0.00883884323675 -0.188561989051 0.796 7.91155736857e-39
0.0103119837762 -0.188561989051 0.796 8.46329201423e-39
0.0117851243157 -0.188561989051 0.796 8.4625885624e-39
0.0132582648551 -0.188561989051 0.796 7.16934282136e-39
0.0147314053946 -0.188561989051 0.796 1.41808251668e-38
0.016204545934 -0.188561989051 0.796 5.32647699404e-39
0.0176776864735 -0.188561989051 0.796 1.63041314545e-38
0.019150827013 -0.188561989051 0.796 9.57067373085e-39
0.0206239675524 -0.188561989051 0.796 9.85054526404e-39
0.0220971080919 -0.188561989051 0.796 1.02175201085e-38
0.0236294703616 -0.189035762892 0.798 1.09525712179e-38
0.0251063122592 -0.189035762892 0.798 1.11376785412e-38
-0.0373374502306 -0.189674247172 0.807 1.4734679977e-38
-0.0356662870307 -0.188734102204 0.803 1.13328373783e-38
-0.0341801917378 -0.188734102204 0.803 9.76951237775e-39
-0.0326940964448 -0.188734102204 0.803 9.49255694666e-39
-0.0311691368914 -0.188499065962 0.802 2.57140089892e-39
-0.0296108651147 -0.188028993479 0.8 5.05096069648e-39
-0.0280599960544 -0.187558920995 0.798 5.32683993035e-39
-0.0265165297102 -0.187088848511 0.796 5.32683993035e-39
-0.0250433891708 -0.187088848511 0.796 5.60197227213e-39
-0.0235702486313 -0.187088848511 0.796 5.97039746047e-39
-0.0220971080919 -0.187088848511 0.796 5.32646438236e-39
-0.0206239675524 -0.187088848511 0.796 5.14279479134e-39
-0.019150827013 -0.187088848511 0.796 5.32755879646e-39
-0.0176776864735 -0.187088848511 0.796 5.69418331628e-39
-0.016204545934 -0.187088848511 0.796 5.69384420205e-39
-0.0147314053946 -0.187088848511 0.796 5.69383579426e-39
-0.0132582648551 -0.187088848511 0.796 6.61255649474e-39
-0.0117851243157 -0.187088848511 0.796 6.06332596943e-39
-0.0103119837762 -0.187088848511 0.796 6.06332596943e-39
-0.00883884323675 -0.187088848511 0.796 5.51015219025e-39
-0.00734719590659 -0.186618776027 0.794 6.34028420312e-39
-0.00587775672528 -0.186618776027 0.794 1.14185492002e-38
-0.00440831754396 -0.186618776027 0.794 6.15305111011e-39
-0.00294628107892 -0.187088848511 0.796 1.04962621951e-38
-0.00147314053946 -0.187088848511 0.796 7.53773998373e-39
0.0 -0.187088848511 0.796 7.90867069373e-39
0.00147314053946 -0.187088848511 0.796 7.26616834135e-39
0.00294628107892 -0.187088848511 0.796 7.72607729993e-39
0.00441942161837 -0.187088848511 0.796 7.90973988446e-39
0.00587775672528 -0.186618776027 0.794 7.45021067776e-39
0.00734719590659 -0.186618776027 0.794 7.72679616605e-39
0.00881663508791 -0.186618776027 0.794 7.91083429856e-39
0.0102860742692 -0.186618776027 0.794 7.9122566165e-39
0.0117555134506 -0.186618776027 0.794 8.55548764409e-39
0.0131916404086 -0.186148703544 0.792 7.90867069373e-39
0.0146573782318 -0.186148703544 0.792 1.51924757776e-38
0.016123116055 -0.186148703544 0.792 8.18599326502e-39
0.0175888538782 -0.186148703544 0.792 1.48233653543e-38
0.0191027093571 -0.186618776027 0.794 1.10464820371e-38
0.0205721485385 -0.186618776027 0.794 8.55514712856e-39
0.0220415877198 -0.186618776027 0.794 1.25134299332e-38
0.0235110269011 -0.186618776027 0.794 1.35257293451e-38
0.0250433891708 -0.187088848511 0.796 1.19555477912e-38
0.0265831541568 -0.187558920995 0.798 1.19595134658e-38
-0.0356662870307 -0.187248006911 0.803 1.0963017898e-38
-0.0341801917378 -0.187248006911 0.803 9.21633999986e-39
-0.0326533815053 -0.187014821348 0.802 1.03208588637e-38
-0.0310914083705 -0.186548450223 0.8 5.80076607747e-39
-0.0295368379519 -0.186082079097 0.798 4.86728830287e-39
-0.0279896702497 -0.185615707972 0.796 5.32755879646e-39
-0.0265165297102 -0.185615707972 0.796 5.41975442632e-39
-0.0249804660824 -0.185149336846 0.794 5.51160253417e-39
-0.0235110269011 -0.185149336846 0.794 5.51124940695e-39
-0.0220415877198 -0.185149336846 0.794 4.95913781201e-39
-0.0206239675524 -0.185615707972 0.796 6.06225818001e-39
-0.0191027093571 -0.185149336846 0.794 5.41832370059e-39
-0.0176332701758 -0.185149336846 0.794 4.68363552743e-39
-0.016123116055 -0.184682965721 0.792 1.01109317421e-38
-0.0146573782318 -0.184682965721 0.792 5.14278778485e-39
-0.0132249526319 -0.185149336846 0.794 5.51053054084e-39
-0.0117555134506 -0.185149336846 0.794 6.521065718e-39
-0.0102860742692 -0.185149336846 0.794 5.60450441845e-39
-0.00879442693908 -0.184682965721 0.792 6.34027159143e-39
-0.0073286891159 -0.184682965721 0.792 5.23465831347e-39
-0.00586295129272 -0.184682965721 0.792 1.37201104616e-38
-0.00439721346954 -0.184682965721 0.792 3.67346608917e-39
-0.00293147564636 -0.184682965721 0.792 1.3809486679e-38
-0.00146573782318 -0.184682965721 0.792 6.33919959811e-39
0.0 -0.184682965721 0.792 7.63280967675e-39
0.00146573782318 -0.184682965721 0.792 6.71407075939e-39
0.00293147564636 -0.184682965721 0.792 7.26653408025e-39
0.00440831754396 -0.185149336846 0.794 7.8186386687e-39
0.00586295129272 -0.184682965721 0.792 8.00158518971e-39
0.0073286891159 -0.184682965721 0.792 8.18597644943e-39
0.00879442693908 -0.184682965721 0.792 8.0948528129e-39
0.0102601647623 -0.184682965721 0.792 8.27993491277e-39
0.0117259025854 -0.184682965721 0.792 8.74022222194e-39
0.0131916404086 -0.184682965721 0.792 7.63352574026e-39
0.0146573782318 -0.184682965721 0.792 1.205317065e-38
0.016123116055 -0.184682965721 0.792 1.25188053141e-38
0.0175888538782 -0.184682965721 0.792 1.42690957597e-38
0.0190545917013 -0.184682965721 0.792 1.55673693596e-38
0.0205203295245 -0.184682965721 0.792 6.6122215844e-39
0.0219860673477 -0.184682965721 0.792 1.67494444883e-38
0.0234518051709 -0.184682965721 0.792 1.5266696952e-38
0.0249804660824 -0.185149336846 0.794 1.66481866612e-38
0.0265165297102 -0.185615707972 0.796 1.64666498465e-38
-0.0341801917378 -0.185761911618 0.803 9.12308919226e-39
-0.0326533815053 -0.185530576735 0.802 9.95101696264e-39
-0.0309359513286 -0.184142567432 0.796 9.30419580838e-39
-0.0294628107892 -0.184142567432 0.796 3.21424656943e-39
-0.0279193444451 -0.183679897665 0.794 5.14281440952e-39
-0.0264499052637 -0.183679897665 0.794 5.69667482495e-39
-0.0249175429941 -0.183217227897 0.792 4.04077304134e-39
-0.0234518051709 -0.183217227897 0.792 1.19655264375e-38
-0.0219860673477 -0.183217227897 0.792 2.02039632976e-39
-0.0205203295245 -0.183217227897 0.792 1.27057119046e-38
-0.0190545917013 -0.183217227897 0.792 3.85709083864e-39
-0.0175888538782 -0.183217227897 0.792 3.85709784513e-39
-0.016123116055 -0.183217227897 0.792 1.79583769033e-38
-0.0146573782318 -0.183217227897 0.792 1.19386145005e-39
-0.0131916404086 -0.183217227897 0.792 1.5925024168e-38
-0.0117259025854 -0.183217227897 0.792 4.95954278726e-39
-0.0102601647623 -0.183217227897 0.792 6.33666184659e-39
-0.00879442693908 -0.183217227897 0.792 6.24911852763e-39
-0.0073101823252 -0.18275455813 0.79 4.86729390806e-39
-0.00584814586016 -0.18275455813 0.79 1.2422721081e-38
-0.00438610939512 -0.18275455813 0.79 4.22515028808e-39
-0.00292407293008 -0.18275455813 0.79 1.38949182411e-38
-0.00146203646504 -0.18275455813 0.79 5.70133414234e-39
0.0 -0.18275455813 0.79 7.8147122304e-39
0.00146203646504 -0.18275455813 0.79 6.8044881415e-39
0.00292407293008 -0.18275455813 0.79 7.35981571642e-39
0.00438610939512 -0.18275455813 0.79 7.8186386687e-39
0.00584814586016 -0.18275455813 0.79 8.36928870934e-39
0.0073101823252 -0.18275455813 0.79 8.27637421337e-39
0.00877221879024 -0.18275455813 0.79 8.37072784287e-39
0.0102342552553 -0.18275455813 0.79 8.18634639223e-39
0.0116962917203 -0.18275455813 0.79 8.09487943757e-39
0.0131583281854 -0.18275455813 0.79 7.90976791043e-39
0.0146203646504 -0.18275455813 0.79 1.01195679445e-38
0.0160824011154 -0.18275455813 0.79 1.68559039352e-38
0.0175444375805 -0.18275455813 0.79 3.76529317754e-39
0.0190064740455 -0.18275455813 0.79 1.87913227235e-38
0.0204685105106 -0.18275455813 0.79 6.52574885747e-39
0.0219305469756 -0.18275455813 0.79 1.95131035365e-38
0.0233925834406 -0.18275455813 0.79 2.07141900814e-38
0.0249175429941 -0.183217227897 0.792 2.05293335906e-38
0.0263832808172 -0.183217227897 0.792 1.79475224454e-38
0.0279193444451 -0.183679897665 0.794 1.38027464333e-38
-0.0308582228077 -0.182210458484 0.794 1.02268555588e-38
-0.0293887836264 -0.182210458484 0.794 2.02038091548e-39
-0.0278490186404 -0.181751490074 0.792 4.86728830287e-39
-0.0263832808172 -0.181751490074 0.792 5.32754618477e-39
-0.0248546199057 -0.181292521665 0.79 3.12240686937e-39
-0.0233925834406 -0.181292521665 0.79 1.80551477727e-38
-0.0219305469756 -0.181292521665 0.79 1.28569694621e-39
-0.0204685105106 -0.181292521665 0.79 1.70424616024e-38
-0.0190064740455 -0.181292521665 0.79 2.57139389242e-39
-0.0175444375805 -0.181292521665 0.79 1.01019045774e-39
-0.0160824011154 -0.181292521665 0.79 1.61154816487e-38
-0.0146203646504 -0.181292521665 0.79 2.93873587706e-39
-0.0131583281854 -0.181292521665 0.79 1.40843513727e-38
-0.0116962917203 -0.181292521665 0.79 9.75590016446e-39
-0.0102342552553 -0.181292521665 0.79 5.78565027094e-39
-0.00877221879024 -0.181292521665 0.79 5.69706999111e-39
-0.00730092892985 -0.18106303746 0.789 5.51015219025e-39
-0.00584074314388 -0.18106303746 0.789 8.91889198004e-39
-0.00438055735791 -0.18106303746 0.789 1.13246075524e-38
-0.00292037157194 -0.18106303746 0.789 6.52038328565e-39
-0.00146018578597 -0.18106303746 0.789 1.17866801158e-38
0.0 -0.18106303746 0.789 7.44052069887e-39
0.00146018578597 -0.18106303746 0.789 7.72500530661e-39
0.00292037157194 -0.18106303746 0.789 7.17506852688e-39
0.00438055735791 -0.18106303746 0.789 7.72679616605e-39
0.00584074314388 -0.18106303746 0.789 8.18704844276e-39
0.00730092892985 -0.18106303746 0.789 8.27888113632e-39
0.00876111471582 -0.18106303746 0.789 6.7115918624e-39
0.0102213005018 -0.18106303746 0.789 9.2919554663e-39
0.0116962917203 -0.181292521665 0.79 8.18921905408e-39
0.0131583281854 -0.181292521665 0.79 8.00268100511e-39
0.0146203646504 -0.181292521665 0.79 7.26653408025e-39
0.0160824011154 -0.181292521665 0.79 1.70400415599e-38
0.0175444375805 -0.181292521665 0.79 8.09916600957e-39
0.0190064740455 -0.181292521665 0.79 1.68505733959e-38
0.0204685105106 -0.181292521665 0.79 8.09990169126e-39
0.0219027867896 -0.18106303746 0.789 1.01077241699e-38
0.0233629725755 -0.18106303746 0.789 2.12727560571e-38
0.0248231583615 -0.18106303746 0.789 1.66600430476e-38
0.0262833441475 -0.18106303746 0.789 1.89649744318e-38
0.0277435299334 -0.18106303746 0.789 2.20988243044e-38
-0.032327661989 -0.180741019302 0.794 9.03087814811e-39
-0.0308582228077 -0.180741019302 0.794 1.06867799317e-38
-0.0293147564636 -0.180285752251 0.792 3.58768280108e-39
-0.0277786928358 -0.1798304852 0.79 4.22444543495e-39
-0.0263166563707 -0.1798304852 0.79 5.51123119007e-39
-0.0248231583615 -0.179602851674 0.789 3.12241387586e-39
-0.0233629725755 -0.179602851674 0.789 1.49144651687e-38
-0.0219027867896 -0.179602851674 0.789 3.49405364289e-39
-0.0204426010036 -0.179602851674 0.789 1.40801152475e-38
-0.0189824152176 -0.179602851674 0.789 8.74739687008e-39
-0.0175222294316 -0.179602851674 0.789 2.75506908864e-39
-0.0160620436457 -0.179602851674 0.789 1.21514044749e-38
-0.0146018578597 -0.179602851674 0.789 1.40007695245e-38
-0.0131416720737 -0.179602851674 0.789 2.93874288355e-39
-0.0116814862878 -0.179602851674 0.789 1.436781023e-38
-0.0102213005018 -0.179602851674 0.789 4.22443702716e-39
-0.00876111471582 -0.179602851674 0.789 5.87932286938e-39
-0.00730092892985 -0.179602851674 0.789 6.15550898761e-39
-0.00584074314388 -0.179602851674 0.789 4.31629634539e-39
-0.00438055735791 -0.179602851674 0.789 1.41779328868e-38
-0.00291296885566 -0.179147584623 0.787 3.03060500438e-39
-0.00145648442783 -0.179147584623 0.787 1.51917330894e-38
0.0 -0.179147584623 0.787 5.60199189031e-39
0.00145648442783 -0.179147584623 0.787 8.4589311734e-39
0.00291296885566 -0.179147584623 0.787 8.27854482469e-39
0.00436945328349 -0.179147584623 0.787 8.73735236268e-39
0.00582593771132 -0.179147584623 0.787 8.27889234671e-39
0.00728242213916 -0.179147584623 0.787 7.45057921925e-39
0.00873890656699 -0.179147584623 0.787 8.81879022424e-39
0.0102213005018 -0.179602851674 0.789 2.33130073848e-38
0.0116814862878 -0.179602851674 0.789 1.73212919708e-38
0.0131416720737 -0.179602851674 0.789 6.88768743522e-39
0.0146018578597 -0.179602851674 0.789 7.26763550084e-39
0.0160620436457 -0.179602851674 0.789 1.2703577727e-38
0.0175222294316 -0.179602851674 0.789 1.47390534296e-38
0.0189824152176 -0.179602851674 0.789 8.55005761254e-39
0.0204426010036 -0.179602851674 0.789 1.45524915585e-38
0.0219027867896 -0.179602851674 0.789 3.39791335785e-39
0.0233629725755 -0.179602851674 0.789 1.85004411883e-38
0.0248231583615 -0.179602851674 0.789 1.47268313043e-38
0.026216719701 -0.179147584623 0.787 2.05318937629e-38
0.0276732041288 -0.179147584623 0.787 2.03414068549e-38
0.0292037157194 -0.179602851674 0.789 1.00284274924e-38
-0.032327661989 -0.179271580121 0.794 9.67659788177e-39
-0.0307027657658 -0.178368448735 0.79 9.6773041362e-39
-0.0292407293008 -0.178368448735 0.79 7.8301293161e-39
-0.0277786928358 -0.178368448735 0.79 4.22445664534e-39
-0.0262833441475 -0.178142665888 0.789 4.59180003127e-39
-0.0248231583615 -0.178142665888 0.789 4.59178321569e-39
-0.0233037508453 -0.177691100195 0.787 7.63712567602e-39
-0.0218472664175 -0.177691100195 0.787 1.3635245024e-38
-0.0203907819896 -0.177691100195 0.787 4.59181404426e-39
-0.0189342975618 -0.177691100195 0.787 1.4463109736e-38
-0.017477813134 -0.177691100195 0.787 3.489748854e-39
-0.0160213287061 -0.177691100195 0.787 1.37753244237e-39
-0.0146018578597 -0.178142665888 0.789 1.69502519595e-38
-0.0131416720737 -0.178142665888 0.789 1.37753804756e-39
-0.0116518754226 -0.177691100195 0.787 1.34368688056e-38
-0.0101953909948 -0.177691100195 0.787 4.4085494285e-39
-0.00873890656699 -0.177691100195 0.787 5.4183124902e-39
-0.00728242213916 -0.177691100195 0.787 6.24771722916e-39
-0.00582593771132 -0.177691100195 0.787 4.77547522748e-39
-0.00436945328349 -0.177691100195 0.787 1.23290638968e-38
-0.00290556613938 -0.177239534502 0.785 4.68755636053e-39
-0.00145278306969 -0.177239534502 0.785 1.25116152517e-38
0.0 -0.177239534502 0.785 6.53182208501e-39
0.00145278306969 -0.177239534502 0.785 6.52180840619e-39
0.00290556613938 -0.177239534502 0.785 1.6117238877e-38
0.00435834920908 -0.177239534502 0.785 6.98313407752e-39
0.00582593771132 -0.177691100195 0.787 8.18562612482e-39
0.00728242213916 -0.177691100195 0.787 7.35838358939e-39
0.00873890656699 -0.177691100195 0.787 1.03864424345e-38
0.0101953909948 -0.177691100195 0.787 2.04568248029e-38
0.0116518754226 -0.177691100195 0.787 2.34047742173e-38
0.0131083598505 -0.177691100195 0.787 3.94893474258e-39
0.0145648442783 -0.177691100195 0.787 8.73950055323e-39
0.0160213287061 -0.177691100195 0.787 1.01253090643e-38
0.017477813134 -0.177691100195 0.787 1.52032489601e-38
0.0189824152176 -0.178142665888 0.789 7.63642502678e-39
0.0204426010036 -0.178142665888 0.789 1.49194818172e-38
0.0218472664175 -0.177691100195 0.787 3.95037527741e-39
0.0233037508453 -0.177691100195 0.787 1.66557704885e-38
0.0246973121848 -0.177239534502 0.785 2.02613786996e-38
0.0261500952545 -0.177239534502 0.785 1.93322519567e-38
0.0275325525195 -0.176787968809 0.783 1.50895209781e-38
0.028981634231 -0.176787968809 0.783 1.79533028016e-38
-0.0307027657658 -0.17690641227 0.79 9.86241706463e-39
-0.0292037157194 -0.176682480102 0.789 9.95101416004e-39
-0.0277435299334 -0.176682480102 0.789 2.5714121093e-39
-0.0262833441475 -0.176682480102 0.789 4.77549204306e-39
-0.0247602352731 -0.176234615768 0.787 4.86729390806e-39
-0.0233037508453 -0.176234615768 0.787 3.12240686937e-39
-0.0218472664175 -0.176234615768 0.787 1.50131011663e-38
-0.0203907819896 -0.176234615768 0.787 2.11224163501e-39
-0.0189342975618 -0.176234615768 0.787 1.75023215155e-38
-0.017477813134 -0.176234615768 0.787 3.03057137321e-39
-0.0160213287061 -0.176234615768 0.787 2.47957381055e-39
-0.0145648442783 -0.176234615768 0.787 1.68513132814e-38
-0.0131083598505 -0.176234615768 0.787 3.21424516813e-39
-0.0116222645575 -0.175786751433 0.785 1.19659972738e-38
-0.0101694814878 -0.175786751433 0.785 1.1694817995e-38
-0.00873890656699 -0.176234615768 0.787 4.86729811196e-39
-0.00726391534846 -0.175786751433 0.785 5.8782144423e-39
-0.00581113227877 -0.175786751433 0.785 5.96970381773e-39
-0.00435834920908 -0.175786751433 0.785 7.62920974099e-39
-0.0028981634231 -0.175338887098 0.783 1.06777793917e-38
-0.00144908171155 -0.175338887098 0.783 9.55888600817e-39
0.0 -0.175338887098 0.783 1.06831898051e-38
0.00144908171155 -0.175338887098 0.783 6.43027839309e-39
0.0028981634231 -0.175338887098 0.783 1.32560354427e-38
0.00434724513466 -0.175338887098 0.783 6.8044909441e-39
0.00579632684621 -0.175338887098 0.783 8.18814425816e-39
0.00724540855776 -0.175338887098 0.783 7.91046855966e-39
0.00869449026931 -0.175338887098 0.783 7.35726955711e-39
0.0101694814878 -0.175786751433 0.785 3.58158435016e-39
0.0116222645575 -0.175786751433 0.785 7.71814174673e-39
0.0130750476272 -0.175786751433 0.785 8.08803969976e-39
0.0145278306969 -0.175786751433 0.785 9.19979767149e-39
0.0159806137666 -0.175786751433 0.785 7.63462015436e-39
0.0174333968363 -0.175786751433 0.785 1.30752511252e-38
0.018886179906 -0.175786751433 0.785 9.11224874734e-39
0.0203907819896 -0.176234615768 0.787 1.26008989833e-38
0.0217917460454 -0.175786751433 0.785 1.10457813879e-38
0.0232445291151 -0.175786751433 0.785 6.15297824259e-39
0.0246343890964 -0.175338887098 0.783 1.97986825583e-38
0.0260834708079 -0.175338887098 0.783 1.37969814915e-38
0.0275325525195 -0.175338887098 0.783 1.80408573309e-38
0.028981634231 -0.175338887098 0.783 2.27416769814e-38
0.0304307159426 -0.175338887098 0.783 6.70436256363e-39
-0.0307027657658 -0.175444375805 0.79 9.12449329332e-39
-0.0292037157194 -0.175222294316 0.789 1.02283045015e-38
-0.0277435299334 -0.175222294316 0.789 2.11222061553e-39
-0.026216719701 -0.17477813134 0.787 4.59178882088e-39
-0.0246973121848 -0.174333968363 0.785 5.4183124902e-39
-0.0232445291151 -0.174333968363 0.785 3.12240686937e-39
-0.0218472664175 -0.17477813134 0.787 1.77707444402e-38
-0.0203389629757 -0.174333968363 0.785 2.20405190779e-39
-0.018886179906 -0.174333968363 0.785 7.54203216093e-39
-0.0174333968363 -0.174333968363 0.785 7.3604715241e-39
-0.0159806137666 -0.174333968363 0.785 4.49993931174e-39
-0.0145278306969 -0.174333968363 0.785 1.07667534364e-38
-0.0130750476272 -0.174333968363 0.785 9.84663424003e-39
-0.0115926536924 -0.173889805386 0.783 6.15947185967e-39
-0.0101435719809 -0.173889805386 0.783 1.52972676793e-38
-0.00869449026931 -0.173889805386 0.783 3.39791616044e-39
-0.00724540855776 -0.173889805386 0.783 6.06442318613e-39
-0.00579632684621 -0.173889805386 0.783 6.43246722129e-39
-0.00434724513466 -0.173889805386 0.783 4.31629634539e-39
-0.00289076070683 -0.17344564241 0.781 1.4547019488e-38
-0.00144538035341 -0.17344564241 0.781 3.94896557115e-39
0.0 -0.17344564241 0.781 1.30744327669e-38
0.00144538035341 -0.17344564241 0.781 6.98493754865e-39
0.00289076070683 -0.17344564241 0.781 7.72467039628e-39
0.00433614106024 -0.17344564241 0.781 5.24040503847e-39
0.00579632684621 -0.173889805386 0.783 8.18994632798e-39
0.00722690176707 -0.17344564241 0.781 7.81938415948e-39
0.00867228212048 -0.17344564241 0.781 8.4625829572e-39
0.0101435719809 -0.173889805386 0.783 8.18669531555e-39
0.0115926536924 -0.173889805386 0.783 8.37073765196e-39
0.013041735404 -0.173889805386 0.783 8.55548764409e-39
0.0144908171155 -0.173889805386 0.783 8.64805321675e-39
0.0159398988271 -0.173889805386 0.783 8.09630175551e-39
0.0173889805386 -0.173889805386 0.783 1.33518029823e-38
0.0188380622502 -0.173889805386 0.783 1.61226913293e-38
0.0203389629757 -0.174333968363 0.785 7.62561681173e-39
0.0217362256733 -0.173889805386 0.783 1.84232590702e-38
0.0231853073848 -0.173889805386 0.783 3.30607786169e-39
0.0246343890964 -0.173889805386 0.783 1.94230056504e-38
0.0260168463614 -0.17344564241 0.781 1.70285102749e-38
0.0274622267148 -0.17344564241 0.781 2.20027078415e-38
0.0289076070683 -0.17344564241 0.781 1.90503149096e-38
0.0304307159426 -0.173889805386 0.783 1.33428402774e-38
-0.0306639015054 -0.17376210853 0.789 6.81888368062e-39
-0.0292037157194 -0.17376210853 0.789 9.67481262753e-39
-0.0277435299334 -0.17376210853 0.789 8.10565542276e-39
-0.0261500952545 -0.172881185293 0.785 3.94892633479e-39
-0.0246343890964 -0.172440723675 0.783 5.69596857052e-39
-0.0231853073848 -0.172440723675 0.783 3.39793157473e-39
-0.0217917460454 -0.172881185293 0.785 1.57417371314e-38
-0.0203389629757 -0.172881185293 0.785 1.16047551414e-38
-0.018886179906 -0.172881185293 0.785 3.39791335785e-39
-0.0173889805386 -0.172440723675 0.783 1.49252397526e-38
-0.0159398988271 -0.172440723675 0.783 4.04076183095e-39
-0.0144908171155 -0.172440723675 0.783 1.83670992316e-39
-0.013041735404 -0.172440723675 0.783 1.53794216044e-38
-0.0115926536924 -0.172440723675 0.783 3.12240967197e-39
-0.0101435719809 -0.172440723675 0.783 1.65857630186e-38
-0.00869449026931 -0.172440723675 0.783 3.31076100116e-39
-0.00722690176707 -0.172000262056 0.781 5.51158431729e-39
-0.00578152141365 -0.172000262056 0.781 6.34027159143e-39
-0.00433614106024 -0.172000262056 0.781 4.86731212494e-39
-0.00289076070683 -0.172000262056 0.781 1.26088485495e-38
-0.00144538035341 -0.172000262056 0.781 4.96415165791e-39
0.0 -0.172000262056 0.781 1.26967127658e-38
0.00144538035341 -0.172000262056 0.781 6.89914725406e-39
0.00289076070683 -0.172000262056 0.781 8.46006482386e-39
0.00433614106024 -0.172000262056 0.781 6.4385726787e-39
0.00578152141365 -0.172000262056 0.781 7.54349651782e-39
0.00721764837172 -0.171780031247 0.78 8.18779113095e-39
0.00866117804606 -0.171780031247 0.78 8.37073765196e-39
0.0101176624739 -0.172000262056 0.781 8.0955828894e-39
0.0115630428273 -0.172000262056 0.781 8.46364233884e-39
0.0130084231807 -0.172000262056 0.781 8.55620090501e-39
0.0144538035341 -0.172000262056 0.781 8.55620090501e-39
0.0158788264178 -0.171780031247 0.78 8.46579333198e-39
0.0173223560921 -0.171780031247 0.78 7.08250295422e-39
0.0187899445944 -0.172000262056 0.781 1.77800448581e-38
0.0202353249478 -0.172000262056 0.781 6.71301418035e-39
0.0216807053012 -0.172000262056 0.781 1.77761646627e-38
0.0231260856546 -0.172000262056 0.781 1.03100534513e-38
0.024571466008 -0.172000262056 0.781 1.16811511311e-38
0.0260168463614 -0.172000262056 0.781 1.33392305325e-38
0.0274622267148 -0.172000262056 0.781 1.4069577483e-38
0.0289076070683 -0.172000262056 0.781 1.36143432561e-38
0.0303529874217 -0.172000262056 0.781 1.24183756545e-38
0.0317983677751 -0.172000262056 0.781 1.04822365988e-38
-0.0306639015054 -0.172301922745 0.789 6.0816969923e-39
-0.0292037157194 -0.172301922745 0.789 7.74011690925e-39
-0.0276028783241 -0.171428402224 0.785 1.05045396651e-38
-0.0260834708079 -0.170991641963 0.783 2.47956960665e-39
-0.024571466008 -0.170554881703 0.781 5.23681070791e-39
-0.0231260856546 -0.170554881703 0.781 4.22445104015e-39
-0.0217362256733 -0.170991641963 0.783 6.89596070136e-39
-0.0202871439617 -0.170991641963 0.783 1.40936896257e-38
-0.0188380622502 -0.170991641963 0.783 2.20405190779e-39
-0.017344564241 -0.170554881703 0.781 1.67651516428e-38
-0.0158991838875 -0.170554881703 0.781 2.3877285053e-39
-0.0144538035341 -0.170554881703 0.781 2.29588740395e-39
-0.0130084231807 -0.170554881703 0.781 1.62088739875e-38
-0.0115630428273 -0.170554881703 0.781 8.56519303725e-39
-0.0101176624739 -0.170554881703 0.781 1.16966747155e-38
-0.00867228212048 -0.170554881703 0.781 7.92053969172e-39
-0.00721764837172 -0.170336501573 0.78 5.78564466574e-39
-0.00577411869737 -0.170336501573 0.78 5.60233520843e-39
-0.00433058902303 -0.170336501573 0.78 6.15692429906e-39
-0.00287965663241 -0.169899741312 0.778 7.16823159167e-39
-0.0014398283162 -0.169899741312 0.778 1.16026251677e-38
0.0 -0.169899741312 0.778 6.97955936514e-39
0.00143612695806 -0.169462981052 0.776 1.18842385149e-38
0.00287225391613 -0.169462981052 0.776 6.43534829094e-39
0.00433058902303 -0.170336501573 0.78 7.91118742577e-39
0.00577411869737 -0.170336501573 0.78 7.17255039354e-39
0.00719914158102 -0.169899741312 0.778 8.28104333985e-39
0.00863896989722 -0.169899741312 0.778 8.09629895291e-39
0.0100787982134 -0.169899741312 0.778 8.18704844276e-39
0.0115186265296 -0.169899741312 0.778 8.18632677405e-39
0.0129584548458 -0.169899741312 0.778 8.46435559976e-39
0.014398283162 -0.169899741312 0.778 8.37323896971e-39
0.0158381114782 -0.169899741312 0.778 8.74200607488e-39
0.0172779397944 -0.169899741312 0.778 7.72677514657e-39
0.0187177681107 -0.169899741312 0.778 1.60273315675e-38
0.0202094154408 -0.170336501573 0.78 1.0036683943e-38
0.0216529451152 -0.170336501573 0.78 1.05811878885e-38
0.0230964747895 -0.170336501573 0.78 1.43640477436e-38
0.024571466008 -0.170554881703 0.781 1.05748161844e-38
0.0259835341382 -0.170336501573 0.78 9.38598119196e-39
0.0274270638125 -0.170336501573 0.78 9.65966459113e-39
0.0288705934869 -0.170336501573 0.78 9.93627390149e-39
0.0303141231612 -0.170336501573 0.78 1.00277380536e-38
0.0317983677751 -0.170554881703 0.781 1.01217315494e-38
-0.0275325525195 -0.169542560252 0.783 1.0965872343e-38
-0.0260834708079 -0.169542560252 0.783 1.744874427e-39
-0.024571466008 -0.169109501349 0.781 4.86800857028e-39
-0.0231260856546 -0.169109501349 0.781 5.4183124902e-39
-0.0216807053012 -0.169109501349 0.781 4.49995892992e-39
-0.0202353249478 -0.169109501349 0.781 1.15078931877e-38
-0.0187899445944 -0.169109501349 0.781 2.57143593138e-39
-0.017344564241 -0.169109501349 0.781 1.74020025584e-38
-0.0158991838875 -0.169109501349 0.781 5.05992059886e-39
-0.0144352967434 -0.168892971898 0.78 3.12240686937e-39
-0.0129917670691 -0.168892971898 0.78 1.26138848162e-38
-0.0115482373947 -0.168892971898 0.78 1.16069285553e-38
-0.0100787982134 -0.168459912996 0.778 1.19386145005e-39
-0.00863896989722 -0.168459912996 0.778 1.11407936277e-38
-0.00719914158102 -0.168459912996 0.778 6.0611637659e-39
-0.00575931326482 -0.168459912996 0.778 6.06155052428e-39
-0.00431948494861 -0.168459912996 0.778 6.61433193989e-39
-0.00287965663241 -0.168459912996 0.778 4.49993931174e-39
-0.00143612695806 -0.168026854094 0.776 1.55594968648e-38
0.0 -0.168026854094 0.776 2.75507469383e-39
0.00143242559993 -0.167593795191 0.774 1.39088401414e-38
0.00286485119985 -0.167593795191 0.774 5.976123166e-39
0.00429727679978 -0.167593795191 0.774 8.73809645217e-39
0.0057297023997 -0.167593795191 0.774 6.53004944246e-39
0.00716212799963 -0.167593795191 0.774 7.82079106314e-39
0.00859455359955 -0.167593795191 0.774 8.09449968568e-39
0.0100269791995 -0.167593795191 0.774 8.37144670898e-39
0.0114594047994 -0.167593795191 0.774 8.18634639223e-39
0.0128918303993 -0.167593795191 0.774 8.27854202209e-39
0.0143242559993 -0.167593795191 0.774 8.09522976218e-39
0.0157566815992 -0.167593795191 0.774 8.74131803734e-39
0.0171891071991 -0.167593795191 0.774 8.09665488272e-39
0.0185974739711 -0.16737726574 0.773 1.04908517817e-38
0.020028048892 -0.16737726574 0.773 1.54762681438e-38
0.0214863839989 -0.167593795191 0.774 7.99945661734e-39
0.0229188095988 -0.167593795191 0.774 1.58406716056e-38
0.0244141582871 -0.168026854094 0.776 1.01192358368e-38
0.0258502852452 -0.168026854094 0.776 1.11355331532e-38
0.0273567380079 -0.168459912996 0.778 1.01253244786e-38
0.0287965663241 -0.168459912996 0.778 9.94200661351e-39
0.0302363946403 -0.168459912996 0.778 1.03078884451e-38
0.0317576528356 -0.168892971898 0.78 1.01267566056e-38
0.0332011825099 -0.168892971898 0.78 9.94199119923e-39
0.0346447121842 -0.168892971898 0.78 6.16270885912e-39
-0.0275325525195 -0.16809347854 0.783 1.05989031037e-38
-0.0260168463614 -0.167664120996 0.781 5.98441885291e-39
-0.024571466008 -0.167664120996 0.781 4.13261974789e-39
-0.0231260856546 -0.167664120996 0.781 4.68363692873e-39
-0.0216807053012 -0.167664120996 0.781 3.12240686937e-39
-0.0202094154408 -0.167449442224 0.78 1.32549606468e-38
-0.0187658857665 -0.167449442224 0.78 1.34519327641e-38
-0.0173223560921 -0.167449442224 0.78 7.81766616756e-39
-0.0158788264178 -0.167449442224 0.78 1.14250330082e-38
-0.0144352967434 -0.167449442224 0.78 3.85709083864e-39
-0.0129584548458 -0.16702008468 0.778 2.66322938858e-39
-0.0115186265296 -0.16702008468 0.778 1.4279520019e-38
-0.0100528887065 -0.166590727136 0.776 3.03061761606e-39
-0.00861676174839 -0.166590727136 0.776 1.65721480027e-38
-0.00718063479032 -0.166590727136 0.776 3.30607786169e-39
-0.00574450783226 -0.166590727136 0.776 6.15587752911e-39
-0.00430838087419 -0.166590727136 0.776 6.24771722916e-39
-0.00287225391613 -0.166590727136 0.776 5.14281581082e-39
-0.00143242559993 -0.166161369591 0.774 1.18677480346e-38
0.0 -0.166161369591 0.774 4.59607959678e-39
0.00143242559993 -0.166161369591 0.774 1.1868040906e-38
0.00286114984171 -0.165946690819 0.773 6.99389464843e-39
0.00429172476257 -0.165946690819 0.773 8.36751606679e-39
0.00572229968342 -0.165946690819 0.773 7.1754216541e-39
0.00715287460428 -0.165946690819 0.773 8.00375299843e-39
0.00858344952513 -0.165946690819 0.773 7.54095736501e-39
0.010014024446 -0.165946690819 0.773 8.00016287177e-39
0.0114445993668 -0.165946690819 0.773 7.91014766231e-39
0.0128751742877 -0.165946690819 0.773 8.18599606761e-39
0.0143242559993 -0.166161369591 0.774 8.37144670898e-39
0.0157363241294 -0.165946690819 0.773 9.20157031405e-39
0.0171668990503 -0.165946690819 0.773 8.74202148917e-39
0.0185974739711 -0.165946690819 0.773 7.81938415948e-39
0.020028048892 -0.165946690819 0.773 1.42644392449e-38
0.0214586238128 -0.165946690819 0.773 6.24664803843e-39
0.0228891987337 -0.165946690819 0.773 1.79605335017e-38
0.0243512351987 -0.166161369591 0.774 1.11430567247e-38
0.0257836607987 -0.166161369591 0.774 1.06724040108e-38
0.0272160863986 -0.166161369591 0.774 1.09525684153e-38
0.0287225391613 -0.166590727136 0.776 1.09525684153e-38
0.0301586661194 -0.166590727136 0.776 1.04951831953e-38
0.0315947930774 -0.166590727136 0.776 1.00345609758e-38
0.0330309200355 -0.166590727136 0.776 1.01253244786e-38
0.0344670469936 -0.166590727136 0.776 8.64876928026e-39
-0.0274270638125 -0.166005912549 0.78 1.01382920946e-38
-0.0259835341382 -0.166005912549 0.78 1.00438992287e-38
-0.0245400044638 -0.166005912549 0.78 3.12245451352e-39
-0.0230964747895 -0.166005912549 0.78 4.86768206773e-39
-0.0216529451152 -0.166005912549 0.78 4.59179442608e-39
-0.0201575964269 -0.165580256363 0.778 8.37361171511e-39
-0.0187177681107 -0.165580256363 0.778 1.23444907916e-38
-0.0172779397944 -0.165580256363 0.778 9.20436870708e-39
-0.0158788264178 -0.166005912549 0.78 1.28076465588e-38
-0.014398283162 -0.165580256363 0.778 2.57139389242e-39
-0.0129251426226 -0.165154600177 0.776 2.66322938858e-39
-0.0114890156645 -0.165154600177 0.776 1.32667329552e-38
-0.0100269791995 -0.164728943991 0.774 6.42848473106e-40
-0.00859455359955 -0.164728943991 0.774 1.51903654221e-38
-0.00716212799963 -0.164728943991 0.774 8.65668521529e-39
-0.0057297023997 -0.164728943991 0.774 5.51158711988e-39
-0.00429727679978 -0.164728943991 0.774 5.87929344212e-39
-0.00286485119985 -0.164728943991 0.774 5.6956210485e-39
-0.00143242559993 -0.164728943991 0.774 8.18167306185e-39
0.0 -0.164728943991 0.774 1.20643109728e-38
0.00143057492086 -0.164516115898 0.773 4.13265197775e-39
0.00285374712543 -0.164090459712 0.771 1.25220044785e-38
0.00428062068815 -0.164090459712 0.771 6.61257471162e-39
0.00570749425087 -0.164090459712 0.771 9.01144073711e-39
0.00713436781358 -0.164090459712 0.771 6.52649294695e-39
0.0085612413763 -0.164090459712 0.771 7.16536033112e-39
0.00998811493901 -0.164090459712 0.771 7.44519402925e-39
0.0114149885017 -0.164090459712 0.771 7.72357458088e-39
0.0128418620644 -0.164090459712 0.771 8.00193551432e-39
0.0143057492086 -0.164516115898 0.773 7.91011823505e-39
0.0157363241294 -0.164516115898 0.773 8.46364233884e-39
0.0171668990503 -0.164516115898 0.773 8.83171580127e-39
0.0185974739711 -0.164516115898 0.773 5.88147386253e-39
0.019976229878 -0.164090459712 0.771 1.72189971829e-38
0.0214031034407 -0.164090459712 0.771 1.19714118911e-38
0.0228299770035 -0.164090459712 0.771 1.27000296393e-38
0.0243197736545 -0.164516115898 0.773 1.46461571505e-38
0.0257503485754 -0.164516115898 0.773 1.04858309293e-38
0.0271809234963 -0.164516115898 0.773 1.11373156049e-38
0.0286485119985 -0.164728943991 0.774 1.10447668478e-38
0.0300809375984 -0.164728943991 0.774 1.04941266162e-38
0.0315133631984 -0.164728943991 0.774 9.75834402899e-39
0.0329457887983 -0.164728943991 0.774 1.02175201085e-38
0.0343782143982 -0.164728943991 0.774 9.75654616306e-39
-0.0274270638125 -0.164562382875 0.78 9.67657546099e-39
-0.0259169096917 -0.164140428047 0.778 1.12420864872e-38
-0.0244770813755 -0.164140428047 0.778 1.19386145005e-39
-0.0230372530593 -0.164140428047 0.778 5.05096069648e-39
-0.021541904371 -0.163718473219 0.776 5.60196526564e-39
-0.0201057774129 -0.163718473219 0.776 3.03057137321e-39
-0.0186696504548 -0.163718473219 0.776 1.68549468484e-38
-0.0172335234968 -0.163718473219 0.776 9.1835496158e-40
-0.0157973965387 -0.163718473219 0.776 1.61144671086e-38
-0.0143612695806 -0.163718473219 0.776 3.30687520051e-39
-0.0129251426226 -0.163718473219 0.776 2.93873587706e-39
-0.0114890156645 -0.163718473219 0.776 1.66744217711e-38
-0.0100269791995 -0.163296518391 0.774 1.02275814315e-38
-0.00859455359955 -0.163296518391 0.774 2.66322938858e-39
-0.00716212799963 -0.163296518391 0.774 4.22443282327e-39
-0.00572229968342 -0.163085540978 0.773 5.69488116291e-39
-0.00429172476257 -0.163085540978 0.773 6.42991966069e-39
-0.00286114984171 -0.163085540978 0.773 5.87964376673e-39
-0.00143057492086 -0.163085540978 0.773 4.68362852094e-39
0.0 -0.163085540978 0.773 1.35335962347e-38
0.00142687356272 -0.16266358615 0.771 3.48978388647e-39
0.00284634440915 -0.162241631322 0.769 1.50062530207e-38
0.00426951661373 -0.162241631322 0.769 4.5917748079e-39
0.00569268881831 -0.162241631322 0.769 8.54579906651e-39
0.00711586102289 -0.162241631322 0.769 5.78566008003e-39
0.00853903322746 -0.162241631322 0.769 6.42991966069e-39
0.00996220543204 -0.162241631322 0.769 7.07533250998e-39
0.0113853776366 -0.162241631322 0.769 7.2640201508e-39
0.0128085498412 -0.162241631322 0.769 7.5413273078e-39
0.0142687356272 -0.16266358615 0.771 8.0948500103e-39
0.0156956091899 -0.16266358615 0.771 8.37144670898e-39
0.0171224827526 -0.16266358615 0.771 8.55619109592e-39
0.0185493563153 -0.16266358615 0.771 7.63246916122e-39
0.019976229878 -0.16266358615 0.771 1.20560447131e-38
0.0214031034407 -0.16266358615 0.771 1.68581137829e-38
0.0228299770035 -0.16266358615 0.771 9.01284483817e-39
0.0242568505662 -0.16266358615 0.771 1.78733124813e-38
0.0257503485754 -0.163085540978 0.773 8.92391143114e-39
0.0271809234963 -0.163085540978 0.773 1.215144231e-38
0.0286485119985 -0.163296518391 0.774 1.07696092826e-38
0.0300809375984 -0.163296518391 0.774 1.07692561554e-38
0.0315133631984 -0.163296518391 0.774 1.05841446283e-38
0.0329457887983 -0.163296518391 0.774 1.05873788252e-38
0.0343337981005 -0.163085540978 0.773 1.00349239121e-38
0.0357643730214 -0.163085540978 0.773 6.80484407131e-39
0.0372430655981 -0.163296518391 0.774 1.46440285781e-38
-0.0289076070683 -0.163327979936 0.781 5.70896421248e-39
-0.0274270638125 -0.163118853201 0.78 8.8479344297e-39
-0.0259169096917 -0.162700599731 0.778 1.03194491575e-38
-0.0244770813755 -0.162700599731 0.778 4.04687990005e-39
-0.022978031329 -0.162282346261 0.776 3.39791335785e-39
-0.021541904371 -0.162282346261 0.776 5.05097751206e-39
-0.020053958399 -0.161864092792 0.774 2.57140510281e-39
-0.018621532799 -0.161864092792 0.774 1.41750798431e-38
-0.0171891071991 -0.161864092792 0.774 7.08859579995e-39
-0.0157566815992 -0.161864092792 0.774 1.40796037735e-38
-0.0143242559993 -0.161864092792 0.774 1.03140905921e-38
-0.0128918303993 -0.161864092792 0.774 3.30607926299e-39
-0.0114594047994 -0.161864092792 0.774 5.78564186315e-39
-0.010014024446 -0.161654966057 0.773 3.58158435016e-39
-0.00858344952513 -0.161654966057 0.773 5.14354588732e-39
-0.00715287460428 -0.161654966057 0.773 5.69383579426e-39
-0.00570749425087 -0.161236712587 0.771 5.69564206798e-39
-0.00428062068815 -0.161236712587 0.771 5.97041007216e-39
-0.00284634440915 -0.160818459117 0.769 5.97041007216e-39
-0.00142317220458 -0.160818459117 0.769 4.86730371715e-39
0.0 -0.160818459117 0.769 1.25127418957e-38
0.00142317220458 -0.160818459117 0.769 4.77977300987e-39
0.00283894169288 -0.160400205647 0.767 1.04829554649e-38
0.00425841253931 -0.160400205647 0.767 6.7126007973e-39
0.00567788338575 -0.160400205647 0.767 7.25757557916e-39
0.00711586102289 -0.160818459117 0.769 6.43211689668e-39
0.00853903322746 -0.160818459117 0.769 6.43353641202e-39
0.00996220543204 -0.160818459117 0.769 7.07533250998e-39
0.0113853776366 -0.160818459117 0.769 7.26294815748e-39
0.0128085498412 -0.160818459117 0.769 7.5413273078e-39
0.0142317220458 -0.160818459117 0.769 8.00123486509e-39
0.0156548942503 -0.160818459117 0.769 8.18634639223e-39
0.0170780664549 -0.160818459117 0.769 8.18704844276e-39
0.0185012386595 -0.160818459117 0.769 8.55548764409e-39
0.0199244108641 -0.160818459117 0.769 1.13173684446e-38
0.0213475830687 -0.160818459117 0.769 1.19656889882e-38
0.0227707552732 -0.160818459117 0.769 1.02107097979e-38
0.0242568505662 -0.161236712587 0.771 9.94058709817e-39
0.0256837241289 -0.161236712587 0.771 1.132207961e-38
0.0271105976916 -0.161236712587 0.771 1.04951803927e-38
0.0286114984171 -0.161654966057 0.773 1.04951803927e-38
0.030042073338 -0.161654966057 0.773 1.14156821435e-38
0.0314726482588 -0.161654966057 0.773 1.12309307501e-38
0.0329032231797 -0.161654966057 0.773 1.04958838445e-38
0.0343337981005 -0.161654966057 0.773 1.07724763393e-38
0.0357643730214 -0.161654966057 0.773 9.29628687985e-39
0.0371949479422 -0.161654966057 0.773 1.09572823834e-38
-0.0289076070683 -0.161882599582 0.781 4.60334252672e-39
-0.0273567380079 -0.161260771415 0.778 8.11073512969e-39
-0.0259169096917 -0.161260771415 0.778 9.6758397793e-39
-0.0244141582871 -0.160846219303 0.776 1.16998374461e-38
-0.022978031329 -0.160846219303 0.776 3.03061060957e-39
-0.0214863839989 -0.160431667192 0.774 4.40812623636e-39
-0.020053958399 -0.160431667192 0.774 3.39791335785e-39
-0.018621532799 -0.160431667192 0.774 1.16858328693e-38
-0.0171891071991 -0.160431667192 0.774 1.35437346291e-38
-0.0157566815992 -0.160431667192 0.774 2.75506488474e-39
-0.0143057492086 -0.160224391136 0.773 3.94893053869e-39
-0.0128751742877 -0.160224391136 0.773 5.14281440952e-39
-0.0114445993668 -0.160224391136 0.773 5.23536316659e-39
-0.00998811493901 -0.159809839024 0.771 5.6019988968e-39
-0.00853903322746 -0.159395286913 0.769 5.4183124902e-39
-0.00711586102289 -0.159395286913 0.769 5.97039746047e-39
-0.00569268881831 -0.159395286913 0.769 5.97111632659e-39
-0.00426951661373 -0.159395286913 0.769 5.87964376673e-39
-0.00283894169288 -0.158980734801 0.767 6.34025057195e-39
-0.00141947084644 -0.158980734801 0.767 6.33846812031e-39
0.0 -0.158980734801 0.767 5.87966338491e-39
0.00141947084644 -0.158980734801 0.767 1.06806310341e-38
0.00283894169288 -0.158980734801 0.767 7.81219409706e-39
0.00425841253931 -0.158980734801 0.767 1.13281682518e-38
0.00567788338575 -0.158980734801 0.767 4.7772843038e-39
0.00709735423219 -0.158980734801 0.767 6.33956533701e-39
0.00851682507863 -0.158980734801 0.767 6.89129017357e-39
0.00993629592506 -0.158980734801 0.767 6.61722842382e-39
0.0113557667715 -0.158980734801 0.767 6.80126935893e-39
0.0127752376179 -0.158980734801 0.767 7.17326925965e-39
0.0142317220458 -0.159395286913 0.769 7.4477079587e-39
0.0156548942503 -0.159395286913 0.769 8.18597644943e-39
0.0170780664549 -0.159395286913 0.769 8.18704844276e-39
0.0185012386595 -0.159395286913 0.769 8.74022222194e-39
0.0199244108641 -0.159395286913 0.769 7.91296287093e-39
0.0213475830687 -0.159395286913 0.769 8.92354148834e-39
0.0227707552732 -0.159395286913 0.769 9.57108150871e-39
0.0241939274778 -0.159395286913 0.769 9.20373812277e-39
0.0256170996824 -0.159395286913 0.769 1.03115150056e-38
0.027040271887 -0.159395286913 0.769 1.05873760226e-38
0.0284634440915 -0.159395286913 0.769 1.04955559407e-38
0.029964344817 -0.159809839024 0.771 1.0679574455e-38
0.0313912183798 -0.159809839024 0.771 1.05873788252e-38
0.0328180919425 -0.159809839024 0.771 1.09525684153e-38
0.0342449655052 -0.159809839024 0.771 1.08603727855e-38
0.0355793051144 -0.159395286913 0.769 1.0126406281e-38
0.037002477319 -0.159395286913 0.769 6.3460519476e-39
0.0385255861933 -0.159809839024 0.771 1.59376414593e-38
-0.0289076070683 -0.160437219229 0.781 5.25122446391e-39
-0.0273567380079 -0.159820943099 0.778 7.55643470655e-39
-0.0257836607987 -0.158999241592 0.774 1.18892887946e-38
-0.0243512351987 -0.158999241592 0.774 1.07807776314e-38
-0.0229188095988 -0.158999241592 0.774 1.65303893084e-39
-0.0214586238128 -0.158793816215 0.773 4.86729951325e-39
-0.020028048892 -0.158793816215 0.773 4.40811502597e-39
-0.0185974739711 -0.158793816215 0.773 6.43101687738e-39
-0.0171668990503 -0.158793816215 0.773 3.94892633479e-39
-0.0157363241294 -0.158793816215 0.773 4.77546541839e-39
-0.0143057492086 -0.158793816215 0.773 5.69383299166e-39
-0.0128085498412 -0.157972114708 0.769 5.32755879646e-39
-0.0113557667715 -0.157561263955 0.767 5.23536316659e-39
-0.00993629592506 -0.157561263955 0.767 5.8782144423e-39
-0.00850572100421 -0.157355838578 0.766 5.69418331628e-39
-0.00708810083684 -0.157355838578 0.766 5.8782144423e-39
-0.00567048066947 -0.157355838578 0.766 5.97041007216e-39
-0.0042528605021 -0.157355838578 0.766 5.69490218239e-39
-0.00283524033474 -0.157355838578 0.766 6.15480273319e-39
-0.00141762016737 -0.157355838578 0.766 5.69490218239e-39
0.0 -0.157355838578 0.766 4.31626831943e-39
0.00141762016737 -0.157355838578 0.766 1.50080270646e-38
0.00283524033474 -0.157355838578 0.766 3.85709083864e-39
0.0042528605021 -0.157355838578 0.766 4.1326071362e-39
0.00567048066947 -0.157355838578 0.766 3.94893474258e-39
0.00708810083684 -0.157355838578 0.766 4.49993931174e-39
0.00851682507863 -0.157561263955 0.767 6.52140062833e-39
0.00993629592506 -0.157561263955 0.767 6.43211689668e-39
0.0113557667715 -0.157561263955 0.767 6.34028140052e-39
0.0127752376179 -0.157561263955 0.767 7.90868610801e-39
0.0141947084644 -0.157561263955 0.767 7.63352854286e-39
0.0156141793108 -0.157561263955 0.767 7.63352293766e-39
0.0170780664549 -0.157972114708 0.769 7.72822549048e-39
0.0185012386595 -0.157972114708 0.769 8.18849458277e-39
0.0198725918501 -0.157561263955 0.767 9.20227937107e-39
0.0212920626966 -0.157561263955 0.767 9.56675009515e-39
0.0227707552732 -0.157972114708 0.769 9.10865581807e-39
0.0241939274778 -0.157972114708 0.769 9.01862799694e-39
0.0256170996824 -0.157972114708 0.769 9.93879203483e-39
0.027040271887 -0.157972114708 0.769 1.04944615266e-38
0.0284634440915 -0.157972114708 0.769 1.04955307173e-38
0.0298866162961 -0.157972114708 0.769 1.04951803927e-38
0.0313097885007 -0.157972114708 0.769 1.16912054476e-38
0.0327329607053 -0.157972114708 0.769 1.10458360385e-38
0.0341561329098 -0.157972114708 0.769 1.09525684153e-38
0.0354867711609 -0.157561263955 0.767 1.11369596751e-38
0.0369062420074 -0.157561263955 0.767 7.63572157496e-39
0.0384256495236 -0.157972114708 0.769 1.35369971861e-38
-0.0273567380079 -0.158381114782 0.778 7.92345439253e-39
-0.0257836607987 -0.157566815992 0.774 1.15190433195e-38
-0.0243197736545 -0.157363241294 0.773 9.85917025609e-39
-0.0228891987337 -0.157363241294 0.773 4.41818755933e-39
-0.0214586238128 -0.157363241294 0.773 4.22445244145e-39
-0.020028048892 -0.157363241294 0.773 5.51015078896e-39
-0.0185974739711 -0.157363241294 0.773 4.86729390806e-39
-0.0171224827526 -0.156956091899 0.771 4.95913500941e-39
-0.0156956091899 -0.156956091899 0.771 5.4183096876e-39
-0.0142317220458 -0.156548942503 0.769 5.4183124902e-39
-0.0128085498412 -0.156548942503 0.769 5.05095789388e-39
-0.0113557667715 -0.156141793108 0.767 5.05095789388e-39
-0.00993629592506 -0.156141793108 0.767 5.41829427332e-39
-0.00850572100421 -0.15593821841 0.766 5.69418331628e-39
-0.00708810083684 -0.15593821841 0.766 5.69418331628e-39
-0.00567048066947 -0.15593821841 0.766 5.69383579426e-39
-0.00424175642769 -0.155531069015 0.764 5.41832370059e-39
-0.00282783761846 -0.155531069015 0.764 4.68361030406e-39
-0.00141391880923 -0.155531069015 0.764 4.49994771953e-39
0.0 -0.155531069015 0.764 3.12240686937e-39
0.00141391880923 -0.155531069015 0.764 3.03057137321e-39
0.00282043490218 -0.15512391962 0.762 3.03057137321e-39
0.00423065235327 -0.15512391962 0.762 5.69383018906e-39
0.00565567523691 -0.155531069015 0.764 1.08582442131e-38
0.00706959404614 -0.155531069015 0.764 1.77807511126e-38
0.00850572100421 -0.15593821841 0.766 1.92854541932e-39
0.00992334117158 -0.15593821841 0.766 5.51447379472e-39
0.0113557667715 -0.156141793108 0.767 6.24736690455e-39
0.0127752376179 -0.156141793108 0.767 7.53810852523e-39
0.0141762016737 -0.15593821841 0.766 7.26728237363e-39
0.015593821841 -0.15593821841 0.766 7.81791980259e-39
0.0170114420084 -0.15593821841 0.766 7.54240630762e-39
0.0184290621758 -0.15593821841 0.766 8.37073765196e-39
0.0198466823432 -0.15593821841 0.766 8.46329201423e-39
0.0212643025105 -0.15593821841 0.766 8.83349825292e-39
0.0226819226779 -0.15593821841 0.766 9.10830549346e-39
0.0240995428453 -0.15593821841 0.766 9.48030819678e-39
0.0255171630126 -0.15593821841 0.766 9.57323390315e-39
0.02693478318 -0.15593821841 0.766 1.03111254446e-38
0.0283524033474 -0.15593821841 0.766 1.12309181384e-38
0.0298088877752 -0.156141793108 0.767 1.1138381993e-38
0.0313097885007 -0.156548942503 0.769 1.07714225629e-38
0.0326478294681 -0.156141793108 0.767 1.11376785412e-38
0.0340228840168 -0.15593821841 0.766 1.1138034471e-38
0.0354405041842 -0.15593821841 0.766 1.04951831953e-38
0.0368581243516 -0.15593821841 0.766 1.0679574455e-38
0.0384256495236 -0.156548942503 0.769 7.91768945065e-39
-0.0257503485754 -0.155932666373 0.773 1.12421061053e-38
-0.0242568505662 -0.155529218336 0.771 1.02290135585e-38
-0.0228299770035 -0.155529218336 0.771 9.39784318346e-39
-0.0214031034407 -0.155529218336 0.771 3.58160957353e-39
-0.019976229878 -0.155529218336 0.771 5.14281440952e-39
-0.0185012386595 -0.155125770299 0.769 5.05096630167e-39
-0.0170780664549 -0.155125770299 0.769 5.14280319913e-39
-0.0156548942503 -0.155125770299 0.769 5.23463589269e-39
-0.0142317220458 -0.155125770299 0.769 5.32647559275e-39
-0.0128085498412 -0.155125770299 0.769 5.32647279015e-39
-0.0113557667715 -0.154722322262 0.767 6.33666184659e-39
-0.00992334117158 -0.154520598243 0.766 5.32648680313e-39
-0.00850572100421 -0.154520598243 0.766 4.86731773013e-39
-0.00708810083684 -0.154520598243 0.766 4.13259732711e-39
-0.00565567523691 -0.154117150206 0.764 1.83670992316e-39
-0.00424175642769 -0.154117150206 0.764 2.57139389242e-39
-0.00282783761846 -0.154117150206 0.764 3.58158435016e-39
-0.00141021745109 -0.153713702169 0.762 9.18680483213e-39
0.0 -0.153713702169 0.762 1.52807842055e-38
0.00141021745109 -0.153713702169 0.762 1.94434519963e-38
0.00282043490218 -0.153713702169 0.762 2.11034189468e-38
0.00423065235327 -0.153713702169 0.762 2.19328208831e-38
0.00564086980436 -0.153713702169 0.762 1.80609673652e-38
0.00705108725545 -0.153713702169 0.762 1.57538919943e-38
0.00848351285537 -0.154117150206 0.764 7.45995670857e-39
0.0098974316646 -0.154117150206 0.764 2.11221641163e-39
0.0113409613389 -0.154520598243 0.766 5.78674748764e-39
0.0127585815063 -0.154520598243 0.766 7.26074391499e-39
0.0141762016737 -0.154520598243 0.766 7.63280407155e-39
0.0155531069015 -0.154117150206 0.764 7.63352854286e-39
0.0169670257107 -0.154117150206 0.764 7.90867069373e-39
0.01838094452 -0.154117150206 0.764 8.83134585848e-39
0.0197948633292 -0.154117150206 0.764 8.37286342173e-39
0.0212087821384 -0.154117150206 0.764 8.74095229844e-39
0.0226227009477 -0.154117150206 0.764 8.64876647766e-39
0.0240366197569 -0.154117150206 0.764 9.01858315538e-39
0.0254505385661 -0.154117150206 0.764 9.38989501857e-39
0.0268644573753 -0.154117150206 0.764 1.00334609565e-38
0.0282783761846 -0.154117150206 0.764 1.01271237458e-38
0.0297700235147 -0.154520598243 0.766 1.04033350874e-38
