# .PCD v0.7 - Point Cloud Data file format
VERSION 0.7
FIELDS x y z rgb
SIZE 4 4 4 4
TYPE F F F F
COUNT 1 1 1 1
WIDTH 866
HEIGHT 1
VIEWPOINT 0 0 0 1 0 0 0
POINTS 866
DATA ascii
0.0404669485374 -0.1291829511 0.841 9.1939528556e-39
0.042023369635 -0.1291829511 0.841 9.47053554129e-39
0.0433725146768 -0.128568525649 0.837 8.82589340615e-39
0.0449215330581 -0.128568525649 0.837 8.36276986889e-39
0.0465815921836 -0.128875738375 0.839 1.58323282745e-38
0.0481343119231 -0.128875738375 0.839 6.98810728577e-39
0.0496870316625 -0.128875738375 0.839 5.51372830394e-39
0.0514840410392 -0.129490163826 0.843 1.87051975186e-38
0.0530441634949 -0.129490163826 0.843 4.05119730062e-39
0.0547338334855 -0.129797376551 0.845 1.35519938822e-38
0.0565641550854 -0.130411802003 0.849 8.01594289377e-39
0.0582723318667 -0.130719014728 0.851 1.46529492441e-38
0.060058237169 -0.131179833816 0.854 1.63052328751e-38
0.0617830700619 -0.131487046542 0.856 1.6489991275e-38
0.0636633599967 -0.132101471993 0.86 1.49244634333e-38
0.065558455364 -0.132715897444 0.864 1.08682648984e-38
0.0671574420802 -0.132715897444 0.864 1.12373571048e-38
0.0689951663964 -0.133176716533 0.867 1.63985425372e-38
0.0707625649079 -0.133483929258 0.869 1.52961508444e-38
0.072703927252 -0.134098354709 0.873 9.2094638283e-39
0.0743195700798 -0.134098354709 0.873 1.40035595098e-38
0.0761091767402 -0.134405567435 0.875 1.55723691925e-38
0.0779950187122 -0.134866386523 0.878 1.7046079755e-38
0.0798012814842 -0.135173599249 0.88 1.3262440778e-38
0.0814298790655 -0.135173599249 0.88 5.6938007618e-39
0.0830584766468 -0.135173599249 0.88 2.01637348213e-38
0.0846870742281 -0.135173599249 0.88 1.92330792618e-38
-0.0669797768895 -0.140829274486 0.928 1.95129185651e-38
-0.0650513692989 -0.140374007435 0.925 1.70308588511e-38
-0.0633394911595 -0.140374007435 0.925 5.51012976948e-39
-0.06162761302 -0.140374007435 0.925 3.21424236553e-39
-0.0597861873457 -0.140070496067 0.923 4.5917748079e-40
-0.0580780105644 -0.140070496067 0.923 0.0
-0.0561866165552 -0.139615229016 0.92 0.0
-0.0543655483507 -0.139311717649 0.918 0.0
-0.0526666249647 -0.139311717649 0.918 0.0
-0.0508011404625 -0.138856450597 0.915 0.0
-0.0490004297277 -0.13855293923 0.913 0.0
-0.0473107597371 -0.13855293923 0.913 0.0
-0.0454711847418 -0.138097672179 0.91 9.1835496158e-41
-0.0437870667884 -0.138097672179 0.91 3.67341984632e-40
-0.0420104148815 -0.137794160811 0.908 5.51012976948e-40
-0.0403299982863 -0.137794160811 0.908 3.67341984632e-40
-0.038436753598 -0.137035382393 0.903 0.0
-0.0367655903981 -0.137035382393 0.903 0.0
-0.0350166986772 -0.136731871025 0.901 0.0
-0.0333492368355 -0.136731871025 0.901 0.0
-0.0315762862867 -0.136276603974 0.898 0.0
-0.0298477520357 -0.135973092607 0.896 3.76740773692e-39
-0.0281895435892 -0.135973092607 0.896 8.2788979519e-39
-0.0265313351428 -0.135973092607 0.896 1.05912267907e-38
-0.0248176063243 -0.135669581239 0.894 1.06798224848e-38
-0.023163099236 -0.135669581239 0.894 1.05826060026e-38
-0.021436415664 -0.135214314188 0.891 1.09452844659e-38
-0.0197430443153 -0.134910802821 0.889 1.18722490053e-38
-0.0180977906223 -0.134910802821 0.889 1.0582964735e-38
-0.0164525369294 -0.134910802821 0.889 9.19467032041e-39
-0.0147739710132 -0.134607291453 0.887 1.10382003632e-38
-0.0131028078133 -0.134303780086 0.885 7.16316870032e-39
-0.0114260925761 -0.133848513035 0.882 1.13151431826e-38
-0.00977158548786 -0.133545001667 0.88 1.04882593796e-38
-0.00814298790655 -0.133545001667 0.88 1.27031110946e-38
-0.00651439032524 -0.133545001667 0.88 1.17797156625e-38
-0.00487468866951 -0.1332414903 0.878 1.39945561671e-38
-0.00324979244634 -0.1332414903 0.878 7.6327620326e-39
-0.00161934418596 -0.132786223249 0.875 2.29588740395e-39
0.0 -0.132786223249 0.875 2.57139389242e-39
0.00161564282782 -0.132482711881 0.873 3.30609467727e-39
0.00323128565565 -0.132482711881 0.873 1.46936793853e-39
0.00483582440905 -0.132179200514 0.871 4.1344302255e-39
0.00643296044618 -0.131875689147 0.869 4.59395943221e-39
0.00804120055772 -0.131875689147 0.869 2.11221781293e-39
0.00962723252043 -0.131572177779 0.867 7.82216013174e-39
0.0111929070134 -0.131116910728 0.864 8.3685095874e-39
0.0127622828645 -0.130813399361 0.862 8.09085070448e-39
0.0143575682225 -0.130813399361 0.862 7.9039511205e-39
0.0159158399992 -0.130509887993 0.86 8.27165183754e-39
0.0174667090596 -0.130206376626 0.858 8.54823452324e-39
0.0190545917013 -0.130206376626 0.858 5.87747175411e-39
0.0205943566873 -0.129902865258 0.856 1.46385158699e-38
0.0221785379709 -0.129902865258 0.856 5.2396455347e-39
0.0237071988825 -0.129599353891 0.854 0.0
0.025287678808 -0.129599353891 0.854 1.28641441103e-39
0.0268681587335 -0.129599353891 0.854 1.744874427e-39
0.0283487019892 -0.12914408684 0.851 7.34683969264e-40
0.0299236298775 -0.12914408684 0.851 0.0
0.0314985577658 -0.12914408684 0.851 1.45460105531e-38
0.0329957571332 -0.128840575472 0.849 1.31670263655e-38
0.0345669836633 -0.128840575472 0.849 3.489748854e-39
0.0360530789563 -0.128537064105 0.847 1.16036186884e-38
0.0375317715329 -0.128233552738 0.845 8.0815236619e-39
0.0390955953468 -0.128233552738 0.845 1.26102372363e-38
0.040563183849 -0.12793004137 0.843 1.14998847669e-38
0.042023369635 -0.127626530003 0.841 1.05757900869e-38
0.0434761527047 -0.127323018635 0.839 1.00222659831e-38
0.0450288724442 -0.127323018635 0.839 7.90251619088e-39
0.0465815921836 -0.127323018635 0.839 1.49990195181e-38
0.0482490540254 -0.127626530003 0.841 5.05095228869e-39
0.049805475123 -0.127626530003 0.841 9.47741871935e-39
0.0514840410392 -0.12793004137 0.843 1.63073978812e-38
0.0530441634949 -0.12793004137 0.843 1.35376193626e-38
0.0547338334855 -0.128233552738 0.845 1.25208680255e-38
0.0566974039784 -0.12914408684 0.851 1.46445947027e-38
0.0584777572435 -0.129599353891 0.854 1.49277284587e-38
0.060058237169 -0.129599353891 0.854 1.5385476615e-38
0.0619274230293 -0.130206376626 0.858 1.26199608464e-38
0.0636633599967 -0.130509887993 0.86 9.67042516203e-39
0.065558455364 -0.131116910728 0.864 1.51092652734e-38
0.0671574420802 -0.131116910728 0.864 1.68616212329e-38
0.0689951663964 -0.131572177779 0.867 1.27121564762e-38
0.0709254246661 -0.132179200514 0.871 1.03182370343e-38
0.0728704883683 -0.132786223249 0.875 9.85162566516e-39
0.0744898325543 -0.132786223249 0.875 1.65803105662e-38
0.076370122489 -0.1332414903 0.878 1.63996089254e-38
0.0781726839029 -0.133545001667 0.88 4.60146058288e-39
0.0798012814842 -0.133545001667 0.88 1.0129570413e-38
0.0816149469725 -0.133848513035 0.882 5.32645877716e-39
0.0830584766468 -0.133545001667 0.88 2.04410573926e-38
0.0846870742281 -0.133545001667 0.88 1.93249147579e-38
-0.067124129857 -0.139411654318 0.93 1.86799138904e-38
-0.0652623467129 -0.139111844309 0.928 1.70294099085e-38
-0.0635449165362 -0.139111844309 0.928 3.39791335785e-39
-0.06162761302 -0.138662129295 0.925 8.26893612112e-40
-0.0599157348806 -0.138662129295 0.925 1.56263836431e-39
-0.0580780105644 -0.138362319286 0.923 1.37789117478e-39
-0.0563698337831 -0.138362319286 0.923 4.5917748079e-40
-0.0544839918111 -0.137912604272 0.92 7.36118898891e-40
-0.052781367067 -0.137912604272 0.92 4.5917748079e-40
-0.0508011404625 -0.137163079249 0.915 5.51730441762e-40
-0.0491077691137 -0.137163079249 0.915 7.36118898891e-40
-0.0473107597371 -0.136863269239 0.913 8.28671859863e-40
-0.0456210897465 -0.136863269239 0.913 7.36118898891e-40
-0.0439314197559 -0.136863269239 0.913 7.36118898891e-40
-0.042102948835 -0.136413554225 0.91 4.59536213197e-40
-0.0403299982863 -0.136113744216 0.908 7.36118898891e-40
-0.0385644504538 -0.135813934207 0.906 7.36118898891e-40
-0.0367655903981 -0.135364219193 0.903 8.28313127456e-40
-0.0350944271982 -0.135364219193 0.903 1.01234285218e-39
-0.0333492368355 -0.135064409184 0.901 8.28671859863e-40
-0.0316817749937 -0.135064409184 0.901 3.68776914259e-40
-0.0299143764822 -0.13461469417 0.898 9.1835496158e-41
-0.0281895435892 -0.13431488416 0.896 1.56156777229e-39
-0.0265313351428 -0.13431488416 0.896 0.0
-0.0248731266964 -0.13431488416 0.896 5.51012976948e-40
-0.02321491825 -0.13431488416 0.896 7.91222578794e-39
-0.0215085921477 -0.134015074151 0.894 9.4812975135e-39
-0.0197874606129 -0.133565359137 0.891 1.07702230514e-38
-0.0180977906223 -0.133265549128 0.889 1.14112778624e-38
-0.0164525369294 -0.133265549128 0.889 9.93401781097e-39
-0.0147739710132 -0.132965739119 0.887 9.56595836152e-39
-0.0131324186784 -0.132965739119 0.887 9.65743932917e-39
-0.0114649568366 -0.132665929109 0.885 1.03031534576e-38
-0.0097937936367 -0.132216214095 0.882 1.15938754601e-38
-0.00814298790655 -0.131916404086 0.88 1.42704143815e-38
-0.00651439032524 -0.131916404086 0.88 1.17776025044e-38
-0.00487468866951 -0.131616594077 0.878 1.39934827725e-38
-0.00324979244634 -0.131616594077 0.878 1.28871548323e-38
-0.00162489622317 -0.131616594077 0.878 9.66354478658e-39
0.0 -0.131166879063 0.875 1.07742363702e-38
0.00161934418596 -0.131166879063 0.875 4.59392720234e-39
0.00323128565565 -0.130867069054 0.873 2.29588740395e-39
0.00483582440905 -0.130567259044 0.871 3.7696119794e-39
0.00643296044618 -0.130267449035 0.869 4.4106471723e-39
0.00804120055772 -0.130267449035 0.869 4.04295346175e-39
0.00964944066926 -0.130267449035 0.869 2.3877313079e-39
0.0112317712738 -0.129967639026 0.867 2.11221641163e-39
0.0127918937296 -0.129517924012 0.864 3.21424236553e-39
0.0143575682225 -0.129218114003 0.862 8.64366014606e-39
0.0159158399992 -0.128918303993 0.86 8.08833957763e-39
0.0175074239991 -0.128918303993 0.86 8.08726338041e-39
0.0190545917013 -0.128618493984 0.858 1.02070131726e-38
0.0206424743431 -0.128618493984 0.858 8.17337877624e-39
0.0221785379709 -0.128318683975 0.856 3.67485477595e-39
0.0237627192546 -0.128318683975 0.856 9.1835496158e-41
0.0253469005382 -0.128318683975 0.856 1.744874427e-39
0.0268681587335 -0.128018873965 0.854 1.56120343469e-39
0.028448638659 -0.128018873965 0.854 1.37789117478e-39
0.0300291185845 -0.128018873965 0.854 0.0
0.0314985577658 -0.127569158951 0.851 1.50069830972e-38
0.0330734856541 -0.127569158951 0.851 1.29847832963e-38
0.0345669836633 -0.127269348942 0.849 1.83670992316e-39
0.0361382101935 -0.127269348942 0.849 1.50030874875e-38
0.0376206041283 -0.126969538933 0.847 7.53051068496e-39
0.0391881293003 -0.126969538933 0.847 1.07447586557e-38
0.0406594191607 -0.126669728924 0.845 1.14830257451e-38
0.0421233063048 -0.126369918914 0.843 1.18607695682e-38
0.0435797907326 -0.126070108905 0.841 1.3067930742e-38
0.0451362118302 -0.126070108905 0.841 9.56703455874e-39
0.046803673672 -0.126369918914 0.843 1.54567732796e-38
0.0483637961277 -0.126369918914 0.843 4.40810381558e-39
0.0499239185834 -0.126369918914 0.843 1.33496351736e-38
0.0514840410392 -0.126369918914 0.843 1.5294317946e-38
0.0530441634949 -0.126369918914 0.843 1.75012677391e-38
0.0549929285553 -0.127269348942 0.849 1.79608053536e-38
0.0566974039784 -0.127569158951 0.851 1.44598881508e-38
0.0584777572435 -0.128018873965 0.854 1.27111153115e-38
0.0601988887783 -0.128318683975 0.856 1.01270270562e-38
0.0619274230293 -0.128618493984 0.858 1.39125157473e-38
0.0636633599967 -0.128918303993 0.86 1.49302437894e-38
0.065558455364 -0.129517924012 0.864 1.40057497393e-38
0.0671574420802 -0.129517924012 0.864 9.75865231465e-39
0.0691543247964 -0.130267449035 0.869 1.22511839321e-38
0.0709254246661 -0.130567259044 0.871 1.19752920865e-38
0.0728704883683 -0.131166879063 0.875 1.74119433697e-38
0.0747452262659 -0.131616594077 0.878 9.75834402899e-39
0.076370122489 -0.131616594077 0.878 6.06544753531e-39
0.0781726839029 -0.131916404086 0.88 1.31562209531e-38
0.0798012814842 -0.131916404086 0.88 4.59464466715e-39
0.0816149469725 -0.132216214095 0.882 8.91668213236e-39
0.0832472459119 -0.132216214095 0.882 1.98874912498e-38
-0.067124129857 -0.137690522784 0.93 2.043411536e-38
-0.0652623467129 -0.137394414132 0.928 1.73989028862e-38
-0.0635449165362 -0.137394414132 0.928 3.67341984632e-39
-0.06162761302 -0.136950251156 0.925 1.46937494502e-39
-0.0599157348806 -0.136950251156 0.925 1.47008540334e-39
-0.0582038567412 -0.136950251156 0.925 1.37789117478e-39
-0.0563698337831 -0.136654142505 0.923 4.59536213197e-40
-0.0546616570018 -0.136654142505 0.923 1.83670992316e-40
-0.052781367067 -0.136209979528 0.92 6.43924670327e-40
-0.0509677015787 -0.135913870877 0.918 1.37789117478e-39
-0.0491077691137 -0.1354697079 0.915 6.43924670327e-40
-0.047414397765 -0.1354697079 0.915 6.44283402733e-40
-0.0456210897465 -0.135173599249 0.913 1.28569694621e-39
-0.0439314197559 -0.135173599249 0.913 1.01019045774e-39
-0.042102948835 -0.134729436272 0.91 6.43924670327e-40
-0.0404188308816 -0.134729436272 0.91 1.01270158459e-39
-0.0385644504538 -0.13413721897 0.906 1.01270158459e-39
-0.0367655903981 -0.133693055993 0.903 1.01270158459e-39
-0.0350944271982 -0.133693055993 0.903 1.10489581315e-39
-0.0334232639983 -0.133693055993 0.903 1.01234285218e-39
-0.0316817749937 -0.133396947342 0.901 1.01270158459e-39
-0.0300143131519 -0.133396947342 0.901 0.0
-0.0282524666776 -0.132952784365 0.898 1.32717019595e-38
-0.026590556873 -0.132952784365 0.898 6.53789811515e-39
-0.0248731266964 -0.132656675714 0.896 4.5917748079e-40
-0.02321491825 -0.132656675714 0.896 5.32828466906e-39
-0.0215567098035 -0.132656675714 0.896 2.66322938858e-39
-0.0197874606129 -0.131916404086 0.891 5.14461507804e-39
-0.0180977906223 -0.131620295435 0.889 8.37318712167e-39
-0.0164525369294 -0.131620295435 0.889 9.93975752948e-39
-0.0148072832364 -0.131620295435 0.889 1.24222166136e-38
-0.0131324186784 -0.131324186784 0.887 1.02134703559e-38
-0.0114649568366 -0.131028078133 0.885 6.52032022722e-39
-0.0097937936367 -0.130583915156 0.882 1.01162538737e-38
-0.00816149469725 -0.130583915156 0.882 1.15931551927e-38
-0.00651439032524 -0.130287806505 0.88 1.32505045176e-38
-0.00487468866951 -0.129991697854 0.878 1.43630037763e-38
-0.00324979244634 -0.129991697854 0.878 1.32559723843e-38
-0.00162489622317 -0.129991697854 0.878 1.36261267749e-38
0.0 -0.129547534877 0.875 9.94084073319e-39
0.00161934418596 -0.129547534877 0.875 1.21488863416e-38
0.00323128565565 -0.129251426226 0.873 4.22443562586e-39
0.00484692848347 -0.129251426226 0.873 2.11221641163e-39
0.00644776587873 -0.128955317575 0.871 3.94968864116e-39
0.00804120055772 -0.128659208924 0.869 6.25168290382e-39
0.00964944066926 -0.128659208924 0.869 5.32828747166e-39
0.0112317712738 -0.128363100272 0.867 2.20407012467e-39
0.0127918937296 -0.127918937296 0.864 2.93875129134e-39
0.0143575682225 -0.127622828645 0.862 6.89703970117e-39
0.0159158399992 -0.127326719993 0.86 8.55542458566e-39
0.0175074239991 -0.127326719993 0.86 1.06755359128e-38
0.019099007999 -0.127326719993 0.86 1.03060275208e-38
0.0206424743431 -0.127030611342 0.858 6.34278972477e-39
0.0222303569849 -0.127030611342 0.858 5.33255722808e-39
0.0238182396267 -0.127030611342 0.858 1.56120343469e-39
0.0253469005382 -0.126734502691 0.856 2.20512810501e-39
0.0269310818219 -0.126734502691 0.856 1.37753244237e-39
0.028448638659 -0.12643839404 0.854 7.34683969264e-40
0.0300291185845 -0.12643839404 0.854 0.0
0.03160959851 -0.12643839404 0.854 1.49172915877e-38
0.0330734856541 -0.125994231063 0.851 1.24301619759e-38
0.0345669836633 -0.125698122412 0.849 3.39791335785e-39
0.0361382101935 -0.125698122412 0.849 1.13271144754e-38
0.0376206041283 -0.125402013761 0.847 7.99865647592e-39
0.0391881293003 -0.125402013761 0.847 1.37868795308e-38
0.0406594191607 -0.12510590511 0.845 1.00100690812e-38
0.0422232429745 -0.12510590511 0.845 9.64272709659e-39
0.0436834287605 -0.124809796459 0.843 1.13883316001e-38
0.0452435512162 -0.124809796459 0.843 1.46337724746e-38
0.046803673672 -0.124809796459 0.843 1.83216523198e-38
0.0483637961277 -0.124809796459 0.843 4.22443282327e-39
0.0500423620439 -0.12510590511 0.845 1.66636401807e-38
0.0516061858578 -0.12510590511 0.845 1.52006957943e-38
0.0532958558484 -0.125402013761 0.847 1.58450086243e-38
0.0551224760902 -0.125994231063 0.851 1.42776871206e-38
0.056897277318 -0.12643839404 0.854 8.92747213053e-39
0.0584777572435 -0.12643839404 0.854 1.35436547551e-38
0.0601988887783 -0.126734502691 0.856 1.08654076509e-38
0.0620717759968 -0.127326719993 0.86 1.27135633799e-38
0.0636633599967 -0.127326719993 0.86 9.94669675947e-39
0.065558455364 -0.127918937296 0.864 1.15185907001e-38
0.0675460846849 -0.128659208924 0.869 9.39100624825e-39
0.0693134831964 -0.128955317575 0.871 1.61190241313e-38
0.0710882844242 -0.129251426226 0.873 1.39993233845e-38
0.0731203300427 -0.129991697854 0.878 5.88536386706e-39
0.0749154887403 -0.130287806505 0.88 6.88770144821e-39
0.0767180501541 -0.130583915156 0.882 1.68543512965e-38
0.0783503490936 -0.130583915156 0.882 2.20177269584e-38
0.079982648033 -0.130583915156 0.882 3.58158435016e-39
0.0818925488329 -0.131028078133 0.885 1.18622633524e-38
0.0835303998096 -0.131028078133 0.885 1.91466765998e-38
-0.0673406593081 -0.136408002188 0.933 1.99731456184e-38
-0.0654029983222 -0.135969391249 0.93 1.66609819175e-38
-0.0636818667874 -0.135969391249 0.93 3.39791335785e-39
-0.0618274863596 -0.135676983956 0.928 1.46937214242e-39
-0.0599157348806 -0.135238373016 0.925 6.43924670327e-40
-0.0582038567412 -0.135238373016 0.925 4.5917748079e-40
-0.0563698337831 -0.134945965723 0.923 1.28569694621e-39
-0.0546616570018 -0.134945965723 0.923 4.5917748079e-40
-0.052781367067 -0.134507354784 0.92 4.5917748079e-40
-0.0509677015787 -0.134214947491 0.918 1.83670992316e-40
-0.0491077691137 -0.133776336551 0.915 6.43924670327e-40
-0.047414397765 -0.133776336551 0.915 0.0
-0.0456210897465 -0.133483929258 0.913 6.42848473106e-40
-0.0439314197559 -0.133483929258 0.913 1.28569694621e-39
-0.0422417497652 -0.133483929258 0.913 9.1835496158e-41
-0.0405520797746 -0.133483929258 0.913 1.83670992316e-40
-0.038649581691 -0.132752911026 0.908 5.52089174169e-40
-0.0368877352167 -0.132460503733 0.906 6.45359599954e-40
-0.0352110199796 -0.132460503733 0.906 6.44283402733e-40
-0.0334232639983 -0.132021892793 0.903 7.36118898891e-40
-0.0317521007983 -0.132021892793 0.903 1.01234285218e-39
-0.0300809375984 -0.132021892793 0.903 0.0
-0.0283468513102 -0.1317294855 0.901 3.40295382842e-39
-0.026590556873 -0.131290874561 0.898 1.00402026034e-38
-0.0249286470685 -0.131290874561 0.898 6.06801751669e-39
-0.0232667372639 -0.131290874561 0.898 8.75060163966e-39
-0.0215567098035 -0.130998467268 0.896 1.22511012555e-38
-0.0198985013571 -0.130998467268 0.896 5.33327469289e-39
-0.0181385055618 -0.130267449035 0.891 2.02038091548e-39
-0.0164525369294 -0.129975041742 0.889 5.14998485376e-39
-0.0148072832364 -0.129975041742 0.889 9.10713961314e-39
-0.0131324186784 -0.129682634449 0.887 1.141091913e-38
-0.0114908663436 -0.129682634449 0.887 1.15049644739e-38
-0.0097937936367 -0.128951616217 0.882 1.27963787178e-38
-0.00816149469725 -0.128951616217 0.882 1.32573400516e-38
-0.00651439032524 -0.128659208924 0.88 1.32577141982e-38
-0.00487468866951 -0.128366801631 0.878 1.29800721309e-38
-0.00324979244634 -0.128366801631 0.878 1.29782686598e-38
-0.00162489622317 -0.128366801631 0.878 1.14116520091e-38
0.0 -0.128366801631 0.878 1.31648179191e-38
0.00161934418596 -0.127928190691 0.875 1.51019925344e-38
0.00323868837192 -0.127928190691 0.875 1.18759091969e-38
0.00484692848347 -0.127635783398 0.873 5.41829427332e-39
0.00644776587873 -0.127343376105 0.871 3.21424236553e-39
0.00805970734842 -0.127343376105 0.871 8.09235850163e-39
0.00964944066926 -0.127050968812 0.869 7.54166361943e-39
0.0112576807808 -0.127050968812 0.869 8.18845254382e-39
0.0127918937296 -0.126319950579 0.864 4.59643832919e-39
0.0143575682225 -0.126027543286 0.862 4.50032466882e-39
0.0159528535806 -0.126027543286 0.862 5.97400720532e-39
0.0175074239991 -0.125735135993 0.86 5.51014378246e-39
0.019099007999 -0.125735135993 0.86 4.68469350777e-39
0.0206424743431 -0.1254427287 0.858 6.71231072852e-39
0.0222303569849 -0.1254427287 0.858 7.26833334747e-39
0.0238182396267 -0.1254427287 0.858 2.29588740395e-39
0.0253469005382 -0.125150321407 0.856 1.01019045774e-39
0.0269310818219 -0.125150321407 0.856 9.1835496158e-41
0.028448638659 -0.124857914114 0.854 4.5917748079e-40
0.0300291185845 -0.124857914114 0.854 0.0
0.03160959851 -0.124857914114 0.854 1.51020359747e-38
0.0330734856541 -0.124419303175 0.851 1.23372180526e-38
0.0346484135424 -0.124419303175 0.851 1.25230344329e-38
0.0361382101935 -0.124126895882 0.849 1.01019045774e-39
0.0377094367236 -0.124126895882 0.849 1.75830307019e-38
0.0391881293003 -0.123834488589 0.847 8.54715832602e-39
0.0406594191607 -0.123542081296 0.845 1.03774110659e-38
0.0422232429745 -0.123542081296 0.845 1.09284240428e-38
0.0437870667884 -0.123542081296 0.845 1.12039305313e-38
0.0453508906023 -0.123542081296 0.845 1.0469246562e-38
0.0469147144162 -0.123542081296 0.845 1.23059620904e-38
0.04847853823 -0.123542081296 0.845 5.60196526564e-39
0.0500423620439 -0.123542081296 0.845 1.84153571481e-38
0.0517283306764 -0.123834488589 0.847 1.43716764125e-38
0.0534217020251 -0.124126895882 0.849 8.7373355471e-39
0.0553167973925 -0.124857914114 0.854 1.33552782025e-38
0.056897277318 -0.124857914114 0.854 1.20632123548e-38
0.0586147074946 -0.125150321407 0.856 1.25284070112e-38
0.0603395403876 -0.1254427287 0.858 1.27111419361e-38
0.0620717759968 -0.125735135993 0.86 1.07781586046e-38
0.0638114143223 -0.126027543286 0.862 1.19699825667e-38
0.0659378445733 -0.127050968812 0.869 1.35425841631e-38
0.0677015417267 -0.127343376105 0.871 1.59408168016e-38
0.0694726415964 -0.127635783398 0.873 7.26863602794e-39
0.0714954338195 -0.128366801631 0.878 1.14916605463e-38
0.073286891159 -0.128659208924 0.88 1.22432049386e-38
0.0749154887403 -0.128659208924 0.88 1.62063152165e-38
0.0767180501541 -0.128951616217 0.882 1.88841517403e-38
0.0783503490936 -0.128951616217 0.882 1.88831133781e-38
0.0802546978563 -0.129390227156 0.885 2.29588740395e-39
0.0820776167399 -0.129682634449 0.887 1.54593320506e-38
0.0837191690747 -0.129682634449 0.887 1.93303840258e-38
-0.0674850122756 -0.134970024551 0.935 1.99753162298e-38
-0.0656139757361 -0.134681318616 0.933 1.73081688107e-38
-0.0638872921641 -0.134681318616 0.933 3.12240686937e-39
-0.0619607352526 -0.134248259714 0.93 4.5917748079e-40
-0.0601100561829 -0.133959553779 0.928 8.26519465422e-40
-0.0582038567412 -0.133526494877 0.925 4.5917748079e-40
-0.0564919786017 -0.133526494877 0.925 1.37789117478e-39
-0.0546616570018 -0.133237788942 0.923 4.5917748079e-40
-0.0529534802205 -0.133237788942 0.923 7.36477631298e-40
-0.0510787423229 -0.13280473004 0.92 7.36118898891e-40
-0.0492687781928 -0.132516024105 0.918 0.0
-0.047414397765 -0.132082965202 0.915 7.08568250044e-39
-0.0457210264162 -0.132082965202 0.915 1.13223122255e-38
-0.0439314197559 -0.131794259268 0.913 1.01019045774e-39
-0.0422417497652 -0.131794259268 0.913 0.0
-0.0405520797746 -0.131794259268 0.913 3.67341984632e-40
-0.038649581691 -0.13107249443 0.908 6.42848473106e-40
-0.0368877352167 -0.130783788496 0.906 0.0
-0.0352110199796 -0.130783788496 0.906 7.64358005674e-39
-0.0335343047424 -0.130783788496 0.906 5.34009060862e-39
-0.0317521007983 -0.130350729593 0.903 9.19072426394e-40
-0.0300809375984 -0.130350729593 0.903 2.02038091548e-39
-0.0283468513102 -0.130062023658 0.901 1.37753244237e-39
-0.0266793894684 -0.130062023658 0.901 8.01587563145e-39
-0.0250119276266 -0.130062023658 0.901 9.1835496158e-41
-0.0233444657848 -0.130062023658 0.901 9.67537174561e-39
-0.0216048274593 -0.129628964756 0.898 3.85710485162e-39
-0.0198985013571 -0.129340258821 0.896 1.65774210888e-38
-0.0181385055618 -0.128618493984 0.891 2.02038091548e-39
-0.0164525369294 -0.128329788049 0.889 1.38183723125e-39
-0.0148072832364 -0.128329788049 0.889 1.744874427e-39
-0.0131324186784 -0.128041082114 0.887 6.89699485962e-39
-0.0114908663436 -0.128041082114 0.887 9.01530411698e-39
-0.00982710585995 -0.127752376179 0.885 8.9173701699e-39
-0.00816149469725 -0.127319317277 0.882 1.23314951497e-38
-0.00651439032524 -0.127030611342 0.88 1.27052620878e-38
-0.00488579274393 -0.127030611342 0.88 1.42704550192e-38
-0.00324979244634 -0.126741905407 0.878 1.17807848532e-38
-0.00162489622317 -0.126741905407 0.878 1.07630806331e-38
0.0 -0.126741905407 0.878 1.01169923579e-38
0.00161934418596 -0.126308846505 0.875 1.36247226738e-38
0.00323868837192 -0.126308846505 0.875 1.39934995881e-38
0.00485803255789 -0.126308846505 0.875 1.56505252131e-38
0.00646257131129 -0.12602014057 0.873 1.27056544513e-38
0.00805970734842 -0.125731434635 0.871 1.28918365705e-38
0.00964944066926 -0.1254427287 0.869 4.96234538419e-39
0.0112576807808 -0.1254427287 0.869 8.36390632194e-39
0.0128363100272 -0.125154022766 0.867 7.44944977269e-39
0.0143908804458 -0.124720963863 0.864 6.89846201911e-39
0.0159528535806 -0.124432257928 0.862 6.80520700761e-39
0.0175481389386 -0.124432257928 0.862 5.60451562884e-39
0.0191434242967 -0.124432257928 0.862 5.1482122112e-39
0.0206905919989 -0.124143551994 0.86 6.2513325792e-39
0.0222821759988 -0.124143551994 0.86 6.34460300498e-39
0.0238737599988 -0.124143551994 0.86 6.71837134437e-39
0.0254061222684 -0.123854846059 0.858 1.01248956813e-38
0.0269310818219 -0.123566140124 0.856 2.29588740395e-39
0.0285152631055 -0.123566140124 0.856 1.37968483681e-39
0.0300994443891 -0.123566140124 0.856 0.0
0.03160959851 -0.123277434189 0.854 1.50113047017e-38
0.0331900784355 -0.123277434189 0.854 1.32591813577e-38
0.0346484135424 -0.122844375287 0.851 2.38772290011e-39
0.0361382101935 -0.122555669352 0.849 0.0
0.0377094367236 -0.122555669352 0.849 1.61140172918e-38
0.0391881293003 -0.122266963417 0.847 1.62068729333e-38
0.0406594191607 -0.121978257482 0.845 1.20534509097e-38
0.0422232429745 -0.121978257482 0.845 9.73456259275e-39
0.0437870667884 -0.121978257482 0.845 1.00100690812e-38
0.0453508906023 -0.121978257482 0.845 1.06529175543e-38
0.0469147144162 -0.121978257482 0.845 1.59898188076e-38
0.04847853823 -0.121978257482 0.845 4.68361030406e-39
0.0500423620439 -0.121978257482 0.845 2.07148528956e-38
0.051850475495 -0.122555669352 0.849 1.46486178306e-38
0.0535475482019 -0.122844375287 0.851 1.12295140373e-38
0.0553167973925 -0.123277434189 0.854 1.32649196749e-38
0.057030526211 -0.123566140124 0.856 1.16980395802e-38
0.0587516577458 -0.123854846059 0.858 1.04058265961e-38
0.0604801919968 -0.124143551994 0.86 1.24345410336e-38
0.0622161289642 -0.124432257928 0.862 1.30787081285e-38
0.0639594686478 -0.124720963863 0.864 1.6584004389e-38
0.0659378445733 -0.1254427287 0.869 1.07764167906e-38
0.0677015417267 -0.125731434635 0.871 1.02163402152e-38
0.0696317999964 -0.126308846505 0.875 1.14970723609e-38
0.0714954338195 -0.126741905407 0.878 1.85107351268e-38
0.073286891159 -0.127030611342 0.88 1.39042158564e-38
0.0750857512147 -0.127319317277 0.882 1.46410802461e-38
0.0767180501541 -0.127319317277 0.882 1.59360776102e-38
0.0783503490936 -0.127319317277 0.882 2.04489761302e-38
0.0802546978563 -0.127752376179 0.885 1.92854541932e-39
0.0820776167399 -0.128041082114 0.887 1.80408096868e-38
-0.0674850122756 -0.133239639621 0.935 1.96998055374e-38
-0.0657546273454 -0.133239639621 0.935 1.72174025052e-38
-0.0640242424153 -0.133239639621 0.935 2.57139389242e-39
-0.0621606085921 -0.132954635044 0.933 7.35044102969e-40
-0.0602396037178 -0.132527128179 0.93 9.1835496158e-40
-0.0583926260063 -0.132242123602 0.928 1.01019045774e-39
-0.0564919786017 -0.131814616737 0.925 6.43924670327e-40
-0.0546616570018 -0.131529612161 0.923 8.28671859863e-40
-0.0529534802205 -0.131529612161 0.923 1.83670992316e-40
-0.0510787423229 -0.131102105295 0.92 1.37753244237e-39
-0.0492687781928 -0.130817100719 0.918 0.0
-0.0475698548068 -0.130817100719 0.918 1.54733170093e-38
-0.0457210264162 -0.130389593854 0.915 1.68559151456e-38
-0.0440276550675 -0.130389593854 0.915 6.42848473106e-40
-0.0422417497652 -0.130104589277 0.913 0.0
-0.0405520797746 -0.130104589277 0.913 1.19748871113e-38
-0.0387347129282 -0.129677082412 0.91 3.489748854e-39
-0.0369691650957 -0.129392077835 0.908 3.489748854e-39
-0.0352887485005 -0.129392077835 0.908 5.05274875332e-39
-0.0335343047424 -0.129107073258 0.906 3.67593097317e-39
-0.0317521007983 -0.128679566393 0.903 7.28013508314e-39
-0.0300809375984 -0.128679566393 0.903 5.89469511354e-39
-0.0283468513102 -0.128394561817 0.901 5.51733945008e-39
-0.0266793894684 -0.128394561817 0.901 2.94734545482e-39
-0.0250119276266 -0.128394561817 0.901 7.91153494779e-39
-0.0233444657848 -0.128394561817 0.901 1.50140456415e-38
-0.0216048274593 -0.127967054951 0.898 1.58409280432e-38
-0.0198985013571 -0.127682050375 0.896 9.1157491909e-39
-0.0181995779711 -0.127397045798 0.894 0.0
-0.0164895505108 -0.126969538933 0.891 6.43924670327e-40
-0.0148072832364 -0.126684534356 0.889 8.28313127456e-40
-0.0131620295435 -0.126684534356 0.889 0.0
-0.0114908663436 -0.126399529779 0.887 4.96378031382e-39
-0.00982710585995 -0.126114525203 0.885 9.29224833768e-39
-0.00818925488329 -0.126114525203 0.885 1.12247566291e-38
-0.0065291957578 -0.125687018338 0.882 1.01187650005e-38
-0.00488579274393 -0.125402013761 0.88 8.08798084523e-39
-0.00325719516262 -0.125402013761 0.88 1.11318855733e-38
-0.00162489622317 -0.125117009184 0.878 8.27057564032e-39
0.0 -0.125117009184 0.878 9.28797577866e-39
0.00162489622317 -0.125117009184 0.878 1.40849945687e-38
0.00324979244634 -0.125117009184 0.878 1.47285464937e-38
0.00485803255789 -0.124689502319 0.875 1.35318334012e-38
0.00647737674385 -0.124689502319 0.875 1.38087566025e-38
0.00807821413911 -0.124404497742 0.873 1.40860511478e-38
0.0096716488181 -0.124119493166 0.871 1.23350726647e-38
0.0112576807808 -0.123834488589 0.869 9.20112750374e-39
0.0128659208924 -0.123834488589 0.869 7.26043282673e-39
0.0144408487806 -0.123549484012 0.867 6.34278972477e-39
0.015989867162 -0.123121977147 0.864 8.2828215876e-39
0.0175888538782 -0.123121977147 0.864 5.60559462866e-39
0.0191434242967 -0.12283697257 0.862 5.60703236088e-39
0.0207387096547 -0.12283697257 0.862 5.51914011861e-39
0.0222821759988 -0.122551967994 0.86 5.79429768376e-39
0.0238737599988 -0.122551967994 0.86 5.88648350454e-39
0.0254061222684 -0.122266963417 0.858 1.04019183747e-38
0.0269940049102 -0.122266963417 0.858 2.47955839627e-39
0.028581887552 -0.122266963417 0.858 5.51012976948e-40
0.0300994443891 -0.12198195884 0.856 0.0
0.03160959851 -0.121696954263 0.854 1.48290616325e-38
0.0331900784355 -0.121696954263 0.854 1.32598862109e-38
0.0346484135424 -0.121269447398 0.851 1.19386145005e-39
0.0362233414307 -0.121269447398 0.851 0.0
0.0377094367236 -0.120984442822 0.849 1.57477430966e-38
0.0391881293003 -0.120699438245 0.847 1.39027094606e-38
0.0407556544723 -0.120699438245 0.847 1.56504649572e-38
0.0422232429745 -0.120414433668 0.845 1.57426633897e-38
0.0437870667884 -0.120414433668 0.845 9.19036553153e-39
0.0453508906023 -0.120414433668 0.845 9.73456259275e-39
0.0469147144162 -0.120414433668 0.845 1.15712725159e-38
0.04847853823 -0.120414433668 0.845 4.86728129637e-39
0.0501608055044 -0.120699438245 0.847 2.20062811525e-38
0.051850475495 -0.120984442822 0.849 1.33571601464e-38
0.053736317467 -0.121696954263 0.854 1.17906513957e-38
0.0554463449273 -0.12198195884 0.856 1.00405613358e-38
0.057163775104 -0.122266963417 0.858 1.22526426838e-38
0.0587516577458 -0.122266963417 0.858 9.76047260135e-39
0.0606208436061 -0.12283697257 0.862 1.71321138755e-38
0.0622161289642 -0.12283697257 0.862 1.29822819786e-38
0.0641815501362 -0.123549484012 0.867 8.18196873583e-39
0.066089600257 -0.124119493166 0.871 1.21398844003e-38
0.0678569987686 -0.124404497742 0.873 1.57466066436e-38
0.0696317999964 -0.124689502319 0.875 1.62940519146e-38
0.0714954338195 -0.125117009184 0.878 1.72224373706e-38
0.073286891159 -0.125402013761 0.88 1.44556113879e-38
0.0750857512147 -0.125687018338 0.882 1.3633329449e-38
0.0767180501541 -0.125687018338 0.882 1.45463790946e-38
0.0786168468796 -0.126114525203 0.885 2.11862034562e-38
0.0804360644051 -0.126399529779 0.887 2.02038091548e-39
0.0822626846469 -0.126684534356 0.889 2.07058383426e-38
-0.069807614508 -0.132634467565 0.943 1.79459473859e-38
-0.0677015417267 -0.131931209519 0.938 1.9881698282e-38
-0.0657546273454 -0.131509254691 0.935 1.53720423667e-38
-0.0640242424153 -0.131509254691 0.935 2.75506488474e-39
-0.0622938574851 -0.131509254691 0.935 1.37754645535e-39
-0.0602396037178 -0.130805996644 0.93 1.28569694621e-39
-0.0583926260063 -0.130524693426 0.928 5.51730441762e-40
-0.0566751958296 -0.130524693426 0.928 3.67341984632e-40
-0.0547801004623 -0.130102738598 0.925 9.1835496158e-41
-0.0529534802205 -0.129821435379 0.923 3.0352348945e-39
-0.0510787423229 -0.129399480551 0.92 8.66589875269e-39
-0.0493761175788 -0.129399480551 0.92 9.36291581923e-41
-0.0475698548068 -0.129118177333 0.918 0.0
-0.0457210264162 -0.128696222505 0.915 1.30723280166e-38
-0.0440276550675 -0.128696222505 0.915 3.67341984632e-40
-0.0422417497652 -0.128414919286 0.913 0.0
-0.0405520797746 -0.128414919286 0.913 1.65818155608e-38
-0.0387347129282 -0.127992964458 0.91 1.37241181752e-38
-0.0370505949748 -0.127992964458 0.91 1.53883058366e-38
-0.0352887485005 -0.12771166124 0.908 2.20405190779e-39
-0.0335343047424 -0.127430358021 0.906 1.83670992316e-39
-0.0317521007983 -0.127008403193 0.903 2.02253611251e-39
-0.0300809375984 -0.127008403193 0.903 0.0
-0.0283468513102 -0.126727099975 0.901 1.17862597263e-38
-0.0266793894684 -0.126727099975 0.901 4.9680851027e-39
-0.0250119276266 -0.126727099975 0.901 1.72063504643e-38
-0.0233444657848 -0.126727099975 0.901 2.11221641163e-39
-0.0216048274593 -0.126305145147 0.898 9.57213808775e-39
-0.0199429176548 -0.126305145147 0.898 6.72228657228e-39
-0.0181995779711 -0.12574253871 0.894 7.44765330806e-39
-0.0164895505108 -0.125320583882 0.891 9.66066371693e-39
-0.0148405954597 -0.125320583882 0.891 2.29588740395e-39
-0.0131620295435 -0.125039280663 0.889 7.36477631298e-40
-0.0114908663436 -0.124757977445 0.887 5.51012976948e-40
-0.00984931400879 -0.124757977445 0.887 3.12240686937e-39
-0.00818925488329 -0.124476674226 0.885 1.05833528947e-38
-0.00655140390664 -0.124476674226 0.885 1.12265306729e-38
-0.00489689681835 -0.124054719398 0.882 1.10425009482e-38
-0.00325719516262 -0.12377341618 0.88 1.03038919419e-38
-0.00162859758131 -0.12377341618 0.88 9.83895372315e-39
0.0 -0.123492112961 0.878 7.4386751888e-39
0.00162489622317 -0.123492112961 0.878 1.39924430091e-38
0.00324979244634 -0.123492112961 0.878 1.36243443233e-38
0.00485803255789 -0.123070158133 0.875 1.34410474776e-38
0.00647737674385 -0.123070158133 0.875 1.37158393039e-38
0.00807821413911 -0.122788854915 0.873 1.36250856101e-38
0.0096716488181 -0.122507551696 0.871 1.44537967064e-38
0.0112835902878 -0.122507551696 0.871 1.30711733467e-38
0.0128659208924 -0.122226248477 0.869 7.25500419648e-39
0.0144741610039 -0.122226248477 0.869 7.16642952185e-39
0.016045387534 -0.121944945259 0.867 8.64730492337e-39
0.0176499262875 -0.121944945259 0.867 4.86731773013e-39
0.0191878405943 -0.121522990431 0.864 4.87019739848e-39
0.0207868273105 -0.121522990431 0.864 5.8843297088e-39
0.0223339950128 -0.121241687212 0.862 5.79213407893e-39
0.0239292803708 -0.121241687212 0.862 5.61133574847e-39
0.0254653439987 -0.120960383994 0.86 7.08466796035e-39
0.0270569279986 -0.120960383994 0.86 1.46936793853e-39
0.028581887552 -0.120679080775 0.858 3.67341984632e-40
0.0301697701938 -0.120679080775 0.858 0.0
0.0316836256728 -0.120397777557 0.856 1.59336113249e-38
0.0331900784355 -0.120116474338 0.854 8.37174938945e-39
0.034770558361 -0.120116474338 0.854 1.11379770178e-38
0.0362233414307 -0.11969451951 0.851 9.1835496158e-40
0.0377094367236 -0.119413216291 0.849 1.57480934213e-38
0.0392806632538 -0.119413216291 0.849 1.47321043905e-38
0.0408518897839 -0.119413216291 0.849 1.50033130966e-38
0.0423231796443 -0.119131913073 0.847 1.44501673433e-38
0.0438907048163 -0.119131913073 0.847 1.68482626547e-38
0.0453508906023 -0.118850609854 0.845 1.53731269717e-38
0.0469147144162 -0.118850609854 0.845 1.60145321074e-38
0.0485932803324 -0.119131913073 0.847 3.85709083864e-39
0.0502792489648 -0.119413216291 0.849 2.18290617384e-38
0.0519726203136 -0.11969451951 0.851 1.33557084012e-38
0.053736317467 -0.120116474338 0.854 9.86101156227e-39
0.0555758924622 -0.120679080775 0.858 1.05941456954e-38
0.057163775104 -0.120679080775 0.858 1.65792960261e-38
0.0588886079969 -0.120960383994 0.86 1.42780528595e-38
0.0606208436061 -0.121241687212 0.862 9.75465160753e-39
0.0623604819316 -0.121522990431 0.864 1.02045342756e-38
0.0641815501362 -0.121944945259 0.867 1.26076504393e-38
0.066089600257 -0.122507551696 0.871 1.73104921635e-38
0.0680124558104 -0.123070158133 0.875 1.63008902511e-38
0.0698705375964 -0.123492112961 0.878 1.61133432673e-38
0.0716582935777 -0.12377341618 0.88 1.47357337535e-38
0.0734534522752 -0.124054719398 0.882 1.65746815503e-38
0.0753411449263 -0.124476674226 0.885 1.26169774819e-38
0.076978995903 -0.124476674226 0.885 1.93416070252e-38
0.0787945120703 -0.124757977445 0.887 1.92519001014e-38
0.0804360644051 -0.124757977445 0.887 3.03057137321e-39
0.0822626846469 -0.125039280663 0.889 2.19054325047e-38
-0.069807614508 -0.130889277202 0.943 1.96043827172e-38
-0.0678458946941 -0.130472874412 0.94 2.10816427686e-38
-0.0659656047594 -0.130195272551 0.938 1.66628022042e-38
-0.064229667792 -0.130195272551 0.938 3.30607786169e-39
-0.0622938574851 -0.129778869761 0.935 1.5619208995e-39
-0.0604339250201 -0.1295012679 0.933 7.36118898891e-40
-0.058518472183 -0.12908486511 0.93 3.67341984632e-40
-0.0566751958296 -0.128807263249 0.928 1.83670992316e-40
-0.0547801004623 -0.128390860458 0.925 0.0
-0.0530682223228 -0.128390860458 0.925 1.30805690529e-38
-0.0512453034392 -0.128113258598 0.923 2.57175262483e-39
-0.0493761175788 -0.127696855807 0.92 2.57390501927e-39
-0.0475698548068 -0.127419253947 0.918 0.0
-0.0457210264162 -0.127002851156 0.915 1.69402074521e-38
-0.0440276550675 -0.127002851156 0.915 3.67341984632e-40
-0.0423342837187 -0.127002851156 0.915 2.75865220881e-40
-0.0405520797746 -0.126725249296 0.913 1.52925228827e-38
-0.038862409784 -0.126725249296 0.913 1.83670992316e-39
-0.0370505949748 -0.126308846505 0.91 7.00111273682e-39
-0.0352887485005 -0.126031244645 0.908 3.30610168376e-39
-0.0336083319052 -0.126031244645 0.908 2.66645798024e-39
-0.0318575895053 -0.125753642784 0.906 1.47044413575e-39
-0.0300809375984 -0.125337239993 0.903 0.0
-0.0284097743985 -0.125337239993 0.903 3.58158435016e-39
-0.0266793894684 -0.125059638133 0.901 1.07709405162e-38
-0.0250119276266 -0.125059638133 0.901 1.2430838803e-38
-0.0233444657848 -0.125059638133 0.901 9.85796654071e-39
-0.0216048274593 -0.124643235342 0.898 8.10520000076e-39
-0.0199429176548 -0.124643235342 0.898 1.3170517e-38
-0.0181995779711 -0.124088031621 0.894 7.90287492328e-39
-0.0165450708829 -0.124088031621 0.894 1.46459974024e-38
-0.0148405954597 -0.123671628831 0.891 1.744874427e-39
-0.0131620295435 -0.12339402697 0.889 1.01127506275e-39
-0.0115167758506 -0.12339402697 0.889 1.37789117478e-39
-0.00984931400879 -0.12311642511 0.887 3.67341984632e-40
-0.00820776167399 -0.12311642511 0.887 1.1020259539e-39
-0.00656620933919 -0.12311642511 0.887 1.20609940993e-38
-0.00491355292998 -0.122838823249 0.885 1.2336478167e-38
-0.0032645978789 -0.122422420459 0.882 1.25179967649e-38
-0.00162859758131 -0.122144818598 0.88 1.29782392325e-38
0.0 -0.121867216738 0.878 1.1963378247e-38
0.00162489622317 -0.121867216738 0.878 1.35332459101e-38
0.00324979244634 -0.121867216738 0.878 1.34403286115e-38
0.00485803255789 -0.121450813947 0.875 1.3165183658e-38
0.00647737674385 -0.121450813947 0.875 1.32577198034e-38
0.00807821413911 -0.121173212087 0.873 1.32573792879e-38
0.0096716488181 -0.120895610226 0.871 1.32545248429e-38
0.0112835902878 -0.120895610226 0.871 1.36222059418e-38
0.0128955317575 -0.120895610226 0.871 1.40853476959e-38
0.0144741610039 -0.120618008366 0.869 1.1875501419e-38
0.0160824011154 -0.120618008366 0.869 9.93975752948e-39
0.0176499262875 -0.120340406505 0.867 4.9591462198e-39
0.0192544650409 -0.120340406505 0.867 5.88577725011e-39
0.0207868273105 -0.119924003715 0.864 4.68725087747e-39
0.0223858140267 -0.119924003715 0.864 1.83674355432e-39
0.0239292803708 -0.119646401854 0.862 5.14681932053e-39
0.0255245657289 -0.119646401854 0.862 5.42408864247e-39
0.0270569279986 -0.119368799994 0.86 6.71728814066e-39
0.0286485119985 -0.119368799994 0.86 1.83670992316e-39
0.0302400959984 -0.119368799994 0.86 0.0
0.0317576528356 -0.119091198133 0.858 1.54737121754e-38
0.0332678069564 -0.118813596273 0.856 4.96091045457e-39
0.03485198824 -0.118813596273 0.856 1.30668979851e-38
0.0363510382865 -0.118535994412 0.854 1.83670992316e-40
0.037798269319 -0.118119591622 0.851 1.57481060329e-38
0.0393731972073 -0.118119591622 0.851 1.37172434049e-38
0.0408518897839 -0.117841989761 0.849 1.5927071465e-38
0.0423231796443 -0.117564387901 0.847 1.42668298601e-38
0.0438907048163 -0.117564387901 0.847 1.56500852054e-38
0.0454582299883 -0.117564387901 0.847 1.65738239556e-38
0.0470257551603 -0.117564387901 0.847 1.78660649657e-38
0.0487080224347 -0.117841989761 0.849 4.86728129637e-39
0.0502792489648 -0.117841989761 0.849 2.06319955187e-38
0.0519726203136 -0.118119591622 0.851 1.21532177552e-38
0.053736317467 -0.118535994412 0.854 1.40903643444e-38
0.0555758924622 -0.119091198133 0.858 1.61205291258e-38
0.057297023997 -0.119368799994 0.86 8.00511365924e-39
0.0588886079969 -0.119368799994 0.86 4.40810381558e-39
0.0606208436061 -0.119646401854 0.862 1.33377353471e-38
0.0623604819316 -0.119924003715 0.864 1.72225550797e-38
0.0643296044618 -0.120618008366 0.869 1.27078012406e-38
0.0663931116244 -0.121450813947 0.875 1.74036995309e-38
0.0682456413732 -0.121867216738 0.878 1.49154741036e-38
0.0700296959964 -0.122144818598 0.88 1.56573593457e-38
0.0718211533358 -0.122422420459 0.882 1.35361367888e-38
0.0734534522752 -0.122422420459 0.882 1.73122297736e-38
0.0753411449263 -0.122838823249 0.885 1.42740899874e-38
0.0771529597355 -0.12311642511 0.887 1.48286510521e-38
0.078972177261 -0.12339402697 0.889 2.07229944397e-38
0.0806174309539 -0.12339402697 0.889 4.49993931174e-39
0.0824477525538 -0.123671628831 0.891 2.18196786438e-38
0.0840967076049 -0.123671628831 0.891 2.00653636691e-38
-0.0678458946941 -0.128733236086 0.94 1.96965811496e-38
-0.0659656047594 -0.128459335584 0.938 1.55560790979e-38
-0.064229667792 -0.128459335584 0.938 2.66322938858e-39
-0.0622938574851 -0.128048484831 0.935 4.59185888581e-40
-0.0604339250201 -0.127774584328 0.933 3.67341984632e-40
-0.0587072414481 -0.127774584328 0.933 7.36118898891e-40
-0.0567973406482 -0.127363733575 0.93 7.36118898891e-40
-0.0547801004623 -0.126678982319 0.925 0.0
-0.0530682223228 -0.126678982319 0.925 1.15128523829e-38
-0.0512453034392 -0.126405081817 0.923 9.02323967018e-39
-0.0495371266579 -0.126405081817 0.923 8.26519465422e-40
-0.0476734928347 -0.125994231063 0.92 0.0
-0.0458709314209 -0.125720330561 0.918 1.81373409341e-38
-0.0440276550675 -0.125309479807 0.915 1.56120343469e-39
-0.0423342837187 -0.125309479807 0.915 1.11484657368e-38
-0.04064091237 -0.125309479807 0.915 1.50166744774e-38
-0.038862409784 -0.125035579305 0.913 1.10483191394e-38
-0.0370505949748 -0.124624728552 0.91 7.34683969264e-40
-0.0353664770214 -0.124624728552 0.91 0.0
-0.0336083319052 -0.124350828049 0.908 8.26519465422e-40
-0.0318575895053 -0.124076927547 0.906 8.26519465422e-40
-0.0301808742682 -0.124076927547 0.906 6.43924670327e-40
-0.0284097743985 -0.123666076794 0.903 5.51012976948e-40
-0.0267386111986 -0.123666076794 0.903 0.0
-0.0250119276266 -0.123392176291 0.901 0.0
-0.0233444657848 -0.123392176291 0.901 9.02644443977e-39
-0.0216770039431 -0.123392176291 0.901 8.65154945642e-39
-0.0199429176548 -0.122981325538 0.898 4.4088212804e-39
-0.0182402929107 -0.122707425035 0.896 9.763621319e-39
-0.0165450708829 -0.122433524533 0.894 8.26519465422e-40
-0.0148905637946 -0.122433524533 0.894 1.01234285218e-39
-0.0131620295435 -0.121748773277 0.889 1.47008540334e-39
-0.0115167758506 -0.121748773277 0.889 1.01019045774e-39
-0.00987152215763 -0.121748773277 0.889 1.28569694621e-39
-0.00822626846469 -0.121748773277 0.889 5.51012976948e-40
-0.00656620933919 -0.121474872775 0.887 0.0
-0.00492465700439 -0.121474872775 0.887 1.28003443925e-38
-0.00327570195332 -0.121200972273 0.885 1.36272534189e-38
-0.00163229893945 -0.120790121519 0.882 1.27016467377e-38
0.0 -0.120516221017 0.88 1.27953067245e-38
0.00162489622317 -0.120242320515 0.878 1.31658843073e-38
0.00324979244634 -0.120242320515 0.878 1.38091069271e-38
0.00487468866951 -0.120242320515 0.878 1.3715525413e-38
0.00647737674385 -0.119831469761 0.875 1.35321711142e-38
0.00809672092981 -0.119831469761 0.875 1.31648207217e-38
0.00969385696694 -0.119557569259 0.873 1.32563100972e-38
0.0112835902878 -0.119283668757 0.871 1.2517335352e-38
0.0128955317575 -0.119283668757 0.871 1.46385186725e-38
0.0145074732272 -0.119283668757 0.871 1.45466957881e-38
0.0160824011154 -0.119009768254 0.869 9.10965214128e-39
0.017690641227 -0.119009768254 0.869 2.38772290011e-39
0.0192544650409 -0.118735867752 0.867 1.46937634632e-39
0.0207868273105 -0.118325016998 0.864 1.7448786309e-39
0.0223858140267 -0.118325016998 0.864 1.83670992316e-40
0.0239848007429 -0.118325016998 0.864 2.29591122602e-39
0.0255245657289 -0.118051116496 0.862 3.85709644383e-39
0.027119851087 -0.118051116496 0.862 7.54384684244e-39
0.0286485119985 -0.117777215994 0.86 1.46936793853e-39
0.0302400959984 -0.117777215994 0.86 0.0
0.0317576528356 -0.117503315492 0.858 1.56588096896e-38
0.0333455354773 -0.117503315492 0.858 6.06867612697e-39
0.03485198824 -0.117229414989 0.856 2.75506488474e-40
0.0364361695237 -0.117229414989 0.856 1.1055862329e-38
0.037798269319 -0.116544663733 0.851 1.48240085503e-38
0.0393731972073 -0.116544663733 0.851 1.51001624386e-38
0.0409481250955 -0.116544663733 0.851 1.5282758635e-38
0.0424231163141 -0.116270763231 0.849 9.64559695584e-39
0.0439943428442 -0.116270763231 0.849 1.42607384156e-38
0.0454582299883 -0.115996862729 0.847 1.21334426312e-38
0.0470257551603 -0.115996862729 0.847 1.13058469686e-38
0.0487080224347 -0.116270763231 0.849 4.68361030406e-39
0.0503976924253 -0.116544663733 0.851 2.1832276317e-38
0.0519726203136 -0.116544663733 0.851 1.41818747394e-38
0.053736317467 -0.116955514487 0.854 9.11108566961e-39
0.0555758924622 -0.117503315492 0.858 1.0298544587e-38
0.057297023997 -0.117777215994 0.86 8.82843396027e-39
0.0590255582481 -0.118051116496 0.862 1.86039242773e-38
0.0607614952154 -0.118325016998 0.864 1.47286193612e-38
0.0627213643502 -0.119009768254 0.869 1.53789353538e-38
0.0644776587873 -0.119283668757 0.871 1.36258493178e-38
0.0663931116244 -0.119831469761 0.875 1.6854438177e-38
0.0682456413732 -0.120242320515 0.878 1.67593867009e-38
0.0700296959964 -0.120516221017 0.88 1.40907174717e-38
0.0718211533358 -0.120790121519 0.882 1.74062428876e-38
0.0737032939496 -0.121200972273 0.885 1.56587690519e-38
0.0755114074007 -0.121474872775 0.887 7.08326666189e-39
0.0771529597355 -0.121474872775 0.887 1.46936793853e-39
0.078972177261 -0.121748773277 0.889 1.98006934216e-38
0.0807987975028 -0.12202267378 0.891 4.49993931174e-39
0.0824477525538 -0.12202267378 0.891 2.18257350558e-38
0.0840967076049 -0.12202267378 0.891 1.94196663562e-38
-0.0680624241453 -0.127398896477 0.943 2.04370048374e-38
-0.0661062563686 -0.126993597761 0.94 1.59256099107e-38
-0.0643666180432 -0.126993597761 0.94 2.20405190779e-39
-0.0624937308247 -0.126723398617 0.938 1.37753384367e-39
-0.060563472555 -0.1263180999 0.935 3.67341984632e-40
-0.0587072414481 -0.126047900756 0.933 9.1835496158e-40
-0.0567973406482 -0.12564260204 0.93 1.83670992316e-40
-0.054957765653 -0.125372402896 0.928 9.1835496158e-41
-0.0530682223228 -0.12496710418 0.925 2.38772290011e-39
-0.0512453034392 -0.124696905035 0.923 7.5474439756e-39
-0.0495371266579 -0.124696905035 0.923 1.92854541932e-39
-0.0476734928347 -0.124291606319 0.92 0.0
-0.0458709314209 -0.124021407175 0.918 1.79515259551e-38
-0.0440276550675 -0.123616108459 0.915 1.65303893084e-39
-0.0423342837187 -0.123616108459 0.915 0.0
-0.04064091237 -0.123616108459 0.915 9.11646665571e-39
-0.038862409784 -0.123345909315 0.913 1.40039070318e-38
-0.0371727397934 -0.123345909315 0.913 9.85230249232e-39
-0.0353664770214 -0.122940610598 0.91 9.1835496158e-40
-0.0336083319052 -0.122670411454 0.908 5.51012976948e-40
