# .PCD v0.7 - Point Cloud Data file format
VERSION 0.7
FIELDS x y z rgb
SIZE 4 4 4 4
TYPE F F F F
COUNT 1 1 1 1
WIDTH 861
HEIGHT 1
VIEWPOINT 0 0 0 1 0 0 0
POINTS 861
DATA ascii
-0.0138615862318 -0.131685069202 0.749 2.02038091548e-39
-0.0124754276087 -0.131685069202 0.749 2.57139389242e-39
-0.0110596581204 -0.131333440179 0.747 2.47955839627e-39
-0.00967720085531 -0.131333440179 0.747 6.42852677001e-40
-0.00829474359027 -0.131333440179 0.747 1.83674775822e-39
-0.00690303292987 -0.131157625668 0.746 7.54457972154e-39
-0.0055224263439 -0.131157625668 0.746 6.43962645515e-39
-0.00414737179513 -0.131333440179 0.747 7.44589467849e-39
-0.00276491453009 -0.131333440179 0.747 7.35369764732e-39
-0.00138245726504 -0.131333440179 0.747 7.35549691455e-39
0.0 -0.131333440179 0.747 7.63135512894e-39
0.00138245726504 -0.131333440179 0.747 7.99978732378e-39
0.00276491453009 -0.131333440179 0.747 8.18845534642e-39
0.00415847586955 -0.131685069202 0.749 5.05099012375e-39
0.00554463449273 -0.131685069202 0.749 5.60196526564e-39
0.00693079311592 -0.131685069202 0.749 1.78721984491e-38
0.0083169517391 -0.131685069202 0.749 1.8334705415e-38
0.00970311036229 -0.131685069202 0.749 1.492523695e-38
0.011104074418 -0.131860883714 0.75 1.43735163173e-38
0.0125253959435 -0.132212512737 0.752 1.48330665435e-38
0.0139541201853 -0.132564141761 0.754 1.49259712304e-38
0.0153495322039 -0.132564141761 0.754 1.4464983272e-38
0.0168115686689 -0.133091585295 0.757 1.45571789019e-38
0.0183087680363 -0.133794843342 0.761 1.27143649226e-38
0.0197171348083 -0.133794843342 0.761 1.1977871877e-38
0.0211532617663 -0.133970657853 0.762 1.25339365349e-38
0.0226227009477 -0.134322286877 0.764 1.14301099125e-38
0.0240995428453 -0.1346739159 0.766 1.29974286137e-38
0.0255504752359 -0.134849730412 0.767 1.19800593039e-38
0.027040271887 -0.135201359435 0.769 1.33611958859e-38
0.0285374712543 -0.135552988458 0.771 9.21454353523e-39
0.0300809375984 -0.136080431993 0.774 1.43677373625e-38
0.0315947930774 -0.136432061016 0.776 1.41808083512e-38
0.0332011825099 -0.137135319063 0.78 1.38124083863e-38
0.0346891284819 -0.137311133574 0.781 1.49194972315e-38
0.0361345088353 -0.137311133574 0.781 1.37223679534e-38
0.0375798891887 -0.137311133574 0.781 9.74970642525e-39
0.0392251428817 -0.138014391621 0.785 1.45488215578e-38
0.041040659049 -0.139245093202 0.792 1.24273061296e-38
0.0426137362582 -0.139596722225 0.794 1.22487344624e-38
0.0440831754396 -0.139596722225 0.794 1.62156688837e-38
0.0456673567232 -0.139948351249 0.796 1.57567996886e-38
0.0472589407231 -0.140299980272 0.798 1.60337635275e-38
0.0488579274393 -0.140651609295 0.8 1.61245242277e-38
0.0504643168718 -0.141003238318 0.802 1.58486604081e-38
0.0520133352531 -0.14117905283 0.803 1.59412119678e-38
0.0536326794391 -0.141530681853 0.805 1.62170757874e-38
0.0552594263413 -0.141882310876 0.807 1.7139755156e-38
0.0567529243505 -0.141882310876 0.807 1.75085180573e-38
0.0585351282946 -0.142585568923 0.811 1.43695926816e-38
0.0601840833457 -0.142937197946 0.813 1.57495731924e-38
0.0621439524805 -0.143992085016 0.819 1.51968099937e-38
0.0639705727222 -0.144695343062 0.823 1.13235215461e-38
0.0658119983966 -0.145398601109 0.827 1.27060832487e-38
0.0673425099872 -0.145398601109 0.827 1.18802826494e-38
0.0692061438103 -0.146101859155 0.831 9.48938020304e-39
0.0709143205917 -0.146453488178 0.833 9.12420042194e-39
0.0728038639218 -0.147156746225 0.837 7.09769583217e-39
0.0747082126845 -0.147860004271 0.841 1.43710724528e-38
0.0768087334286 -0.148914891341 0.847 1.80551267532e-38
0.0785613265075 -0.149266520364 0.849 1.73199677437e-38
0.0803213223028 -0.149618149388 0.851 1.87066478625e-38
0.0818962501911 -0.149618149388 0.851 2.07339581989e-38
0.0839616080328 -0.150497221946 0.856 1.70453763032e-38
-0.0501348959974 -0.134648006393 0.774 1.51967119028e-38
-0.0486395473091 -0.13447404256 0.773 1.66718601975e-38
-0.0472089723882 -0.13447404256 0.773 7.73462942446e-39
-0.0457783974674 -0.13447404256 0.773 0.0
-0.0443478225465 -0.13447404256 0.773 6.13628597528e-42
-0.0428062068815 -0.134126114895 0.771 0.0
-0.0412719939327 -0.13377818723 0.769 1.53937779071e-38
-0.0396933646863 -0.133256295733 0.766 1.06914056179e-38
-0.0381758078492 -0.132908368067 0.764 1.34602060302e-38
-0.0366656537283 -0.132560440402 0.762 1.56671628297e-38
-0.0352554362772 -0.132560440402 0.762 1.12431430662e-38
-0.0338008025285 -0.13238647657 0.761 8.26519465422e-40
-0.0323924357565 -0.13238647657 0.761 0.0
-0.0309026391054 -0.132038548905 0.759 5.25444745038e-39
-0.0294202451706 -0.13169062124 0.757 8.76002397054e-39
-0.0280192811148 -0.13169062124 0.757 5.99850190248e-39
-0.0265479912544 -0.131342693575 0.755 8.37403350594e-40
-0.0251507285568 -0.131342693575 0.755 6.91358343084e-39
-0.0237534658592 -0.131342693575 0.755 2.52233723578e-44
-0.0223562031616 -0.131342693575 0.755 1.19819286361e-39
-0.020931180278 -0.131168729742 0.754 1.38398962569e-39
-0.0195357682594 -0.131168729742 0.754 1.38398962569e-39
-0.0180922385851 -0.130820802077 0.752 1.57017174486e-39
-0.016656111627 -0.130472874412 0.75 4.64224957858e-40
-0.0152681023248 -0.130472874412 0.75 3.04174672847e-39
-0.0138615862318 -0.130298910579 0.749 4.97606830005e-39
-0.0124754276087 -0.130298910579 0.749 2.75685854677e-39
-0.0110596581204 -0.129950982914 0.747 2.66325461195e-39
-0.00967720085531 -0.129950982914 0.747 2.38774812348e-39
-0.00829474359027 -0.129950982914 0.747 2.02038231677e-39
-0.00690303292987 -0.129777019082 0.746 0.0
-0.0055224263439 -0.129777019082 0.746 6.44648861373e-39
-0.00414737179513 -0.129950982914 0.747 6.90021924739e-39
-0.00276491453009 -0.129950982914 0.747 7.1693063876e-39
-0.00138245726504 -0.129950982914 0.747 7.35369764732e-39
0.0 -0.129950982914 0.747 7.62808589962e-39
0.00138245726504 -0.129950982914 0.747 6.52036927266e-39
0.00276491453009 -0.129950982914 0.747 4.77545140541e-39
0.00415847586955 -0.130298910579 0.749 9.00455896035e-39
0.00554463449273 -0.130298910579 0.749 1.98090339501e-38
0.00693079311592 -0.130298910579 0.749 1.6030888063e-38
0.0083169517391 -0.130298910579 0.749 1.53844284438e-38
0.00971606511577 -0.130472874412 0.75 1.5019236051e-38
0.011104074418 -0.130472874412 0.75 1.49270404211e-38
0.0125587081668 -0.131168729742 0.754 1.46490256084e-38
0.0139541201853 -0.131168729742 0.754 1.45571789019e-38
0.0153698896736 -0.131342693575 0.755 1.26214532292e-38
0.0168115686689 -0.13169062124 0.757 1.24366611981e-38
0.0183087680363 -0.13238647657 0.761 1.28058599032e-38
0.0197430443153 -0.132560440402 0.762 1.20711633223e-38
0.0212643025105 -0.133256295733 0.766 1.23506396893e-38
0.0226819226779 -0.133256295733 0.766 1.21676749514e-38
0.0240995428453 -0.133256295733 0.766 1.21673274294e-38
0.0255504752359 -0.133430259565 0.767 1.2348844626e-38
0.027040271887 -0.13377818723 0.769 1.3730314717e-38
0.0286114984171 -0.13447404256 0.773 1.16998570643e-38
0.0300809375984 -0.134648006393 0.774 1.43673842353e-38
0.0316762229565 -0.135343861723 0.778 1.46435955769e-38
0.0332011825099 -0.135691789388 0.78 1.33532126886e-38
0.0346891284819 -0.135865753221 0.781 1.43673421963e-38
0.0361345088353 -0.135865753221 0.781 9.66392033456e-39
0.0375798891887 -0.135865753221 0.781 1.37144898535e-38
0.0393250795514 -0.136909536216 0.787 1.16930075174e-38
0.0411442970769 -0.138127283044 0.794 1.02182529876e-38
0.0427210756443 -0.138475210709 0.796 1.36334695789e-38
0.0441942161837 -0.138475210709 0.796 1.66766260136e-38
0.0457820988255 -0.138823138374 0.798 1.5849016338e-38
0.0473773841836 -0.139171066039 0.8 1.56639020082e-38
0.0489800722579 -0.139518993704 0.802 1.61248647433e-38
0.0505272399602 -0.139692957537 0.803 1.61245242277e-38
0.052142882788 -0.140040885202 0.805 1.60337635275e-38
0.0537659283321 -0.140388812867 0.807 1.64947234599e-38
0.0553963765925 -0.140736740532 0.809 1.77847714379e-38
0.0568935759598 -0.140736740532 0.809 1.65876771923e-38
0.0586794812621 -0.141432595862 0.813 1.49245180839e-38
0.0603321376713 -0.141780523527 0.815 1.58421345612e-38
0.0625992195316 -0.143520161853 0.825 1.3722718278e-38
0.064281486806 -0.143868089518 0.827 1.16003788863e-38
0.0659711567966 -0.144216017183 0.829 1.40940371477e-38
0.0675053697453 -0.144216017183 0.829 8.56771257189e-39
0.0692061438103 -0.144563944848 0.831 8.66394534263e-39
0.0710845830661 -0.145259800178 0.835 6.63637016084e-39
0.0728038639218 -0.145607727844 0.837 7.64549563174e-39
0.0748858778752 -0.146651510839 0.843 1.78733419086e-38
0.0768087334286 -0.147347366169 0.847 1.8698349373e-38
0.0785613265075 -0.147695293834 0.849 1.94413640616e-38
0.0806044762005 -0.148565112997 0.854 1.99974721598e-38
0.082184956126 -0.148565112997 0.854 1.24309803342e-38
0.0839616080328 -0.148913040662 0.856 1.02855755697e-38
0.0855457893165 -0.148913040662 0.856 1.5353902558e-38
-0.0501348959974 -0.133215580793 0.774 1.48279476002e-38
-0.0487024703975 -0.133215580793 0.774 1.63030370404e-38
-0.0472700447975 -0.133215580793 0.774 1.05919904984e-38
-0.0458376191976 -0.133215580793 0.774 0.0
-0.0444051935977 -0.133215580793 0.774 5.41741986308e-42
-0.0429172476257 -0.13304346764 0.773 0.0
-0.0414866727048 -0.13304346764 0.773 1.55774741228e-38
-0.0398488217282 -0.132355015026 0.769 4.33315676852e-39
-0.0382757445189 -0.131838675565 0.766 6.00454710405e-39
-0.0367618890399 -0.131494449258 0.764 1.32754420251e-38
-0.0353479702307 -0.131494449258 0.764 1.39197296317e-38
-0.0338452188261 -0.131150222951 0.762 1.52987110167e-38
-0.0323924357565 -0.130978109798 0.761 1.05978283078e-38
-0.0309840689844 -0.130978109798 0.761 0.0
-0.0294979736915 -0.130633883491 0.759 0.0
-0.0280192811148 -0.130289657184 0.757 2.95814105819e-42
-0.0266183170591 -0.130289657184 0.757 9.40506827834e-39
-0.0251507285568 -0.129945430877 0.755 1.124245643e-38
-0.0237534658592 -0.129945430877 0.755 4.34402523941e-44
-0.0223562031616 -0.129945430877 0.755 2.7912323981e-40
-0.020931180278 -0.129773317723 0.754 1.09861799603e-42
-0.0194839492455 -0.129429091417 0.752 4.62764804859e-40
-0.0180922385851 -0.129429091417 0.752 1.01809518238e-39
-0.016656111627 -0.12908486511 0.75 7.40802038359e-40
-0.015247744855 -0.128912751956 0.749 7.40451713743e-40
-0.0138615862318 -0.128912751956 0.749 3.73081703142e-40
-0.0124421153854 -0.128568525649 0.747 2.76407102997e-39
-0.0110596581204 -0.128568525649 0.747 7.37420845295e-39
-0.00967720085531 -0.128568525649 0.747 3.86677661362e-39
-0.00829474359027 -0.128568525649 0.747 2.66323919767e-39
-0.00690303292987 -0.128396412496 0.746 3.03057137321e-39
-0.0055224263439 -0.128396412496 0.746 0.0
-0.00414181975792 -0.128396412496 0.746 5.52381204769e-39
-0.00276121317195 -0.128396412496 0.746 7.36119319281e-39
-0.00138245726504 -0.128568525649 0.747 7.26509915062e-39
0.0 -0.128568525649 0.747 4.3162893389e-39
0.00138245726504 -0.128568525649 0.747 6.79584913647e-39
0.00276491453009 -0.128568525649 0.747 1.47228362024e-38
0.00414737179513 -0.128568525649 0.747 1.89818951107e-38
0.00554463449273 -0.128912751956 0.749 1.50177857071e-38
0.00693079311592 -0.128912751956 0.749 1.51100023564e-38
0.0083169517391 -0.128912751956 0.749 1.53869465771e-38
0.00971606511577 -0.12908486511 0.75 1.52021951837e-38
0.0111336852831 -0.129429091417 0.752 1.42813178849e-38
0.0125587081668 -0.129773317723 0.754 1.2806577368e-38
0.013972626976 -0.129945430877 0.755 1.3359384007e-38
0.0153698896736 -0.129945430877 0.755 1.52047007054e-38
0.0168115686689 -0.130289657184 0.757 1.31760885627e-38
0.0183087680363 -0.130978109798 0.761 1.29920406211e-38
0.0197948633292 -0.131494449258 0.764 1.2164062404e-38
0.0212643025105 -0.131838675565 0.766 1.28090941001e-38
0.022711533543 -0.132010788719 0.767 1.23491949506e-38
0.0241310043894 -0.132010788719 0.767 1.30842558691e-38
0.0256170996824 -0.132355015026 0.769 1.35441606238e-38
0.0271105976916 -0.132699241333 0.771 1.05067284933e-38
0.0286114984171 -0.13304346764 0.773 1.28046197541e-38
0.0301586661194 -0.1335598071 0.776 1.3445039777e-38
0.0316762229565 -0.133904033407 0.778 1.30751964746e-38
0.0332437481285 -0.134420372867 0.781 1.26156420445e-38
0.0346891284819 -0.134420372867 0.781 8.46866459254e-39
0.0362270427888 -0.134764599174 0.783 9.57250382665e-39
0.0379648304352 -0.135797278095 0.789 4.59539155924e-39
0.0396748578956 -0.136657843863 0.794 9.29519526835e-39
0.0411442970769 -0.136657843863 0.794 1.1974646088e-38
0.0427210756443 -0.13700207017 0.796 1.35426990695e-38
0.0441942161837 -0.13700207017 0.796 1.54780982396e-38
0.0457820988255 -0.137346296477 0.798 1.60327041458e-38
0.0473773841836 -0.137690522784 0.8 1.63099888821e-38
0.0490411446672 -0.138206862244 0.803 1.61259591574e-38
0.0506530861369 -0.138551088551 0.805 1.630891829e-38
0.0522724303229 -0.138895314858 0.807 1.64936668809e-38
0.0538991772251 -0.139239541165 0.809 1.64021901171e-38
0.0553963765925 -0.139239541165 0.809 1.81546427662e-38
0.0570342275691 -0.139583767472 0.811 5.7104005434e-39
0.0586794812621 -0.139927993779 0.813 8.47412685395e-39
0.0606282463224 -0.1409606727 0.819 1.63059671555e-38
0.0625992195316 -0.141993351621 0.825 6.25561354601e-39
0.064281486806 -0.142337577927 0.827 9.7615235752e-39
0.0659711567966 -0.142681804234 0.829 9.11806974116e-39
0.0675053697453 -0.142681804234 0.829 9.3042756824e-39
0.0693727049266 -0.143370256848 0.833 8.66177753391e-39
0.0712548455405 -0.144058709462 0.837 2.20810306165e-39
0.0731517915869 -0.144747162076 0.841 1.04041814717e-38
0.0750635430659 -0.14543561469 0.845 1.90692016103e-38
0.0769900999774 -0.146124067304 0.849 2.05465597526e-38
0.0787463944145 -0.146468293611 0.851 1.84279702356e-38
0.0807932454656 -0.147328859378 0.856 8.09382566112e-39
0.0823774267492 -0.147328859378 0.856 1.20305046473e-38
0.0839616080328 -0.147328859378 0.856 1.36025317114e-38
0.0855457893165 -0.147328859378 0.856 1.57251835927e-38
-0.0488283165742 -0.132123680142 0.776 1.63026839132e-38
-0.0472700447975 -0.131783155193 0.774 1.24351996438e-38
-0.0458376191976 -0.131783155193 0.774 0.0
-0.0445199357 -0.132123680142 0.776 4.63171181413e-40
-0.0429727679978 -0.131783155193 0.774 0.0
-0.0414866727048 -0.131612892719 0.773 1.47488050656e-38
-0.0399524597561 -0.13127236777 0.771 4.61228561352e-39
-0.0384256495236 -0.130931842821 0.769 6.28004238214e-39
-0.0368581243516 -0.130421055398 0.766 3.96943433782e-39
-0.0354405041842 -0.130421055398 0.766 7.83975063136e-39
-0.0339340514215 -0.130080530449 0.764 1.40083827791e-38
-0.0324350013751 -0.1297400055 0.762 1.41030601085e-38
-0.0309840689844 -0.129569743026 0.761 1.52083132528e-38
-0.0295757022124 -0.129569743026 0.761 8.84861265815e-39
-0.0280933082776 -0.129229218077 0.759 0.0
-0.0266183170591 -0.128888693128 0.757 0.0
-0.0252173530033 -0.128888693128 0.757 4.51799364116e-39
-0.0237534658592 -0.128548168179 0.755 3.32046499302e-39
-0.0223562031616 -0.128548168179 0.755 8.94049439716e-39
-0.020931180278 -0.128377905705 0.754 4.78950362641e-39
-0.0194839492455 -0.128037380756 0.752 7.2834547592e-39
-0.0180922385851 -0.128037380756 0.752 3.92363570011e-44
-0.016656111627 -0.127696855807 0.75 1.01774766036e-39
-0.015247744855 -0.127526593333 0.749 1.10994469152e-39
-0.0138615862318 -0.127526593333 0.749 1.01809518238e-39
-0.0124421153854 -0.127186068384 0.747 1.10994469152e-39
-0.0110596581204 -0.127186068384 0.747 3.94605647554e-42
-0.00967720085531 -0.127186068384 0.747 4.05625458677e-39
-0.00828363951585 -0.12701580591 0.746 6.91147027276e-39
-0.00690303292987 -0.12701580591 0.746 3.03810475376e-39
-0.00550762091134 -0.126675280961 0.744 3.12244610573e-39
-0.00413071568351 -0.126675280961 0.744 5.6051938573e-45
-0.00275381045567 -0.126675280961 0.744 2.02038091548e-39
-0.00138060658597 -0.12701580591 0.746 4.59187570139e-39
0.0 -0.12701580591 0.746 9.84362004703e-39
0.00138245726504 -0.127186068384 0.747 2.07285253647e-38
0.00276491453009 -0.127186068384 0.747 1.79666459656e-38
0.00414737179513 -0.127186068384 0.747 1.41884160006e-38
0.00554463449273 -0.127526593333 0.749 1.45586306471e-38
0.00693079311592 -0.127526593333 0.749 1.44657105459e-38
0.00832805581352 -0.127696855807 0.75 1.49273907458e-38
0.00974197462275 -0.128037380756 0.752 1.22519448372e-38
0.0111632961483 -0.128377905705 0.754 1.39129109134e-38
0.0125587081668 -0.128377905705 0.754 1.48355846769e-38
0.013972626976 -0.128548168179 0.755 1.43756995404e-38
0.0154106046132 -0.128888693128 0.757 9.21629796091e-39
0.0168559849666 -0.129229218077 0.759 1.26236336496e-38
0.0183328268642 -0.1297400055 0.762 1.19807627557e-38
0.0197948633292 -0.130080530449 0.764 1.21637274936e-38
0.0212920626966 -0.130591317872 0.767 1.33611958859e-38
0.022711533543 -0.130591317872 0.767 1.23488418234e-38
0.0241939274778 -0.130931842821 0.769 1.40065498807e-38
0.0256170996824 -0.130931842821 0.769 1.33604798224e-38
0.0271809234963 -0.131612892719 0.773 9.58183927702e-39
0.0286485119985 -0.131783155193 0.774 1.31745793643e-38
0.0301586661194 -0.132123680142 0.776 1.3075193672e-38
0.0316762229565 -0.132464205091 0.778 1.15082435123e-38
0.0333288793657 -0.133315517463 0.783 1.08621286125e-38
0.0347779610773 -0.133315517463 0.783 6.16271166172e-39
0.0363195767423 -0.133656042412 0.785 1.24334592311e-38
0.0379648304352 -0.134337092309 0.789 3.30613391363e-39
0.0396748578956 -0.135188404681 0.794 1.06810836535e-38
0.0412479351048 -0.13552892963 0.796 1.23434538308e-38
0.0427210756443 -0.13552892963 0.796 1.39125577862e-38
0.0443052569279 -0.135869454579 0.798 1.47430219068e-38
0.0458968409278 -0.136209979528 0.8 1.67720614455e-38
0.047495827644 -0.136550504477 0.802 1.60326817251e-38
0.0491632894858 -0.1370612919 0.805 1.69550079665e-38
0.0509047784904 -0.137742341797 0.809 1.61259759729e-38
0.0524019778577 -0.137742341797 0.809 1.63096385575e-38
0.0540324261181 -0.138082866746 0.811 1.79673494174e-38
0.0555333268436 -0.138082866746 0.811 1.01340013187e-38
0.0571748791784 -0.138423391695 0.813 7.7416219038e-39
0.0589681871969 -0.139104441593 0.817 4.88107567846e-39
0.060776300648 -0.13978549149 0.821 1.03166101268e-38
0.0625992195316 -0.140466541388 0.825 4.78518762714e-39
0.064281486806 -0.140807066337 0.827 8.84617720142e-39
0.0659711567966 -0.141147591286 0.829 1.24417857466e-38
0.0676682295035 -0.141488116234 0.831 8.56708058628e-39
0.0695392660429 -0.142169166132 0.835 6.30584308946e-44
0.0712548455405 -0.142509691081 0.837 1.77854174365e-38
0.0733257554194 -0.143531265927 0.843 1.58464379488e-38
0.0752412082565 -0.144212315825 0.847 2.08250594146e-38
0.0771714665262 -0.144893365723 0.851 1.70446462267e-38
0.079023996275 -0.145404153146 0.854 7.0742184777e-39
0.0807932454656 -0.145744678095 0.856 1.38711494166e-38
0.0825698973724 -0.146085203044 0.858 1.37894284927e-38
0.0843539519956 -0.146425727992 0.86 1.3787608206e-38
-0.0489541627509 -0.131024376775 0.778 1.62105135067e-38
-0.0473921896161 -0.130687553184 0.776 1.41858221971e-38
-0.0459560626581 -0.130687553184 0.776 2.80259692865e-45
-0.0446346778023 -0.131024376775 0.778 1.88693246012e-40
-0.0430838087419 -0.130687553184 0.776 0.0
-0.0415403423978 -0.130350729593 0.774 1.18928859278e-38
-0.040056097784 -0.130182317798 0.773 1.21694672121e-38
-0.0385255861933 -0.129845494207 0.771 1.42903044119e-38
-0.037002477319 -0.129508670617 0.769 6.91324291532e-39
-0.0354405041842 -0.12900343523 0.766 1.23523843059e-38
-0.0340228840168 -0.12900343523 0.766 1.1148776825e-38
-0.0325201326123 -0.12866661164 0.764 6.36077258796e-39
-0.031024783924 -0.128329788049 0.762 1.3368694234e-38
-0.0296145664729 -0.128329788049 0.762 1.42881674318e-38
-0.0281673354404 -0.128161376254 0.761 1.49306529686e-38
-0.0266886428637 -0.127824552663 0.759 8.10887420533e-39
-0.0252839774498 -0.127824552663 0.759 0.0
-0.0237534658592 -0.127150905482 0.755 2.80259692865e-45
-0.0223562031616 -0.127150905482 0.755 7.55888978145e-39
-0.020931180278 -0.126982493686 0.754 1.01396793801e-38
-0.0195357682594 -0.126982493686 0.754 1.15222705099e-38
-0.0180922385851 -0.126645670096 0.752 3.64337600724e-44
-0.016656111627 -0.126308846505 0.75 7.41508292785e-40
-0.0152681023248 -0.126308846505 0.75 1.38687770183e-39
-0.0138615862318 -0.12614043471 0.749 1.20178999677e-39
-0.0124421153854 -0.125803611119 0.747 1.10994469152e-39
-0.0110596581204 -0.125803611119 0.747 1.11029221354e-39
-0.00966424610182 -0.125635199324 0.746 1.20143406696e-39
-0.00828363951585 -0.125635199324 0.746 9.43816554677e-41
-0.00688452613918 -0.125298375733 0.744 4.97856401262e-39
-0.00550762091134 -0.125298375733 0.744 7.28095344144e-39
-0.00413071568351 -0.125298375733 0.744 2.30163412895e-39
-0.00275381045567 -0.125298375733 0.744 2.93873587706e-39
-0.00138060658597 -0.125635199324 0.746 0.0
0.0 -0.125635199324 0.746 1.92609608973e-38
0.00138245726504 -0.125803611119 0.747 1.59390189357e-38
0.00276491453009 -0.125803611119 0.747 1.58482680446e-38
0.00414737179513 -0.125803611119 0.747 1.60308614384e-38
0.00554463449273 -0.12614043471 0.749 1.42806018214e-38
0.00693079311592 -0.12614043471 0.749 1.29902427552e-38
0.00832805581352 -0.126308846505 0.75 1.32686106951e-38
0.00974197462275 -0.126645670096 0.752 1.49281334339e-38
0.0111632961483 -0.126982493686 0.754 1.49277859119e-38
0.0125753642784 -0.127150905482 0.755 1.44678797559e-38
0.0140096405574 -0.127487729072 0.757 1.66837964578e-38
0.0154106046132 -0.127487729072 0.757 1.10617001384e-38
0.0169004012642 -0.128161376254 0.761 1.26275811074e-38
0.0183328268642 -0.128329788049 0.762 1.12428656091e-38
0.0198466823432 -0.12900343523 0.766 1.29020156026e-38
0.0212920626966 -0.129171847026 0.767 1.37310574052e-38
0.022711533543 -0.129171847026 0.767 1.33626182039e-38
0.0242568505662 -0.129845494207 0.771 1.28090814884e-38
0.0256837241289 -0.129845494207 0.771 1.29012925325e-38
0.0272160863986 -0.130350729593 0.774 1.1233493725e-38
0.0287225391613 -0.130687553184 0.776 1.31713143388e-38
0.0301586661194 -0.130687553184 0.776 1.16940416757e-38
0.0317576528356 -0.131361200365 0.78 9.94271567053e-39
0.0333288793657 -0.131866435751 0.783 9.84795846708e-39
0.0347779610773 -0.131866435751 0.783 1.14149492644e-38
0.0363195767423 -0.132203259342 0.785 4.8705463218e-39
0.0379648304352 -0.132876906523 0.789 9.20415150582e-39
0.0397747945654 -0.134055789091 0.796 1.03158492217e-38
0.0413515731327 -0.134392612681 0.798 1.2989176367e-38
0.0428284150303 -0.134392612681 0.798 1.40969686641e-38
0.0444162976721 -0.134729436272 0.8 1.57568151029e-38
0.0460115830302 -0.135066259863 0.802 1.58486632107e-38
0.0475550493743 -0.135234671658 0.803 1.63089351056e-38
0.0491632894858 -0.135571495249 0.805 1.66787798093e-38
0.0509047784904 -0.13624514243 0.809 1.63099916847e-38
0.0524019778577 -0.13624514243 0.809 1.66791329365e-38
0.0540324261181 -0.136581966021 0.811 1.47429938808e-38
0.0556702770948 -0.136918789611 0.813 7.64583054208e-39
0.0573155307877 -0.137255613202 0.815 6.91330317115e-39
0.0591125401644 -0.137929260384 0.819 7.64655501338e-39
0.0609243549736 -0.138602907565 0.823 3.31406806553e-39
0.0627509752153 -0.139276554746 0.827 9.39610136946e-39
0.0644369438478 -0.139613378337 0.829 1.0960219505e-38
0.0661303151966 -0.139950201928 0.831 1.22534190031e-38
0.0676682295035 -0.139950201928 0.831 4.97469082366e-39
0.0697058271592 -0.1409606727 0.837 1.05993529205e-38
0.0719358954381 -0.142307967062 0.845 1.95361002456e-38
0.073499719252 -0.142307967062 0.845 2.0729226014e-38
0.0752412082565 -0.142644790653 0.847 1.52911888466e-38
0.0774435163495 -0.14382367322 0.854 7.07240940139e-39
0.0792090641819 -0.144160496811 0.856 1.46108808629e-38
0.0809820147307 -0.144497320402 0.858 1.40627657712e-38
0.0827623679957 -0.144834143992 0.86 1.46152389011e-38
0.084550123977 -0.145170967583 0.862 1.30489865881e-38
-0.0490800089277 -0.129917670691 0.78 1.57484591602e-38
-0.0476364792533 -0.129917670691 0.78 1.63045294233e-38
-0.046192949579 -0.129917670691 0.78 8.26519465422e-40
-0.0447494199046 -0.129917670691 0.78 6.47887542384e-40
-0.0430838087419 -0.129251426226 0.776 2.88106964265e-42
-0.0415403423978 -0.128918303993 0.774 0.0
-0.0401079167979 -0.128918303993 0.774 1.43821525198e-38
-0.0386255228631 -0.128751742877 0.773 1.41033950189e-38
-0.0370987126306 -0.128418620644 0.771 1.26282999735e-38
-0.0354867711609 -0.127752376179 0.767 7.55314165515e-39
-0.0340228840168 -0.127585815063 0.766 1.08728709665e-38
-0.0326052638495 -0.127585815063 0.766 8.20322082834e-39
-0.031106213803 -0.127252692831 0.764 1.01429612211e-38
-0.0296922949938 -0.127252692831 0.764 8.7599721225e-39
-0.0282043490218 -0.126919570598 0.762 1.28137800421e-38
-0.0267589686684 -0.126753009482 0.761 1.42881674318e-38
-0.0253506018964 -0.126753009482 0.761 1.50224730505e-38
-0.0239422351243 -0.126753009482 0.761 8.75462196496e-39
-0.0223562031616 -0.125753642784 0.755 0.0
-0.020958940464 -0.125753642784 0.755 0.0
-0.0195357682594 -0.125587081668 0.754 4.97682640252e-39
-0.0181403562409 -0.125587081668 0.754 1.86927609947e-40
-0.016656111627 -0.124920837203 0.75 1.38687770183e-39
-0.0152681023248 -0.124920837203 0.75 1.20284657581e-39
-0.0138615862318 -0.124754276087 0.749 1.3861714474e-39
-0.0124754276087 -0.124754276087 0.749 7.45105425943e-40
-0.0110596581204 -0.124421153854 0.747 7.40802038359e-40
-0.00966424610182 -0.124254592738 0.746 5.56770912338e-40
-0.00828363951585 -0.124254592738 0.746 9.2484297347e-40
-0.00688452613918 -0.123921470505 0.744 7.40802038359e-40
-0.00550762091134 -0.123921470505 0.744 8.32299821587e-40
-0.00413071568351 -0.123921470505 0.744 1.96181785005e-44
-0.00275381045567 -0.123921470505 0.744 1.54844867593e-38
-0.00138060658597 -0.124254592738 0.746 1.76964994437e-38
0.0 -0.124254592738 0.746 1.49291928156e-38
0.00138245726504 -0.124421153854 0.747 1.44660636731e-38
0.00276491453009 -0.124421153854 0.747 1.42813206875e-38
0.00414737179513 -0.124421153854 0.747 1.31721004673e-38
0.00554463449273 -0.124754276087 0.749 1.38192635383e-38
0.00694004651127 -0.124920837203 0.75 1.63099748691e-38
0.00835026396236 -0.125253959435 0.752 1.63110454611e-38
0.00976788412972 -0.125587081668 0.754 1.3178207326e-38
0.0111781015808 -0.125753642784 0.755 1.76046205073e-38
0.0125753642784 -0.125753642784 0.755 1.95404512773e-38
0.0140096405574 -0.126086765017 0.757 1.17052520634e-38
0.0154513195527 -0.126419887249 0.759 1.20736968699e-38
0.0169226094131 -0.126919570598 0.762 1.17945960509e-38
0.01838094452 -0.127252692831 0.764 1.29009436092e-38
0.0198725918501 -0.127752376179 0.767 1.27176313493e-38
0.0212920626966 -0.127752376179 0.767 1.31775333014e-38
0.0227707552732 -0.128085498412 0.769 1.23488418234e-38
0.0242568505662 -0.128418620644 0.771 1.44682300805e-38
0.0257503485754 -0.128751742877 0.773 1.10562701069e-38
0.0272160863986 -0.128918303993 0.774 1.21514871516e-38
0.0287225391613 -0.129251426226 0.776 1.20617493992e-38
0.0302363946403 -0.129584548458 0.778 1.21546695004e-38
0.0317983677751 -0.130084231807 0.781 1.02189536368e-38
0.0333288793657 -0.13041735404 0.783 1.04043944691e-38
0.0348667936726 -0.130750476272 0.785 1.04977013286e-38
0.0364121106958 -0.131083598505 0.787 3.95109414352e-39
0.0382054187143 -0.132249526319 0.794 1.02228800751e-38
0.0397747945654 -0.132582648551 0.796 1.25256983013e-38
0.0413515731327 -0.132915770784 0.798 1.35401655219e-38
0.0429357544164 -0.133248893016 0.8 1.40051457796e-38
0.0445273384163 -0.133582015249 0.802 1.55738559702e-38
0.0460689540813 -0.133748576365 0.803 1.61249039796e-38
0.0475550493743 -0.133748576365 0.803 1.62167198576e-38
0.0492854343044 -0.13441482083 0.807 1.69528401578e-38
0.0510306246671 -0.135081065295 0.811 1.64943675301e-38
0.0525315253926 -0.135081065295 0.811 1.72330227792e-38
0.0541656750111 -0.135414187528 0.813 7.64795911444e-39
0.0558072273459 -0.13574730976 0.815 5.71333766499e-39
0.0575968340063 -0.136413554225 0.819 7.4657734985e-39
0.0592568931318 -0.136746676458 0.821 8.38628505842e-39
0.0610724092991 -0.137412920923 0.825 9.67590984422e-39
0.0627509752153 -0.137746043156 0.827 1.23452699136e-38
0.0644369438478 -0.138079165388 0.829 1.09591124792e-38
0.0661303151966 -0.138412287621 0.831 1.19775425719e-38
0.0678310892616 -0.138745409853 0.833 9.80908925027e-44
0.070205510508 -0.140411021016 0.843 2.0732198168e-38
0.0719358954381 -0.140744143248 0.845 2.06399296706e-38
0.0736736830845 -0.141077265481 0.847 1.40904820535e-38
0.0752412082565 -0.141077265481 0.847 8.63468903329e-39
0.0774435163495 -0.142243193295 0.854 1.3787608206e-38
0.0792090641819 -0.142576315527 0.856 1.47073910908e-38
0.0811707839958 -0.143242559993 0.86 1.20373513916e-38
0.0829548386189 -0.143575682225 0.862 1.96966988587e-38
0.0847462959584 -0.143908804458 0.864 1.12086487032e-38
-0.0490800089277 -0.128474141017 0.78 1.5564418225e-38
-0.0476364792533 -0.128474141017 0.78 1.66740125919e-38
-0.046192949579 -0.128474141017 0.78 6.42848473106e-40
-0.0447494199046 -0.128474141017 0.78 3.7022725817e-40
-0.0431948494861 -0.128144720142 0.778 2.80530143469e-40
-0.0416476817839 -0.127815299268 0.776 0.0
-0.0401079167979 -0.127485878393 0.774 0.0
-0.038675491198 -0.127485878393 0.774 1.05131702624e-38
-0.0371949479422 -0.127321167956 0.773 1.45654647797e-38
-0.0355793051144 -0.126662326207 0.769 1.40094225426e-38
-0.0340673003145 -0.126332905333 0.767 1.41009161219e-38
-0.0326052638495 -0.126168194896 0.766 9.86119933627e-39
-0.0311876436821 -0.126168194896 0.766 5.44137786292e-39
-0.0296922949938 -0.125838774021 0.764 1.15265991209e-38
-0.0282783761846 -0.125838774021 0.764 7.47136327807e-39
-0.0267589686684 -0.12534464271 0.761 8.66961639752e-39
-0.0253506018964 -0.12534464271 0.761 1.18050062972e-38
-0.0239422351243 -0.12534464271 0.761 1.51182658135e-38
-0.0224154248919 -0.124685800961 0.757 1.51150512348e-38
-0.020958940464 -0.124356380087 0.755 8.57022790263e-39
-0.0195357682594 -0.124191669649 0.754 0.0
-0.0181403562409 -0.124191669649 0.754 0.0
-0.0167005279247 -0.123862248775 0.752 4.67192908006e-42
-0.0152681023248 -0.123532827901 0.75 1.10994469152e-39
-0.0138800930225 -0.123532827901 0.75 1.6631170694e-39
-0.0124754276087 -0.123368117463 0.749 1.01774766036e-39
-0.0110596581204 -0.123038696589 0.747 5.59657587174e-40
-0.00966424610182 -0.122873986152 0.746 5.56770912338e-40
-0.00828363951585 -0.122873986152 0.746 1.01704280723e-39
-0.00688452613918 -0.122544565277 0.744 7.40802038359e-40
-0.00550762091134 -0.122544565277 0.744 8.33703922649e-40
-0.00413071568351 -0.122544565277 0.744 8.40779078595e-45
-0.00275381045567 -0.122544565277 0.744 3.59639327233e-39
-0.00138060658597 -0.122873986152 0.746 1.63117194857e-38
0.0 -0.122873986152 0.746 1.40029401359e-38
0.00138245726504 -0.123038696589 0.747 1.22504972958e-38
0.00276491453009 -0.123038696589 0.747 1.40966183395e-38
0.00415847586955 -0.123368117463 0.749 1.53883913158e-38
0.00555203720901 -0.123532827901 0.75 1.63110832962e-38
0.00695855330196 -0.123862248775 0.752 1.40969490459e-38
0.00837247211119 -0.124191669649 0.754 1.21601387683e-38
0.00976788412972 -0.124191669649 0.754 1.72334179454e-38
0.0111781015808 -0.124356380087 0.755 1.81575140268e-38
0.0126086765017 -0.124685800961 0.757 1.82511628032e-38
0.0140466541388 -0.125015221835 0.759 1.13350430221e-38
0.015512391962 -0.125509353147 0.762 1.14276113973e-38
0.0169670257107 -0.125838774021 0.764 1.29009267936e-38
0.0184290621758 -0.126168194896 0.766 1.3453744643e-38
0.0198725918501 -0.126332905333 0.767 1.31786052947e-38
0.0213475830687 -0.126662326207 0.769 1.25332330831e-38
0.0227707552732 -0.126662326207 0.769 1.39136269769e-38
0.0243197736545 -0.127321167956 0.773 1.84315855856e-38
0.0257836607987 -0.127485878393 0.774 1.32682603705e-38
0.0272864122032 -0.127815299268 0.776 1.08607062945e-38
0.0287225391613 -0.127815299268 0.776 1.28900807435e-38
0.0302363946403 -0.128144720142 0.778 1.07702861098e-38
0.0317983677751 -0.128638851454 0.781 8.4676080135e-39
0.0333288793657 -0.128968272328 0.783 9.20801768828e-39
0.0349556262679 -0.129627114077 0.787 8.09989888867e-39
0.0365046446493 -0.129956534951 0.789 8.0066074434e-39
0.0383016540259 -0.131109508012 0.796 1.25274555295e-38
0.0397747945654 -0.131109508012 0.796 1.35383802677e-38
0.0412479351048 -0.131109508012 0.796 1.47397779009e-38
0.0429357544164 -0.131768349761 0.8 1.49256307149e-38
0.0445273384163 -0.132097770635 0.802 1.62192435961e-38
0.0460689540813 -0.132262481072 0.803 1.6401471251e-38
0.0476734928347 -0.132591901947 0.805 1.63099748691e-38
0.049407579123 -0.133250743695 0.809 1.62170729848e-38
0.0510306246671 -0.13358016457 0.811 1.86119915525e-38
0.0525315253926 -0.13358016457 0.811 9.30459097455e-39
0.0541656750111 -0.133909585444 0.813 7.28066057006e-39
0.0558072273459 -0.134239006319 0.815 5.8970058547e-39
0.0575968340063 -0.134897848067 0.819 7.74091564937e-39
0.0594012460992 -0.135556689816 0.823 7.7427149166e-39
0.0610724092991 -0.135886110691 0.825 1.09648507964e-38
0.0627509752153 -0.136215531565 0.827 1.16048181998e-38
0.0644369438478 -0.136544952439 0.829 1.46465467114e-38
0.0664486319965 -0.137533215063 0.835 1.13314879279e-38
0.068319668536 -0.138192056811 0.839 1.25295448655e-38
0.070205510508 -0.13885089856 0.843 2.16544823705e-38
0.0721061579125 -0.139509740309 0.847 1.04019730253e-38
0.0736736830845 -0.139509740309 0.847 1.15712991406e-38
0.0754188734472 -0.139839161183 0.849 1.36039582332e-38
0.0774435163495 -0.140662713369 0.854 1.39698512752e-38
0.0792090641819 -0.140992134244 0.856 1.36947245386e-38
0.0811707839958 -0.141650975993 0.86 1.74786507818e-38
0.0829548386189 -0.141980396867 0.862 1.76771419067e-38
0.0847462959584 -0.142309817741 0.864 1.27763205316e-38
-0.0490800089277 -0.127030611342 0.78 1.49204991599e-38
-0.0476364792533 -0.127030611342 0.78 1.75034229361e-38
-0.046192949579 -0.127030611342 0.78 1.83670992316e-40
-0.0447494199046 -0.127030611342 0.78 7.39367108732e-40
-0.0431948494861 -0.126704891826 0.778 3.72029327995e-40
-0.0416476817839 -0.12637917231 0.776 2.79473564426e-40
-0.0402115548258 -0.12637917231 0.776 1.80206982512e-42
-0.038675491198 -0.126053452793 0.774 0.0
-0.0371949479422 -0.125890593035 0.773 1.54142831076e-44
-0.0355793051144 -0.125239154003 0.769 1.19865206911e-38
-0.0340673003145 -0.124913434487 0.767 1.4564743111e-38
-0.0326478294681 -0.124913434487 0.767 1.39172241101e-38
-0.0311876436821 -0.124750574728 0.766 1.05117479444e-38
-0.0297700235147 -0.124750574728 0.766 1.18939425068e-38
-0.0282783761846 -0.124424855212 0.764 1.20772001161e-38
-0.0267941315707 -0.124099135696 0.762 5.90303844459e-39
-0.0253839141196 -0.124099135696 0.762 7.02123818536e-39
-0.0239422351243 -0.123936275938 0.761 8.67138343488e-39
-0.0224746466221 -0.123610556421 0.759 1.22645593259e-38
-0.020958940464 -0.122959117389 0.755 1.5303736073e-38
-0.0195616777664 -0.122959117389 0.755 1.48406223448e-38
-0.0181403562409 -0.122796257631 0.754 9.21671134396e-39
-0.0167005279247 -0.122470538115 0.752 0.0
-0.0152681023248 -0.122144818598 0.75 0.0
-0.0138615862318 -0.12198195884 0.749 5.55341587904e-40
-0.0124754276087 -0.12198195884 0.749 1.38512047355e-39
-0.0110596581204 -0.121656239324 0.747 1.3861714474e-39
-0.00967720085531 -0.121656239324 0.747 1.3861714474e-39
-0.00828363951585 -0.121493379566 0.746 1.11029221354e-39
-0.00688452613918 -0.12116766005 0.744 1.3861714474e-39
-0.00550762091134 -0.12116766005 0.744 1.3861714474e-39
-0.00413071568351 -0.12116766005 0.744 4.69294855702e-42
-0.00275381045567 -0.12116766005 0.744 0.0
-0.00138060658597 -0.121493379566 0.746 1.49295403376e-38
0.0 -0.121493379566 0.746 1.61248619407e-38
0.00138245726504 -0.121656239324 0.747 1.54802380224e-38
0.00276491453009 -0.121656239324 0.747 1.52036441263e-38
0.00415847586955 -0.12198195884 0.749 1.40051065433e-38
0.00555203720901 -0.122144818598 0.75 1.4650141042e-38
0.00695855330196 -0.122470538115 0.752 1.55731707352e-38
0.00837247211119 -0.122796257631 0.754 1.58504652806e-38
0.00978083888321 -0.122959117389 0.755 1.83401508608e-38
0.0112077124459 -0.123284836905 0.757 1.71444396968e-38
0.0126419887249 -0.123610556421 0.759 1.81585986318e-38
0.0140836677202 -0.123936275938 0.761 1.29016596727e-38
0.015512391962 -0.124099135696 0.762 1.14258331496e-38
0.0169670257107 -0.124424855212 0.764 1.31800514348e-38
0.0184531210037 -0.124913434487 0.767 1.26254315156e-38
0.0198725918501 -0.124913434487 0.767 1.22580909322e-38
0.0213475830687 -0.125239154003 0.769 1.38214537678e-38
0.0228299770035 -0.125564873519 0.771 1.72326962767e-38
0.0243512351987 -0.126053452793 0.774 1.69553582911e-38
0.0258502852452 -0.12637917231 0.776 1.52029406745e-38
0.0272864122032 -0.12637917231 0.776 9.10975163347e-39
0.0287965663241 -0.126704891826 0.778 1.4458499464e-38
0.0303141231612 -0.127030611342 0.78 1.20603158709e-38
0.0317983677751 -0.1271934711 0.781 5.05597454239e-39
0.0333288793657 -0.127519190617 0.783 1.11409057315e-38
0.0349556262679 -0.128170629649 0.787 8.92963433406e-39
0.0365046446493 -0.128496349165 0.789 1.2246512003e-38
0.0383016540259 -0.129636367472 0.796 1.33589930448e-38
0.0397747945654 -0.129636367472 0.796 1.27114950633e-38
0.0412479351048 -0.129636367472 0.796 1.47405051748e-38
0.0430430938024 -0.130613526021 0.802 1.61245690693e-38
0.0446938995326 -0.131102105295 0.805 1.5387687864e-38
0.046298438286 -0.131427824812 0.807 1.71379797109e-38
0.0479103797556 -0.131753544328 0.809 1.75985598914e-38
0.0495297239416 -0.132079263844 0.811 1.16991339943e-38
0.0511564708438 -0.132404983361 0.813 1.32592514227e-38
0.0526610729275 -0.132404983361 0.813 8.84179814372e-39
0.0541656750111 -0.132404983361 0.813 6.54418994526e-39
0.0560811278482 -0.133382141909 0.819 5.71259918069e-39
0.0577374856156 -0.133707861426 0.821 3.59283817813e-39
0.0595455990667 -0.134359300458 0.825 1.15198826973e-38
0.0612204636247 -0.134685019974 0.827 1.5849777243e-38
0.062902730899 -0.135010739491 0.829 1.62178212782e-38
0.0649033149734 -0.135987898039 0.835 1.99034730588e-38
0.0666077903965 -0.136313617556 0.837 1.38199908122e-38
0.0684825282941 -0.136965056588 0.841 2.01818578143e-38
0.0703720716242 -0.137616495621 0.845 1.02161426321e-38
0.0721061579125 -0.137942215137 0.847 1.33190266113e-38
0.0738476469171 -0.138267934653 0.849 1.33245000831e-38
0.0755965386379 -0.13859365417 0.851 1.42432263887e-38
0.0774435163495 -0.139082233444 0.854 1.3414897847e-38
0.0793941320889 -0.139733672476 0.858 1.99644029173e-38
0.0813595532609 -0.140385111509 0.862 1.84196885617e-38
0.0829548386189 -0.140385111509 0.862 1.02052559443e-38
0.0850405539305 -0.1411994103 0.867 1.31407940583e-38
-0.049142932016 -0.125748090747 0.781 1.46424871498e-38
-0.0476975516626 -0.125748090747 0.781 1.70410154623e-38
-0.0462521713092 -0.125748090747 0.781 9.1835496158e-41
-0.0448067909558 -0.125748090747 0.781 4.98035627336e-39
-0.0433058902303 -0.125587081668 0.78 0.0
-0.0417550211699 -0.12526506351 0.778 5.41741986308e-42
-0.0403151928537 -0.12526506351 0.778 4.64575282475e-40
-0.0387754278677 -0.124943045352 0.776 7.40451713743e-40
-0.0371949479422 -0.124460018114 0.773 1.09861799603e-42
-0.0356718390679 -0.124137999956 0.771 2.10194769649e-44
-0.0341561329098 -0.123815981798 0.769 1.0148749985e-39
-0.0326478294681 -0.12349396364 0.767 1.21706036652e-38
-0.0312283586216 -0.12349396364 0.767 1.40140888664e-38
-0.0297700235147 -0.123332954561 0.766 1.38264746202e-38
-0.0282783761846 -0.123010936403 0.764 1.29055678942e-38
-0.0268644573753 -0.123010936403 0.764 7.19195977857e-39
-0.0253839141196 -0.122688918245 0.762 9.41328549253e-39
-0.0239736966685 -0.122688918245 0.762 6.64161522099e-39
-0.0225338683523 -0.122527909166 0.761 7.47324101802e-39
-0.0210699812082 -0.122205891008 0.759 1.36444277328e-38
-0.0195616777664 -0.121561854691 0.755 6.6402377446e-39
-0.0181403562409 -0.121400845612 0.754 1.63178683833e-38
-0.0167449442224 -0.121400845612 0.754 1.51157672983e-38
-0.0153088172643 -0.121078827454 0.752 1.03259105447e-38
-0.0138615862318 -0.120595800217 0.749 1.93213274339e-39
-0.0124754276087 -0.120595800217 0.749 2.66246708222e-44
-0.0110596581204 -0.120273782059 0.747 3.2524137357e-42
-0.00967720085531 -0.120273782059 0.747 1.01739873704e-39
-0.00828363951585 -0.12011277298 0.746 1.10994469152e-39
-0.00690303292987 -0.12011277298 0.746 6.52559471464e-40
-0.0055224263439 -0.12011277298 0.746 1.1095943669e-39
-0.00414181975792 -0.12011277298 0.746 1.79366203434e-42
-0.00276121317195 -0.12011277298 0.746 2.21449018005e-39
-0.00138060658597 -0.12011277298 0.746 1.68663954568e-38
0.0 -0.120273782059 0.747 1.60341264638e-38
0.00138245726504 -0.120273782059 0.747 1.57564521666e-38
0.00276491453009 -0.120273782059 0.747 1.45579271952e-38
0.00415847586955 -0.120595800217 0.749 1.54802338185e-38
0.00555203720901 -0.120756809296 0.75 1.63110889014e-38
0.00697706009266 -0.121400845612 0.754 1.76958198139e-38
0.00837247211119 -0.121400845612 0.754 1.85273741448e-38
0.00978083888321 -0.121561854691 0.755 1.76968890047e-38
0.011237323311 -0.122205891008 0.759 1.76986896732e-38
0.0126419887249 -0.122205891008 0.759 1.82511600006e-38
0.0140836677202 -0.122527909166 0.761 1.30864096649e-38
0.015512391962 -0.122688918245 0.762 1.0874084491e-38
0.0169670257107 -0.123010936403 0.764 1.27194418269e-38
0.0184531210037 -0.12349396364 0.767 1.27201452788e-38
0.0198725918501 -0.12349396364 0.767 1.3547715718e-38
0.0213475830687 -0.123815981798 0.769 1.69553989288e-38
0.0228891987337 -0.124460018114 0.773 1.63107175573e-38
0.0243512351987 -0.124621027194 0.774 1.62196163415e-38
0.0258502852452 -0.124943045352 0.776 1.70479350742e-38
0.0273567380079 -0.12526506351 0.778 1.03122240626e-38
0.0288705934869 -0.125587081668 0.78 1.12277133688e-38
0.0303529874217 -0.125748090747 0.781 7.82043513333e-39
0.0318797976542 -0.126070108905 0.783 1.29800567166e-38
0.0334140106029 -0.126392127063 0.785 1.47383527803e-38
0.0350444588633 -0.127036163379 0.789 1.1786272338e-38
0.0368285134865 -0.128163226933 0.796 1.44610820571e-38
0.0383978893375 -0.128485245091 0.798 1.18856608329e-38
0.0398747312351 -0.128485245091 0.798 1.17917023695e-38
0.0413515731327 -0.128485245091 0.798 1.66787798093e-38
0.0430430938024 -0.129129281407 0.802 1.55720959393e-38
0.0446938995326 -0.129612308644 0.805 1.54784513669e-38
0.046298438286 -0.129934326803 0.807 1.81485120854e-38
0.0479103797556 -0.130256344961 0.809 1.4829847761e-38
0.0495297239416 -0.130578363119 0.811 7.82580771164e-39
0.0511564708438 -0.130900381277 0.813 9.38924621738e-39
0.0526610729275 -0.130900381277 0.813 7.09373576271e-39
0.0542989239041 -0.131222399435 0.815 4.60411884607e-39
0.0562180780994 -0.132188453909 0.821 3.67368609303e-40
0.0578781372249 -0.132510472068 0.823 5.43356842658e-39
0.0595455990667 -0.132832490226 0.825 1.91670444729e-38
0.0612204636247 -0.133154508384 0.827 1.95375800168e-38
0.062902730899 -0.133476526542 0.829 1.72334123402e-38
0.0650587720152 -0.134764599174 0.837 1.7876982482e-38
0.0667669487965 -0.135086617332 0.839 1.87034655137e-38
0.0686453880522 -0.135730653649 0.843 9.10943494002e-39
0.0705386327405 -0.136374689965 0.847 1.21222953019e-38
0.0722764203869 -0.136696708123 0.849 1.3689336546e-38
0.0740216107496 -0.137018726281 0.851 1.44293650676e-38
0.075863036424 -0.137501753518 0.854 1.2774200367e-38
0.0776248828983 -0.137823771677 0.856 1.55396909123e-38
0.0793941320889 -0.138145789835 0.858 1.79443428992e-38
0.0813595532609 -0.138789826151 0.862 9.74357854707e-39
0.0829548386189 -0.138789826151 0.862 1.56369270128e-38
0.0852367259118 -0.139916889704 0.869 1.32387462222e-38
-0.049142932016 -0.124302710394 0.781 1.42726256305e-38
-0.0476975516626 -0.124302710394 0.781 1.75019880065e-38
-0.0462521713092 -0.124302710394 0.781 8.26519465422e-40
-0.0448067909558 -0.124302710394 0.781 1.08776395852e-38
-0.0433058902303 -0.124143551994 0.78 7.1902025503e-39
-0.041862360556 -0.124143551994 0.78 5.6051938573e-45
-0.0404188308816 -0.124143551994 0.78 6.13628597528e-42
-0.0388753645375 -0.123825235194 0.778 2.52654113118e-42
-0.0372430655981 -0.123188601594 0.774 5.80981145906e-39
-0.0357643730214 -0.123029443194 0.773 7.46776894751e-39
-0.0342449655052 -0.122711126394 0.771 0.0
-0.0327329607053 -0.122392809594 0.769 0.0
-0.0312283586216 -0.122074492794 0.767 2.95067493997e-39
-0.0298088877752 -0.122074492794 0.767 1.30921718042e-38
-0.0283524033474 -0.121915334394 0.766 1.50264359225e-38
-0.0268644573753 -0.121597017594 0.764 1.36427980227e-38
-0.0253839141196 -0.121278700794 0.762 9.03585836285e-39
-0.0239736966685 -0.121278700794 0.762 7.19300374593e-39
-0.0225338683523 -0.121119542394 0.761 6.26961812286e-39
-0.0210699812082 -0.120801225594 0.759 1.30906107577e-38
-0.0196134967804 -0.120482908794 0.757 0.0
-0.0181644150688 -0.120164591994 0.755 1.03306343218e-38
-0.0167449442224 -0.120005433594 0.754 1.07899981753e-43
-0.0153088172643 -0.119687116794 0.752 1.18061777827e-38
-0.0139171066039 -0.119687116794 0.752 1.62253588626e-38
-0.0124920837203 -0.119368799994 0.75 1.25346245725e-38
-0.0110596581204 -0.118891324794 0.747 4.69365481145e-39
-0.00967720085531 -0.118891324794 0.747 9.1835496158e-41
-0.00829474359027 -0.118891324794 0.747 8.35894152148e-40
-0.00690303292987 -0.118732166394 0.746 1.47766642803e-39
-0.0055224263439 -0.118732166394 0.746 1.66205908906e-39
-0.00414181975792 -0.118732166394 0.746 3.6097448441e-42
-0.00276121317195 -0.118732166394 0.746 1.85466055649e-40
-0.00138060658597 -0.118732166394 0.746 1.88010561426e-38
0.0 -0.118891324794 0.747 1.85208917381e-38
0.00138245726504 -0.118891324794 0.747 1.60323005719e-38
0.00276491453009 -0.118891324794 0.747 1.37277923798e-38
0.00415847586955 -0.119209641594 0.749 1.45582929341e-38
0.00556684264157 -0.119687116794 0.752 1.88936623529e-38
0.00697706009266 -0.120005433594 0.754 1.78802040672e-38
0.00838357618561 -0.120164591994 0.755 1.69586261191e-38
0.00980674839019 -0.120482908794 0.757 1.78805824178e-38
0.011237323311 -0.120801225594 0.759 1.79738318241e-38
0.0126753009482 -0.121119542394 0.761 1.86192012331e-38
0.0141021745109 -0.121278700794 0.762 1.33622678793e-38
0.0155531069015 -0.121597017594 0.764 1.08744502299e-38
0.0170114420084 -0.121915334394 0.766 1.29967279645e-38
0.0184531210037 -0.122074492794 0.767 1.29938581052e-38
0.0199244108641 -0.122392809594 0.769 1.80617142573e-38
0.0214031034407 -0.122711126394 0.771 1.66776952043e-38
0.0229188095988 -0.123188601594 0.774 1.63107175573e-38
0.0244141582871 -0.123506918394 0.776 1.56635530849e-38
0.0259169096917 -0.123825235194 0.778 1.64925836772e-38
0.0273567380079 -0.123825235194 0.778 9.94634082966e-39
0.0289076070683 -0.124302710394 0.781 7.25502101206e-39
0.0304307159426 -0.124621027194 0.783 8.2709623987e-39
0.0320426574123 -0.125257660793 0.787 1.81499764423e-38
0.0335842730773 -0.125575977593 0.789 1.57535556827e-38
0.035088875161 -0.125735135993 0.79 1.28962548646e-38
0.0368285134865 -0.126690086393 0.796 1.47405177864e-38
0.0383978893375 -0.127008403193 0.798 1.07789755616e-38
0.0398747312351 -0.127008403193 0.798 1.42799137838e-38
0.0413515731327 -0.127008403193 0.798 1.63089351056e-38
0.0430430938024 -0.127645036793 0.802 1.52047455469e-38
0.0446938995326 -0.128122511993 0.805 1.63081994239e-38
0.0464131803883 -0.128759145593 0.809 1.65818968361e-38
0.0480288232161 -0.129077462393 0.811 1.58428254013e-38
0.0496518687602 -0.129395779193 0.813 8.37753535081e-39
0.0514081631973 -0.130032412793 0.817 7.36812962021e-39
0.0530497155321 -0.130350729593 0.819 1.93510910132e-39
0.0546986705832 -0.130669046393 0.821 1.38263779306e-38
0.0562180780994 -0.130669046393 0.821 1.16098544665e-38
0.0578781372249 -0.130987363193 0.823 2.01825962986e-38
0.0596899520341 -0.131623996793 0.827 1.96297602324e-38
0.0612204636247 -0.131623996793 0.827 1.76011060507e-38
0.062902730899 -0.131942313593 0.829 1.74163742755e-38
0.0650587720152 -0.133215580793 0.837 1.58461422748e-38
0.0667669487965 -0.133533897593 0.839 9.37878132045e-39
0.0684825282941 -0.133852214393 0.841 1.27676731188e-38
0.0705386327405 -0.134807164793 0.847 1.42464339609e-38
0.0724466828613 -0.135443798393 0.851 1.3785828557e-38
0.0740216107496 -0.135443798393 0.851 1.21266799648e-38
0.075863036424 -0.135921273593 0.854 1.84955842878e-38
0.0776248828983 -0.136239590393 0.856 2.05362069596e-38
0.0793941320889 -0.136557907193 0.858 9.55095465886e-39
0.0813595532609 -0.137194540793 0.862 1.81215665173e-38
0.0829548386189 -0.137194540793 0.862 1.18612081747e-38
0.0850405539305 -0.137990332793 0.867 1.42431689355e-38
-0.0492687781928 -0.123171945482 0.783 1.41797111345e-38
