# .PCD v0.7 - Point Cloud Data file format
VERSION 0.7
FIELDS x y z rgb
SIZE 4 4 4 4
TYPE F F F F
COUNT 1 1 1 1
WIDTH 846
HEIGHT 1
VIEWPOINT 0 0 0 1 0 0 0
POINTS 846
DATA ascii
0.0391751745468 -0.0816149469725 0.882 5.24363222883e-39
0.0409462744165 -0.0818925488329 0.885 1.27103025584e-38
0.0426803607048 -0.0820776167399 0.887 5.33939976848e-39
0.0444218497093 -0.0822626846469 0.889 5.7052942118e-39
0.0461707414302 -0.0824477525538 0.891 3.03057137321e-39
0.0478196964812 -0.0824477525538 0.891 5.70786979838e-39
0.0494686515323 -0.0824477525538 0.891 1.01382220297e-38
0.0512897197369 -0.0827253544143 0.894 7.27797007701e-39
0.0530626702856 -0.0829104223213 0.896 2.29588740395e-39
0.054720878732 -0.0829104223213 0.896 9.1835496158e-41
0.0566937026203 -0.0833730920887 0.901 1.28928427028e-39
0.0583611644621 -0.0833730920887 0.901 1.84280837408e-39
0.0600286263038 -0.0833730920887 0.901 1.84280837408e-39
0.0616960881456 -0.0833730920887 0.901 1.75061414551e-39
0.0635042015967 -0.0835581599956 0.903 5.51730441762e-40
0.0651753647966 -0.0835581599956 0.903 0.0
0.0670686094849 -0.0838357618561 0.906 2.09999246474e-38
-0.0738291401264 -0.0882348260047 0.973 2.09981828334e-38
-0.0720284293916 -0.0882348260047 0.973 2.31201662953e-38
-0.0703720716242 -0.0884161925535 0.975 4.31626831943e-39
-0.0685676595313 -0.0884161925535 0.975 6.52391876167e-39
-0.0667632474384 -0.0884161925535 0.975 5.51012976948e-39
-0.0648255864524 -0.0882348260047 0.973 1.33427576007e-38
-0.062636233113 -0.0876907263582 0.967 1.56507886572e-38
-0.0606578571875 -0.087418676535 0.964 8.3685095874e-39
-0.0587516577458 -0.0872373099862 0.962 1.61079132357e-38
-0.0567936392901 -0.0869652601629 0.959 1.28569694621e-39
-0.0548467249088 -0.0866932103397 0.956 1.57452571932e-38
-0.052966434974 -0.0865118437908 0.954 7.27043109128e-39
-0.0510398780625 -0.0862397939676 0.951 5.97361624305e-39
-0.0491244252253 -0.0859677441444 0.948 7.17644179938e-39
-0.0472700447975 -0.0857863775955 0.946 1.10418157132e-38
-0.0455193023976 -0.0857863775955 0.946 9.29368046471e-39
-0.0436297590675 -0.0855143277723 0.943 7.26074391499e-39
-0.0418845687048 -0.0855143277723 0.943 8.08762211282e-39
-0.0401393783421 -0.0855143277723 0.943 8.08905704245e-39
-0.0382720431608 -0.085242277949 0.94 6.3366492349e-39
-0.0364546763144 -0.0850609114002 0.938 1.40863454205e-38
-0.0343486035331 -0.0841540786561 0.928 1.28745473501e-38
-0.0325256846495 -0.0838820288328 0.925 1.53724137108e-38
-0.0307471820635 -0.083700662284 0.923 6.52354881888e-39
-0.0289446206497 -0.0834286124608 0.92 6.3366492349e-39
-0.0272419959056 -0.0834286124608 0.92 5.78563625795e-39
-0.0254838507894 -0.0832472459119 0.918 9.18642367895e-39
-0.0237849274034 -0.0832472459119 0.918 1.25046942386e-38
-0.0220860040175 -0.0832472459119 0.918 1.62010785641e-38
-0.020320456185 -0.0829751960887 0.915 9.099964965e-39
-0.0185863698967 -0.0827938295399 0.913 1.58187020483e-38
-0.0168966999061 -0.0827938295399 0.913 1.53745534935e-38
-0.0151237493574 -0.0823404131678 0.908 1.49153760127e-38
-0.0134433327621 -0.0823404131678 0.908 9.6434445614e-39
-0.0117370066599 -0.082159046619 0.906 1.64680217177e-38
-0.0100269791995 -0.0818869967957 0.903 1.39945099243e-38
-0.00835581599956 -0.0818869967957 0.903 1.44547636023e-38
-0.00664763921826 -0.0814335804237 0.898 1.17606832267e-38
-0.00497462533928 -0.0812522138748 0.896 1.6756809713e-38
-0.00331641689285 -0.0812522138748 0.896 1.52834901128e-38
-0.00165450708829 -0.081070847326 0.894 1.43608373688e-38
0.0 -0.0807987975028 0.891 1.46370669273e-38
0.00164525369294 -0.0806174309539 0.889 1.48210980533e-38
0.00329050738588 -0.0806174309539 0.889 1.62980175893e-38
0.00492465700439 -0.0804360644051 0.887 1.59310553565e-38
0.00656620933919 -0.0804360644051 0.887 1.44581127056e-38
0.00816149469725 -0.079982648033 0.882 1.11325427823e-38
0.00977158548786 -0.0798012814842 0.88 1.45415796474e-38
0.0114001830692 -0.0798012814842 0.88 9.83536639908e-39
0.0130287806505 -0.0798012814842 0.88 1.74807190984e-38
0.0146240660085 -0.0796199149354 0.878 7.80601717343e-39
0.0161934418596 -0.0793478651121 0.875 1.50750609792e-38
0.0177313561665 -0.0789851320145 0.871 5.05095228869e-39
0.0193432976362 -0.0789851320145 0.871 2.93873587706e-39
0.0209552391059 -0.0789851320145 0.871 2.75506488474e-39
0.0225671805756 -0.0789851320145 0.871 4.96235659458e-39
0.0241791220453 -0.0789851320145 0.871 2.57605741371e-39
0.0257910635149 -0.0789851320145 0.871 2.02360950714e-39
0.0274030049846 -0.0789851320145 0.871 2.02360950714e-39
0.0290815709008 -0.0791664985633 0.873 2.02504443677e-39
0.0307675395333 -0.0793478651121 0.875 9.1835496158e-40
0.0323868837192 -0.0793478651121 0.875 0.0
0.0341228206866 -0.0796199149354 0.878 3.31292740858e-39
0.0358291467888 -0.0798012814842 0.88 5.42946262208e-39
0.0375428756073 -0.079982648033 0.882 9.02862486018e-39
0.0393084234398 -0.0802546978563 0.885 8.66131510541e-39
0.04103880837 -0.0804360644051 0.887 2.57139389242e-39
0.0426803607048 -0.0804360644051 0.887 4.13259732711e-39
0.0444218497093 -0.0806174309539 0.889 1.00384705985e-38
0.0461707414302 -0.0807987975028 0.891 1.10573238833e-38
0.0478196964812 -0.0807987975028 0.891 3.03595235932e-39
0.0496352126486 -0.081070847326 0.894 1.1020259539e-39
0.0514044618392 -0.0812522138748 0.896 1.8438845713e-40
0.0530626702856 -0.0812522138748 0.896 1.65841991695e-39
0.0548430235506 -0.0814335804237 0.898 1.65734371973e-39
0.0566937026203 -0.0817056302469 0.901 2.0268395001e-39
0.058490711997 -0.0818869967957 0.903 1.38147849885e-39
0.0601618751969 -0.0818869967957 0.903 1.38183723125e-39
0.0618330383968 -0.0818869967957 0.903 1.65841991695e-39
0.0637151790106 -0.082159046619 0.906 7.34683969264e-40
0.0653918942478 -0.082159046619 0.906 0.0
0.0670686094849 -0.082159046619 0.906 2.04474417084e-38
-0.0738291401264 -0.0864341152699 0.973 2.08141643191e-38
-0.0720284293916 -0.0864341152699 0.973 2.33960245097e-38
-0.0703720716242 -0.0866117804606 0.975 4.22443282327e-39
-0.0685676595313 -0.0866117804606 0.975 5.69631889514e-39
-0.0667632474384 -0.0866117804606 0.975 5.60196526564e-39
-0.0648255864524 -0.0864341152699 0.973 1.38976872069e-38
-0.0628305544153 -0.0861676174839 0.97 1.14080590799e-38
-0.0608466264526 -0.0859011196979 0.967 1.39005977038e-38
-0.0588738025644 -0.0856346219118 0.964 9.4708942737e-39
-0.0567936392901 -0.0851904589351 0.959 9.01389721332e-39
-0.0550188380623 -0.0851904589351 0.959 1.38127208758e-38
-0.0530774757182 -0.0849239611491 0.956 1.05901393831e-38
-0.0510398780625 -0.0844797981723 0.951 5.41829427332e-39
-0.0491244252253 -0.0842133003863 0.948 1.2707019316e-38
-0.0472700447975 -0.0840356351956 0.946 6.8015664342e-39
-0.0455193023976 -0.0840356351956 0.946 1.01177112241e-38
-0.0437685599977 -0.0840356351956 0.946 7.63346688573e-39
-0.0418845687048 -0.0837691374096 0.943 8.63935255458e-39
-0.0401393783421 -0.0837691374096 0.943 8.27272803476e-39
-0.0382720431608 -0.0835026396236 0.94 6.88766221185e-39
-0.0365324048353 -0.0835026396236 0.94 1.43593786171e-38
-0.0344226306959 -0.0826143136701 0.93 1.44518993482e-38
-0.0325256846495 -0.0821701506934 0.925 1.52773412151e-38
-0.0307471820635 -0.0819924855027 0.923 1.34366810316e-38
-0.0290390052822 -0.0819924855027 0.923 1.14026682847e-38
-0.0272419959056 -0.0817259877167 0.92 6.06114274643e-39
-0.0254838507894 -0.081548322526 0.918 6.70399121953e-39
-0.0237849274034 -0.081548322526 0.918 8.08224112672e-39
-0.0220860040175 -0.081548322526 0.918 1.05689741711e-38
-0.0203870806315 -0.081548322526 0.918 1.13983634958e-38
-0.0186270848362 -0.08128182474 0.915 1.70197479556e-38
-0.0168966999061 -0.0811041595493 0.913 1.56511361792e-38
-0.0151237493574 -0.0806599965725 0.908 1.43629281061e-38
-0.0134433327621 -0.0806599965725 0.908 1.00122214757e-38
-0.0117370066599 -0.0804823313819 0.906 1.67478259886e-38
-0.0100269791995 -0.0802158335958 0.903 1.41778221842e-38
-0.00835581599956 -0.0802158335958 0.903 1.51905237688e-38
-0.00664763921826 -0.0797716706191 0.898 1.19479415431e-38
-0.00497462533928 -0.0795940054284 0.896 1.48247077982e-38
-0.00331641689285 -0.0795940054284 0.896 1.4737548435e-38
-0.00165450708829 -0.0794163402377 0.894 1.50148625985e-38
0.0 -0.0791498424517 0.891 1.49230144907e-38
0.00164895505108 -0.0791498424517 0.891 1.5198525183e-38
0.00329050738588 -0.078972177261 0.889 1.4460241278e-38
0.00493576107881 -0.078972177261 0.889 1.28947106337e-38
0.00656620933919 -0.0787945120703 0.887 8.09551422577e-39
0.00816149469725 -0.0783503490936 0.882 1.00100690812e-38
0.00977158548786 -0.0781726839029 0.88 1.03774110659e-38
0.0114001830692 -0.0781726839029 0.88 8.35703015038e-39
0.0130287806505 -0.0781726839029 0.88 1.55485779472e-38
0.0146240660085 -0.0779950187122 0.878 7.90000506403e-39
0.0161934418596 -0.0777285209262 0.875 1.00132976729e-38
0.0177313561665 -0.0773731905448 0.871 3.85709083864e-39
0.0193432976362 -0.0773731905448 0.871 2.38772290011e-39
0.0209552391059 -0.0773731905448 0.871 3.12240686937e-39
0.0225671805756 -0.0773731905448 0.871 3.30607786169e-39
0.0241791220453 -0.0773731905448 0.871 2.57462248409e-39
0.0257910635149 -0.0773731905448 0.871 2.1154450033e-39
0.0275288511614 -0.0777285209262 0.875 1.10525454556e-39
0.0291481953473 -0.0777285209262 0.875 7.35760166485e-40
0.0308730282403 -0.0779950187122 0.878 4.88525154788e-39
0.0324979244634 -0.0779950187122 0.878 4.14946615802e-39
0.0342005492075 -0.0781726839029 0.88 1.08783066032e-38
0.0359105766679 -0.0783503490936 0.882 4.97454228603e-39
0.0376705724632 -0.0786168468796 0.885 9.1835496158e-41
0.0393084234398 -0.0786168468796 0.885 8.26878197829e-40
0.04103880837 -0.0787945120703 0.887 9.30483900438e-39
0.0427765960164 -0.078972177261 0.889 1.05963261158e-38
0.0444218497093 -0.078972177261 0.889 3.58840026589e-39
0.0461707414302 -0.0791498424517 0.891 0.0
0.0479807055603 -0.0794163402377 0.894 1.01557845033e-39
0.0496352126486 -0.0794163402377 0.894 1.47439019222e-39
0.0514044618392 -0.0795940054284 0.896 8.2903059227e-40
0.0531811137461 -0.0797716706191 0.898 0.0
0.0548430235506 -0.0797716706191 0.898 4.97239829938e-39
0.0566937026203 -0.0800381684051 0.901 1.19386145005e-39
0.058490711997 -0.0802158335958 0.903 1.47367272741e-39
0.0601618751969 -0.0802158335958 0.903 1.47439019222e-39
0.0620384637735 -0.0804823313819 0.906 1.38147849885e-39
0.0637151790106 -0.0804823313819 0.906 0.0
0.0653918942478 -0.0804823313819 0.906 1.19601944969e-39
0.0670686094849 -0.0804823313819 0.906 2.06358588986e-38
-0.0739808958101 -0.0848073683677 0.975 2.11800727754e-38
-0.0721764837172 -0.0848073683677 0.975 2.34889305979e-38
-0.0705886010754 -0.0850683141165 0.978 4.04076183095e-39
-0.0687786369453 -0.0850683141165 0.978 3.489748854e-39
-0.0667632474384 -0.0848073683677 0.975 6.24553680875e-39
-0.0649588353455 -0.0848073683677 0.975 1.44523323495e-38
-0.0630248757176 -0.0846334045351 0.973 1.16868291925e-38
-0.0608466264526 -0.0841115130375 0.967 9.29013798219e-39
-0.0590570197923 -0.0841115130375 0.967 1.39030990216e-38
-0.0569713044808 -0.0836766034561 0.962 1.29790029402e-38
-0.0550188380623 -0.0834156577073 0.959 1.04922054361e-38
-0.0530774757182 -0.0831547119585 0.956 7.54270758679e-39
-0.0512008871415 -0.0829807481259 0.954 1.16857782186e-38
-0.0492798822672 -0.0827198023771 0.951 1.22432049386e-38
-0.0473699814673 -0.0824588566283 0.948 1.2978621787e-38
-0.0455193023976 -0.0822848927957 0.946 8.82591582693e-39
-0.0437685599977 -0.0822848927957 0.946 9.93401781097e-39
-0.0418845687048 -0.0820239470469 0.943 8.82517594134e-39
-0.0401393783421 -0.0820239470469 0.943 8.36599846055e-39
-0.0382720431608 -0.0817630012981 0.94 8.27236930236e-39
-0.0365324048353 -0.0817630012981 0.94 7.34827462227e-39
-0.0345336714401 -0.0811541278841 0.933 8.2694994431e-39
-0.0326311733564 -0.0807192183028 0.928 1.49028988512e-38
-0.03081380651 -0.0804582725539 0.925 1.37132637173e-38
-0.0290390052822 -0.0802843087214 0.923 1.42643089241e-38
-0.0272419959056 -0.0800233629726 0.92 1.26069329745e-38
-0.0255393711615 -0.0800233629726 0.92 1.18643568923e-38
-0.0238367464174 -0.0800233629726 0.92 6.06114274643e-39
-0.0220860040175 -0.07984939914 0.918 5.96930725027e-39
-0.0203870806315 -0.07984939914 0.918 8.0815236619e-39
-0.0186270848362 -0.0795884533912 0.915 1.0563593185e-38
-0.0169337134875 -0.0795884533912 0.915 1.22252444962e-38
-0.0151570615806 -0.0791535438098 0.91 1.18593346386e-38
-0.0134433327621 -0.0789795799773 0.908 1.13915475801e-38
-0.0117370066599 -0.0788056161447 0.906 1.70290539787e-38
-0.0100269791995 -0.0785446703959 0.903 1.43625693737e-38
-0.00835581599956 -0.0785446703959 0.903 1.40831168288e-38
-0.00666984736709 -0.0783707065634 0.901 6.88766221185e-39
-0.00498572941369 -0.0781097608145 0.898 2.38772290011e-39
-0.00331641689285 -0.077935796982 0.896 2.57139389242e-39
-0.00165820844643 -0.077935796982 0.896 3.30607786169e-39
0.0 -0.0777618331494 0.894 3.39791335785e-39
0.00164895505108 -0.0775008874006 0.891 2.38772290011e-39
0.00329791010215 -0.0775008874006 0.891 1.744874427e-39
0.00493576107881 -0.0773269235681 0.889 2.57139389242e-39
0.00656620933919 -0.0771529597355 0.887 1.42614572817e-38
0.00818925488329 -0.076978995903 0.885 8.35846508e-39
0.00977158548786 -0.0765440863216 0.88 1.65537531577e-38
0.0114001830692 -0.0765440863216 0.88 6.61215572338e-39
0.0130287806505 -0.0765440863216 0.88 1.30496353893e-38
0.0146240660085 -0.076370122489 0.878 8.26770578107e-39
0.0162489622317 -0.076370122489 0.878 3.85709083864e-39
0.0177720711061 -0.0759352129077 0.873 2.93873587706e-39
0.0193877139339 -0.0759352129077 0.873 2.75506488474e-39
0.0210033567617 -0.0759352129077 0.873 2.57139389242e-39
0.0226189995895 -0.0759352129077 0.873 4.2269565618e-39
0.0242346424173 -0.0759352129077 0.873 4.3202143759e-39
0.0259095069754 -0.0761091767402 0.875 3.30607786169e-39
0.0275288511614 -0.0761091767402 0.875 7.27300527655e-39
0.0292481320171 -0.076370122489 0.878 1.15214465464e-38
0.0309433540449 -0.0765440863216 0.88 9.95816218351e-39
0.0325719516262 -0.0765440863216 0.88 2.58215586463e-39
0.0342782777284 -0.0767180501541 0.882 1.37754925795e-39
0.0359105766679 -0.0767180501541 0.882 8.48089932943e-39
0.0376705724632 -0.076978995903 0.885 9.03731711455e-39
0.0393084234398 -0.076978995903 0.885 4.8852319297e-39
0.04103880837 -0.0771529597355 0.887 1.46936793853e-39
0.0427765960164 -0.0773269235681 0.889 0.0
0.0445217863791 -0.0775008874006 0.891 1.65735072622e-39
0.0461707414302 -0.0775008874006 0.891 1.65770245213e-39
0.0479807055603 -0.0777618331494 0.894 1.38112256904e-39
0.0497462533928 -0.077935796982 0.896 0.0
0.0514044618392 -0.077935796982 0.896 4.13546718636e-39
0.0531811137461 -0.0781097608145 0.898 1.41854312349e-38
0.0550262407785 -0.0783707065634 0.901 1.20707555444e-38
0.056819548797 -0.0785446703959 0.903 7.34683969264e-40
0.0586850332993 -0.0788056161447 0.906 1.74954635608e-39
0.0603617485364 -0.0788056161447 0.906 0.0
0.0620384637735 -0.0788056161447 0.906 2.21089725079e-39
0.0638558306199 -0.0789795799773 0.908 3.68059449446e-40
0.0655362472152 -0.0789795799773 0.908 3.13212767682e-39
0.0672166638105 -0.0789795799773 0.908 2.34972052653e-38
-0.0742085293357 -0.0832583499864 0.978 2.1180089591e-38
-0.0723985652055 -0.0832583499864 0.978 2.34900095977e-38
-0.0705886010754 -0.0832583499864 0.978 4.31626831943e-39
-0.0687786369453 -0.0832583499864 0.978 3.67341984632e-39
-0.0667632474384 -0.0830029562747 0.975 4.77544580022e-39
-0.0649588353455 -0.0830029562747 0.975 1.55572337678e-38
-0.0630248757176 -0.0828326938003 0.973 1.12290628192e-38
-0.0610353957178 -0.0825773000887 0.97 1.29814734294e-38
-0.0590570197923 -0.0823219063771 0.967 9.47631029226e-39
-0.0570897479412 -0.0820665126655 0.964 1.13201598311e-38
-0.0550188380623 -0.0816408564795 0.959 8.45962761874e-39
-0.0530774757182 -0.0813854627679 0.956 7.90574478254e-39
-0.0512008871415 -0.0812152002934 0.954 1.15939146965e-38
-0.0492798822672 -0.0809598065818 0.951 1.3623991196e-38
-0.0475198864719 -0.0809598065818 0.951 1.24290787721e-38
-0.0456155377093 -0.0807044128702 0.948 8.73513410722e-39
-0.0437685599977 -0.0805341503958 0.946 1.19612314578e-38
-0.0420178175978 -0.0805341503958 0.946 8.64258114624e-39
-0.0401393783421 -0.0802787566842 0.943 8.91988129675e-39
-0.0383941879794 -0.0802787566842 0.943 8.55110438249e-39
-0.0365324048353 -0.0800233629726 0.94 8.54931072046e-39
-0.0345336714401 -0.0794274443121 0.933 8.26985817551e-39
-0.0327014991611 -0.0791720506005 0.93 8.2694994431e-39
-0.03081380651 -0.0787463944145 0.925 8.08511098597e-39
-0.0290390052822 -0.0785761319401 0.923 1.56468706267e-38
-0.0273308285009 -0.0785761319401 0.923 1.36214282212e-38
-0.0255393711615 -0.0783207382285 0.92 1.44483274385e-38
-0.0238367464174 -0.0783207382285 0.92 9.64739061788e-39
-0.0220860040175 -0.0781504757541 0.918 1.17721724728e-38
-0.0203870806315 -0.0781504757541 0.918 6.61215572338e-39
-0.0186270848362 -0.0778950820425 0.915 6.24481373874e-39
-0.0169337134875 -0.0778950820425 0.915 7.34683969264e-39
-0.0152070299155 -0.077724819568 0.913 9.36793947423e-39
-0.0134433327621 -0.077299163382 0.908 1.21305363382e-38
-0.0117370066599 -0.0771289009076 0.906 1.61060102724e-38
-0.0100602914227 -0.0771289009076 0.906 1.58348071715e-38
-0.00835581599956 -0.076873507196 0.903 1.39905638678e-38
-0.00666984736709 -0.0767032447216 0.901 7.16316870032e-39
-0.00498572941369 -0.07644785101 0.898 4.5917748079e-39
-0.00332381960913 -0.07644785101 0.898 3.58158435016e-39
-0.00165820844643 -0.0762775885356 0.896 3.21424236553e-39
0.0 -0.0762775885356 0.896 3.03057137321e-39
0.00165820844643 -0.0762775885356 0.896 2.47955839627e-39
0.00329791010215 -0.0758519323495 0.891 1.37753244237e-39
0.00493576107881 -0.0756816698751 0.889 1.12168911408e-38
0.00656620933919 -0.0755114074007 0.887 1.10292278491e-38
0.00818925488329 -0.0753411449263 0.885 1.03802809251e-38
0.0097937936367 -0.0750857512147 0.882 1.72030630181e-38
0.0114260925761 -0.0750857512147 0.882 7.16388616514e-39
0.0130287806505 -0.0749154887403 0.88 1.39737524901e-38
0.0146240660085 -0.0747452262659 0.878 5.23462328101e-39
0.0162489622317 -0.0747452262659 0.878 3.03057137321e-39
0.0178127860456 -0.0744898325543 0.875 2.8469003809e-39
0.0194321302315 -0.0744898325543 0.875 2.29588740395e-39
0.0210514744175 -0.0744898325543 0.875 2.75506488474e-39
0.0226708186035 -0.0744898325543 0.875 3.03057137321e-39
0.0242901627894 -0.0744898325543 0.875 1.27081767886e-38
0.0259095069754 -0.0744898325543 0.875 9.76299073469e-39
0.0276232357939 -0.0747452262659 0.878 1.46938615541e-39
0.0292481320171 -0.0747452262659 0.878 1.56120343469e-39
0.0309433540449 -0.0749154887403 0.88 5.62100190528e-39
0.0325719516262 -0.0749154887403 0.88 9.03038489105e-39
0.0342782777284 -0.0750857512147 0.882 4.97561848325e-39
0.0359105766679 -0.0750857512147 0.882 2.67399136079e-39
0.0376705724632 -0.0753411449263 0.885 0.0
0.0393084234398 -0.0753411449263 0.885 6.45718332361e-40
0.04103880837 -0.0755114074007 0.887 1.01270158459e-39
0.0427765960164 -0.0756816698751 0.889 7.36118898891e-40
0.0446716913837 -0.0761073260612 0.894 7.17464813734e-43
0.046326198472 -0.0761073260612 0.894 5.52447906575e-40
0.0480880449463 -0.0762775885356 0.896 8.01556454319e-39
0.0497462533928 -0.0762775885356 0.896 6.08383537376e-39
0.0515192039415 -0.07644785101 0.898 1.17973832335e-38
0.0533587789368 -0.0767032447216 0.901 4.50178622312e-39
0.0550262407785 -0.0767032447216 0.901 3.6734366619e-39
0.056819548797 -0.076873507196 0.903 0.0
0.0586850332993 -0.0771289009076 0.906 5.51517164135e-39
0.0604949974294 -0.077299163382 0.908 1.09635798187e-38
0.0621754140247 -0.077299163382 0.908 1.29025845297e-38
0.0638558306199 -0.077299163382 0.908 1.83670992316e-40
0.0656806001826 -0.0774694258564 0.91 5.43197935412e-39
0.0675867996244 -0.077724819568 0.913 2.34979157237e-38
0.0696558588243 -0.0781504757541 0.918 2.34867403684e-38
-0.0726206466939 -0.0816982275306 0.981 2.34903697314e-38
-0.0708051305265 -0.0816982275306 0.981 4.13259732711e-39
-0.0687786369453 -0.0814483858562 0.978 4.5917748079e-39
-0.0669686728151 -0.0814483858562 0.978 6.7126007973e-39
-0.0649588353455 -0.0811985441818 0.975 7.62521604037e-39
-0.0630248757176 -0.0810319830655 0.973 1.48247106008e-38
-0.0610353957178 -0.0807821413911 0.97 1.66689132668e-38
-0.0590570197923 -0.0805322997167 0.967 1.92854541932e-39
-0.0570897479412 -0.0802824580423 0.964 4.50101550896e-39
-0.0551909512157 -0.0801158969261 0.962 1.42732716291e-38
-0.0532440368344 -0.0798660552517 0.959 6.98990094781e-39
-0.0512008871415 -0.079449652461 0.954 1.03978952468e-38
-0.0492798822672 -0.0791998107866 0.951 1.22418008376e-38
-0.0475198864719 -0.0791998107866 0.951 9.94299032503e-39
-0.0456155377093 -0.0789499691122 0.948 1.0950345956e-38
-0.0437685599977 -0.0787834079959 0.946 1.03049471197e-38
-0.0420178175978 -0.0787834079959 0.946 9.28542961935e-39
-0.0402670751979 -0.0787834079959 0.946 9.56452343189e-39
-0.0383941879794 -0.0785335663215 0.943 8.73513410722e-39
-0.0365324048353 -0.0782837246471 0.94 9.01064059569e-39
-0.034718739347 -0.0781171635308 0.938 9.0109993281e-39
-0.0327014991611 -0.0774509190657 0.93 8.55002818527e-39
-0.0309137431798 -0.0772843579495 0.928 7.9035923881e-39
-0.0291019283706 -0.0770345162751 0.925 8.81979495524e-39
-0.0273308285009 -0.0768679551588 0.923 7.80601717343e-39
-0.0255393711615 -0.0766181134844 0.92 1.58330317264e-38
-0.0238367464174 -0.0766181134844 0.92 1.5370607437e-38
-0.0221341216733 -0.0766181134844 0.92 1.61088787304e-38
-0.0203870806315 -0.0764515523681 0.918 6.33844289694e-39
-0.0186881572455 -0.0764515523681 0.918 7.44262124527e-39
-0.0169337134875 -0.0762017106937 0.915 6.61538431504e-39
-0.0152070299155 -0.0760351495774 0.913 5.78563625795e-39
-0.0134433327621 -0.0756187467868 0.908 7.89785266959e-39
-0.0117370066599 -0.0754521856705 0.906 1.10303040464e-38
-0.0100602914227 -0.0754521856705 0.906 1.14912751892e-38
-0.00835581599956 -0.0752023439961 0.903 1.49006777931e-38
-0.00668465279965 -0.0752023439961 0.903 6.15297824259e-39
-0.00500238552532 -0.0750357828798 0.901 5.51012976948e-39
-0.00332381960913 -0.0747859412054 0.898 4.77544580022e-39
-0.00166190980456 -0.0747859412054 0.898 4.13259732711e-39
0.0 -0.0746193800891 0.896 3.76525534248e-39
0.00165820844643 -0.0746193800891 0.896 3.76525534248e-39
0.00329791010215 -0.0742029772985 0.891 4.68397183906e-39
0.00493576107881 -0.0740364161822 0.889 1.10364109051e-38
0.00656620933919 -0.0738698550659 0.887 1.10256405251e-38
0.00818925488329 -0.0737032939496 0.885 1.09320113669e-38
0.0097937936367 -0.0734534522752 0.882 1.28720362232e-38
0.0114260925761 -0.0734534522752 0.882 9.65277160398e-39
0.0130287806505 -0.073286891159 0.88 7.62234618111e-39
0.0146573782318 -0.073286891159 0.88 3.67341984632e-39
0.0162489622317 -0.0731203300427 0.878 3.21424236553e-39
0.0178738584549 -0.0731203300427 0.878 2.75506488474e-39
0.0194987546781 -0.0731203300427 0.878 2.66322938858e-39
0.0211236509012 -0.0731203300427 0.878 2.93873587706e-39
0.0227485471244 -0.0731203300427 0.878 3.58158715276e-39
0.0243734433476 -0.0731203300427 0.878 3.489748854e-39
0.0259983395707 -0.0731203300427 0.878 7.45374335118e-39
0.0276232357939 -0.0731203300427 0.878 9.47953187743e-39
0.0293147564636 -0.073286891159 0.88 1.0411549499e-38
0.0309433540449 -0.073286891159 0.88 8.38796941917e-39
0.0325719516262 -0.073286891159 0.88 2.29911599561e-39
0.0342782777284 -0.0734534522752 0.882 1.92854541932e-39
0.0359105766679 -0.0734534522752 0.882 1.65770245213e-39
0.0376705724632 -0.0737032939496 0.885 1.65770245213e-39
0.0393972560352 -0.0738698550659 0.887 1.01234285218e-39
0.04103880837 -0.0738698550659 0.887 0.0
0.0430171842954 -0.0744528189729 0.894 1.93574248823e-39
0.0446716913837 -0.0744528189729 0.894 3.86677661362e-39
0.046326198472 -0.0744528189729 0.894 1.15186929949e-38
0.0480880449463 -0.0746193800891 0.896 1.08707774266e-38
0.0498572941369 -0.0747859412054 0.898 0.0
0.0515192039415 -0.0747859412054 0.898 7.00649232162e-45
0.0533587789368 -0.0750357828798 0.901 3.21424236553e-39
0.0551483855971 -0.0752023439961 0.903 1.14167919719e-38
0.056819548797 -0.0752023439961 0.903 2.02038091548e-39
0.0586850332993 -0.0754521856705 0.906 1.19738907881e-38
0.0604949974294 -0.0756187467868 0.908 8.83777501583e-39
0.0621754140247 -0.0756187467868 0.908 2.84869404293e-39
0.0639964822292 -0.075785307903 0.91 0.0
0.0656806001826 -0.075785307903 0.91 8.65666139321e-39
0.0675867996244 -0.0760351495774 0.913 2.34982856665e-38
0.0696558588243 -0.0764515523681 0.918 2.3486423675e-38
-0.0750431855961 -0.0805341503958 0.989 2.17350458218e-38
-0.0728427281823 -0.0801270010005 0.984 2.34878712163e-38
-0.0708051305265 -0.0798827113633 0.981 4.22443282327e-39
-0.0687786369453 -0.0796384217261 0.978 6.61611439154e-39
-0.0669686728151 -0.0796384217261 0.978 7.72386745226e-39
-0.0649588353455 -0.0793941320889 0.975 6.3366492349e-39
-0.0631544232525 -0.0793941320889 0.975 1.22374666214e-38
-0.0610353957178 -0.0789869826936 0.97 1.63002106214e-38
-0.0590570197923 -0.0787426930564 0.967 3.94892633479e-39
-0.0570897479412 -0.0784984034192 0.964 1.288430319e-38
-0.055305693318 -0.0784984034192 0.964 9.94298612114e-39
-0.0532440368344 -0.0780912540238 0.959 8.74411222648e-39
-0.0512008871415 -0.0776841046285 0.954 9.38481250904e-39
-0.0494353393091 -0.0776841046285 0.954 9.56992403617e-39
-0.0475198864719 -0.0774398149913 0.951 3.03057137321e-39
-0.0456155377093 -0.0771955253541 0.948 1.16914857073e-38
-0.0437685599977 -0.077032665596 0.946 1.11340113431e-38
-0.0420178175978 -0.077032665596 0.946 1.02062957078e-38
-0.0402670751979 -0.077032665596 0.946 9.56380596708e-39
-0.0383941879794 -0.0767883759588 0.943 9.74711822699e-39
-0.0365324048353 -0.0765440863216 0.94 9.47161173851e-39
-0.034718739347 -0.0763812265635 0.938 9.2882994786e-39
-0.0328069878681 -0.0759740771681 0.933 8.73549283962e-39
-0.0309803676263 -0.0757297875309 0.93 8.55074565009e-39
-0.0291019283706 -0.0753226381356 0.925 8.36528099574e-39
-0.0273900502311 -0.0753226381356 0.925 7.99542788426e-39
-0.0256226517196 -0.0751597783775 0.923 8.54213607232e-39
-0.0239144749383 -0.0751597783775 0.923 1.34209318382e-38
-0.0221341216733 -0.0749154887403 0.92 1.78606797757e-38
-0.0203870806315 -0.0747526289822 0.918 6.70829600842e-39
-0.0186881572455 -0.0747526289822 0.918 7.62557477278e-39
-0.0169892338596 -0.0747526289822 0.918 7.07420306342e-39
-0.0152070299155 -0.0743454795868 0.913 6.80049023698e-39
-0.0134433327621 -0.0739383301915 0.908 6.24840106281e-39
-0.0117629161668 -0.0739383301915 0.908 5.96930725027e-39
-0.0100602914227 -0.0737754704334 0.906 7.80601717343e-39
-0.00838357618561 -0.0737754704334 0.906 1.16717358067e-38
-0.00670686094849 -0.0737754704334 0.906 6.06114274643e-39
-0.00501348959974 -0.0735311807962 0.903 5.96930725027e-39
-0.00333492368355 -0.073368321038 0.901 5.51012976948e-39
-0.00166190980456 -0.0731240314008 0.898 5.05095228869e-39
0.0 -0.0731240314008 0.898 4.77544580022e-39
0.00166190980456 -0.0731240314008 0.898 4.40810381558e-39
0.00331641689285 -0.0729611716427 0.896 5.41829427332e-39
0.00494686515323 -0.0725540222474 0.891 1.26062323253e-38
0.00656620933919 -0.0722283027311 0.887 1.30600120044e-38
0.00820776167399 -0.0722283027311 0.887 8.72975312111e-39
0.00982710585995 -0.072065442973 0.885 1.1584545615e-38
0.0114649568366 -0.072065442973 0.885 7.44333871009e-39
0.0130583915156 -0.0718211533358 0.882 3.489748854e-39
0.0146573782318 -0.0716582935777 0.88 2.8469003809e-39
0.0162859758131 -0.0716582935777 0.88 3.12240686937e-39
0.0178738584549 -0.0714954338195 0.878 2.66322938858e-39
0.0194987546781 -0.0714954338195 0.878 2.47955839627e-39
0.0211236509012 -0.0714954338195 0.878 2.66322938858e-39
0.0227485471244 -0.0714954338195 0.878 4.22730968901e-39
0.0243734433476 -0.0714954338195 0.878 2.75506488474e-40
0.0259983395707 -0.0714954338195 0.878 1.17933881316e-38
0.0276232357939 -0.0714954338195 0.878 5.79246478537e-39
0.0293147564636 -0.0716582935777 0.88 1.83670992316e-39
0.0309433540449 -0.0716582935777 0.88 7.34683969264e-40
0.032645978789 -0.0718211533358 0.882 1.29071919991e-39
0.0343948705098 -0.072065442973 0.885 1.10489581315e-39
0.0360327214865 -0.072065442973 0.885 0.0
0.0376705724632 -0.072065442973 0.885 1.56120343469e-39
0.0393972560352 -0.0722283027311 0.887 5.79463539669e-39
0.0411313423234 -0.0723911624893 0.889 1.30873639491e-38
0.0430171842954 -0.0727983118846 0.894 1.24413177129e-38
0.0447716280535 -0.0729611716427 0.896 1.1151645283e-38
0.0464298364999 -0.0729611716427 0.896 1.83993851482e-39
0.0480880449463 -0.0729611716427 0.896 0.0
0.0498572941369 -0.0731240314008 0.898 5.62104394423e-39
0.051691317095 -0.073368321038 0.901 5.80824901127e-39
0.0534772223972 -0.0735311807962 0.903 1.28104309388e-38
0.0551483855971 -0.0735311807962 0.903 1.14238362993e-38
0.0570083180621 -0.0737754704334 0.906 4.32814012002e-39
0.0588145808341 -0.0739383301915 0.908 5.15641961631e-39
0.0604949974294 -0.0739383301915 0.908 5.24108606952e-39
0.0623123642758 -0.0741011899496 0.91 1.10382942502e-39
0.0639964822292 -0.0741011899496 0.91 0.0
0.0658971296338 -0.0743454795868 0.913 1.24327235494e-38
0.06773485395 -0.074508339345 0.915 2.34997121883e-38
0.0696558588243 -0.0747526289822 0.918 2.34871117125e-38
0.0717434248149 -0.0751597783775 0.923 2.34863914451e-38
0.0734516015962 -0.0751597783775 0.923 2.34863942477e-38
-0.076873507196 -0.0787038287959 0.989 2.14577540791e-38
-0.0750431855961 -0.0787038287959 0.989 2.13644654364e-38
-0.0730648096706 -0.0785446703959 0.987 2.34896522666e-38
-0.0710216599777 -0.0783059327959 0.984 4.68361030406e-39
-0.0692005917731 -0.0783059327959 0.984 7.71814174673e-39
-0.0669686728151 -0.0778284575959 0.978 9.74678051406e-39
-0.065158708685 -0.0778284575959 0.978 6.88766221185e-39
-0.0631544232525 -0.077589719996 0.975 1.4267956504e-38
-0.0612241649829 -0.077430561596 0.973 1.32566365997e-38
-0.0592402370202 -0.077191823996 0.97 9.93796386744e-39
-0.0572674131319 -0.076953086396 0.967 1.03996931127e-38
-0.055305693318 -0.076714348796 0.964 9.94657344521e-39
-0.0534105979507 -0.076555190396 0.962 5.42690385109e-39
-0.0513082265276 -0.076077715196 0.956 7.16821897999e-39
-0.0494353393091 -0.075918556796 0.954 7.16747348921e-39
-0.0475198864719 -0.0756798191961 0.951 5.32645877716e-39
-0.0456155377093 -0.0754410815961 0.948 1.14170624225e-38
-0.0437685599977 -0.0752819231961 0.946 1.13137026478e-38
-0.0420178175978 -0.0752819231961 0.946 1.03928365593e-38
-0.0402670751979 -0.0752819231961 0.946 1.02080907711e-38
-0.0383941879794 -0.0750431855961 0.943 1.02088068346e-38
-0.0365324048353 -0.0748044479961 0.94 1.01162538737e-38
-0.034718739347 -0.0746452895961 0.938 9.74927062143e-39
-0.0328069878681 -0.0742473935961 0.933 9.56416469949e-39
-0.0309803676263 -0.0740086559961 0.93 9.19538778523e-39
-0.0291963130031 -0.0738494975962 0.928 9.10283482425e-39
-0.0273900502311 -0.0736107599962 0.925 8.82553467375e-39
-0.0256226517196 -0.0734516015962 0.923 8.54966945286e-39
-0.0239144749383 -0.0734516015962 0.923 7.16460362995e-39
-0.022206298157 -0.0734516015962 0.923 9.82999101817e-39
-0.0203870806315 -0.0730537055962 0.918 8.90876059214e-39
-0.0186881572455 -0.0730537055962 0.918 6.97949770801e-39
-0.0169892338596 -0.0730537055962 0.918 1.08512965753e-38
-0.0152070299155 -0.0726558095962 0.913 6.52032022722e-39
-0.0135173599249 -0.0726558095962 0.913 6.79582671569e-39
-0.0117629161668 -0.0722579135962 0.908 7.16603855958e-39
-0.0100824995716 -0.0722579135962 0.908 6.70614361397e-39
-0.00838357618561 -0.0720987551962 0.906 6.33736669972e-39
-0.00670686094849 -0.0720987551962 0.906 6.3366492349e-39
-0.00501348959974 -0.0718600175963 0.903 6.42848473106e-39
-0.00333492368355 -0.0717008591963 0.901 5.96930725027e-39
-0.00166746184177 -0.0717008591963 0.901 5.32645877716e-39
0.0 -0.0714621215963 0.898 4.95911679253e-39
0.00166190980456 -0.0714621215963 0.898 4.31626831943e-39
0.00331641689285 -0.0713029631963 0.896 9.83325324099e-39
0.00496352126486 -0.0711438047963 0.894 1.16767398435e-38
0.00658101477175 -0.0707459087963 0.889 1.37046541395e-38
0.00820776167399 -0.0705867503963 0.887 7.8099632299e-39
0.00984931400879 -0.0705867503963 0.887 1.09384741554e-38
0.0114649568366 -0.0704275919963 0.885 4.40810381558e-39
0.0130583915156 -0.0701888543963 0.882 3.12240686937e-39
0.014690690455 -0.0701888543963 0.882 3.30607786169e-39
0.0162859758131 -0.0700296959964 0.88 2.93873587706e-39
0.0178738584549 -0.0698705375964 0.878 3.21424236553e-39
0.0194987546781 -0.0698705375964 0.878 3.21424236553e-39
0.021171768557 -0.0700296959964 0.88 2.57139389242e-39
0.0228003661383 -0.0700296959964 0.88 4.22730968901e-39
0.0244289637197 -0.0700296959964 0.88 2.75865220881e-39
0.026057561301 -0.0700296959964 0.88 1.65519132529e-39
0.0276861588823 -0.0700296959964 0.88 1.4733196002e-39
0.0293147564636 -0.0700296959964 0.88 2.76008853973e-39
0.0310136798495 -0.0701888543963 0.882 2.02360950714e-39
0.032645978789 -0.0701888543963 0.882 3.30607786169e-39
0.0343948705098 -0.0704275919963 0.885 1.00240666516e-38
0.0360327214865 -0.0704275919963 0.885 6.42848473106e-39
0.0377557037004 -0.0705867503963 0.887 1.39078157922e-38
0.0393972560352 -0.0705867503963 0.887 1.26167420638e-38
0.0411313423234 -0.0707459087963 0.889 5.7067585687e-39
0.0431134196071 -0.0713029631963 0.896 1.46938755671e-39
0.0447716280535 -0.0713029631963 0.896 0.0
0.0464298364999 -0.0713029631963 0.896 9.20368347213e-39
0.0480880449463 -0.0713029631963 0.896 9.01315172254e-39
0.0498572941369 -0.0714621215963 0.898 9.57430589647e-39
0.051691317095 -0.0717008591963 0.901 9.86057155455e-39
0.0534772223972 -0.0718600175963 0.903 1.68155815719e-44
0.0551483855971 -0.0718600175963 0.903 1.01019045774e-39
0.0570083180621 -0.0720987551962 0.906 0.0
0.0588145808341 -0.0722579135962 0.908 5.70528019882e-39
0.0604949974294 -0.0722579135962 0.908 1.16096975211e-38
0.0623123642758 -0.0724170719962 0.91 1.19386145005e-39
0.0642074596432 -0.0726558095962 0.913 0.0
0.0660414826012 -0.0728149679962 0.915 1.52904279415e-38
0.06773485395 -0.0728149679962 0.915 2.34961388772e-38
0.0696558588243 -0.0730537055962 0.918 2.3487841789e-38
0.0717434248149 -0.0734516015962 0.923 2.34849705285e-38
0.0734516015962 -0.0734516015962 0.923 2.34846202038e-38
-0.076873507196 -0.076873507196 0.989 2.10896764127e-38
-0.0750431855961 -0.076873507196 0.989 2.21942247039e-38
-0.0732128639962 -0.076873507196 0.989 2.34889348018e-38
-0.0712381894288 -0.0767180501541 0.987 4.77688072984e-39
-0.0694115691871 -0.0767180501541 0.987 8.08620259748e-39
-0.0671740981918 -0.0762516790286 0.981 8.45783395671e-39
-0.0653585820245 -0.0762516790286 0.981 5.9707421799e-39
-0.0633487445548 -0.0760184934658 0.978 1.18687191344e-38
-0.0613500111596 -0.075785307903 0.975 1.33484384647e-38
-0.0594234542481 -0.0756298508612 0.973 7.62884260079e-39
-0.0574450783226 -0.0753966652984 0.97 8.65334311845e-39
-0.0554778064715 -0.0751634797356 0.967 9.20333034492e-39
-0.0535216386949 -0.0749302941728 0.964 1.38145033275e-38
-0.0513082265276 -0.0743084660054 0.956 1.05855207034e-38
-0.049538977337 -0.0743084660054 0.956 6.34597627748e-39
-0.0476697914766 -0.0741530089636 0.954 5.05310468313e-39
-0.0456155377093 -0.073686637838 0.948 1.38130697991e-38
-0.0438610939512 -0.073686637838 0.948 1.03917617634e-38
-0.0420178175978 -0.0735311807962 0.946 1.14998847669e-38
-0.0402670751979 -0.0735311807962 0.946 1.094854809e-38
-0.0383941879794 -0.0732979952334 0.943 1.03031534576e-38
-0.0366489976167 -0.0732979952334 0.943 1.05772250165e-38
-0.034718739347 -0.0729093526288 0.938 1.03928365593e-38
-0.0328069878681 -0.0725207100241 0.933 1.04875419148e-38
-0.0309803676263 -0.0722875244614 0.93 9.56524089671e-39
-0.0292592360915 -0.0722875244614 0.93 9.65635892805e-39
-0.0274788828265 -0.0721320674195 0.928 9.28578835176e-39
-0.0256781720917 -0.0718988818567 0.925 9.19251792597e-39
-0.0239662939522 -0.0718988818567 0.925 9.01064059569e-39
-0.022206298157 -0.0717434248149 0.923 8.4574752243e-39
-0.0204314969292 -0.0715102392521 0.92 9.00777073643e-39
-0.0187288721851 -0.0715102392521 0.92 6.3366492349e-39
-0.0169892338596 -0.0713547822102 0.918 1.57355335831e-38
-0.0152403421387 -0.0711215966475 0.915 1.37146986469e-38
-0.0135173599249 -0.0709661396056 0.913 9.10642214832e-39
-0.0117888256738 -0.0707329540428 0.91 6.79582671569e-39
-0.0100824995716 -0.070577497001 0.908 7.07133320417e-39
-0.00840208297631 -0.070577497001 0.908 6.70542614916e-39
-0.00670686094849 -0.0704220399591 0.906 6.8901733387e-39
-0.00503014571137 -0.0704220399591 0.906 6.3366492349e-39
-0.00334232639983 -0.0701888543963 0.903 6.33736669972e-39
-0.00166746184177 -0.0700333973545 0.901 5.87747175411e-39
0.0 -0.0698002117917 0.898 4.95911679253e-39
0.00166190980456 -0.0698002117917 0.898 4.31626831943e-39
0.00332381960913 -0.0698002117917 0.898 1.05715217317e-38
0.00496352126486 -0.069489297708 0.894 1.16814033648e-38
0.00659582020431 -0.0692561121452 0.891 1.25064879006e-38
0.00822626846469 -0.0691006551034 0.889 5.87747175411e-39
0.00984931400879 -0.0689451980615 0.887 5.6938007618e-39
0.0114908663436 -0.0689451980615 0.887 4.49993931174e-39
0.0131028078133 -0.0687897410197 0.885 3.30607786169e-39
0.0147406587899 -0.0687897410197 0.885 2.93873587706e-39
0.0163229893945 -0.0685565554569 0.882 3.30607786169e-39
0.0179145733944 -0.068401098415 0.88 3.21424236553e-39
0.0195431709757 -0.068401098415 0.88 2.75506488474e-39
0.021171768557 -0.068401098415 0.88 2.66322938858e-39
0.0228003661383 -0.068401098415 0.88 4.87267909806e-39
0.0244289637197 -0.068401098415 0.88 2.85371629663e-39
0.026057561301 -0.068401098415 0.88 2.66896910709e-39
0.0276861588823 -0.068401098415 0.88 2.30055092524e-39
0.0293813809101 -0.0685565554569 0.882 2.76116333566e-39
0.0311191685565 -0.0687897410197 0.885 0.0
0.0327570195332 -0.0687897410197 0.885 1.50073362244e-38
0.0344725990308 -0.0689451980615 0.887 1.54730087236e-38
0.0361141513656 -0.0689451980615 0.887 1.51999320867e-38
0.0378408349376 -0.0691006551034 0.889 5.15144640806e-39
0.0394860886305 -0.0691006551034 0.889 3.03057137321e-39
0.0412238762769 -0.0692561121452 0.891 0.0
0.0431134196071 -0.0696447547499 0.896 3.39791896304e-39
0.0447716280535 -0.0696447547499 0.896 1.01273998016e-38
0.0464298364999 -0.0696447547499 0.896 1.42737340576e-38
0.0481953843324 -0.0698002117917 0.898 1.09561235095e-38
0.0500238552532 -0.0700333973545 0.901 4.04363169021e-39
0.051691317095 -0.0700333973545 0.901 9.1835496158e-41
0.0534772223972 -0.0701888543963 0.903 6.16089417761e-39
0.0551483855971 -0.0701888543963 0.903 4.5917748079e-39
0.0570083180621 -0.0704220399591 0.906 1.3453960443e-38
0.0588145808341 -0.070577497001 0.908 1.30816676709e-38
0.0604949974294 -0.070577497001 0.908 5.52304413613e-39
0.0623123642758 -0.0707329540428 0.91 2.48816797403e-39
0.0642074596432 -0.0709661396056 0.913 0.0
0.0660414826012 -0.0711215966475 0.915 2.00723953848e-38
0.0679569354383 -0.0713547822102 0.918 2.34946983424e-38
0.069807614508 -0.0715102392521 0.92 2.34885522473e-38
0.0717434248149 -0.0717434248149 0.923 2.34853236557e-38
-0.076873507196 -0.0750431855961 0.989 2.19176378143e-38
-0.0750431855961 -0.0750431855961 0.989 2.09956759105e-38
-0.0732128639962 -0.0750431855961 0.989 2.34889348018e-38
-0.0712381894288 -0.0748914299124 0.987 4.86979242322e-39
-0.0694115691871 -0.0748914299124 0.987 7.71742007802e-39
-0.0671740981918 -0.0744361628612 0.981 8.00152633517e-39
-0.0653585820245 -0.0744361628612 0.981 4.68361030406e-39
-0.0633487445548 -0.0742085293357 0.978 1.52813545339e-38
-0.0613500111596 -0.0739808958101 0.975 1.45499383927e-38
-0.0595455990667 -0.0739808958101 0.975 1.1691108758e-38
-0.0576227435133 -0.0738291401264 0.973 9.84935696294e-39
-0.055649919625 -0.0736015066008 0.97 6.15299926206e-39
-0.0535216386949 -0.0731462395497 0.964 6.979873256e-39
-0.0514692356066 -0.0727668503404 0.959 1.50104863434e-38
-0.049538977337 -0.0725392168148 0.956 2.8469003809e-39
-0.0476697914766 -0.0723874611311 0.954 8.28245024351e-39
-0.0457598906767 -0.0721598276055 0.951 1.22442545112e-38
-0.0439998948814 -0.0721598276055 0.951 1.07634071356e-38
-0.0421066501932 -0.07193219408 0.948 1.12233020812e-38
-0.0403522064351 -0.07193219408 0.948 1.1316572507e-38
-0.038516332798 -0.0717804383963 0.946 1.12265306729e-38
-0.0366489976167 -0.0715528048707 0.943 1.12268894053e-38
-0.0347927665098 -0.0713251713451 0.94 1.13169312394e-38
-0.0328773136727 -0.0709457821358 0.935 1.07641246005e-38
-0.0310803042961 -0.0707940264521 0.933 1.09485130576e-38
-0.0292592360915 -0.0705663929266 0.93 8.73549283962e-39
-0.0274788828265 -0.0704146372428 0.928 1.01158965425e-38
-0.0256781720917 -0.0701870037173 0.925 9.74819442421e-39
-0.0239662939522 -0.0701870037173 0.925 9.19682271485e-39
-0.0222544158128 -0.0701870037173 0.925 8.82589340615e-39
-0.0205425376733 -0.0701870037173 0.925 8.91557650787e-39
-0.0187899445944 -0.0700352480336 0.923 7.62629223759e-39
-0.0169892338596 -0.0696558588243 0.918 1.22288570437e-38
-0.0152403421387 -0.0694282252987 0.915 1.0755877959e-38
-0.01354697079 -0.0694282252987 0.915 1.54700575891e-38
-0.0118276899343 -0.069276469615 0.913 1.27967542658e-38
-0.0101047077204 -0.0690488360894 0.91 1.03992979466e-38
-0.00840208297631 -0.0688970804057 0.908 7.71776900134e-39
-0.00672166638105 -0.0688970804057 0.908 6.70399121953e-39
-0.00503014571137 -0.068745324722 0.906 6.79833784254e-39
-0.00334232639983 -0.0685176911964 0.903 6.24588993596e-39
-0.00167116319991 -0.0685176911964 0.903 6.42848473106e-39
0.0 -0.0683659355127 0.901 5.60196526564e-39
0.00166190980456 -0.0681383019871 0.898 5.41829427332e-39
0.00332381960913 -0.0681383019871 0.898 3.94892633479e-39
0.00497462533928 -0.0679865463034 0.896 9.74426097942e-39
0.00661802835314 -0.0678347906197 0.894 7.53051068496e-39
0.00827253544143 -0.0678347906197 0.894 4.5917748079e-39
0.00987152215763 -0.0674554014104 0.889 3.76525534248e-39
0.0114908663436 -0.0673036457267 0.887 4.31626831943e-39
0.0131324186784 -0.0673036457267 0.887 3.67341984632e-39
0.0147406587899 -0.067151890043 0.885 3.58158435016e-39
0.0163229893945 -0.0669242565174 0.882 3.58158435016e-39
0.0179552883339 -0.0669242565174 0.882 3.21424236553e-39
0.0195431709757 -0.0667725008337 0.88 3.12240686937e-39
0.021171768557 -0.0667725008337 0.88 2.93873587706e-39
0.0228003661383 -0.0667725008337 0.88 3.67449604354e-39
0.0244289637197 -0.0667725008337 0.88 2.75865220881e-39
0.026057561301 -0.0667725008337 0.88 2.76080880715e-39
0.0277490819706 -0.0669242565174 0.882 2.76080880715e-39
0.0294813175799 -0.067151890043 0.885 2.76188080047e-39
0.0311191685565 -0.067151890043 0.885 0.0
0.0327570195332 -0.067151890043 0.885 1.02275786289e-38
0.0344725990308 -0.0673036457267 0.887 1.19386145005e-39
0.0361955812446 -0.0674554014104 0.889 0.0
0.0378408349376 -0.0674554014104 0.889 3.58732406867e-43
0.0395749212258 -0.0676071570942 0.891 0.0
0.0413626772071 -0.0678347906197 0.894 1.12460087216e-38
0.0431134196071 -0.0679865463034 0.896 1.33560797452e-38
0.0447716280535 -0.0679865463034 0.896 1.3170559039e-38
0.0465334745278 -0.0681383019871 0.898 3.30609047337e-39
0.0481953843324 -0.0681383019871 0.898 2.02038091548e-39
0.0500238552532 -0.0683659355127 0.901 0.0
0.0518060591973 -0.0685176911964 0.903 6.44650683061e-39
0.0534772223972 -0.0685176911964 0.903 1.37223105002e-38
0.055331602825 -0.068745324722 0.906 1.38195564097e-38
0.0570083180621 -0.068745324722 0.906 5.24646145043e-39
0.0588145808341 -0.0688970804057 0.908 3.94892633479e-39
0.0606282463224 -0.0690488360894 0.91 1.37753244237e-39
0.0623123642758 -0.0690488360894 0.91 3.31541191076e-39
0.0643481112525 -0.0694282252987 0.915 0.0
0.0660414826012 -0.0694282252987 0.915 2.23718813232e-38
0.0679569354383 -0.0696558588243 0.918 2.34932536037e-38
0.069807614508 -0.069807614508 0.92 2.34838621014e-38
-0.0771066927588 -0.0734349454845 0.992 2.18254547961e-38
-0.0752708191217 -0.0734349454845 0.992 2.19183580817e-38
-0.0732128639962 -0.0732128639962 0.989 2.34885844772e-38
-0.0712381894288 -0.0730648096706 0.987 6.34418261545e-39
-0.0694115691871 -0.0730648096706 0.987 8.36062868483e-39
-0.0671740981918 -0.0726206466939 0.981 9.19647799543e-39
-0.0653585820245 -0.0726206466939 0.981 4.68361030406e-39
-0.0633487445548 -0.0723985652055 0.978 1.67572034779e-38
-0.0613500111596 -0.0721764837172 0.975 1.39971121355e-38
-0.0595455990667 -0.0721764837172 0.975 1.21531364798e-38
-0.0576227435133 -0.0720284293916 0.973 6.16122908794e-39
-0.055649919625 -0.0718063479032 0.97 1.6481727818e-38
-0.0536881998112 -0.0715842664149 0.967 7.35796039725e-39
-0.0514692356066 -0.0709920491126 0.959 4.5917748079e-39
-0.049538977337 -0.0707699676242 0.956 5.32969437532e-39
-0.0477697281463 -0.0707699676242 0.956 9.57426105492e-39
-0.0459042436441 -0.0706219132986 0.954 1.32476907103e-38
-0.0439998948814 -0.0703998318103 0.951 1.08548838994e-38
-0.0421066501932 -0.0701777503219 0.948 1.17793373119e-38
-0.0403522064351 -0.0701777503219 0.948 1.1688578013e-38
-0.038516332798 -0.0700296959964 0.946 1.13190836339e-38
-0.0366489976167 -0.069807614508 0.943 1.04007286723e-38
-0.0347927665098 -0.0695855330196 0.94 1.13208772959e-38
-0.0329828023797 -0.0694374786941 0.938 1.11339777119e-38
-0.0310803042961 -0.0690673428801 0.933 1.07655595301e-38
-0.0293536207241 -0.0690673428801 0.933 1.06722891043e-38
-0.0275381045567 -0.0688452613918 0.93 1.00276469692e-38
-0.0257614526498 -0.0686972070662 0.928 1.0209165567e-38
-0.0240440224732 -0.0686972070662 0.928 9.65707639286e-39
-0.0222544158128 -0.0684751255778 0.925 9.74855315661e-39
-0.0205425376733 -0.0684751255778 0.925 1.1409125468e-38
-0.0188306595339 -0.0684751255778 0.925 9.19646398245e-39
-0.017026247441 -0.0681049897639 0.92 1.08498882704e-38
-0.0152903104736 -0.0679569354383 0.918 1.14992009333e-38
-0.01354697079 -0.06773485395 0.915 1.22446566838e-38
-0.0118276899343 -0.0675867996244 0.913 1.15074433709e-38
-0.0101047077204 -0.067364718136 0.91 1.53792632577e-38
-0.008420589767 -0.067364718136 0.91 1.46374620935e-38
-0.00672166638105 -0.0672166638105 0.908 1.07637686706e-38
-0.00503014571137 -0.0670686094849 0.906 7.44584983693e-39
-0.00335343047424 -0.0670686094849 0.906 5.78563625795e-39
-0.00167116319991 -0.0668465279965 0.903 6.61287318819e-39
0.0 -0.0666984736709 0.901 6.06114274643e-39
0.00166746184177 -0.0666984736709 0.901 6.06186021124e-39
0.00332381960913 -0.0664763921826 0.898 5.51012976948e-39
0.00497462533928 -0.066328337857 0.896 5.32645877716e-39
0.00661802835314 -0.0661802835314 0.894 5.14278778485e-39
0.00827253544143 -0.0661802835314 0.894 4.49993931174e-39
0.00987152215763 -0.0658101477175 0.889 4.49993931174e-39
0.0114908663436 -0.0656620933919 0.887 4.40810381558e-39
0.0131324186784 -0.0656620933919 0.887 4.13259732711e-39
0.0147406587899 -0.0655140390664 0.885 3.85709083864e-39
0.0163229893945 -0.065291957578 0.882 3.67341984632e-39
0.0179552883339 -0.065291957578 0.882 3.58158435016e-39
0.0195431709757 -0.0651439032524 0.88 3.12240686937e-39
0.021171768557 -0.0651439032524 0.88 3.489748854e-39
0.0228003661383 -0.0651439032524 0.88 3.67521350835e-39
0.0244289637197 -0.0651439032524 0.88 3.0356006334e-39
0.026057561301 -0.0651439032524 0.88 2.76116333566e-39
0.0277490819706 -0.065291957578 0.882 2.48924417125e-39
0.0294813175799 -0.0655140390664 0.885 1.75061414551e-39
0.0311191685565 -0.0655140390664 0.885 1.65770245213e-39
0.032831046696 -0.0656620933919 0.887 0.0
0.0345503275517 -0.0658101477175 0.889 7.09070475414e-39
0.0361955812446 -0.0658101477175 0.889 8.83773157558e-39
0.0379259661748 -0.0659582020431 0.891 1.4096048011e-38
0.0395749212258 -0.0659582020431 0.891 9.1835496158e-41
0.0414552111606 -0.066328337857 0.896 1.32699573429e-38
0.0431134196071 -0.066328337857 0.896 2.66322938858e-39
0.0448715647232 -0.0664763921826 0.898 0.0
0.0466889315697 -0.0666984736709 0.901 1.74954915868e-39
0.0483563934114 -0.0666984736709 0.901 2.57680850969e-39
0.0501348959974 -0.0668465279965 0.903 1.25345825335e-38
0.0518060591973 -0.0668465279965 0.903 1.1888121513e-38
0.0536548875879 -0.0670686094849 0.906 5.15571055929e-39
0.055331602825 -0.0670686094849 0.906 4.5917748079e-40
0.0571341642389 -0.0672166638105 0.908 1.38183723125e-39
0.0588145808341 -0.0672166638105 0.908 3.13101924973e-39
