# .PCD v0.7 - Point Cloud Data file format
VERSION 0.7
FIELDS x y z rgb
SIZE 4 4 4 4
TYPE F F F F
COUNT 1 1 1 1
WIDTH 840
HEIGHT 1
VIEWPOINT 0 0 0 1 0 0 0
POINTS 840
DATA ascii
0.0125994231063 -0.037798269319 0.851 9.92935428968e-39
0.0141743509946 -0.037798269319 0.851 1.7218124174e-38
0.0157122653015 -0.0377094367236 0.849 1.7495121644e-38
0.0172834918317 -0.0377094367236 0.849 1.50915710777e-38
0.0188103020641 -0.0376206041283 0.847 1.36118069059e-38
0.0203297095803 -0.0375317715329 0.845 1.5087567568e-38
0.0218417143803 -0.0374429389376 0.843 1.97013679852e-38
0.023401836836 -0.0374429389376 0.843 2.16385271862e-38
0.0249027375615 -0.0373541063422 0.841 1.74957998725e-38
0.0263962355707 -0.0372652737469 0.839 1.11300877074e-38
0.0278823308637 -0.0371764411516 0.837 1.44441081288e-38
0.029431349245 -0.0371764411516 0.837 1.17772269564e-38
0.0309063404635 -0.0370876085562 0.835 9.28728914241e-39
0.0323739289658 -0.0369987759609 0.833 7.35082778807e-39
0.0339155446308 -0.0369987759609 0.833 1.28814291268e-38
0.0353720290586 -0.0369099433655 0.831 1.28817402151e-38
0.0368211107702 -0.0368211107702 0.829 1.30614693548e-38
0.0382627897654 -0.0367322781748 0.827 1.40774541817e-38
0.0396008307328 -0.0365546129841 0.823 1.86940333737e-38
0.0411239396072 -0.0365546129841 0.823 1.97067545765e-38
0.0426470484815 -0.0365546129841 0.823 1.15931916265e-38
0.0441701573558 -0.0365546129841 0.823 9.56882822077e-39
0.045582225486 -0.0364657803888 0.821 8.28672700642e-39
0.0469868908999 -0.0363769477935 0.819 8.28422288607e-39
0.0485025970579 -0.0363769477935 0.819 8.46681908246e-39
0.0498961583974 -0.0362881151981 0.817 8.37607099391e-39
0.0512823170206 -0.0361992826028 0.815 9.84649130759e-39
0.0526610729275 -0.0361104500074 0.813 1.48185785187e-38
0.0540324261181 -0.0360216174121 0.811 1.84077172689e-38
0.0553963765925 -0.0359327848167 0.809 1.79492572529e-38
0.0568935759598 -0.0359327848167 0.809 1.59170451745e-38
0.0581020693923 -0.035755119626 0.805 1.85884833695e-38
0.0595918660434 -0.035755119626 0.805 1.84988409054e-38
0.0610816626945 -0.035755119626 0.805 1.93318035412e-38
0.0624160023037 -0.0356662870307 0.803 1.98846199893e-38
0.0639020975967 -0.0356662870307 0.803 2.03434569545e-38
0.0653067630106 -0.035621870733 0.802 2.12664291945e-38
0.0667910076244 -0.035621870733 0.802 1.87804276279e-38
0.0682752522383 -0.035621870733 0.802 1.65688241227e-38
0.0697594968522 -0.035621870733 0.802 1.79474481766e-38
0.0712437414661 -0.035621870733 0.802 2.3493978075e-38
0.0725466195311 -0.0355330381377 0.8 1.92468386114e-38
0.0740271627868 -0.0355330381377 0.8 2.28407249608e-38
0.0756964753077 -0.035621870733 0.802 2.29317841376e-38
-0.046220709765 -0.0393731972073 0.925 3.58158435016e-39
-0.0445088316256 -0.0393731972073 0.925 8.92315052607e-39
-0.0427969534861 -0.0393731972073 0.925 7.73429871803e-39
-0.040774161263 -0.039075237877 0.918 7.36444280395e-39
-0.039075237877 -0.039075237877 0.918 8.37783662998e-39
-0.0373763144911 -0.039075237877 0.918 4.59787325882e-39
-0.0355607983237 -0.0389475410212 0.915 1.35371359146e-38
-0.0337933998122 -0.038862409784 0.913 2.01716815849e-38
-0.0321037298216 -0.038862409784 0.913 1.56540522813e-38
-0.0303141231612 -0.0387347129282 0.91 1.83266773761e-38
-0.0286300052078 -0.0387347129282 0.91 1.713643548e-38
-0.026827443794 -0.0385644504538 0.906 9.85157381712e-39
-0.0250119276266 -0.0383516223608 0.901 1.02184926096e-38
-0.0233444657848 -0.0383516223608 0.901 1.11430385078e-38
-0.0216770039431 -0.0383516223608 0.901 1.22525656124e-38
-0.0199429176548 -0.038223925505 0.898 9.85518636456e-39
-0.0182810078502 -0.038223925505 0.898 9.48130171739e-39
-0.0166190980456 -0.038223925505 0.898 1.28936540546e-38
-0.0149238760178 -0.0381387942678 0.896 1.0955731146e-38
-0.0131620295435 -0.0378408349376 0.889 1.08642361653e-38
-0.0114908663436 -0.0377557037004 0.887 1.71317495379e-38
-0.00982710585995 -0.0376705724632 0.885 1.50076290958e-38
-0.00816149469725 -0.0375428756073 0.882 1.03935540242e-38
-0.00651439032524 -0.0374577443701 0.88 1.28698838288e-38
-0.00487468866951 -0.0373726131329 0.878 1.4979947846e-38
-0.00323868837192 -0.0372449162771 0.875 1.55273734988e-38
-0.00161564282782 -0.0371597850399 0.873 1.54337443406e-38
0.0 -0.0370746538027 0.871 1.54351960859e-38
0.00160824011154 -0.0369895225655 0.869 1.54359023403e-38
0.00321648022309 -0.0369895225655 0.869 1.52482866928e-38
0.00481361626021 -0.0369043913283 0.867 1.5336558687e-38
0.00641815501362 -0.0369043913283 0.867 1.58883003391e-38
0.00797642679028 -0.0366915632353 0.862 1.59808336819e-38
0.00957171214834 -0.0366915632353 0.862 1.5707151684e-38
0.0111151784924 -0.0365213007609 0.858 1.55302433581e-38
0.012643839404 -0.0363510382865 0.854 1.36928159701e-38
0.0142243193295 -0.0363510382865 0.854 1.10242055954e-38
0.0157492788829 -0.0362233414307 0.851 1.94207229352e-38
0.0173242067712 -0.0362233414307 0.851 1.98839039257e-38
0.0188547183618 -0.0361382101935 0.849 1.87793934697e-38
0.0203778272361 -0.0360530789563 0.847 1.70301553992e-38
0.0218935333942 -0.0359679477191 0.845 1.96105736538e-38
0.0234573572081 -0.0359679477191 0.845 1.92407443644e-38
0.025021181022 -0.0359679477191 0.845 1.98892961222e-38
0.0264591586591 -0.0357976852446 0.841 2.0628325518e-38
0.0279489553102 -0.0357125540074 0.839 1.93361377573e-38
0.0295016750496 -0.0357125540074 0.839 1.62930009408e-38
0.0309803676263 -0.0356274227702 0.837 1.07573086847e-38
0.0325293860076 -0.0356274227702 0.837 1.27006350002e-38
0.0339969745099 -0.035542291533 0.835 1.03053394832e-38
0.035542291533 -0.035542291533 0.835 1.23321986015e-38
0.0369987759609 -0.0354571602958 0.833 1.42650852435e-38
0.0383553237189 -0.0352868978214 0.829 1.44504952472e-38
0.0397933013561 -0.0352017665842 0.827 1.13137026478e-38
0.0412238762769 -0.035116635347 0.825 1.76719697141e-38
0.0427506865094 -0.035116635347 0.825 1.17786562808e-38
0.0442774967419 -0.035116635347 0.825 8.55147432529e-39
0.0456932662302 -0.0350315041098 0.823 8.65480607405e-39
0.0471016330022 -0.0349463728726 0.821 8.46968894172e-39
0.0486210405184 -0.0349463728726 0.821 9.39054101716e-39
0.050018303216 -0.0348612416354 0.819 7.4551880899e-39
0.0515340093741 -0.0348612416354 0.819 8.09444503504e-39
0.0530497155321 -0.0348612416354 0.819 2.14588442893e-38
0.0542989239041 -0.034690979161 0.815 1.93364908845e-38
0.0556702770948 -0.0346058479238 0.813 1.32488075452e-38
0.0571748791784 -0.0346058479238 0.813 1.4720965469e-38
0.0585351282946 -0.0345207166866 0.811 1.3890879699e-38
0.0598879746946 -0.0344355854494 0.809 1.66538521109e-38
0.0612334183782 -0.0343504542122 0.807 1.77626827702e-38
0.0625714593456 -0.034265322975 0.805 1.75786054013e-38
0.0640612559967 -0.034265322975 0.805 2.0158320204e-38
0.0653881928896 -0.0341801917378 0.803 1.97913103271e-38
0.0668742881826 -0.0341801917378 0.803 1.97917475322e-38
0.0683603834755 -0.0341801917378 0.803 2.25568359049e-38
0.0698464787685 -0.0341801917378 0.803 1.40737897862e-38
-0.0468702981185 -0.0381906132817 0.938 4.50065677656e-39
-0.0447494199046 -0.0378648937655 0.93 7.54203216093e-39
-0.0427969534861 -0.0376613190678 0.925 8.65517881944e-39
-0.0410850753467 -0.0376613190678 0.925 8.10020717433e-39
-0.03928806597 -0.0375798891887 0.923 8.74376470446e-39
-0.0374577443701 -0.0374577443701 0.92 8.37569964982e-39
-0.0356773911051 -0.0373763144911 0.918 5.33470962252e-39
-0.0339784677192 -0.0373763144911 0.918 7.81248696844e-39
-0.0321740556262 -0.0372541696725 0.915 1.65767750902e-38
-0.030414059831 -0.0371727397934 0.913 1.8240612427e-38
-0.0287243898404 -0.0371727397934 0.913 1.51973985391e-38
-0.0268866655242 -0.0369691650957 0.908 2.03549335889e-38
-0.0251507285568 -0.0368877352167 0.906 1.61208360102e-38
-0.0234740133197 -0.0368877352167 0.906 1.11407936277e-38
-0.0218454157384 -0.0369691650957 0.908 1.21531448876e-38
-0.020053958399 -0.0367655903981 0.903 8.37323896971e-39
-0.0183420802595 -0.036684160519 0.901 1.42747584068e-38
-0.0166190980456 -0.0365620157004 0.898 8.46287582858e-39
-0.0149238760178 -0.0364805858214 0.896 1.08606236179e-38
-0.0131916404086 -0.0362770111237 0.891 1.00381146687e-38
-0.0115426853575 -0.0362770111237 0.891 9.57244357081e-39
-0.00987152215763 -0.0361955812446 0.889 1.49118853782e-38
-0.00818925488329 -0.0360327214865 0.885 1.18787454249e-38
-0.0065291957578 -0.0359105766679 0.882 7.73253868715e-39
-0.00488579274393 -0.0358291467888 0.88 1.13086803941e-38
-0.00325719516262 -0.0358291467888 0.88 1.53515946195e-38
-0.00161934418596 -0.0356255720912 0.875 1.51560854577e-38
0.0 -0.0355441422121 0.873 1.4604045329e-38
0.00161194146968 -0.035462712333 0.871 1.58000325488e-38
0.00322388293937 -0.035462712333 0.871 1.57996541982e-38
0.00482472033463 -0.035381282454 0.869 1.60737453753e-38
0.00643296044618 -0.035381282454 0.869 1.58922604086e-38
0.00799493358098 -0.0351777077563 0.864 1.49716970006e-38
0.00959392029717 -0.0351777077563 0.864 1.67176658417e-38
0.0111669975064 -0.0350962778772 0.862 1.53393977176e-38
0.0127622828645 -0.0350962778772 0.862 1.59822461907e-38
0.0142576315527 -0.03485198824 0.856 1.52454140309e-38
0.0158418128364 -0.03485198824 0.856 1.41426664083e-38
0.0173852791805 -0.034770558361 0.854 1.4510008393e-38
0.0188991346595 -0.0346484135424 0.851 1.84723017138e-38
0.020425944892 -0.0345669836633 0.849 1.69225679071e-38
0.0219971714221 -0.0345669836633 0.849 2.12646453416e-38
0.0235683979523 -0.0345669836633 0.849 1.97971355248e-38
0.0251396244824 -0.0345669836633 0.849 1.93347028277e-38
0.0265220817475 -0.0343226940261 0.843 1.95183654122e-38
0.0280155797567 -0.0342412641471 0.841 1.9700958806e-38
0.0295720008543 -0.0342412641471 0.841 1.94233139361e-38
0.0310543947891 -0.034159834268 0.839 1.96116722718e-38
0.0326071145285 -0.034159834268 0.839 1.25158513769e-38
0.0340784043889 -0.0340784043889 0.837 1.2692365938e-38
0.0356274227702 -0.0340784043889 0.837 1.20574488142e-38
0.0370876085562 -0.0339969745099 0.835 1.02135264079e-38
0.0385403916259 -0.0339155446308 0.833 1.20516488399e-38
0.0397933013561 -0.0336712549936 0.827 1.34317470597e-38
0.0413238129467 -0.0336712549936 0.827 1.21424599868e-38
0.0427506865094 -0.0335898251145 0.825 1.19659818595e-38
0.0442774967419 -0.0335898251145 0.825 7.53625040347e-39
0.0456932662302 -0.0335083952355 0.823 8.28564240141e-39
0.0472163751045 -0.0335083952355 0.823 8.92922655621e-39
0.0486210405184 -0.0334269653564 0.821 8.92922655621e-39
0.0501404480346 -0.0334269653564 0.821 7.82431953267e-39
0.0516598555508 -0.0334269653564 0.821 7.7263785791e-39
0.0530497155321 -0.0333455354773 0.819 2.03546407176e-38
0.0545654216902 -0.0333455354773 0.819 1.76788038467e-38
0.0558072273459 -0.0331826757192 0.815 1.39855962648e-38
0.0573155307877 -0.0331826757192 0.815 1.31583467228e-38
0.0586794812621 -0.0331012458401 0.813 1.49103971993e-38
0.0601840833457 -0.0331012458401 0.813 1.46287922599e-38
0.0615369297456 -0.0330198159611 0.811 1.37958128085e-38
0.0627269163874 -0.0328569562029 0.807 1.53610029374e-38
0.0640612559967 -0.0327755263239 0.805 1.7207767177e-38
0.0655510526477 -0.0327755263239 0.805 1.94240440126e-38
0.0670408492988 -0.0327755263239 0.805 2.00683302179e-38
0.0685306459499 -0.0327755263239 0.805 2.17270948543e-38
0.070020442601 -0.0327755263239 0.805 1.39780138388e-38
-0.0507715295974 -0.0367655903981 0.946 2.34853068401e-38
-0.0490207871974 -0.0367655903981 0.946 2.34957451123e-38
-0.0468702981185 -0.0364546763144 0.938 1.08602648855e-38
-0.0449900081837 -0.036338083533 0.935 9.65460310107e-39
-0.0431670893001 -0.0362603550121 0.933 1.00399083307e-38
-0.0413071568351 -0.0361437622307 0.93 1.14213630075e-38
-0.0393731972073 -0.0359494409284 0.925 1.0499402505e-38
-0.0375798891887 -0.0358717124074 0.923 7.64028560405e-39
-0.0358717124074 -0.0358717124074 0.923 7.361935881e-39
-0.0340524948819 -0.035755119626 0.92 7.45554121711e-39
-0.0322795443332 -0.0356773911051 0.918 3.03057137321e-39
-0.0304806842775 -0.0355607983237 0.915 9.28727232683e-39
-0.0287873129287 -0.0355607983237 0.915 1.63012798121e-38
-0.0270347198498 -0.0354830698028 0.913 1.96213916779e-38
-0.025261769301 -0.0353664770214 0.91 1.43665630744e-38
-0.0235776513476 -0.0353664770214 0.91 2.02659903728e-38
-0.0218935333942 -0.0353664770214 0.91 1.7041323748e-38
-0.0201649991431 -0.0352887485005 0.908 1.12294005322e-38
-0.018382795199 -0.0350944271982 0.903 1.04896943092e-38
-0.0166746184177 -0.0350166986772 0.901 1.19651985337e-38
-0.0149571882411 -0.0349001058959 0.898 1.01263081901e-38
-0.0132656675714 -0.0348223773749 0.896 8.93321044774e-39
-0.011581549618 -0.034744648854 0.894 9.29547412674e-39
-0.00989373030646 -0.0346280560726 0.891 1.23387104355e-38
-0.00822626846469 -0.0345503275517 0.889 1.31752379745e-38
-0.00656620933919 -0.0344725990308 0.887 1.216210479e-38
-0.00491355292998 -0.0343948705098 0.885 5.88897501321e-39
-0.0032645978789 -0.0342782777284 0.882 1.08527357088e-38
-0.00162859758131 -0.0342005492075 0.88 1.49814220119e-38
0.0 -0.0341228206866 0.878 1.54344646081e-38
0.00161934418596 -0.0340062279052 0.875 1.51564441901e-38
0.00323128565565 -0.0339284993843 0.873 1.58914896944e-38
0.00483582440905 -0.0338507708634 0.871 1.57056691102e-38
0.00644776587873 -0.0338507708634 0.871 1.53404837239e-38
0.00804120055772 -0.0337730423424 0.869 1.51535743309e-38
0.00964944066926 -0.0337730423424 0.869 1.60733642221e-38
0.0112317712738 -0.0336953138215 0.867 1.57974990012e-38
0.0128363100272 -0.0336953138215 0.867 1.64450236073e-38
0.0143575682225 -0.0335009925192 0.862 1.56149560542e-38
0.0159158399992 -0.0334232639983 0.86 1.51557323305e-38
0.01742599412 -0.0332678069564 0.856 1.56134706778e-38
0.0190101754037 -0.0332678069564 0.856 1.52468447567e-38
0.0205462390315 -0.0331900784355 0.854 1.48773503776e-38
0.022126718957 -0.0331900784355 0.854 1.44181728968e-38
0.0236239183244 -0.0330734856541 0.851 1.61666346479e-38
0.0251988462126 -0.0330734856541 0.851 2.0613244744e-38
0.0265850048358 -0.0328403000913 0.845 2.05303873671e-38
0.0281488286497 -0.0328403000913 0.845 2.08065987087e-38
0.0296423266589 -0.0327625715704 0.843 1.88715919021e-38
0.0311284219519 -0.0326848430495 0.841 2.03466771384e-38
0.0326848430495 -0.0326848430495 0.841 1.86875439605e-38
0.034159834268 -0.0326071145285 0.839 1.50962556185e-38
0.0356274227702 -0.0325293860076 0.837 1.34352895422e-38
0.0371764411516 -0.0325293860076 0.837 1.40831350457e-38
0.0386329255794 -0.0324516574867 0.835 1.11322513122e-38
0.0398895366677 -0.0322184719239 0.829 1.13209627751e-38
0.0414237496164 -0.0322184719239 0.829 1.15971951362e-38
0.0428543245373 -0.032140743403 0.827 1.27046188918e-38
0.0443848361279 -0.032140743403 0.827 1.12319901317e-38
0.0458043069744 -0.0320630148821 0.825 9.29403919711e-39
0.0473311172068 -0.0320630148821 0.825 8.91988129675e-39
0.0487394839789 -0.0319852863611 0.823 8.46645614616e-39
0.0502625928532 -0.0319852863611 0.823 7.26935349276e-39
0.0517857017275 -0.0319852863611 0.823 7.81929027248e-39
0.053179263067 -0.0319075578402 0.821 2.0079875516e-38
0.0546986705832 -0.0319075578402 0.821 1.74011113326e-38
0.0562180780994 -0.0319075578402 0.821 1.3615366204e-38
0.057456182397 -0.0317521007983 0.817 1.38955460228e-38
0.0589681871969 -0.0317521007983 0.817 1.29663828462e-38
0.0603321376713 -0.0316743722774 0.815 1.63800986468e-38
0.0616886854293 -0.0315966437565 0.813 1.53645201965e-38
0.0630378304711 -0.0315189152356 0.811 1.51811967262e-38
0.0642204143967 -0.0313634581937 0.807 1.31525901887e-38
0.0657139124059 -0.0313634581937 0.807 1.52748679234e-38
0.0672074104151 -0.0313634581937 0.807 2.04327014498e-38
0.0687009084243 -0.0313634581937 0.807 2.08966489506e-38
0.0701944064336 -0.0313634581937 0.807 1.56371456153e-38
-0.0507715295974 -0.0350148479982 0.946 2.34856501582e-38
-0.0490207871974 -0.0350148479982 0.946 2.34885536486e-38
-0.0471201397929 -0.034903807254 0.943 1.87869170411e-38
-0.0452305964628 -0.0347927665098 0.94 5.51012976948e-39
-0.0434909581373 -0.0347927665098 0.94 1.0686006415e-38
-0.0415292383234 -0.0346076986028 0.935 1.14206595557e-38
-0.0395008940631 -0.0343486035331 0.928 1.2434496192e-38
-0.0377834638864 -0.0343486035331 0.928 1.10493504951e-38
-0.0359494409284 -0.0342375627889 0.925 9.85476036982e-39
-0.0341635356261 -0.0341635356261 0.923 8.19560056729e-39
-0.0323498701378 -0.0340524948819 0.92 7.54810819107e-39
-0.0305806209472 -0.0339784677192 0.918 7.17754462127e-39
-0.0288816975613 -0.0339784677192 0.918 3.30607786169e-39
-0.02709394158 -0.033867426975 0.915 8.64652860402e-39
-0.0253450498591 -0.0337933998122 0.913 1.73193217452e-38
-0.0236553798685 -0.0337933998122 0.913 1.89785277905e-38
-0.0219657098779 -0.0337933998122 0.913 1.76819960046e-38
-0.0202094154408 -0.033682359068 0.91 1.75926828457e-38
-0.0184438676083 -0.0335343047424 0.906 1.74083280197e-38
-0.0167671523712 -0.0335343047424 0.906 1.09499479872e-38
-0.0150404687992 -0.0334232639983 0.903 1.35325396557e-38
-0.0133396947342 -0.0333492368355 0.901 8.37429554876e-39
-0.011607459125 -0.0331641689285 0.896 1.31694870456e-38
-0.00992704252972 -0.0330901417657 0.894 1.08657033248e-38
-0.00824477525538 -0.0329791010215 0.891 8.64867959716e-39
-0.00659582020431 -0.0329791010215 0.891 1.19699251134e-38
-0.00492465700439 -0.032831046696 0.887 1.02232023737e-38
-0.0032831046696 -0.032831046696 0.887 7.27043109128e-39
-0.00163785097666 -0.0327570195332 0.885 9.93189484379e-39
0.0 -0.0325719516262 0.88 1.45225752376e-38
0.00162489622317 -0.0324979244634 0.878 1.49760017895e-38
0.00323868837192 -0.0323868837192 0.875 1.54337457419e-38
0.00485803255789 -0.0323868837192 0.875 1.58940064264e-38
0.00646257131129 -0.0323128565565 0.873 1.46940381177e-38
0.00805970734842 -0.0322388293937 0.871 1.83890113357e-38
0.00964944066926 -0.0321648022309 0.869 1.61788315497e-38
0.0112576807808 -0.0321648022309 0.869 1.36863587868e-38
0.0128363100272 -0.0320907750681 0.867 1.55205589844e-38
0.0143908804458 -0.0319797343239 0.864 1.57957053392e-38
0.0159528535806 -0.0319057071611 0.862 1.51532184011e-38
0.0175074239991 -0.0318316799983 0.86 1.61641291262e-38
0.019099007999 -0.0318316799983 0.86 1.55216337803e-38
0.0206424743431 -0.0317576528356 0.858 1.56141867413e-38
0.0221785379709 -0.0316836256728 0.856 1.56145454737e-38
0.0237071988825 -0.03160959851 0.854 1.53365278584e-38
0.025287678808 -0.03160959851 0.854 1.4510008393e-38
0.0267108510126 -0.031424530603 0.849 1.4510008393e-38
0.0282154530962 -0.0313505034402 0.847 1.81913932198e-38
0.0297126524636 -0.0312764762774 0.845 2.08890749324e-38
0.0312024491147 -0.0312024491147 0.843 1.91452851104e-38
0.0327625715704 -0.0312024491147 0.843 1.90566866137e-38
0.0342412641471 -0.0311284219519 0.841 2.0625085716e-38
0.0357125540074 -0.0310543947891 0.839 1.94294474195e-38
0.0371764411516 -0.0309803676263 0.837 1.63887670791e-38
0.0387254595329 -0.0309803676263 0.837 1.02967523262e-38
0.0402744779142 -0.0309803676263 0.837 1.14142332009e-38
0.041623622956 -0.0308323133007 0.833 1.17822926504e-38
0.0429579625652 -0.0306842589751 0.829 1.15993601423e-38
0.044492175514 -0.0306842589751 0.829 1.2152151367e-38
0.0459153477185 -0.0306102318124 0.827 1.44567086046e-38
0.0474458593092 -0.0306102318124 0.827 1.2246122442e-38
0.0489763708998 -0.0306102318124 0.827 8.64652720272e-39
0.0503847376718 -0.0305362046496 0.825 7.45231682935e-39
0.0519115479043 -0.0305362046496 0.825 7.81713787804e-39
0.0533088106019 -0.0304621774868 0.823 2.00798629043e-38
0.0548319194762 -0.0304621774868 0.823 1.80461416274e-38
0.0563550283506 -0.0304621774868 0.823 9.91896646416e-39
0.0577374856156 -0.030388150324 0.821 1.95194163861e-38
0.0591125401644 -0.0303141231612 0.819 1.40713655399e-38
0.0604801919968 -0.0302400959984 0.817 1.87717774125e-38
0.0618404411131 -0.0301660688356 0.815 1.80320627818e-38
0.063193287513 -0.0300920416729 0.813 1.67456567785e-38
0.0643795727966 -0.0299439873473 0.809 1.58258766964e-38
0.065876772164 -0.0299439873473 0.809 1.46280691899e-38
0.0673739715314 -0.0299439873473 0.809 1.66534989837e-38
0.0687009084243 -0.0298699601845 0.807 2.13568003338e-38
0.0701944064336 -0.0298699601845 0.807 1.79423824826e-38
-0.0508788689834 -0.0333344314029 0.948 2.32998337779e-38
-0.0491244252253 -0.0333344314029 0.948 2.34863802347e-38
-0.0472700447975 -0.0332641055983 0.946 2.34899913808e-38
-0.0455193023976 -0.0332641055983 0.946 4.49993931174e-39
-0.0437685599977 -0.0332641055983 0.946 1.07753055609e-38
-0.0418845687048 -0.0331586168913 0.943 9.5778357673e-39
-0.0399265502491 -0.0329828023797 0.938 1.33531524328e-38
-0.0379870385841 -0.0328069878681 0.933 1.37226580222e-38
-0.0361437622307 -0.0327014991611 0.93 1.16032291274e-38
-0.0343486035331 -0.0326311733564 0.928 9.9437512301e-39
-0.0324553588448 -0.0324553588448 0.923 8.5601315472e-39
-0.0306472453938 -0.0323498701378 0.92 8.28176220596e-39
-0.0288816975613 -0.0322795443332 0.918 7.82399583273e-39
-0.0271827741753 -0.0322795443332 0.918 7.18112073495e-39
-0.0254005702312 -0.0321740556262 0.915 2.38772290011e-39
-0.0237071988825 -0.0321740556262 0.915 1.01144938428e-38
-0.0220138275337 -0.0321740556262 0.915 1.79611612834e-38
-0.0202760398873 -0.0321037298216 0.913 1.74086615287e-38
-0.0184845825479 -0.03192791531 0.908 1.86035893669e-38
-0.0168041659526 -0.03192791531 0.908 1.62043828259e-38
-0.0150904371341 -0.0318575895053 0.906 1.45467588465e-38
-0.013413721897 -0.0318575895053 0.906 1.02163934645e-38
-0.0116722328924 -0.0316817749937 0.901 1.17855086303e-38
-0.00997145882739 -0.0315762862867 0.898 1.09586416429e-38
-0.00829104223213 -0.0315059604821 0.896 7.91579629642e-39
-0.00661802835314 -0.0314356346774 0.894 5.79821010907e-39
-0.00493576107881 -0.0312598201658 0.889 9.29552597478e-39
-0.00329050738588 -0.0312598201658 0.889 1.26184572531e-38
-0.0016415523348 -0.0311894943612 0.887 1.19713516353e-38
0.0 -0.0310136798495 0.882 9.83933207373e-39
0.00162859758131 -0.0309433540449 0.88 1.27762546706e-38
0.00325719516262 -0.0309433540449 0.88 1.47001365686e-38
0.00487468866951 -0.0308730282403 0.878 1.56166978681e-38
0.00647737674385 -0.0307675395333 0.875 1.46018438891e-38
0.00807821413911 -0.0306972137286 0.873 1.68213296982e-38
0.0096716488181 -0.030626887924 0.871 1.66354979037e-38
0.0112835902878 -0.030626887924 0.871 1.72859007768e-38
0.0128659208924 -0.0305565621193 0.869 1.626709934e-38
0.0144408487806 -0.0304862363147 0.867 1.44214014885e-38
0.015989867162 -0.0303807476077 0.864 1.56120441559e-38
0.0175481389386 -0.0303104218031 0.862 1.67190965674e-38
0.019099007999 -0.0302400959984 0.86 1.52464860243e-38
0.0206905919989 -0.0302400959984 0.86 1.60737229545e-38
0.0222303569849 -0.0301697701938 0.858 1.54319506786e-38
0.0237627192546 -0.0300994443891 0.856 1.60758753489e-38
0.025287678808 -0.0300291185845 0.854 1.56163447409e-38
0.0267737741009 -0.0299236298775 0.851 1.5707836919e-38
0.0282820775427 -0.0298533040729 0.849 1.48773503776e-38
0.0297829782682 -0.0297829782682 0.847 1.50610213699e-38
0.0312764762774 -0.0297126524636 0.845 1.56120343469e-38
0.0328403000913 -0.0297126524636 0.845 1.73770412289e-38
0.0343226940261 -0.0296423266589 0.843 1.64623128277e-38
0.0357976852446 -0.0295720008543 0.841 1.99729102003e-38
0.0373541063422 -0.0295720008543 0.841 1.7582998472e-38
0.0388179934863 -0.0295016750496 0.839 1.1302975708e-38
0.0403707132258 -0.0295016750496 0.839 8.45352916782e-39
0.0418234962955 -0.029431349245 0.837 9.56096973899e-39
0.0432688766489 -0.0293610234403 0.835 7.99473284022e-39
0.044706854286 -0.0292906976357 0.833 1.04861378137e-38
0.0461374292069 -0.029220371831 0.831 1.14099592406e-38
0.0475606014115 -0.0291500460264 0.829 1.27035468985e-38
0.0490948143602 -0.0291500460264 0.829 8.36708586816e-39
0.0505068824904 -0.0290797202217 0.827 8.37140467002e-39
0.052037394081 -0.0290797202217 0.827 5.78563625795e-39
0.0535679056716 -0.0290797202217 0.827 2.118476152e-38
0.0550984172622 -0.0290797202217 0.827 1.93361797963e-38
0.0564919786017 -0.0290093944171 0.825 1.28789278091e-38
0.0578781372249 -0.0289390686124 0.823 6.42848473106e-39
0.0592568931318 -0.0288687428078 0.821 1.99715046979e-38
0.060776300648 -0.0288687428078 0.821 1.62818676245e-38
0.0621439524805 -0.0287984170032 0.819 1.5534548147e-38
0.0633487445548 -0.0286577653939 0.815 1.54427126508e-38
0.0646978895966 -0.0285874395892 0.813 1.72873917583e-38
0.0662024916803 -0.0285874395892 0.813 1.97841707114e-38
0.0675405326476 -0.0285171137846 0.811 1.65630339575e-38
0.0688711708987 -0.0284467879799 0.809 1.91423704096e-38
0.0703683702661 -0.0284467879799 0.809 1.8677785318e-38
-0.0508788689834 -0.0315799876449 0.948 2.28378158652e-38
-0.0491244252253 -0.0315799876449 0.948 2.23778942949e-38
-0.0473699814673 -0.0315799876449 0.948 2.34900067951e-38
-0.0456155377093 -0.0315799876449 0.948 4.68361030406e-39
-0.0438610939512 -0.0315799876449 0.948 1.1785469394e-38
-0.0420178175978 -0.0315133631984 0.946 1.07759907959e-38
-0.0401393783421 -0.0314134265286 0.943 1.26177509987e-38
-0.0381906132817 -0.0312468654123 0.938 1.28010926859e-38
-0.0364546763144 -0.0312468654123 0.938 1.30758396706e-38
-0.0345336714401 -0.0310803042961 0.933 1.33545747507e-38
-0.0327014991611 -0.0309803676263 0.93 1.0865685108e-38
-0.0309137431798 -0.0309137431798 0.928 1.1325239538e-38
-0.0291019283706 -0.03081380651 0.925 9.39270322069e-39
-0.0273308285009 -0.0307471820635 0.923 6.99673648172e-39
-0.0254838507894 -0.0305806209472 0.918 7.91545998479e-39
-0.0237849274034 -0.0305806209472 0.918 6.53396046647e-39
-0.0220860040175 -0.0305806209472 0.918 2.47955839627e-39
-0.020320456185 -0.0304806842775 0.915 1.29661067904e-38
-0.0185863698967 -0.030414059831 0.913 1.80540911936e-38
-0.016841179534 -0.0303141231612 0.91 1.2519424688e-38
-0.0151237493574 -0.0302474987147 0.908 1.31493868205e-38
-0.0134433327621 -0.0302474987147 0.908 1.27060075786e-38
-0.0116981423994 -0.0300809375984 0.903 1.17877591157e-38
-0.00997145882739 -0.0299143764822 0.898 1.27032119881e-38
-0.00830954902282 -0.0299143764822 0.898 6.79582671569e-39
-0.00664763921826 -0.0299143764822 0.898 6.62727012861e-39
-0.00497462533928 -0.0298477520357 0.896 7.91543055752e-39
-0.00330901417657 -0.0297811275891 0.894 6.53396046647e-39
-0.00164525369294 -0.0296145664729 0.889 1.27074453108e-38
0.0 -0.0295479420264 0.887 7.3608400656e-39
0.00163785097666 -0.0294813175799 0.885 8.46610301894e-39
0.0032645978789 -0.0293813809101 0.882 1.22252472988e-38
0.00488579274393 -0.0293147564636 0.88 1.70983145566e-38
0.00649958489268 -0.0292481320171 0.878 1.45100336163e-38
0.00809672092981 -0.0291481953473 0.875 1.63535566526e-38
0.00969385696694 -0.0290815709008 0.873 1.5704982474e-38
0.0112835902878 -0.0290149464543 0.871 1.76546622768e-38
0.0128659208924 -0.0289483220078 0.869 1.69182491052e-38
0.0144408487806 -0.0288816975613 0.867 1.64618714187e-38
0.015989867162 -0.0287817608915 0.864 1.56174419576e-38
0.0175481389386 -0.028715136445 0.862 1.71000717848e-38
0.0191434242967 -0.028715136445 0.862 1.66423754765e-38
0.0206905919989 -0.0286485119985 0.86 1.39633002049e-38
0.0222821759988 -0.0286485119985 0.86 1.55209219207e-38
0.0238182396267 -0.028581887552 0.858 1.51528820894e-38
0.0254061222684 -0.028581887552 0.858 1.83897512213e-38
0.0269310818219 -0.0285152631055 0.856 1.47030064279e-38
0.0283487019892 -0.0283487019892 0.851 1.58875478418e-38
0.0297829782682 -0.0282154530962 0.847 1.6163775999e-38
0.0313505034402 -0.0282154530962 0.847 1.55212778505e-38
0.0329180286122 -0.0282154530962 0.847 1.44181728968e-38
0.0344041239052 -0.0281488286497 0.845 1.46936793853e-38
0.0358828164819 -0.0280822042032 0.843 1.61641291262e-38
0.0374429389376 -0.0280822042032 0.843 1.94085274347e-38
0.0390030613933 -0.0280822042032 0.843 2.06208397816e-38
0.0404669485374 -0.0280155797567 0.841 1.63869509963e-38
0.0419234329653 -0.0279489553102 0.839 1.78624187871e-38
0.0433725146768 -0.0278823308637 0.837 1.85996517182e-38
0.0448141936721 -0.0278157064172 0.835 1.40813231668e-38
0.0463595106953 -0.0278157064172 0.835 1.23210680878e-38
0.0477900856161 -0.0277490819706 0.833 1.16814818375e-38
0.0492132578207 -0.0276824575241 0.831 1.22414533156e-38
0.0507511721276 -0.0276824575241 0.831 6.43243078753e-39
0.0521632402577 -0.0276158330776 0.829 6.70434995194e-39
0.0536974532065 -0.0276158330776 0.829 2.03532212022e-38
0.0550984172622 -0.0275492086311 0.827 1.73985889954e-38
0.0564919786017 -0.0274825841846 0.825 1.27888859749e-38
0.0580187888342 -0.0274825841846 0.825 3.03057137321e-39
0.0594012460992 -0.0274159597381 0.823 1.8042557106e-38
0.0609243549736 -0.0274159597381 0.823 2.21023443662e-38
0.0622957081642 -0.0273493352916 0.821 2.07143876645e-38
0.0636596586385 -0.0272827108451 0.819 1.38833028782e-38
0.0651753647966 -0.0272827108451 0.819 1.59836811204e-38
0.0665282111965 -0.0272160863986 0.817 1.76503715009e-38
0.0678736548802 -0.0271494619521 0.815 1.76528630095e-38
0.069381958322 -0.0271494619521 0.815 1.91302477766e-38
0.0710642255963 -0.0272160863986 0.817 2.02411621666e-38
-0.0508788689834 -0.0298255438868 0.948 2.21005843353e-38
-0.0491244252253 -0.0298255438868 0.948 2.1733243752e-38
-0.0473699814673 -0.0298255438868 0.948 2.34910801898e-38
-0.0456155377093 -0.0298255438868 0.948 3.12240686937e-39
-0.0438610939512 -0.0298255438868 0.948 1.08567378173e-38
-0.0420178175978 -0.0297626207984 0.946 9.94482322342e-39
-0.0401393783421 -0.0296682361659 0.943 1.16050704336e-38
-0.0382720431608 -0.0295738515333 0.94 1.20642268949e-38
-0.0364546763144 -0.029510928445 0.938 1.14152841748e-38
-0.0345336714401 -0.0293536207241 0.933 1.44598461118e-38
-0.0327014991611 -0.0292592360915 0.93 1.39996302689e-38
-0.0309803676263 -0.0292592360915 0.93 1.24294164851e-38
-0.0291019283706 -0.0291019283706 0.925 1.17869001197e-38
-0.0273308285009 -0.0290390052822 0.923 1.04068383336e-38
-0.0255393711615 -0.0289446206497 0.92 9.6703621036e-39
-0.0238367464174 -0.0289446206497 0.92 7.64136039998e-39
-0.0220860040175 -0.0288816975613 0.918 7.45663983511e-39
-0.0203870806315 -0.0288816975613 0.918 6.99530155209e-39
-0.0186270848362 -0.0287873129287 0.915 3.489748854e-39
-0.0168966999061 -0.0287243898404 0.913 1.47214012728e-38
-0.0151570615806 -0.0286300052078 0.91 1.37148429807e-38
-0.0134729436272 -0.0286300052078 0.91 1.03121638068e-38
-0.0117629161668 -0.0285670821194 0.908 8.37650539643e-39
-0.0100269791995 -0.0284097743985 0.903 1.33531902678e-38
-0.00835581599956 -0.0284097743985 0.903 1.78718719465e-38
-0.00666984736709 -0.0283468513102 0.901 6.53359332627e-39
-0.00500238552532 -0.0283468513102 0.901 7.54740193664e-39
-0.00332381960913 -0.0282524666776 0.898 7.6396017704e-39
-0.00165820844643 -0.0281895435892 0.896 6.99494842487e-39
0.0 -0.0281895435892 0.896 7.45735589863e-39
0.00164895505108 -0.0280322358683 0.891 6.90490378815e-39
0.00329050738588 -0.0279693127799 0.889 8.37390178389e-39
0.00492465700439 -0.0279063896916 0.887 1.18597017788e-38
0.00656620933919 -0.0279063896916 0.887 1.50682058271e-38
0.00820776167399 -0.0279063896916 0.887 1.52457685594e-38
0.00982710585995 -0.0278434666032 0.885 1.598190007e-38
0.0114649568366 -0.0278434666032 0.885 1.47855274931e-38
0.0130583915156 -0.0277490819706 0.882 1.69960576037e-38
0.0145074732272 -0.0274030049846 0.871 1.63625067459e-38
0.016045387534 -0.0272771588079 0.867 1.75603815148e-38
0.0175481389386 -0.027119851087 0.862 1.38772044272e-38
0.0191434242967 -0.027119851087 0.862 1.728234288e-38
0.0207387096547 -0.027119851087 0.862 1.59040467299e-38
0.0223339950128 -0.027119851087 0.862 1.69153400096e-38
0.0238737599988 -0.0270569279986 0.86 1.46976282444e-38
0.0254653439987 -0.0270569279986 0.86 1.70025035767e-38
0.0269940049102 -0.0269940049102 0.858 1.73752321526e-38
0.0285152631055 -0.0269310818219 0.856 1.96848662945e-38
0.0299236298775 -0.0267737741009 0.851 1.54506047638e-38
0.0314985577658 -0.0267737741009 0.851 1.46969079769e-38
0.0329957571332 -0.0267108510126 0.849 1.5246132897e-38
0.0344855537843 -0.0266479279242 0.847 1.63481532457e-38
0.0359679477191 -0.0265850048358 0.845 1.52446923622e-38
0.0375317715329 -0.0265850048358 0.845 1.50610213699e-38
0.0390955953468 -0.0265850048358 0.845 1.46018438891e-38
0.0406594191607 -0.0265850048358 0.845 1.74639245363e-38
0.0421233063048 -0.0265220817475 0.843 2.23670104097e-38
0.0436834287605 -0.0265220817475 0.843 2.13598117242e-38
0.0452435512162 -0.0265220817475 0.843 2.10842463812e-38
0.0464705514394 -0.0263333124823 0.837 1.93331684059e-38
0.0479048277184 -0.026270389394 0.835 1.34280714539e-38
0.0494501447416 -0.026270389394 0.835 1.89622629193e-38
0.0508733169462 -0.0262074663056 0.833 1.49975299378e-38
0.0522890864345 -0.0261445432172 0.831 6.24481373874e-39
0.0538270007414 -0.0261445432172 0.831 2.09982402866e-38
0.0552316661553 -0.0260816201289 0.829 1.43568548786e-38
0.0566289288529 -0.0260186970405 0.827 1.34248428622e-38
0.0581594404435 -0.0260186970405 0.827 1.17765235046e-38
0.0595455990667 -0.0259557739521 0.825 1.831414136e-38
0.0610724092991 -0.0259557739521 0.825 2.17335212091e-38
0.0625992195316 -0.0259557739521 0.825 2.12682620929e-38
0.0639705727222 -0.0258928508638 0.823 2.23738739696e-38
0.0653345231966 -0.0258299277754 0.821 1.99770986814e-38
0.0668539307128 -0.0258299277754 0.821 1.47098223436e-38
0.068373338229 -0.0258299277754 0.821 1.44181728968e-38
0.0698927457452 -0.0258299277754 0.821 1.75452474914e-38
0.071934044759 -0.0260186970405 0.827 2.18089166716e-38
0.0736422215403 -0.0260816201289 0.829 2.2285351143e-38
-0.0492798822672 -0.0281599327241 0.951 2.29317743285e-38
-0.0475198864719 -0.0281599327241 0.951 2.34860313114e-38
-0.0456155377093 -0.0280711001288 0.948 8.92705594489e-39
-0.0438610939512 -0.0280711001288 0.948 7.44333871009e-39
-0.0421066501932 -0.0280711001288 0.948 1.0864999873e-38
-0.0402670751979 -0.0280118783985 0.946 1.12380633593e-38
-0.038516332798 -0.0280118783985 0.946 1.16972366362e-38
-0.0366489976167 -0.0279230458032 0.943 1.18783951003e-38
-0.0347927665098 -0.0278342132079 0.94 1.09560982862e-38
-0.0328773136727 -0.0276861588823 0.935 1.24283767216e-38
-0.0310803042961 -0.027626937152 0.933 1.38141530028e-38
-0.0292592360915 -0.0275381045567 0.93 1.45538620284e-38
-0.0273900502311 -0.0273900502311 0.925 1.15092580524e-38
-0.0256226517196 -0.0273308285009 0.923 1.01288767702e-38
-0.0239144749383 -0.0273308285009 0.923 1.05901898299e-38
-0.0221341216733 -0.0272419959056 0.92 9.48597364647e-39
-0.0204314969292 -0.0272419959056 0.92 7.08820063378e-39
-0.0186881572455 -0.0271827741753 0.918 6.44319275974e-39
-0.0169337134875 -0.02709394158 0.915 8.28676904538e-39
-0.0152403421387 -0.02709394158 0.915 8.09874281743e-39
-0.0135173599249 -0.0270347198498 0.913 1.10490253938e-38
-0.0117888256738 -0.0269458872544 0.91 1.16988032878e-38
-0.0100602914227 -0.026827443794 0.906 9.1168422037e-39
-0.00838357618561 -0.026827443794 0.906 2.10031994819e-38
-0.00668465279965 -0.0267386111986 0.903 6.34776993951e-39
-0.00500238552532 -0.0266793894684 0.901 8.55829584621e-39
-0.00333492368355 -0.0266793894684 0.901 7.91761658313e-39
-0.00166190980456 -0.026590556873 0.898 6.35136707267e-39
0.0 -0.026590556873 0.898 7.91726345592e-39
0.00165820844643 -0.0265313351428 0.896 7.08931466606e-39
0.00330901417657 -0.0264721134126 0.894 7.3658525102e-39
0.00494686515323 -0.0263832808172 0.891 7.0842601825e-39
0.00658101477175 -0.026324059087 0.889 1.1858998327e-38
0.00822626846469 -0.026324059087 0.889 1.48834488285e-38
0.00984931400879 -0.0262648373568 0.887 1.65329060405e-38
0.0114908663436 -0.0262648373568 0.887 1.50614165361e-38
0.0131028078133 -0.0262056156265 0.885 1.56120343469e-38
0.0146240660085 -0.0259983395707 0.878 1.61655724636e-38
0.0161564282782 -0.0258502852452 0.873 1.59793847393e-38
0.0177313561665 -0.0257910635149 0.871 1.58900799881e-38
0.0192988813385 -0.0257318417847 0.869 1.75535445796e-38
0.0208590037943 -0.0256726200545 0.867 1.57099682939e-38
0.0224635425477 -0.0256726200545 0.867 1.70071853148e-38
0.0240680813011 -0.0256726200545 0.867 1.62696062629e-38
0.0255837874591 -0.0255837874591 0.864 1.75599891512e-38
0.0271827741753 -0.0255837874591 0.864 1.53433535832e-38
0.0287817608915 -0.0255837874591 0.864 1.47855148814e-38
0.0303104218031 -0.0255245657289 0.862 1.96848088412e-38
0.0318316799983 -0.0254653439987 0.86 1.89512220887e-38
0.0332678069564 -0.0253469005382 0.856 1.64529395423e-38
0.034770558361 -0.025287678808 0.854 1.4605801156e-38
0.0362233414307 -0.0251988462126 0.851 1.51528568661e-38
0.037798269319 -0.0251988462126 0.851 1.58875408353e-38
0.0393731972073 -0.0251988462126 0.851 1.55202086598e-38
0.0408518897839 -0.0251396244824 0.849 1.60712118276e-38
0.0424231163141 -0.0251396244824 0.849 1.50610213699e-38
0.0437870667884 -0.025021181022 0.845 1.5703869843e-38
0.0453508906023 -0.025021181022 0.845 2.05181204003e-38
0.0469147144162 -0.025021181022 0.845 2.12668579919e-38
0.0483637961277 -0.0249619592917 0.843 2.03456401775e-38
0.0495685882021 -0.024784294101 0.837 1.99724870082e-38
0.0509954617648 -0.0247250723708 0.835 2.07990050723e-38
0.0524149326112 -0.0246658506406 0.833 1.748748737e-38
0.0538270007414 -0.0246066289103 0.831 1.99807700834e-38
0.0553649150483 -0.0246066289103 0.831 1.73035403218e-38
0.056765879104 -0.0245474071801 0.829 1.27762630784e-38
0.0583000920528 -0.0245474071801 0.829 1.76749040331e-38
0.0598343050015 -0.0245474071801 0.829 1.69361815216e-38
0.0613685179503 -0.0245474071801 0.829 2.20975575306e-38
0.0627509752153 -0.0244881854499 0.827 2.20054796098e-38
0.0641260297641 -0.0244289637197 0.825 2.13583053284e-38
0.0656528399966 -0.0244289637197 0.825 2.14493799194e-38
0.0671796502291 -0.0244289637197 0.825 2.20973221125e-38
0.0687064604615 -0.0244289637197 0.825 2.14530092825e-38
0.070233270694 -0.0244289637197 0.825 2.12693775265e-38
0.071934044759 -0.0244881854499 0.827 2.08941280146e-38
0.0736422215403 -0.0245474071801 0.829 2.34910871962e-38
-0.0494353393091 -0.026483217487 0.954 2.10864296042e-38
-0.0476697914766 -0.026483217487 0.954 2.33001967142e-38
-0.0457598906767 -0.0263999369289 0.951 1.584065479e-38
-0.0439998948814 -0.0263999369289 0.951 6.3366492349e-39
-0.0422398990862 -0.0263999369289 0.951 8.46536733725e-39
-0.0403522064351 -0.0263166563707 0.948 1.04075838244e-38
-0.038516332798 -0.0262611359986 0.946 1.02235358828e-38
-0.0367655903981 -0.0262611359986 0.946 1.15110699313e-38
-0.034903807254 -0.0261778554405 0.943 1.24308626251e-38
-0.0330531281843 -0.0260945748824 0.94 1.22471734159e-38
-0.0312468654123 -0.0260390545103 0.938 1.12366130154e-38
-0.0293536207241 -0.02590025358 0.933 1.22464545498e-38
-0.0275381045567 -0.0258169730219 0.93 1.39052668303e-38
-0.0257614526498 -0.0257614526498 0.928 1.36340777424e-38
-0.0239662939522 -0.0256781720917 0.925 1.05866151175e-38
-0.022206298157 -0.0256226517196 0.923 1.05901898299e-38
-0.0204981213757 -0.0256226517196 0.923 1.1789432266e-38
-0.0187288721851 -0.0255393711615 0.92 8.83952944151e-39
-0.0169892338596 -0.0254838507894 0.918 1.14210126829e-38
-0.0152403421387 -0.0254005702312 0.915 1.2712099023e-38
-0.01354697079 -0.0254005702312 0.915 1.08692430048e-38
-0.0118276899343 -0.0253450498591 0.913 5.51947502894e-39
-0.0100824995716 -0.0252062489289 0.908 1.21513498243e-38
-0.00840208297631 -0.0252062489289 0.908 1.72249989442e-38
-0.00670686094849 -0.0251507285568 0.906 8.19918789136e-39
-0.00501348959974 -0.0250674479987 0.903 7.82254408752e-39
-0.00334232639983 -0.0250674479987 0.903 8.10057291323e-39
-0.00166746184177 -0.0250119276266 0.901 8.10308123748e-39
0.0 -0.0250119276266 0.901 7.55097945162e-39
0.00166190980456 -0.0249286470685 0.898 7.45734048434e-39
0.00331641689285 -0.0248731266964 0.896 7.45841247767e-39
0.00496352126486 -0.0248176063243 0.894 6.99708680633e-39
0.00659582020431 -0.0247343257662 0.891 7.54666064976e-39
0.00824477525538 -0.0247343257662 0.891 1.19504652817e-38
0.00987152215763 -0.0246788053941 0.889 1.47898238742e-38
0.0115167758506 -0.0246788053941 0.889 1.64446760853e-38
0.0131620295435 -0.0246788053941 0.889 1.46029200863e-38
0.0147739710132 -0.024623285022 0.887 1.59793791341e-38
0.0163785097666 -0.0245677646499 0.885 1.57038754482e-38
0.0178127860456 -0.0242901627894 0.875 1.88442833977e-38
0.0193432976362 -0.0241791220453 0.871 1.51600315142e-38
0.0209552391059 -0.0241791220453 0.871 1.635210771e-38
0.0225153615616 -0.0241236016732 0.869 1.78354872319e-38
0.0241236016732 -0.0241236016732 0.869 1.45175417735e-38
0.0257318417847 -0.0241236016732 0.869 1.81103084854e-38
0.0272771588079 -0.0240680813011 0.867 1.57117801728e-38
0.0288816975613 -0.0240680813011 0.867 1.83893770746e-38
0.0303807476077 -0.0239848007429 0.864 1.68170543366e-38
0.0319057071611 -0.0239292803708 0.862 1.59793763315e-38
0.0333455354773 -0.0238182396267 0.858 1.78294083992e-38
0.03485198824 -0.0237627192546 0.856 2.15332910728e-38
0.0363510382865 -0.0237071988825 0.854 1.88647339474e-38
0.037931518212 -0.0237071988825 0.854 1.54445063129e-38
0.0393731972073 -0.0236239183244 0.851 1.4880239855e-38
0.0409481250955 -0.0236239183244 0.851 1.57039048755e-38
0.0425230529838 -0.0236239183244 0.851 1.76424934009e-38
0.0439943428442 -0.0235683979523 0.849 1.57989409373e-38
0.0455655693744 -0.0235683979523 0.849 1.46018438891e-38
0.0471367959045 -0.0235683979523 0.849 1.52446923622e-38
0.0487080224347 -0.0235683979523 0.849 1.99477218604e-38
0.0501608055044 -0.0235128775802 0.847 2.10771011603e-38
0.0514840410392 -0.023401836836 0.843 2.19089637768e-38
0.0529183173182 -0.0233463164639 0.841 2.08040679636e-38
0.0543451908809 -0.0232907960918 0.839 1.72980766591e-38
0.0557646617273 -0.0232352757197 0.837 2.02483045849e-38
0.0571767298575 -0.0231797553476 0.835 2.02512445091e-38
0.0587220468807 -0.0231797553476 0.835 1.1031738976e-38
0.059978657969 -0.0230687146034 0.831 1.17549435082e-38
0.0615165722759 -0.0230687146034 0.831 1.50610213699e-38
0.062902730899 -0.0230131942314 0.829 1.83736194734e-38
0.0644369438478 -0.0230131942314 0.829 2.0328421022e-38
0.0658119983966 -0.0229576738593 0.827 2.22741954059e-38
0.0673425099872 -0.0229576738593 0.827 1.61042152091e-38
0.0688730215778 -0.0229576738593 0.827 1.67403094236e-38
0.0704035331684 -0.0229576738593 0.827 1.72040971763e-38
0.0721080085916 -0.0230131942314 0.829 2.181573539e-38
0.0736422215403 -0.0230131942314 0.829 2.34936011257e-38
-0.0442312297651 -0.0247694886685 0.956 5.14278778485e-39
-0.0424619805745 -0.0247694886685 0.956 9.20292536967e-39
-0.0406076001467 -0.0247176696545 0.954 7.54453207739e-39
-0.0385977626771 -0.0245622126127 0.948 8.74524167304e-39
-0.036843318919 -0.0245622126127 0.948 1.04065300479e-38
-0.0350148479982 -0.0245103935987 0.946 1.05901772182e-38
-0.0332641055983 -0.0245103935987 0.946 1.16975897634e-38
-0.0314134265286 -0.0244326650778 0.943 1.12373220724e-38
-0.029510928445 -0.0243031175429 0.938 1.3170559039e-38
-0.0276861588823 -0.024225389022 0.935 1.16042758973e-38
-0.02590025358 -0.024173570008 0.933 1.23390327341e-38
-0.0240958414871 -0.0240958414871 0.93 1.34442970888e-38
-0.0223265922965 -0.0240440224732 0.928 1.16932975862e-38
-0.0205425376733 -0.0239662939522 0.925 1.13230913475e-38
-0.0187899445944 -0.0239144749383 0.923 1.10475778525e-38
-0.0169892338596 -0.0237849274034 0.918 1.44595224119e-38
-0.0152903104736 -0.0237849274034 0.918 1.28957461932e-38
-0.01354697079 -0.0237071988825 0.915 1.19734647933e-38
-0.0118535994412 -0.0237071988825 0.915 1.27074326991e-38
-0.0101380199437 -0.0236553798685 0.913 1.47338588161e-38
-0.008420589767 -0.0235776513476 0.91 9.93832400115e-39
-0.00672166638105 -0.0235258323337 0.908 8.46536733725e-39
-0.00504124978578 -0.0235258323337 0.908 8.74446535369e-39
-0.00335343047424 -0.0234740133197 0.906 8.55936503694e-39
-0.00167116319991 -0.0233962847988 0.903 7.36445681693e-39
0.0 -0.0233962847988 0.903 7.91976617497e-39
0.00166746184177 -0.0233444657848 0.901 7.36514065058e-39
0.00332381960913 -0.0232667372639 0.898 7.64100727276e-39
0.00497462533928 -0.02321491825 0.896 7.45625307673e-39
0.00661802835314 -0.023163099236 0.894 7.27331356222e-39
0.00824477525538 -0.0230853707151 0.891 7.36119599541e-39
0.00989373030646 -0.0230853707151 0.891 1.27809742438e-38
0.0115426853575 -0.0230853707151 0.891 1.43335120488e-38
0.0131620295435 -0.0230335517011 0.889 1.57039188885e-38
0.0148072832364 -0.0230335517011 0.889 1.57971402688e-38
0.016415523348 -0.0229817326872 0.887 1.59829636556e-38
0.0179552883339 -0.0228521851523 0.882 1.48773503776e-38
0.0194321302315 -0.0226708186035 0.875 1.82824776199e-38
0.0210514744175 -0.0226708186035 0.875 1.67280606737e-38
0.0226708186035 -0.0226708186035 0.875 1.58979468777e-38
0.0242346424173 -0.0226189995895 0.873 1.59847573176e-38
0.0257910635149 -0.0225671805756 0.871 1.63589320335e-38
0.0273400818963 -0.0225153615616 0.869 1.81993273717e-38
0.0289483220078 -0.0225153615616 0.869 1.35955994879e-38
0.0304862363147 -0.0224635425477 0.867 1.88395750348e-38
0.0319797343239 -0.0223858140267 0.864 1.57128381532e-38
0.0334232639983 -0.0222821759988 0.86 1.71847592575e-38
0.0349334181191 -0.0222303569849 0.858 1.54283689597e-38
0.0364361695237 -0.0221785379709 0.856 1.54326793538e-38
0.0380203508073 -0.0221785379709 0.856 2.1529437502e-38
0.0395119981375 -0.022126718957 0.854 1.75693862587e-38
0.0409481250955 -0.0220489904361 0.851 1.68253177936e-38
0.0425230529838 -0.0220489904361 0.851 1.3410155853e-38
0.0440979808721 -0.0220489904361 0.851 1.68076894589e-38
0.0456729087604 -0.0220489904361 0.851 1.63510385193e-38
0.0472478366487 -0.0220489904361 0.851 1.68112978025e-38
0.0487080224347 -0.0219971714221 0.849 1.47873085435e-38
0.0502792489648 -0.0219971714221 0.849 1.48773503776e-38
0.0514840410392 -0.0218417143803 0.843 1.70821547827e-38
0.0530441634949 -0.0218417143803 0.843 2.16219288058e-38
0.0544747384158 -0.0217898953663 0.841 2.15430721361e-38
0.0558979106203 -0.0217380763524 0.839 2.01623153059e-38
0.0573136801086 -0.0216862573384 0.837 1.91452248546e-38
0.05886269849 -0.0216862573384 0.837 1.54502460314e-38
0.0602673639038 -0.0216344383245 0.835 1.79362924395e-38
0.0615165722759 -0.0215308002966 0.831 1.4510008393e-38
0.062902730899 -0.0214789812826 0.829 1.56120693793e-38
0.0644369438478 -0.0214789812826 0.829 1.88356387874e-38
0.0659711567966 -0.0214789812826 0.829 2.34749344289e-38
0.0675053697453 -0.0214789812826 0.829 2.08084189954e-38
0.0690395826941 -0.0214789812826 0.829 1.730283687e-38
0.0705737956428 -0.0214789812826 0.829 1.77659772229e-38
0.0729778277543 -0.0217380763524 0.839 2.16356405113e-38
-0.0424619805745 -0.0230002394779 0.956 9.38230838868e-39
-0.0406076001467 -0.0229521218221 0.954 8.28459843405e-39
-0.0387199074957 -0.0228799453383 0.951 8.10236237137e-39
-0.0369599117004 -0.0228799453383 0.951 7.91616904181e-39
-0.0351999159051 -0.0228799453383 0.951 9.21012524118e-39
-0.0333344314029 -0.0228077688546 0.948 1.10532769334e-38
-0.0315133631984 -0.0227596511988 0.946 9.76218498808e-39
-0.0296682361659 -0.0226874747151 0.943 1.1420309231e-38
-0.0277749914776 -0.0225671805756 0.938 1.31726665918e-38
-0.0259557739521 -0.0224950040919 0.935 1.17844128149e-38
-0.024225389022 -0.0224950040919 0.935 1.39963568357e-38
-0.0224950040919 -0.0224950040919 0.935 1.22450252253e-38
-0.020720202864 -0.022446886436 0.933 1.22471762185e-38
-0.0188917319432 -0.0223265922965 0.928 1.02188723615e-38
-0.0171187813945 -0.0222544158128 0.925 1.52856887501e-38
-0.0153735910318 -0.022206298157 0.923 1.46431429575e-38
-0.0136209979528 -0.0221341216733 0.92 1.3446767578e-38
-0.0119183732087 -0.0221341216733 0.92 1.78649551373e-38
-0.0102157484646 -0.0221341216733 0.92 1.98929535112e-38
-0.00849461692979 -0.0220860040175 0.918 1.78653489022e-38
-0.006773485395 -0.0220138275337 0.915 1.63016203276e-38
-0.00506900997183 -0.0219657098779 0.913 1.45495278123e-38
-0.00337933998122 -0.0219657098779 0.913 1.15045889259e-38
-0.0016841179534 -0.0218935333942 0.91 7.91436697199e-39
0.0 -0.0217972980826 0.906 8.65800804104e-39
0.00167671523712 -0.0217972980826 0.906 8.47400914488e-39
0.00333492368355 -0.0216770039431 0.901 7.91796410515e-39
0.00498572941369 -0.0216048274593 0.898 8.286020752e-39
0.0066328337857 -0.0215567098035 0.896 7.8261216025e-39
0.00827253544143 -0.0215085921477 0.894 6.62867703227e-39
0.00992704252972 -0.0215085921477 0.894 7.36084567079e-39
0.0115426853575 -0.021436415664 0.891 1.28724243829e-38
0.0131916404086 -0.021436415664 0.891 1.51593140494e-38
