# .PCD v0.7 - Point Cloud Data file format
VERSION 0.7
FIELDS x y z rgb
SIZE 4 4 4 4
TYPE F F F F
COUNT 1 1 1 1
WIDTH 848
HEIGHT 1
VIEWPOINT 0 0 0 1 0 0 0
POINTS 848
DATA ascii
-0.0196079447432 -0.0120664275343 0.815 8.10128197025e-39
-0.0180552250037 -0.0120368166691 0.813 8.37892684018e-39
-0.0165506229201 -0.0120368166691 0.813 8.93067690012e-39
-0.0150460208364 -0.0120368166691 0.813 8.28677184797e-39
-0.0135081065295 -0.012007205804 0.811 8.10344417378e-39
-0.012007205804 -0.012007205804 0.811 8.01052687521e-39
-0.0105063050785 -0.012007205804 0.811 7.45661601304e-39
-0.00898319620418 -0.0119775949389 0.809 7.18039906624e-39
-0.00746749004612 -0.0119479840738 0.807 7.1778781303e-39
-0.00595918660434 -0.0119183732087 0.805 6.8065886879e-39
-0.00446938995326 -0.0119183732087 0.805 1.16053787192e-38
-0.00297959330217 -0.0119183732087 0.805 1.23454478785e-38
-0.00148609529295 -0.0118887623436 0.803 1.20685625123e-38
0.0 -0.011873956911 0.802 1.35382471443e-38
0.00148054325574 -0.0118443460459 0.8 6.16374021479e-39
0.00296108651147 -0.0118443460459 0.8 9.28973440823e-39
0.00443052569279 -0.0118147351808 0.798 1.28879129348e-38
0.00589256215783 -0.0117851243157 0.796 8.65406058326e-39
0.0073286891159 -0.0117259025854 0.792 6.07333964826e-39
0.00877221879024 -0.0116962917203 0.79 1.09611611775e-38
0.0102213005018 -0.0116814862878 0.789 6.52821234017e-39
0.0116814862878 -0.0116814862878 0.789 1.15914119774e-38
0.0130750476272 -0.0116222645575 0.785 1.66692818083e-38
0.0145278306969 -0.0116222645575 0.785 1.56598956959e-38
0.0159398988271 -0.0115926536924 0.783 1.42766361467e-38
0.017344564241 -0.0115630428273 0.781 1.26984251526e-38
0.0187899445944 -0.0115630428273 0.781 1.3049967497e-38
0.0202353249478 -0.0115630428273 0.781 1.79564501179e-38
0.0216807053012 -0.0115630428273 0.781 2.00759154465e-38
0.0231260856546 -0.0115630428273 0.781 5.96930725027e-39
0.0245400044638 -0.0115482373947 0.78 7.91655720149e-39
0.0259835341382 -0.0115482373947 0.78 8.28782282182e-39
0.0274270638125 -0.0115482373947 0.78 6.62940851007e-39
0.0288705934869 -0.0115482373947 0.78 3.489748854e-39
0.0303529874217 -0.0115630428273 0.781 2.28360558343e-38
0.0321240872913 -0.0116814862878 0.789 2.3482790108e-38
-0.0274825841846 -0.0106876716274 0.825 2.17317962106e-38
-0.025767004687 -0.0106099431064 0.819 2.19172496546e-38
-0.024251298529 -0.0106099431064 0.819 2.22885825373e-38
-0.0227355923709 -0.0106099431064 0.819 4.04076183095e-39
-0.0212198862128 -0.0106099431064 0.819 8.65478505457e-39
-0.019656062399 -0.0105840335994 0.817 8.37896747784e-39
-0.0180996413014 -0.0105581240925 0.815 8.47038959095e-39
-0.0165913378596 -0.0105581240925 0.815 8.56081397955e-39
-0.0150830344178 -0.0105581240925 0.815 7.73215052748e-39
-0.0135414187528 -0.0105322145855 0.813 1.06798869446e-38
-0.012007205804 -0.0105063050785 0.811 8.00873321317e-39
-0.0105063050785 -0.0105063050785 0.811 7.45663983511e-39
-0.00900540435302 -0.0105063050785 0.811 1.10537267502e-38
-0.00748599683682 -0.0104803955715 0.809 1.29865685506e-38
-0.0059739920369 -0.0104544860646 0.807 9.93975752948e-39
-0.00448049402767 -0.0104544860646 0.807 7.45268957474e-39
-0.00297959330217 -0.0104285765576 0.805 7.45303709676e-39
-0.00148609529295 -0.0104026670506 0.803 8.09802535262e-39
0.0 -0.0104026670506 0.803 1.23358167541e-38
0.00148609529295 -0.0104026670506 0.803 1.24380554901e-38
0.00296848922775 -0.0103897122971 0.802 1.05004955178e-38
0.00444162976721 -0.0103638027902 0.8 1.54758225309e-38
0.00590736759039 -0.0103378932832 0.798 9.47666061688e-39
0.00734719590659 -0.0102860742692 0.794 7.5445194657e-39
0.00879442693908 -0.0102601647623 0.792 9.76186409073e-39
0.0102601647623 -0.0102601647623 0.792 1.0589486378e-38
0.0116962917203 -0.0102342552553 0.79 1.225260625e-38
0.0131583281854 -0.0102342552553 0.79 1.03146328947e-38
0.0146018578597 -0.0102213005018 0.789 9.00922808684e-39
0.0160213287061 -0.0101953909948 0.787 1.01115945563e-38
0.0173889805386 -0.0101435719809 0.783 1.2789233497e-38
0.0188380622502 -0.0101435719809 0.783 1.74986669291e-38
0.0202871439617 -0.0101435719809 0.783 1.69523875384e-38
0.0217362256733 -0.0101435719809 0.783 1.50141703571e-38
0.0231260856546 -0.0101176624739 0.781 6.34454134785e-39
0.024571466008 -0.0101176624739 0.781 9.11508217283e-39
0.0260168463614 -0.0101176624739 0.781 8.47183853356e-39
0.0274622267148 -0.0101176624739 0.781 7.09250121877e-39
0.0289076070683 -0.0101176624739 0.781 3.85709083864e-39
0.0304307159426 -0.0101435719809 0.783 2.34870962982e-38
-0.0259557739521 -0.00916086139487 0.825 2.13640912897e-38
-0.024251298529 -0.00909423694836 0.819 2.29339547489e-38
-0.0227355923709 -0.00909423694836 0.819 4.22443282327e-39
-0.0212717052268 -0.0091164450972 0.821 9.48238632241e-39
-0.0197041800548 -0.00909423694836 0.819 7.91941304776e-39
-0.0181440575991 -0.00907202879953 0.817 8.1037944984e-39
-0.0166320527991 -0.00907202879953 0.817 9.57786099068e-39
-0.0151200479992 -0.00907202879953 0.817 9.39309838686e-39
-0.013574730976 -0.00904982065069 0.815 1.32613505678e-38
-0.0120664275343 -0.00904982065069 0.815 9.11289474593e-39
-0.0105322145855 -0.00902761250186 0.813 1.04040063094e-38
-0.00902761250186 -0.00902761250186 0.813 7.91758295196e-39
-0.00752301041821 -0.00902761250186 0.813 1.08638522096e-38
-0.00600360290201 -0.00900540435302 0.811 1.36304007352e-38
-0.00450270217651 -0.00900540435302 0.811 1.16982806035e-38
-0.00299439873473 -0.00898319620418 0.809 1.41847431973e-38
-0.00148979665109 -0.00893877990651 0.805 9.28797577866e-39
0.0 -0.00891657175768 0.803 6.71405114121e-39
0.00148609529295 -0.00891657175768 0.803 7.08568250044e-39
0.00297219058589 -0.00891657175768 0.803 9.57354499141e-39
0.00445828587884 -0.00891657175768 0.803 1.02156619867e-38
0.0059369784555 -0.00890546768326 0.802 1.60229034644e-38
0.00738420948799 -0.00886105138558 0.798 1.11416063808e-38
0.00883884323675 -0.00883884323675 0.796 1.1509608377e-38
0.0102860742692 -0.00881663508791 0.794 1.18694253889e-38
0.0117555134506 -0.00881663508791 0.794 6.80443629346e-39
0.0132249526319 -0.00881663508791 0.794 9.93689047282e-39
0.0146573782318 -0.00879442693908 0.792 1.27031741531e-38
0.0160620436457 -0.00876111471582 0.789 1.46474645619e-38
0.0175222294316 -0.00876111471582 0.789 3.58481294182e-39
0.0189342975618 -0.00873890656699 0.787 4.22658521771e-39
0.0203389629757 -0.00871669841815 0.785 2.8469003809e-39
0.0217917460454 -0.00871669841815 0.785 4.04219676058e-39
0.0231853073848 -0.00869449026931 0.783 6.4421305755e-39
0.0246343890964 -0.00869449026931 0.783 6.44068443549e-39
0.0260834708079 -0.00869449026931 0.783 6.9016639861e-39
0.0275325525195 -0.00869449026931 0.783 7.82828380603e-39
0.0290556613938 -0.00871669841815 0.785 3.95036126442e-39
0.0305861729845 -0.00873890656699 0.787 2.34860271075e-38
0.032327661989 -0.00881663508791 0.794 2.32033193462e-38
-0.0259557739521 -0.00763405116239 0.825 2.16406823832e-38
-0.0243697419894 -0.0076155443717 0.823 2.26566700127e-38
-0.0228466331151 -0.0076155443717 0.823 6.06724119734e-39
-0.0213235242407 -0.0076155443717 0.823 8.09623169058e-39
-0.0198004153664 -0.0076155443717 0.823 8.10308123748e-39
-0.0182773064921 -0.0076155443717 0.823 8.28674101941e-39
-0.0167134826782 -0.007597037581 0.821 8.10237218046e-39
-0.015194075162 -0.007597037581 0.821 1.05004801035e-38
-0.0136413554225 -0.0075785307903 0.819 1.33602822393e-38
-0.0121256492645 -0.0075785307903 0.819 1.22515314541e-38
-0.0105840335994 -0.00756002399961 0.817 1.1504570709e-38
-0.00907202879953 -0.00756002399961 0.817 1.13244814356e-38
-0.00756002399961 -0.00756002399961 0.817 9.85804080953e-39
-0.00603321376713 -0.00754151720891 0.815 8.5640523803e-39
-0.00451380625093 -0.00752301041821 0.813 8.00654858887e-39
-0.00300920416729 -0.00752301041821 0.813 1.08599650076e-38
-0.0015009007255 -0.00750450362752 0.811 1.44552190243e-38
0.0 -0.00744898325543 0.805 1.47407742241e-38
0.00148979665109 -0.00744898325543 0.805 9.30300750729e-39
0.00297959330217 -0.00744898325543 0.805 9.30054542588e-39
0.00446938995326 -0.00744898325543 0.805 5.89289724761e-39
0.00594438117178 -0.00743047646473 0.803 6.71869924821e-39
0.00742122306938 -0.00742122306938 0.802 7.82467265988e-39
0.00888325953442 -0.00740271627868 0.8 9.93693251177e-39
0.0103378932832 -0.00738420948799 0.798 1.39009340154e-38
0.0117851243157 -0.00736570269729 0.796 1.36326105829e-38
0.0132582648551 -0.00736570269729 0.796 1.2253291485e-38
0.0146943918132 -0.00734719590659 0.794 1.14250077848e-38
0.0161638309945 -0.00734719590659 0.794 6.71621894993e-39
0.0175444375805 -0.0073101823252 0.79 7.82004557236e-39
0.0190064740455 -0.0073101823252 0.79 6.8119710753e-39
0.0203907819896 -0.00728242213916 0.787 5.43016467261e-39
0.0217917460454 -0.00726391534846 0.785 6.16841494647e-39
0.0232445291151 -0.00726391534846 0.785 6.26167416187e-39
0.0246973121848 -0.00726391534846 0.785 4.97383042641e-39
0.0261500952545 -0.00726391534846 0.785 6.07477457789e-39
0.0277435299334 -0.00730092892985 0.789 5.7992821024e-39
0.0292407293008 -0.0073101823252 0.79 4.22658521771e-39
0.0307804942868 -0.0073286891159 0.792 2.32998337779e-38
0.032327661989 -0.00734719590659 0.794 2.34817139108e-38
-0.0260186970405 -0.00612204636247 0.827 2.13637647872e-38
-0.0244881854499 -0.00612204636247 0.827 2.23804152308e-38
-0.0229576738593 -0.00612204636247 0.827 9.20076877133e-39
-0.0214271622687 -0.00612204636247 0.827 9.10965774648e-39
-0.0198485330222 -0.00610724092991 0.825 7.73787343041e-39
-0.0183217227897 -0.00610724092991 0.825 9.85370379078e-39
-0.0167949125573 -0.00610724092991 0.825 8.563689444e-39
-0.0152310887434 -0.00609243549736 0.823 7.45663703251e-39
-0.0136413554225 -0.00606282463224 0.819 6.80838234993e-39
-0.0121256492645 -0.00606282463224 0.819 1.10447093946e-38
-0.0106099431064 -0.00606282463224 0.819 1.20588010672e-38
-0.00909423694836 -0.00606282463224 0.819 9.85227446635e-39
-0.0075785307903 -0.00606282463224 0.819 1.27143074694e-38
-0.00604801919968 -0.00604801919968 0.817 1.24282842359e-38
-0.00452491032535 -0.00603321376713 0.815 1.19673467243e-38
-0.00300920416729 -0.00601840833457 0.813 9.67005942314e-39
-0.00150460208364 -0.00601840833457 0.813 9.30157257766e-39
0.0 -0.00600360290201 0.811 8.37606819131e-39
0.00149719936736 -0.00598879746946 0.809 8.28026141531e-39
0.00298699601845 -0.0059739920369 0.807 1.54773219203e-38
0.00448049402767 -0.0059739920369 0.807 1.30870402492e-38
0.00595918660434 -0.00595918660434 0.805 1.19778088186e-38
0.00744898325543 -0.00595918660434 0.805 1.08703304124e-38
0.00891657175768 -0.00594438117178 0.803 7.82399583273e-39
0.0103638027902 -0.00592217302295 0.8 7.54199012198e-39
0.0118443460459 -0.00592217302295 0.8 7.91475933556e-39
0.0132915770784 -0.00590736759039 0.798 8.2849249366e-39
0.014768418976 -0.00590736759039 0.798 1.06845420581e-38
0.016204545934 -0.00589256215783 0.796 1.38187955047e-38
0.0176332701758 -0.00587775672528 0.794 1.2900083212e-38
0.0191027093571 -0.00587775672528 0.794 8.7545813273e-39
0.0205203295245 -0.00586295129272 0.792 9.02792140835e-39
0.0219305469756 -0.00584814586016 0.79 7.45626288582e-39
0.0233037508453 -0.00582593771132 0.787 6.25772810539e-39
0.0247602352731 -0.00582593771132 0.787 4.0486539439e-39
0.0263166563707 -0.00584814586016 0.79 5.79998555423e-39
0.0279193444451 -0.00587775672528 0.794 4.50639649507e-39
0.0293887836264 -0.00587775672528 0.794 4.04076183095e-39
0.0310136798495 -0.00590736759039 0.798 2.32065787664e-38
-0.0245474071801 -0.00460263884627 0.829 2.21012905897e-38
-0.0230131942314 -0.00460263884627 0.829 1.46403137359e-38
-0.0214789812826 -0.00460263884627 0.829 7.25966771777e-39
-0.0199447683338 -0.00460263884627 0.829 8.01013731424e-39
-0.0183661390874 -0.00459153477185 0.827 1.0220687043e-38
-0.0167949125573 -0.00458043069744 0.825 1.04054132131e-38
-0.0152681023248 -0.00458043069744 0.825 1.16976289997e-38
-0.0136746676458 -0.0045582225486 0.821 1.01302738648e-38
-0.0121552601296 -0.0045582225486 0.821 1.47364820469e-38
-0.0106358526134 -0.0045582225486 0.821 7.18146405307e-39
-0.00909423694836 -0.00454711847418 0.819 1.18819656088e-38
-0.0075785307903 -0.00454711847418 0.819 9.20293798135e-39
-0.00606282463224 -0.00454711847418 0.819 1.25158766003e-38
-0.00453601439976 -0.00453601439976 0.817 1.52864048136e-38
-0.00301660688356 -0.00452491032535 0.815 1.13295751555e-38
-0.00150460208364 -0.00451380625093 0.813 1.17861994705e-38
0.0 -0.00451380625093 0.813 1.22450252253e-38
0.0015009007255 -0.00450270217651 0.811 1.12366186206e-38
0.00299439873473 -0.00449159810209 0.809 1.03143442272e-38
0.00448049402767 -0.00448049402767 0.807 7.54772984048e-39
0.0059739920369 -0.00448049402767 0.807 8.65371586384e-39
0.00746749004612 -0.00448049402767 0.807 1.05012438111e-38
0.00893877990651 -0.00446938995326 0.805 1.2805774424e-38
0.0104026670506 -0.00445828587884 0.803 1.3632202805e-38
0.0118887623436 -0.00445828587884 0.803 1.14163015174e-38
0.0133248893016 -0.00444162976721 0.8 9.9387345816e-39
0.0148054325574 -0.00444162976721 0.8 8.46681908246e-39
0.0162452608736 -0.00443052569279 0.798 7.91903329588e-39
0.0177221027712 -0.00443052569279 0.798 7.36551619857e-39
0.019150827013 -0.00441942161837 0.796 6.81304587122e-39
0.0206239675524 -0.00441942161837 0.796 1.09632561187e-38
0.0220971080919 -0.00441942161837 0.796 1.26202340996e-38
0.0235702486313 -0.00441942161837 0.796 1.46474183191e-38
0.0250433891708 -0.00441942161837 0.796 1.2434791866e-38
0.0265165297102 -0.00441942161837 0.796 1.23411739182e-38
0.0280599960544 -0.00443052569279 0.798 3.31110011538e-39
0.0295368379519 -0.00443052569279 0.798 4.96126918697e-39
0.0310914083705 -0.00444162976721 0.8 2.22817708254e-38
0.0326940964448 -0.00445828587884 0.803 2.34845865727e-38
-0.0247250723708 -0.00309063404635 0.835 2.21012877871e-38
-0.0231797553476 -0.00309063404635 0.835 1.82334223646e-38
-0.0216344383245 -0.00309063404635 0.835 6.61215572338e-39
-0.0200891213013 -0.00309063404635 0.835 8.37788287282e-39
-0.0184993879804 -0.00308323133007 0.833 8.470065891e-39
-0.0169577723154 -0.00308323133007 0.833 9.66933074793e-39
-0.0153421294876 -0.00306842589751 0.829 9.85225765077e-39
-0.0137412920923 -0.00305362046496 0.825 9.93728563898e-39
-0.0122144818598 -0.00305362046496 0.825 9.85372481026e-39
-0.0106617621204 -0.00304621774868 0.823 1.11469761565e-38
-0.00913865324604 -0.00304621774868 0.823 1.07727341782e-38
-0.0076155443717 -0.00304621774868 0.823 1.10450597192e-38
-0.0060776300648 -0.0030388150324 0.821 1.13277730857e-38
-0.00454711847418 -0.00303141231612 0.819 8.10127636506e-39
-0.00303141231612 -0.00303141231612 0.819 8.92454481804e-39
-0.00151200479992 -0.00302400959984 0.817 1.09546815734e-38
0.0 -0.00301660688356 0.815 1.03114729666e-38
0.00150460208364 -0.00300920416729 0.813 1.4185882453e-38
0.00300180145101 -0.00300180145101 0.811 1.33502783696e-38
0.00450270217651 -0.00300180145101 0.811 1.45419874252e-38
0.00598879746946 -0.00299439873473 0.809 8.18556867158e-39
0.00748599683682 -0.00299439873473 0.809 1.10537239476e-38
0.00898319620418 -0.00299439873473 0.809 7.45589434433e-39
0.0104285765576 -0.00297959330217 0.805 1.18748007698e-38
0.0119183732087 -0.00297959330217 0.805 1.24272514789e-38
0.0133748576365 -0.00297219058589 0.803 1.26160175925e-38
0.0148609529295 -0.00297219058589 0.803 8.37751713393e-39
0.0163470482224 -0.00297219058589 0.803 8.38038979578e-39
0.0178109353665 -0.00296848922775 0.802 8.93354535808e-39
0.0192470623246 -0.00296108651147 0.8 9.11614155447e-39
0.0206757865664 -0.00295368379519 0.798 8.10235676617e-39
0.022152628464 -0.00295368379519 0.798 7.08855376099e-39
0.0236294703616 -0.00295368379519 0.798 1.04043748509e-38
0.0251063122592 -0.00295368379519 0.798 1.21524442384e-38
0.0265831541568 -0.00295368379519 0.798 1.48272315367e-38
0.0280599960544 -0.00295368379519 0.798 6.99241207465e-39
0.0296108651147 -0.00296108651147 0.8 2.47955839627e-39
0.0311691368914 -0.00296848922775 0.802 2.34838929299e-38
0.0326533815053 -0.00296848922775 0.802 2.3485658566e-38
-0.024784294101 -0.00154901838131 0.837 2.01633999109e-38
-0.0232352757197 -0.00154901838131 0.837 2.10900421516e-38
-0.0216862573384 -0.00154901838131 0.837 4.40810381558e-39
-0.0201372389571 -0.00154901838131 0.837 8.7451842198e-39
-0.0185882205758 -0.00154901838131 0.837 8.74843102834e-39
-0.0169984872549 -0.00154531702318 0.835 7.08712864046e-39
-0.015379143069 -0.0015379143069 0.831 1.28021072259e-38
-0.0138412287621 -0.0015379143069 0.831 9.85300033895e-39
-0.0122737035901 -0.00153421294876 0.829 1.11440698635e-38
-0.0107394906413 -0.00153421294876 0.829 8.65408440534e-39
-0.00918306954371 -0.00153051159062 0.827 9.39382986465e-39
-0.00765255795309 -0.00153051159062 0.827 1.08668117519e-38
-0.00610724092991 -0.00152681023248 0.825 1.12362626907e-38
-0.00456932662302 -0.00152310887434 0.823 1.09567849224e-38
-0.00304621774868 -0.00152310887434 0.823 1.12319466915e-38
-0.00152310887434 -0.00152310887434 0.823 1.07749524337e-38
0.0 -0.0015194075162 0.821 9.30125448291e-39
0.00151570615806 -0.00151570615806 0.819 8.74377591484e-39
0.00303141231612 -0.00151570615806 0.819 1.14991981307e-38
0.00452491032535 -0.00150830344178 0.815 1.53753228064e-38
0.00603321376713 -0.00150830344178 0.815 8.19097628235e-39
0.00752301041821 -0.00150460208364 0.813 1.47361415313e-38
0.00902761250186 -0.00150460208364 0.813 1.29792972129e-38
0.0104803955715 -0.00149719936736 0.809 1.37136714952e-38
0.0119479840738 -0.00149349800922 0.807 1.05865772824e-38
0.0134081698598 -0.00148979665109 0.805 8.83774979246e-39
0.0148979665109 -0.00148979665109 0.805 9.20619880288e-39
0.0163470482224 -0.00148609529295 0.803 8.46971836898e-39
0.0178331435154 -0.00148609529295 0.803 9.11470942744e-39
0.0192951799804 -0.00148424461388 0.802 8.84134972821e-39
0.0207276055803 -0.00148054325574 0.8 8.56475583213e-39
0.0222081488361 -0.00148054325574 0.8 8.28994719029e-39
0.0236886920918 -0.00148054325574 0.8 8.01123593223e-39
0.0251692353475 -0.00148054325574 0.8 8.46898969378e-39
0.0266497786033 -0.00148054325574 0.8 8.83382475546e-39
0.028130321859 -0.00148054325574 0.8 7.63705420979e-39
0.0296108651147 -0.00148054325574 0.8 2.8469003809e-39
0.0311691368914 -0.00148424461388 0.802 2.34885480434e-38
0.0326533815053 -0.00148424461388 0.802 2.34849425025e-38
-0.0233463164639 0.0 0.841 2.18293826357e-38
-0.0217898953663 0.0 0.841 5.14278778485e-39
-0.0202334742687 0.0 0.841 8.83486592022e-39
-0.0186326368734 0.0 0.839 8.65334311845e-39
-0.0170392021945 0.0 0.837 8.47041621562e-39
-0.0154531702318 0.0 0.835 7.45520350418e-39
-0.0138745409853 0.0 0.833 7.64030522223e-39
-0.0123329253203 0.0 0.833 1.21546064419e-38
-0.0107394906413 0.0 0.829 1.06798897472e-38
-0.00920527769254 0.0 0.829 1.16079529045e-38
-0.00767106474379 0.0 0.829 8.65588507386e-39
-0.00612204636247 0.0 0.827 9.29945101178e-39
-0.00459153477185 0.0 0.827 1.04050404677e-38
-0.00306102318124 0.0 0.827 8.93067690012e-39
-0.00152681023248 0.0 0.825 1.04065300479e-38
0.0 0.0 0.823 1.16003536629e-38
0.0015194075162 0.0 0.821 1.11379307749e-38
0.0030388150324 0.0 0.821 1.15107196067e-38
0.0045582225486 0.0 0.821 1.05909339194e-38
0.00606282463224 0.0 0.819 8.74594232227e-39
0.00756002399961 0.0 0.817 1.04936459709e-38
0.00907202879953 0.0 0.817 1.32548807727e-38
0.0105840335994 0.0 0.817 1.49183425616e-38
0.012007205804 0.0 0.811 1.22493832636e-38
0.0135081065295 0.0 0.811 1.11447957361e-38
0.0149719936736 0.0 0.809 1.14195427208e-38
0.0164284781015 0.0 0.807 1.19713123989e-38
0.0179219761107 0.0 0.807 1.15128734024e-38
0.0194154741199 0.0 0.807 8.93279986729e-39
0.0209607911431 0.0 0.809 8.4754538836e-39
0.0222914293942 0.0 0.803 8.56620477474e-39
0.0237775246871 0.0 0.803 8.56620197215e-39
0.0252636199801 0.0 0.803 8.5651509983e-39
0.026749715273 0.0 0.803 8.74772617522e-39
0.028235810566 0.0 0.803 8.01088280502e-39
0.0297219058589 0.0 0.803 3.94892633479e-39
0.0311691368914 0.0 0.802 2.34888801512e-38
0.0326533815053 0.0 0.802 2.34806265032e-38
-0.0218935333942 0.00156382381387 0.845 6.16122908794e-39
-0.0203297095803 0.00156382381387 0.845 9.75467402831e-39
-0.0187214694688 0.00156012245573 0.843 8.83883159487e-39
-0.0171206320735 0.00155642109759 0.841 1.25269622725e-38
-0.0155271973945 0.00155271973945 0.839 1.105046733e-38
-0.0139411654318 0.00154901838131 0.837 1.01291752468e-38
-0.0123921470505 0.00154901838131 0.837 9.75719496424e-39
-0.0108172191622 0.00154531702318 0.835 1.04054286273e-38
-0.00927190213905 0.00154531702318 0.835 8.01268067095e-39
-0.00768957153448 0.0015379143069 0.831 1.12337291431e-38
-0.00615165722759 0.0015379143069 0.831 1.13226933787e-38
-0.00461374292069 0.0015379143069 0.831 1.14199112623e-38
-0.00307582861379 0.0015379143069 0.831 9.11506115336e-39
-0.00153421294876 0.00153421294876 0.829 8.46971276379e-39
0.0 0.00153051159062 0.827 1.06766079062e-38
0.00153051159062 0.00153051159062 0.827 9.85190732615e-39
0.00305362046496 0.00152681023248 0.825 1.04090439774e-38
0.00458043069744 0.00152681023248 0.825 1.04972739326e-38
0.00609243549736 0.00152310887434 0.823 1.14159483902e-38
0.007597037581 0.0015194075162 0.821 1.19731088635e-38
0.00909423694836 0.00151570615806 0.819 1.01335627123e-38
0.0106099431064 0.00151570615806 0.819 6.07767106181e-39
0.0121256492645 0.00151570615806 0.819 9.02034598885e-39
0.0135414187528 0.00150460208364 0.813 9.85300314155e-39
0.0150460208364 0.00150460208364 0.813 1.21592965879e-38
0.0165099079805 0.0015009007255 0.811 1.40968537576e-38
0.018010808706 0.0015009007255 0.811 1.17854539797e-38
0.0195117094315 0.0015009007255 0.811 1.18748007698e-38
0.021012610157 0.0015009007255 0.811 8.7462828378e-39
0.0224579905105 0.00149719936736 0.809 8.92961751848e-39
0.0238959681476 0.00149349800922 0.807 8.93174609085e-39
0.0253894661568 0.00149349800922 0.807 9.1183023567e-39
0.026882964166 0.00149349800922 0.807 9.20977491656e-39
0.0283061363706 0.00148979665109 0.805 8.19674122424e-39
0.0297959330217 0.00148979665109 0.805 4.04219676058e-39
0.0312857296728 0.00148979665109 0.805 2.34845795662e-38
0.0327755263239 0.00148979665109 0.805 2.34842362481e-38
-0.0220489904361 0.00314985577658 0.851 7.54414251642e-39
-0.0204740625478 0.00314985577658 0.851 9.19719686154e-39
-0.0188103020641 0.00313505034402 0.847 8.19025181105e-39
-0.0171613470131 0.00312024491147 0.843 9.20618899379e-39
-0.0156012245573 0.00312024491147 0.843 1.07738986572e-38
-0.0140077898783 0.00311284219519 0.841 1.16943527639e-38
-0.0124217579156 0.00310543947891 0.839 1.2245413385e-38
-0.0108690381762 0.00310543947891 0.839 1.1600753033e-38
-0.00929411028789 0.00309803676263 0.837 8.00767383153e-39
-0.00772658511588 0.00309063404635 0.835 1.0586955633e-38
-0.0061812680927 0.00309063404635 0.835 1.04043748509e-38
-0.00463595106953 0.00309063404635 0.835 1.07763593373e-38
-0.00308323133007 0.00308323133007 0.833 1.08667599039e-38
-0.0015379143069 0.00307582861379 0.831 1.04050334612e-38
0.0 0.00307582861379 0.831 9.11650449077e-39
0.0015379143069 0.00307582861379 0.831 1.16976346049e-38
0.00306842589751 0.00306842589751 0.829 9.20761131173e-39
0.00459153477185 0.00306102318124 0.827 8.6526592848e-39
0.00610724092991 0.00305362046496 0.825 1.15121082934e-38
0.0076155443717 0.00304621774868 0.823 1.0960417088e-38
0.0091164450972 0.0030388150324 0.821 1.06859587708e-38
0.0106358526134 0.0030388150324 0.821 1.03117812523e-38
0.0121552601296 0.0030388150324 0.821 1.13284485115e-38
0.0136746676458 0.0030388150324 0.821 1.08682214582e-38
0.0151570615806 0.00303141231612 0.819 1.13291617724e-38
0.0166320527991 0.00302400959984 0.817 8.93028453655e-39
0.0181440575991 0.00302400959984 0.817 1.27049271774e-38
0.0196079447432 0.00301660688356 0.815 1.41811012226e-38
0.0211162481849 0.00301660688356 0.815 1.54762331114e-38
0.0225690312546 0.00300920416729 0.813 1.22475685821e-38
0.0240144116081 0.00300180145101 0.811 9.02108727574e-39
0.0254523892452 0.00299439873473 0.809 9.20798685972e-39
0.0269495886125 0.00299439873473 0.809 8.93391109698e-39
0.0283764621753 0.00298699601845 0.807 8.38110726059e-39
0.0298699601845 0.00298699601845 0.807 4.87337974729e-39
0.0312857296728 0.00297959330217 0.805 2.32966290084e-38
0.0327755263239 0.00297959330217 0.805 2.34799286566e-38
-0.0220489904361 0.00472478366487 0.851 1.14159722123e-38
-0.0204740625478 0.00472478366487 0.851 9.00992313088e-39
-0.0188547183618 0.00471367959045 0.849 9.11432126777e-39
-0.0172427768921 0.00470257551603 0.847 8.56333351419e-39
-0.0156382381387 0.00469147144162 0.845 9.67147613588e-39
-0.0140411021016 0.0046803673672 0.843 1.26184810752e-38
-0.0124513687807 0.00466926329278 0.841 1.04043342132e-38
-0.0108949476832 0.00466926329278 0.841 1.37226762391e-38
-0.00931631843672 0.00465815921836 0.839 1.13255520276e-38
-0.00774509190657 0.00464705514394 0.837 1.18823355516e-38
-0.00619607352526 0.00464705514394 0.837 9.11795623598e-39
-0.00464705514394 0.00464705514394 0.837 7.36696093729e-39
-0.00309063404635 0.00463595106953 0.835 8.28709414662e-39
-0.00154531702318 0.00463595106953 0.835 9.57750506087e-39
0.0 0.00463595106953 0.835 1.09604198906e-38
0.00154161566504 0.00462484699511 0.833 1.00366713313e-38
0.00307582861379 0.00461374292069 0.831 1.0955731146e-38
0.00460263884627 0.00460263884627 0.829 1.09600667634e-38
0.00612204636247 0.00459153477185 0.827 1.17915846605e-38
0.00763405116239 0.00458043069744 0.825 9.57707906613e-39
0.00916086139487 0.00458043069744 0.825 9.20293798135e-39
0.0106876716274 0.00458043069744 0.825 1.15978929828e-38
0.0121848709947 0.00456932662302 0.823 1.08681920309e-38
0.0136746676458 0.0045582225486 0.821 1.02228800751e-38
0.015194075162 0.0045582225486 0.821 1.08610341984e-38
0.0166727677387 0.00454711847418 0.819 1.13251960978e-38
0.0181884738967 0.00454711847418 0.819 1.20660415764e-38
0.019656062399 0.00453601439976 0.817 8.37788567542e-39
0.0211680671989 0.00453601439976 0.817 8.7451842198e-39
0.0226245516267 0.00452491032535 0.815 1.06777065242e-38
0.0241328550685 0.00452491032535 0.815 9.3891313109e-39
0.0255782354219 0.00451380625093 0.813 9.57641064676e-39
0.0270828375056 0.00451380625093 0.813 8.74915129575e-39
0.0285171137846 0.00450270217651 0.811 8.65805288259e-39
0.0299439873473 0.00449159810209 0.809 2.93873587706e-39
0.0314411867146 0.00449159810209 0.809 2.34875110826e-38
-0.0223339950128 0.00638114143223 0.862 1.51030743368e-38
-0.0205462390315 0.006321919702 0.854 7.99506915185e-39
-0.0188991346595 0.00629971155316 0.851 8.56298318957e-39
-0.0172834918317 0.0062849061206 0.849 8.19382792473e-39
-0.0156752517201 0.00627010068805 0.847 8.83812534045e-39
-0.0140744143248 0.00625529525549 0.845 1.11390490111e-38
-0.0124809796459 0.00624048982293 0.843 1.04050783027e-38
-0.0109208571901 0.00624048982293 0.843 1.25244651586e-38
-0.0093607347344 0.00624048982293 0.843 1.09586416429e-38
-0.00778210548797 0.00622568439037 0.841 1.12362654933e-38
-0.00622568439037 0.00622568439037 0.841 1.17861994705e-38
-0.00465815921836 0.00621087895782 0.839 1.02228380361e-38
-0.00309803676263 0.00619607352526 0.837 1.03157483282e-38
-0.00154901838131 0.00619607352526 0.837 1.00387914958e-38
0.0 0.00619607352526 0.837 9.76182625567e-39
0.00154531702318 0.0061812680927 0.835 8.7462772326e-39
0.00308323133007 0.00616646266014 0.833 1.12341102963e-38
0.00461374292069 0.00615165722759 0.831 9.39350756601e-39
0.00613685179503 0.00613685179503 0.829 1.04047251755e-38
0.00765255795309 0.00612204636247 0.827 1.08603153322e-38
0.00918306954371 0.00612204636247 0.827 1.10457757827e-38
0.0106876716274 0.00610724092991 0.825 1.22496761349e-38
0.0122144818598 0.00610724092991 0.825 8.8388077728e-39
0.0137079798691 0.00609243549736 0.823 1.00355699107e-38
0.015194075162 0.0060776300648 0.821 9.48241855227e-39
0.0167134826782 0.0060776300648 0.821 1.0682400874e-38
0.0181884738967 0.00606282463224 0.819 1.17901805594e-38
0.0197041800548 0.00606282463224 0.819 1.15139692178e-38
0.0212198862128 0.00606282463224 0.819 1.05872765304e-38
0.0227355923709 0.00606282463224 0.819 9.66392593976e-39
0.0241920767987 0.00604801919968 0.817 9.1132829056e-39
0.0256411585103 0.00603321376713 0.815 9.11579122986e-39
0.0270828375056 0.00601840833457 0.813 8.74878135296e-39
0.0285874395892 0.00601840833457 0.813 8.65588507386e-39
0.0300920416729 0.00601840833457 0.813 3.489748854e-39
-0.0223339950128 0.00797642679028 0.862 1.85110826488e-38
-0.0206424743431 0.00793941320889 0.858 5.96930725027e-39
-0.0190101754037 0.00792090641819 0.856 8.74559199765e-39
-0.0173852791805 0.0079023996275 0.854 8.28602495589e-39
-0.0157492788829 0.00787463944145 0.851 8.47038959095e-39
-0.0141077265481 0.00783762586006 0.847 7.7332225208e-39
-0.012510590511 0.00781911906936 0.845 8.6526592848e-39
-0.0109467666971 0.00781911906936 0.845 8.09768623839e-39
-0.00938294288323 0.00781911906936 0.845 1.11433664116e-38
-0.00781911906936 0.00781911906936 0.845 1.12358731298e-38
-0.00624048982293 0.00780061227866 0.843 1.16947227067e-38
-0.0046803673672 0.00780061227866 0.843 1.04972907482e-38
-0.00311284219519 0.00778210548797 0.841 1.16014508796e-38
-0.00155642109759 0.00778210548797 0.841 1.18790957496e-38
0.0 0.00778210548797 0.841 1.1053303558e-38
0.00155642109759 0.00778210548797 0.841 1.14224321982e-38
0.00309803676263 0.00774509190657 0.837 1.16050227894e-38
0.00462484699511 0.00770807832518 0.833 1.04940145124e-38
0.00615165722759 0.00768957153448 0.831 9.66353357619e-39
0.00767106474379 0.00767106474379 0.829 1.25216569565e-38
0.00920527769254 0.00767106474379 0.829 1.1881985227e-38
0.0107135811343 0.00765255795309 0.827 9.66860627663e-39
0.0122440927249 0.00765255795309 0.827 1.17858071069e-38
0.0137412920923 0.00763405116239 0.825 1.08631669746e-38
0.0152310887434 0.0076155443717 0.823 1.10530050815e-38
0.0167541976177 0.0076155443717 0.823 9.94661828676e-39
0.0182328901944 0.007597037581 0.821 1.08634948785e-38
0.0197041800548 0.0075785307903 0.819 8.65336553922e-39
0.0212198862128 0.0075785307903 0.819 1.10472303305e-38
0.022791112743 0.007597037581 0.821 1.16965233752e-38
0.024251298529 0.0075785307903 0.819 1.18841334175e-38
0.025767004687 0.0075785307903 0.819 9.20872114011e-39
0.0271494619521 0.00754151720891 0.815 9.11508217283e-39
0.0286577653939 0.00754151720891 0.815 8.83777501583e-39
0.0301660688356 0.00754151720891 0.815 4.96557397586e-39
-0.0223339950128 0.00957171214834 0.862 1.98007508749e-38
-0.0206905919989 0.0095495039995 0.86 5.51012976948e-39
-0.019099007999 0.0095495039995 0.86 8.65371586384e-39
-0.0174667090596 0.00952729585067 0.858 8.19347760011e-39
-0.0158418128364 0.00950508770183 0.856 8.01123172834e-39
-0.0142243193295 0.00948287955299 0.854 8.19562719196e-39
-0.0125994231063 0.00944956732974 0.851 8.28854168793e-39
-0.0109985857111 0.0094273591809 0.849 8.65373127812e-39
-0.0094273591809 0.0094273591809 0.849 7.91509424589e-39
-0.00785613265075 0.0094273591809 0.849 7.63956533664e-39
-0.00625529525549 0.00938294288323 0.845 9.02220411062e-39
-0.00469147144162 0.00938294288323 0.845 1.10511693805e-38
-0.00312764762774 0.00938294288323 0.845 1.16929080252e-38
-0.00156012245573 0.0093607347344 0.843 1.25226714966e-38
0.0 0.0093607347344 0.843 1.20678268306e-38
0.00156012245573 0.0093607347344 0.843 9.85438342054e-39
0.00311284219519 0.00933852658556 0.841 1.21600000397e-38
0.00464705514394 0.00929411028789 0.837 1.09560814706e-38
0.00619607352526 0.00929411028789 0.837 1.15089021226e-38
0.00770807832518 0.00924969399022 0.833 1.17876624261e-38
0.00924969399022 0.00924969399022 0.833 9.20653511451e-39
0.0107394906413 0.00920527769254 0.829 9.38695089049e-39
0.0122737035901 0.00920527769254 0.829 1.26152342666e-38
0.0137746043156 0.00918306954371 0.827 1.1881971214e-38
0.0152681023248 0.00916086139487 0.825 1.17912343359e-38
0.0167949125573 0.00916086139487 0.825 1.05883625367e-38
0.0182773064921 0.00913865324604 0.823 1.20609940993e-38
0.0198004153664 0.00913865324604 0.823 1.25244805729e-38
0.0213235242407 0.00913865324604 0.823 1.02225241453e-38
0.0228466331151 0.00913865324604 0.823 1.12362654933e-38
0.0243697419894 0.00913865324604 0.823 9.57745321282e-39
0.0258299277754 0.0091164450972 0.821 1.00370160507e-38
0.0273493352916 0.0091164450972 0.821 9.20690225471e-39
0.0288687428078 0.0091164450972 0.821 9.6679056274e-39
0.030388150324 0.0091164450972 0.821 5.14996243298e-39
-0.0223339950128 0.0111669975064 0.862 2.10900449542e-38
-0.0207387096547 0.0111669975064 0.862 5.14422271447e-39
-0.019099007999 0.0111410879994 0.86 9.11254161872e-39
-0.0175074239991 0.0111410879994 0.86 7.91868016866e-39
-0.0158788264178 0.0111151784924 0.858 8.38074012039e-39
-0.0142576315527 0.0110892689855 0.856 7.91868016866e-39
-0.0126734502691 0.0110892689855 0.856 8.10343156209e-39
-0.0110633594785 0.0110633594785 0.854 8.28387536405e-39
-0.00944956732974 0.011024495218 0.851 8.28170475273e-39
-0.00787463944145 0.011024495218 0.851 9.29728600566e-39
-0.0062849061206 0.0109985857111 0.849 8.18955116182e-39
-0.00470257551603 0.0109726762041 0.847 8.46756597454e-39
-0.00312764762774 0.0109467666971 0.845 9.29583285915e-39
-0.00156012245573 0.0109208571901 0.843 8.83704634063e-39
0.0 0.0109208571901 0.843 1.04072461115e-38
0.00156012245573 0.0109208571901 0.843 9.11685481539e-39
0.00312024491147 0.0109208571901 0.843 1.1421731549e-38
0.00466926329278 0.0108949476832 0.841 1.24348044777e-38
0.00622568439037 0.0108949476832 0.841 1.08660816754e-38
0.00774509190657 0.0108431286692 0.837 1.21560567858e-38
0.00927190213905 0.0108172191622 0.835 1.07702861098e-38
0.0107913096553 0.0107913096553 0.833 1.19709592717e-38
0.0122737035901 0.0107394906413 0.829 1.31720780465e-38
0.0138079165388 0.0107394906413 0.829 7.35943456324e-39
0.0153421294876 0.0107394906413 0.829 1.14109527612e-38
0.0168356274968 0.0107135811343 0.827 1.0954270993e-38
0.0183661390874 0.0107135811343 0.827 1.06813190716e-38
0.019896650678 0.0107135811343 0.827 9.02575640222e-39
0.0213753432547 0.0106876716274 0.825 7.45593358068e-39
0.0229021534872 0.0106876716274 0.825 1.14181582379e-38
0.0244289637197 0.0106876716274 0.825 9.02214385478e-39
0.0259557739521 0.0106876716274 0.825 9.48455132853e-39
0.0274825841846 0.0106876716274 0.825 9.30125448291e-39
0.0290093944171 0.0106876716274 0.825 8.840996601e-39
0.0306102318124 0.0107135811343 0.827 3.67700717039e-39
0.0322184719239 0.0107394906413 0.829 2.02530774075e-38
-0.0239292803708 0.0127622828645 0.862 1.99833092362e-38
-0.0223339950128 0.0127622828645 0.862 2.04446755452e-38
-0.0207387096547 0.0127622828645 0.862 5.88357020503e-39
-0.0191434242967 0.0127622828645 0.862 1.27996437432e-38
-0.0175481389386 0.0127622828645 0.862 8.65657171011e-39
-0.0159158399992 0.0127326719993 0.86 8.19347479752e-39
-0.0143242559993 0.0127326719993 0.86 8.65334311845e-39
-0.0127326719993 0.0127326719993 0.86 6.9016639861e-39
-0.0111410879994 0.0127326719993 0.86 1.34446838471e-38
-0.00952729585067 0.0127030611342 0.858 1.56627501409e-38
-0.00792090641819 0.0126734502691 0.856 1.00330966189e-38
-0.006321919702 0.012643839404 0.854 1.40863594334e-38
-0.0047414397765 0.012643839404 0.854 1.02138290883e-38
-0.0031424530603 0.0125698122412 0.849 7.45194828785e-39
-0.00156382381387 0.012510590511 0.845 8.37931780245e-39
0.0 0.012510590511 0.845 8.009436665e-39
0.00156382381387 0.012510590511 0.845 8.28671859863e-39
0.00312764762774 0.012510590511 0.845 9.11508217283e-39
0.0046803673672 0.0124809796459 0.843 1.05908932817e-38
0.00624048982293 0.0124809796459 0.843 1.15142775035e-38
0.00778210548797 0.0124513687807 0.841 1.14198986506e-38
0.00933852658556 0.0124513687807 0.841 1.11411958003e-38
0.0108431286692 0.0123921470505 0.837 1.06838133829e-38
0.0123625361854 0.0123625361854 0.835 1.20624542523e-38
0.0138412287621 0.0123033144552 0.831 1.32606064783e-38
0.015379143069 0.0123033144552 0.831 1.26141776876e-38
0.0168763424363 0.0122737035901 0.829 1.35364646927e-38
0.0184105553851 0.0122737035901 0.829 1.12334096471e-38
0.0199447683338 0.0122737035901 0.829 1.03143316155e-38
0.0214271622687 0.0122440927249 0.827 9.76007463259e-39
0.0229576738593 0.0122440927249 0.827 9.20401557987e-39
0.0244881854499 0.0122440927249 0.827 8.92997064569e-39
0.0260186970405 0.0122440927249 0.827 9.29978452082e-39
0.0275492086311 0.0122440927249 0.827 9.85370379078e-39
0.0291500460264 0.0122737035901 0.829 8.56510615675e-39
0.0306842589751 0.0122737035901 0.829 2.47955839627e-39
0.0322184719239 0.0122737035901 0.829 2.348823135e-38
-0.0239848007429 0.0143908804458 0.864 1.90595704859e-38
-0.0223858140267 0.0143908804458 0.864 2.09052809491e-38
-0.0207868273105 0.0143908804458 0.864 9.38659215809e-39
-0.0191878405943 0.0143908804458 0.864 8.18627352471e-39
-0.0175888538782 0.0143908804458 0.864 1.16961520312e-38
-0.015989867162 0.0143908804458 0.864 9.20363863058e-39
-0.0143575682225 0.0143575682225 0.862 1.05883933652e-38
-0.0127622828645 0.0143575682225 0.862 9.75719496424e-39
-0.0111669975064 0.0143575682225 0.862 9.20009334547e-39
-0.00957171214834 0.0143575682225 0.862 1.2987570479e-38
-0.00795791999959 0.0143242559993 0.86 1.64867851041e-38
-0.00635153056711 0.014290943776 0.858 1.86911607119e-38
-0.00476364792533 0.014290943776 0.858 1.83223964093e-38
-0.00317576528356 0.014290943776 0.858 1.50083900009e-38
-0.00158788264178 0.014290943776 0.858 7.63669547739e-39
0.0 0.0141077265481 0.847 8.28819416591e-39
0.00156752517201 0.0141077265481 0.847 8.19382792473e-39
0.00313505034402 0.0141077265481 0.847 7.54884807666e-39
0.00469147144162 0.0140744143248 0.845 8.47114068692e-39
0.00625529525549 0.0140744143248 0.845 6.90598559057e-39
0.00780061227866 0.0140411021016 0.843 8.93065167675e-39
0.0093607347344 0.0140411021016 0.843 1.05912436063e-38
0.0108949476832 0.0140077898783 0.841 1.0866741687e-38
0.0124513687807 0.0140077898783 0.841 1.20602906475e-38
0.0139411654318 0.0139411654318 0.837 1.26134195851e-38
0.0154901838131 0.0139411654318 0.837 1.39038178877e-38
0.0169170573759 0.0138412287621 0.831 1.15996558163e-38
0.0184549716828 0.0138412287621 0.831 1.24279549308e-38
0.0199928859897 0.0138412287621 0.831 1.27081305457e-38
0.0215308002966 0.0138412287621 0.831 1.1603621491e-38
0.0230131942314 0.0138079165388 0.829 1.36311784559e-38
0.0245474071801 0.0138079165388 0.829 1.18780756043e-38
0.0260816201289 0.0138079165388 0.829 8.56152163528e-39
0.0276158330776 0.0138079165388 0.829 9.02539346592e-39
0.029220371831 0.0138412287621 0.831 8.93319223086e-39
0.0307582861379 0.0138412287621 0.831 2.8469003809e-39
0.0322962004448 0.0138412287621 0.831 2.34918354896e-38
0.0340784043889 0.0139411654318 0.837 2.34979157237e-38
-0.0224635425477 0.016045387534 0.867 1.99836581595e-38
-0.0208590037943 0.016045387534 0.867 1.36254233231e-38
-0.0192544650409 0.016045387534 0.867 8.45783395671e-39
-0.0176499262875 0.016045387534 0.867 9.39094879501e-39
-0.016045387534 0.016045387534 0.867 1.24322485093e-38
-0.0143908804458 0.015989867162 0.864 9.75900263926e-39
-0.0127918937296 0.015989867162 0.864 1.3352430764e-38
-0.0111929070134 0.015989867162 0.864 1.31688116198e-38
-0.00957171214834 0.0159528535806 0.862 9.11435630023e-39
-0.00797642679028 0.0159528535806 0.862 1.01219935922e-38
-0.00636633599967 0.0159158399992 0.86 1.25089990275e-38
-0.00477475199975 0.0159158399992 0.86 1.37979385783e-38
-0.00318316799983 0.0159158399992 0.86 1.57293566595e-38
-0.00159158399992 0.0159158399992 0.86 9.28507088694e-39
0.0 0.0157492788829 0.851 7.45804673877e-39
0.00157492788829 0.0157492788829 0.851 1.24311582991e-38
0.00313505034402 0.0156752517201 0.847 1.29757561316e-38
0.00470257551603 0.0156752517201 0.847 1.22371317111e-38
0.00627010068805 0.0156752517201 0.847 1.03993525972e-38
0.00781911906936 0.0156382381387 0.845 8.0055130293e-39
0.00938294288323 0.0156382381387 0.845 7.64067096113e-39
0.0109467666971 0.0156382381387 0.845 8.28350401995e-39
0.0124809796459 0.0156012245573 0.843 1.04018609215e-38
0.0140411021016 0.0156012245573 0.843 1.05851563658e-38
0.0155642109759 0.0155642109759 0.841 1.23390159185e-38
0.0169984872549 0.0154531702318 0.835 1.18809692856e-38
0.0185438042781 0.0154531702318 0.835 1.25226714966e-38
0.0200891213013 0.0154531702318 0.835 1.31680353004e-38
0.0215826193105 0.0154161566504 0.833 1.11440698635e-38
0.0231242349755 0.0154161566504 0.833 1.04990493778e-38
0.0246658506406 0.0154161566504 0.833 1.39074178234e-38
0.0262074663056 0.0154161566504 0.833 1.33581326475e-38
0.0277490819706 0.0154161566504 0.833 8.8413651425e-39
0.0292906976357 0.0154161566504 0.833 9.57713231547e-39
0.0308323133007 0.0154161566504 0.833 2.75506488474e-39
0.0324516574867 0.0154531702318 0.835 2.34936487698e-38
0.0340784043889 0.0154901838131 0.837 2.21949659908e-38
-0.0229299136732 0.0180163607432 0.885 1.87862107867e-38
-0.0210033567617 0.0177720711061 0.873 1.72203438307e-38
-0.0193877139339 0.0177720711061 0.873 6.52032022722e-39
-0.0177720711061 0.0177720711061 0.873 8.19238038342e-39
-0.0161194146968 0.0177313561665 0.871 8.19167973418e-39
-0.0144741610039 0.017690641227 0.869 8.46574708913e-39
-0.0128363100272 0.0176499262875 0.867 1.04022238578e-38
-0.0112317712738 0.0176499262875 0.867 9.48386329099e-39
-0.00959392029717 0.0175888538782 0.864 9.30055103108e-39
-0.00799493358098 0.0175888538782 0.864 1.18816152842e-38
-0.00638114143223 0.0175481389386 0.862 9.39453331648e-39
-0.00478585607417 0.0175481389386 0.862 1.03125295457e-38
-0.00319057071611 0.0175481389386 0.862 1.27866761273e-38
-0.00159158399992 0.0175074239991 0.86 1.01159105555e-38
0.0 0.0175074239991 0.86 6.25953157651e-39
0.0015804799255 0.0173852791805 0.854 1.59357216804e-38
0.00314985577658 0.0173242067712 0.851 1.43590381016e-38
0.00472478366487 0.0173242067712 0.851 1.58237200981e-38
0.0062849061206 0.0172834918317 0.849 1.5373152195e-38
0.00785613265075 0.0172834918317 0.849 1.75001186743e-38
0.00940515103207 0.0172427768921 0.847 8.65513678048e-39
0.0109726762041 0.0172427768921 0.847 9.57279389543e-39
0.0125402013761 0.0172427768921 0.847 8.65660393998e-39
0.0140744143248 0.0172020619526 0.845 8.47147279466e-39
0.0156382381387 0.0172020619526 0.845 7.64210589076e-39
0.0172020619526 0.0172020619526 0.845 8.19201324322e-39
0.0186770531711 0.0171206320735 0.841 9.29803429904e-39
0.0201372389571 0.0170392021945 0.837 1.12352061117e-38
0.0216344383245 0.0169984872549 0.835 1.10536692969e-38
0.0231797553476 0.0169984872549 0.835 1.22528991214e-38
0.0247250723708 0.0169984872549 0.835 1.11407936277e-38
0.026270389394 0.0169984872549 0.835 9.47986258387e-39
0.0278823308637 0.0170392021945 0.837 9.57781614912e-39
0.029431349245 0.0170392021945 0.837 9.39129631703e-39
0.0309803676263 0.0170392021945 0.837 3.49010758641e-39
0.0325293860076 0.0170392021945 0.837 2.34896550692e-38
0.0340784043889 0.0170392021945 0.837 1.96141763921e-38
-0.0229299136732 0.0196542117199 0.885 1.85100120568e-38
-0.0212920626966 0.0196542117199 0.885 1.89713405307e-38
-0.0194987546781 0.0194987546781 0.878 5.23462328101e-39
-0.0178127860456 0.0194321302315 0.875 9.11287933165e-39
-0.0161564282782 0.0193877139339 0.873 8.28459843405e-39
-0.0145407854504 0.0193877139339 0.873 8.46898969378e-39
-0.0128955317575 0.0193432976362 0.871 8.00941844812e-39
-0.0112835902878 0.0193432976362 0.871 8.00837728336e-39
-0.00964944066926 0.0192988813385 0.869 7.63958215222e-39
-0.00802269376702 0.0192544650409 0.867 7.82574745581e-39
-0.00639594686478 0.0191878405943 0.864 1.11473320863e-38
-0.00479696014859 0.0191878405943 0.864 1.20681939708e-38
-0.00319057071611 0.0191434242967 0.862 1.20645646078e-38
-0.00159528535806 0.0191434242967 0.862 1.16979695153e-38
0.0 0.0191434242967 0.862 1.07734866755e-38
0.00159158399992 0.019099007999 0.86 7.91328236698e-39
0.00318316799983 0.019099007999 0.86 1.47335112941e-38
0.00476364792533 0.0190545917013 0.858 1.54657065573e-38
0.006321919702 0.018965759106 0.854 1.79550432143e-38
0.00787463944145 0.0188991346595 0.851 1.8594626662e-38
0.00944956732974 0.0188991346595 0.851 1.25172498728e-38
0.0109985857111 0.0188547183618 0.849 9.65887846269e-39
0.0125402013761 0.0188103020641 0.847 8.65625221406e-39
0.0141077265481 0.0188103020641 0.847 8.56368383881e-39
0.0156752517201 0.0188103020641 0.847 1.14170568173e-38
0.0172020619526 0.0187658857665 0.845 9.84899823054e-39
0.0187658857665 0.0187658857665 0.845 9.02323686758e-39
0.0202334742687 0.0186770531711 0.841 9.02501231274e-39
0.0217380763524 0.0186326368734 0.839 8.47365882026e-39
0.0232352757197 0.0185882205758 0.837 9.57821411789e-39
0.024784294101 0.0185882205758 0.837 9.85051443548e-39
0.0263333124823 0.0185882205758 0.837 9.85155139634e-39
0.0279489553102 0.0186326368734 0.839 9.57747983749e-39
0.0295016750496 0.0186326368734 0.839 8.93354535808e-39
0.0310543947891 0.0186326368734 0.839 5.33650328456e-39
0.0326071145285 0.0186326368734 0.839 2.0538335532e-38
0.0342412641471 0.0186770531711 0.841 1.92482609293e-38
-0.0229299136732 0.0212920626966 0.885 1.78638985583e-38
-0.0212920626966 0.0212920626966 0.885 1.98933038358e-38
-0.0196542117199 0.0212920626966 0.885 4.77544580022e-39
-0.0179145733944 0.021171768557 0.88 9.11432687296e-39
-0.0162859758131 0.021171768557 0.88 1.25277049607e-38
-0.0145740976737 0.0210514744175 0.875 1.04972276897e-38
-0.0129547534877 0.0210514744175 0.875 9.66284413734e-39
-0.0112835902878 0.0209552391059 0.871 7.72749401268e-39
-0.0096716488181 0.0209552391059 0.871 1.16040166571e-38
-0.00804120055772 0.0209071214501 0.869 8.84279726953e-39
-0.00643296044618 0.0209071214501 0.869 5.61562932696e-39
-0.00481361626021 0.0208590037943 0.867 8.83486311762e-39
-0.00319797343239 0.0207868273105 0.864 9.94627076474e-39
-0.0015989867162 0.0207868273105 0.864 9.76222422443e-39
0.0 0.0207387096547 0.862 1.21546218562e-38
0.00159528535806 0.0207387096547 0.862 1.06791260395e-38
0.00319057071611 0.0207387096547 0.862 1.06827806259e-38
0.00477475199975 0.0206905919989 0.86 9.11112210337e-39
0.00636633599967 0.0206905919989 0.86 1.24168047989e-38
0.00793941320889 0.0206424743431 0.858 1.31475427117e-38
0.00948287955299 0.0205462390315 0.854 1.09392028306e-38
0.0110633594785 0.0205462390315 0.854 8.83452540469e-39
0.0125994231063 0.0204740625478 0.851 8.4678784641e-39
0.0141743509946 0.0204740625478 0.851 1.25244833755e-38
0.0157492788829 0.0204740625478 0.851 1.46453934428e-38
0.0172834918317 0.020425944892 0.849 1.45459699155e-38
0.0187658857665 0.0203297095803 0.845 1.30754865433e-38
0.0203297095803 0.0203297095803 0.845 9.85007442776e-39
0.0218417143803 0.0202815919245 0.843 9.94339810289e-39
0.0233463164639 0.0202334742687 0.841 9.02610952944e-39
0.0249027375615 0.0202334742687 0.841 9.21081327872e-39
0.0264591586591 0.0202334742687 0.841 9.48708207356e-39
0.0280155797567 0.0202334742687 0.841 9.94482322342e-39
0.0295720008543 0.0202334742687 0.841 9.39309418296e-39
0.0311284219519 0.0202334742687 0.841 7.825753061e-39
0.0326848430495 0.0202334742687 0.841 1.22461770927e-38
-0.0213401803524 0.0229817326872 0.887 2.02620639345e-38
-0.0196986280176 0.0229817326872 0.887 7.26755983072e-39
-0.0180570756828 0.0229817326872 0.887 7.72924843836e-39
-0.0163785097666 0.0229299136732 0.885 1.01252670254e-38
-0.0147406587899 0.0229299136732 0.885 1.31712190505e-38
-0.0129991697854 0.0227485471244 0.878 1.4183281643e-38
-0.0113742735622 0.0227485471244 0.878 1.27046034775e-38
-0.00969385696694 0.0226189995895 0.873 9.29583285915e-39
-0.00807821413911 0.0226189995895 0.873 1.12409164029e-38
-0.00644776587873 0.0225671805756 0.871 1.05048143196e-38
-0.00482472033463 0.0225153615616 0.869 1.28928805379e-38
-0.00321648022309 0.0225153615616 0.869 1.03078169789e-38
-0.0016045387534 0.0224635425477 0.867 7.72892613971e-39
0.0 0.0223858140267 0.864 8.09624149967e-39
0.0015989867162 0.0223858140267 0.864 1.02189270121e-38
0.00319797343239 0.0223858140267 0.864 1.22515090333e-38
0.00478585607417 0.0223339950128 0.862 1.20627639393e-38
0.00638114143223 0.0223339950128 0.862 1.26133901579e-38
0.00795791999959 0.0222821759988 0.86 1.30762110147e-38
0.0095495039995 0.0222821759988 0.86 1.02207066612e-38
0.0110633594785 0.022126718957 0.854 1.17840288591e-38
0.012643839404 0.022126718957 0.854 9.66319446196e-39
0.0142576315527 0.0221785379709 0.856 8.37536473948e-39
0.0157492788829 0.0220489904361 0.851 1.30780102819e-38
0.0173242067712 0.0220489904361 0.851 1.44548084439e-38
