# .PCD v0.7 - Point Cloud Data file format
VERSION 0.7
FIELDS x y z rgb
SIZE 4 4 4 4
TYPE F F F F
COUNT 1 1 1 1
WIDTH 839
HEIGHT 1
VIEWPOINT 0 0 0 1 0 0 0
POINTS 839
DATA ascii
0.00146573782318 -0.041040659049 0.792 1.46452561155e-38
0.00292407293008 -0.0409370210211 0.79 1.8794865206e-38
0.00438610939512 -0.0409370210211 0.79 1.92478769736e-38
0.00584814586016 -0.0409370210211 0.79 1.12146925035e-38
0.00730092892985 -0.0408852020072 0.789 1.36946670854e-38
0.00876111471582 -0.0408852020072 0.789 1.94189222667e-38
0.0102213005018 -0.0408852020072 0.789 2.15481168105e-38
0.0116222645575 -0.0406779259514 0.785 1.82334041477e-38
0.0130750476272 -0.0406779259514 0.785 1.11329015147e-38
0.0145278306969 -0.0406779259514 0.785 1.00100690812e-38
0.0159398988271 -0.0405742879235 0.783 1.29642444648e-38
0.0173889805386 -0.0405742879235 0.783 5.6938007618e-39
0.0188380622502 -0.0405742879235 0.783 2.57139389242e-39
0.0202871439617 -0.0405742879235 0.783 5.05095228869e-39
0.0217362256733 -0.0405742879235 0.783 1.35217664731e-38
0.0231853073848 -0.0405742879235 0.783 1.61054049115e-38
0.0246973121848 -0.0406779259514 0.785 1.6473060787e-38
0.0261500952545 -0.0406779259514 0.785 1.61021454912e-38
0.0276028783241 -0.0406779259514 0.785 1.61943411211e-38
0.0290556613938 -0.0406779259514 0.785 1.60103226068e-38
0.0305084444635 -0.0406779259514 0.785 1.61007007525e-38
0.0320426574123 -0.0407815639793 0.787 1.69301209058e-38
0.0334991418401 -0.0407815639793 0.787 1.41808195616e-38
0.0350444588633 -0.0408852020072 0.789 1.84232913e-38
0.036550911626 -0.0409370210211 0.79 1.8877037348e-38
0.038012948091 -0.0409370210211 0.79 1.887738487e-38
0.0394749845561 -0.0409370210211 0.79 2.34988616001e-38
0.0416106682025 -0.0416106682025 0.803 1.6850433266e-38
0.0430967634954 -0.0416106682025 0.803 1.4089723951e-38
0.0446938995326 -0.0417143062304 0.805 1.6661430333e-38
0.046298438286 -0.0418179442583 0.807 1.67525497657e-38
-0.025767004687 -0.0409240662676 0.819 2.34921633935e-38
-0.024251298529 -0.0409240662676 0.819 2.34867585853e-38
-0.0226800719988 -0.0408241295979 0.817 2.34964892018e-38
-0.0211680671989 -0.0408241295979 0.817 6.70829600842e-39
-0.019656062399 -0.0408241295979 0.817 5.60196526564e-39
-0.018010808706 -0.0405243195886 0.811 2.32133736627e-38
-0.016469193041 -0.0404243829188 0.809 1.56476105123e-38
-0.0149349800922 -0.0403244462491 0.807 1.64799131365e-38
-0.0134081698598 -0.0402245095793 0.805 1.96124191639e-38
-0.0119183732087 -0.0402245095793 0.805 2.03546154942e-38
-0.0104285765576 -0.0402245095793 0.805 2.0259164648e-38
-0.00891657175768 -0.0401245729095 0.803 1.98882227276e-38
-0.00742122306938 -0.0400746045747 0.802 2.02570024445e-38
-0.00592217302295 -0.0399746679049 0.8 1.73010235898e-38
-0.00441942161837 -0.0397747945654 0.796 2.21895387618e-38
-0.00293887836264 -0.0396748578956 0.794 1.83291899042e-38
-0.00146943918132 -0.0396748578956 0.794 1.63047466245e-38
0.0 -0.0396748578956 0.794 1.41606254494e-38
0.00146573782318 -0.0395749212258 0.792 1.46938755671e-39
0.00292407293008 -0.0394749845561 0.79 0.0
0.00438610939512 -0.0394749845561 0.79 1.14112778624e-38
0.00584814586016 -0.0394749845561 0.79 2.25573039386e-38
0.00730092892985 -0.0394250162212 0.789 2.09977862659e-38
0.00876111471582 -0.0394250162212 0.789 1.74947306817e-38
0.0102213005018 -0.0394250162212 0.789 1.80446646589e-38
0.0116222645575 -0.0392251428817 0.785 1.99793421603e-38
0.0130750476272 -0.0392251428817 0.785 2.08137733568e-38
0.0145278306969 -0.0392251428817 0.785 2.00772999294e-38
0.0159398988271 -0.0391252062119 0.783 1.29779183352e-38
0.0173889805386 -0.0391252062119 0.783 1.1580282865e-38
0.0188380622502 -0.0391252062119 0.783 9.09207285205e-39
0.0202871439617 -0.0391252062119 0.783 5.05095228869e-39
0.0217362256733 -0.0391252062119 0.783 4.49993931174e-39
0.0231853073848 -0.0391252062119 0.783 1.28763942614e-38
0.0246343890964 -0.0391252062119 0.783 1.50087137008e-38
0.0260834708079 -0.0391252062119 0.783 1.49046560795e-38
0.0276028783241 -0.0392251428817 0.785 1.7022303924e-38
0.0290556613938 -0.0392251428817 0.785 1.60099316445e-38
0.0305084444635 -0.0392251428817 0.785 1.53642119108e-38
0.0319612275332 -0.0392251428817 0.785 1.6755095925e-38
0.0334991418401 -0.0393250795514 0.787 2.00795672303e-38
0.0349556262679 -0.0393250795514 0.787 2.3498438408e-38
0.0365046446493 -0.0394250162212 0.789 2.34926930843e-38
0.0379648304352 -0.0394250162212 0.789 2.34941308165e-38
0.0394749845561 -0.0394749845561 0.79 2.34953177163e-38
0.0417143062304 -0.0402245095793 0.805 1.40831770846e-38
0.0433114422675 -0.0403244462491 0.807 1.6111050743e-38
0.0448049402767 -0.0403244462491 0.807 1.62940799406e-38
0.0465279224906 -0.0405243195886 0.811 1.50022242876e-38
-0.0274825841846 -0.0396970660444 0.825 2.3489273916e-38
-0.0258299277754 -0.0395045954212 0.821 2.34896396549e-38
-0.0243105202592 -0.0395045954212 0.821 2.34856669738e-38
-0.022791112743 -0.0395045954212 0.821 2.34971954563e-38
-0.0212198862128 -0.0394083601096 0.819 1.1501678429e-38
-0.0197041800548 -0.0394083601096 0.819 5.32645877716e-39
-0.0180552250037 -0.0391196541747 0.813 2.3213361051e-38
-0.0165099079805 -0.0390234188631 0.811 1.51870009045e-38
-0.0149719936736 -0.0389271835515 0.809 1.56523258816e-38
-0.013441482083 -0.0388309482398 0.807 1.70366840488e-38
-0.0119479840738 -0.0388309482398 0.807 1.82348096501e-38
-0.0104285765576 -0.0387347129282 0.805 1.93354735419e-38
-0.00893877990651 -0.0387347129282 0.805 2.07183533392e-38
-0.00743047646473 -0.0386384776166 0.803 2.06268583585e-38
-0.00594438117178 -0.0386384776166 0.803 2.07198176961e-38
-0.00444162976721 -0.0384941246492 0.8 1.84123709811e-38
-0.00294628107892 -0.0383016540259 0.796 1.84980603822e-38
-0.00147314053946 -0.0383016540259 0.796 2.04391432189e-38
0.0 -0.0382054187143 0.794 1.9058749325e-38
0.00146573782318 -0.0381091834027 0.792 1.72181087597e-38
0.00293147564636 -0.0381091834027 0.792 4.04076183095e-39
0.00439721346954 -0.0381091834027 0.792 1.20685022565e-38
0.00584814586016 -0.038012948091 0.79 1.64751865567e-38
0.0073101823252 -0.038012948091 0.79 1.00100690812e-38
0.00877221879024 -0.038012948091 0.79 2.08941826653e-38
0.0102213005018 -0.0379648304352 0.789 1.88809567798e-38
0.0116518754226 -0.0378685951236 0.787 1.49990349323e-38
0.0131083598505 -0.0378685951236 0.787 2.1539526851e-38
0.0145278306969 -0.037772359812 0.785 1.89681007287e-38
0.0159398988271 -0.0376761245004 0.783 1.97070908881e-38
0.0173889805386 -0.0376761245004 0.783 2.11836474878e-38
0.0188380622502 -0.0376761245004 0.783 1.66671336178e-38
0.0202871439617 -0.0376761245004 0.783 1.22403084547e-38
0.0217362256733 -0.0376761245004 0.783 7.89785266959e-39
0.0231853073848 -0.0376761245004 0.783 5.05095228869e-39
0.0246343890964 -0.0376761245004 0.783 4.31626831943e-39
0.0260834708079 -0.0376761245004 0.783 8.17335915806e-39
0.0275325525195 -0.0376761245004 0.783 1.55411384537e-38
0.028981634231 -0.0376761245004 0.783 1.50879683394e-38
0.0304307159426 -0.0376761245004 0.783 1.86824516419e-38
0.0319612275332 -0.037772359812 0.785 1.45506964952e-38
0.0334140106029 -0.037772359812 0.785 2.34957563227e-38
0.0349556262679 -0.0378685951236 0.787 2.34855562712e-38
0.0365046446493 -0.0379648304352 0.789 2.34923427597e-38
0.0379648304352 -0.0379648304352 0.789 2.34934273647e-38
0.0404243829188 -0.0389271835515 0.809 1.92474285581e-38
0.0419215822862 -0.0389271835515 0.809 1.39881073916e-38
0.0435261210396 -0.0390234188631 0.811 1.64759124293e-38
0.0450270217651 -0.0390234188631 0.811 1.65688843786e-38
0.0466426645929 -0.0391196541747 0.813 1.49118433393e-38
-0.0290797202217 -0.0382627897654 0.827 2.3490348712e-38
-0.0274825841846 -0.038170255812 0.825 2.34914165014e-38
-0.0259557739521 -0.038170255812 0.825 2.34871243242e-38
-0.0243697419894 -0.0380777218585 0.823 2.34885494447e-38
-0.0228466331151 -0.0380777218585 0.823 2.34935955205e-38
-0.0213235242407 -0.0380777218585 0.823 1.74003826574e-38
-0.0197522977106 -0.037985187905 0.821 5.6938007618e-39
-0.0180996413014 -0.0377075860445 0.815 2.34853236557e-38
-0.0165506229201 -0.0376150520911 0.813 1.69423360245e-38
-0.0150460208364 -0.0376150520911 0.813 1.52867551382e-38
-0.0134747943063 -0.0374299841841 0.809 1.32584512812e-38
-0.0119775949389 -0.0374299841841 0.809 1.59342895534e-38
-0.0104544860646 -0.0373374502306 0.807 1.86007475336e-38
-0.00893877990651 -0.0372449162771 0.805 1.8042904628e-38
-0.00744898325543 -0.0372449162771 0.805 1.94283572093e-38
-0.00595918660434 -0.0372449162771 0.805 2.0722672141e-38
-0.00445828587884 -0.0371523823236 0.803 1.94297655142e-38
-0.00296848922775 -0.0371061153469 0.802 1.90562241852e-38
-0.0014768418976 -0.0369210474399 0.798 2.00660559105e-38
0.0 -0.0369210474399 0.798 1.978626285e-38
0.00147314053946 -0.0368285134865 0.796 2.22820664994e-38
0.00294628107892 -0.0368285134865 0.796 1.51809276769e-38
0.00440831754396 -0.036735979533 0.794 1.49140517857e-38
0.00586295129272 -0.0366434455795 0.792 1.38001007818e-38
0.0073286891159 -0.0366434455795 0.792 1.30535548211e-38
0.00877221879024 -0.036550911626 0.79 1.24935805405e-38
0.0102342552553 -0.036550911626 0.79 5.51012976948e-39
0.0116814862878 -0.0365046446493 0.789 1.98882227276e-38
0.0131416720737 -0.0365046446493 0.789 1.31544230871e-38
0.0145278306969 -0.0363195767423 0.785 2.07187190781e-38
0.0159806137666 -0.0363195767423 0.785 1.84152548533e-38
0.0173889805386 -0.0362270427888 0.783 1.9336488082e-38
0.0188380622502 -0.0362270427888 0.783 2.00740405092e-38
0.0202871439617 -0.0362270427888 0.783 2.02606121893e-38
0.0217362256733 -0.0362270427888 0.783 1.86011132725e-38
0.0231853073848 -0.0362270427888 0.783 1.00254945747e-38
0.0246343890964 -0.0362270427888 0.783 6.70399121953e-39
0.0260834708079 -0.0362270427888 0.783 1.00165500866e-38
0.0275325525195 -0.0362270427888 0.783 1.1857899709e-38
0.028981634231 -0.0362270427888 0.783 1.50778972073e-38
0.0304307159426 -0.0362270427888 0.783 2.31155378065e-38
0.0318797976542 -0.0362270427888 0.783 1.39971569771e-38
0.0334140106029 -0.0363195767423 0.785 2.35028637085e-38
0.0349556262679 -0.0364121106958 0.787 1.75850667885e-38
0.0364121106958 -0.0364121106958 0.787 1.71292846539e-38
0.0379648304352 -0.0365046446493 0.789 1.72218488253e-38
0.0404243829188 -0.0374299841841 0.809 1.45460259674e-38
0.0419215822862 -0.0374299841841 0.809 1.62011780563e-38
0.0435261210396 -0.0375225181376 0.811 1.69354962867e-38
0.0451380625093 -0.0376150520911 0.813 1.58291683465e-38
-0.0290797202217 -0.0367322781748 0.827 2.34867473749e-38
-0.0275492086311 -0.0367322781748 0.827 2.34853124453e-38
-0.0259557739521 -0.0366434455795 0.825 2.34871383372e-38
-0.0244289637197 -0.0366434455795 0.825 2.34885522473e-38
-0.0229021534872 -0.0366434455795 0.825 2.34917864442e-38
-0.0213753432547 -0.0366434455795 0.825 2.13662562958e-38
-0.0198004153664 -0.0365546129841 0.823 6.61215572338e-39
-0.0182328901944 -0.0364657803888 0.821 2.34785287594e-38
-0.0165913378596 -0.0361992826028 0.815 1.80518645304e-38
-0.0150460208364 -0.0361104500074 0.813 1.34461117703e-38
-0.0135081065295 -0.0360216174121 0.811 1.37284593979e-38
-0.0119775949389 -0.0359327848167 0.809 1.48326307397e-38
-0.0104544860646 -0.0358439522214 0.807 1.57470368422e-38
-0.00896098805535 -0.0358439522214 0.807 1.63899049335e-38
-0.00744898325543 -0.035755119626 0.805 1.74987117707e-38
-0.00595918660434 -0.035755119626 0.805 1.68497298142e-38
-0.00446938995326 -0.035755119626 0.805 2.02595458012e-38
-0.00297219058589 -0.0356662870307 0.803 2.02616715709e-38
-0.00148424461388 -0.035621870733 0.802 1.97960439133e-38
0.0 -0.0355330381377 0.8 1.91466247517e-38
0.00148054325574 -0.0355330381377 0.8 1.61921046488e-38
0.00295368379519 -0.0354442055423 0.798 1.73906296201e-38
0.00441942161837 -0.035355372947 0.796 2.10802190494e-38
0.00587775672528 -0.0352665403517 0.794 2.18232365406e-38
0.00734719590659 -0.0352665403517 0.794 1.72174361364e-38
0.00881663508791 -0.0352665403517 0.794 1.76768980808e-38
0.0102601647623 -0.0351777077563 0.792 9.10857454276e-39
0.0116962917203 -0.035088875161 0.79 1.40936041465e-38
0.0131583281854 -0.035088875161 0.79 9.38844187206e-39
0.0146018578597 -0.0350444588633 0.789 2.03513630805e-38
0.0159806137666 -0.0348667936726 0.785 1.87829611756e-38
0.0174333968363 -0.0348667936726 0.785 1.89666531874e-38
0.0188380622502 -0.0347779610773 0.783 1.91521066313e-38
0.0202871439617 -0.0347779610773 0.783 1.85993013936e-38
0.0217362256733 -0.0347779610773 0.783 1.97052930222e-38
0.0231853073848 -0.0347779610773 0.783 2.03528134244e-38
0.0246343890964 -0.0347779610773 0.783 1.60217642087e-38
0.0260834708079 -0.0347779610773 0.783 2.21934609962e-38
0.0275325525195 -0.0347779610773 0.783 2.24715304596e-38
0.028981634231 -0.0347779610773 0.783 1.83233380819e-38
0.0304307159426 -0.0347779610773 0.783 2.1830872216e-38
0.0318797976542 -0.0347779610773 0.783 1.38141810288e-38
0.0334140106029 -0.0348667936726 0.785 2.35025203904e-38
0.0349556262679 -0.0349556262679 0.787 1.74021398857e-38
0.0364121106958 -0.0349556262679 0.787 1.49227454413e-38
0.0390234188631 -0.0360216174121 0.811 1.55673875765e-38
0.0404243829188 -0.0359327848167 0.809 1.56487105316e-38
0.0419215822862 -0.0359327848167 0.809 1.7581242645e-38
0.0435261210396 -0.0360216174121 0.811 1.66574646584e-38
-0.0290797202217 -0.0352017665842 0.827 2.34842348468e-38
-0.0275492086311 -0.0352017665842 0.827 2.34874760501e-38
-0.0260186970405 -0.0352017665842 0.827 2.34838705092e-38
-0.0244881854499 -0.0352017665842 0.827 2.3484601987e-38
-0.0229576738593 -0.0352017665842 0.827 2.34932213738e-38
-0.0214271622687 -0.0352017665842 0.827 2.34874746488e-38
-0.0198485330222 -0.035116635347 0.825 6.52032022722e-39
-0.0182773064921 -0.0350315041098 0.823 2.34738652381e-38
-0.0167541976177 -0.0350315041098 0.823 1.97114082887e-38
-0.0152310887434 -0.0350315041098 0.823 9.4842164182e-39
-0.013574730976 -0.034690979161 0.815 8.29219907693e-39
-0.0120368166691 -0.0346058479238 0.813 9.76339570995e-39
-0.0105322145855 -0.0346058479238 0.813 1.51078163308e-38
-0.00898319620418 -0.0344355854494 0.809 1.44606098195e-38
-0.00748599683682 -0.0344355854494 0.809 1.39060109198e-38
-0.0059739920369 -0.0343504542122 0.807 1.62090841823e-38
-0.00446938995326 -0.034265322975 0.805 1.58399107005e-38
-0.00297959330217 -0.034265322975 0.805 1.82282852044e-38
-0.00148609529295 -0.0341801917378 0.803 2.24679417342e-38
0.0 -0.0341376261192 0.802 1.90592075496e-38
0.00148424461388 -0.0341376261192 0.802 1.97920165815e-38
0.00295368379519 -0.0339673636447 0.798 1.684212777e-38
0.00443052569279 -0.0339673636447 0.798 2.01561818226e-38
0.00589256215783 -0.0338822324075 0.796 2.08011112239e-38
0.00736570269729 -0.0338822324075 0.796 1.57340033652e-38
0.00881663508791 -0.0337971011703 0.794 2.25582203878e-38
0.0102601647623 -0.0337119699331 0.792 1.78649929724e-38
0.0117259025854 -0.0337119699331 0.792 1.86957275436e-38
0.0131583281854 -0.0336268386959 0.79 1.05818885378e-38
0.0146018578597 -0.0335842730773 0.789 1.99854574267e-38
0.0160620436457 -0.0335842730773 0.789 1.90609773896e-38
0.0174333968363 -0.0334140106029 0.785 1.94297627116e-38
0.018886179906 -0.0334140106029 0.785 1.91531730194e-38
0.0202871439617 -0.0333288793657 0.783 1.90602711352e-38
0.0217362256733 -0.0333288793657 0.783 1.91524905871e-38
0.0231853073848 -0.0333288793657 0.783 1.91528647338e-38
0.0246343890964 -0.0333288793657 0.783 1.85067316171e-38
0.0260834708079 -0.0333288793657 0.783 2.19183412661e-38
0.0275325525195 -0.0333288793657 0.783 1.86986562573e-38
0.028981634231 -0.0333288793657 0.783 1.86061383288e-38
0.0304307159426 -0.0333288793657 0.783 1.51078191334e-38
0.0318797976542 -0.0333288793657 0.783 1.58457513125e-38
0.0334140106029 -0.0334140106029 0.785 2.35025568242e-38
0.0349556262679 -0.0334991418401 0.787 1.6941164539e-38
0.0364121106958 -0.0334991418401 0.787 1.51074688088e-38
0.0390234188631 -0.0345207166866 0.811 1.51002198919e-38
0.0405243195886 -0.0345207166866 0.811 1.67521966385e-38
-0.0276158330776 -0.0337526848727 0.829 2.34860271075e-38
-0.0260816201289 -0.0337526848727 0.829 2.34863970503e-38
-0.0245474071801 -0.0337526848727 0.829 2.34885466421e-38
-0.0230131942314 -0.0337526848727 0.829 2.34863746295e-38
-0.0215308002966 -0.0338341147517 0.831 2.34982800613e-38
-0.0199447683338 -0.0337526848727 0.829 4.95911679253e-39
-0.0184105553851 -0.0337526848727 0.829 1.97892868521e-38
-0.0168763424363 -0.0337526848727 0.829 1.94341011317e-38
-0.0153051159062 -0.0336712549936 0.827 1.1693653516e-38
-0.0137412920923 -0.0335898251145 0.825 1.6208773094e-38
-0.0121552601296 -0.0334269653564 0.821 1.00309302115e-38
-0.0106358526134 -0.0334269653564 0.821 6.89806965554e-39
-0.00904982065069 -0.0331826757192 0.815 1.80509256604e-38
-0.00752301041821 -0.0331012458401 0.813 1.6304176296e-38
-0.00601840833457 -0.0331012458401 0.813 1.51949392603e-38
-0.00449159810209 -0.032938386082 0.809 1.4182225064e-38
-0.00298699601845 -0.0328569562029 0.807 1.86972773797e-38
-0.00148979665109 -0.0327755263239 0.805 1.76790939155e-38
0.0 -0.0326940964448 0.803 1.69372815409e-38
0.00148609529295 -0.0326940964448 0.803 2.08105265483e-38
0.00296848922775 -0.0326533815053 0.802 1.87826374756e-38
0.00444162976721 -0.0325719516262 0.8 1.99775232748e-38
0.00590736759039 -0.0324905217471 0.798 1.86853383167e-38
0.00738420948799 -0.0324905217471 0.798 1.84094296556e-38
0.00883884323675 -0.0324090918681 0.796 1.59173156251e-38
0.0103119837762 -0.0324090918681 0.796 1.89612119454e-38
0.0117555134506 -0.032327661989 0.794 2.09902458789e-38
0.0132249526319 -0.032327661989 0.794 1.09413426133e-38
0.0146573782318 -0.0322462321099 0.792 2.06272142884e-38
0.0160824011154 -0.0321648022309 0.79 1.95212352715e-38
0.017477813134 -0.0320426574123 0.787 1.89677097664e-38
0.018886179906 -0.0319612275332 0.785 1.97974760404e-38
0.0203389629757 -0.0319612275332 0.785 1.97045293145e-38
0.0217362256733 -0.0318797976542 0.783 1.85081721519e-38
0.0231853073848 -0.0318797976542 0.783 1.95219807623e-38
0.0246343890964 -0.0318797976542 0.783 1.86007503362e-38
0.0260834708079 -0.0318797976542 0.783 7.98968816575e-39
0.0275325525195 -0.0318797976542 0.783 1.04807456172e-38
0.028981634231 -0.0318797976542 0.783 1.12381656541e-38
0.0304307159426 -0.0318797976542 0.783 1.53923345697e-38
0.0318797976542 -0.0318797976542 0.783 1.55698902955e-38
0.0334140106029 -0.0319612275332 0.785 2.35014455945e-38
0.0349556262679 -0.0320426574123 0.787 1.72177556325e-38
0.0364121106958 -0.0320426574123 0.787 1.39961003981e-38
0.0390234188631 -0.0330198159611 0.811 1.61093201394e-38
0.0405243195886 -0.0330198159611 0.811 1.64752271944e-38
-0.0261445432172 -0.0322962004448 0.831 2.34845991844e-38
-0.0246066289103 -0.0322962004448 0.831 2.34871117125e-38
-0.0230687146034 -0.0322962004448 0.831 2.34849396999e-38
-0.0215826193105 -0.0323739289658 0.833 2.34943241957e-38
-0.0200410036455 -0.0323739289658 0.833 6.24481373874e-39
-0.0184993879804 -0.0323739289658 0.833 1.61929342175e-38
-0.0169170573759 -0.0322962004448 0.831 2.06329946445e-38
-0.0153421294876 -0.0322184719239 0.829 1.65767933071e-38
-0.0138079165388 -0.0322184719239 0.829 2.09099122405e-38
-0.0122144818598 -0.0320630148821 0.825 1.77684210874e-38
-0.0106876716274 -0.0320630148821 0.825 1.47278458444e-38
-0.00913865324604 -0.0319852863611 0.823 1.57456327411e-38
-0.0075785307903 -0.0318298293193 0.819 1.81469524403e-38
-0.00603321376713 -0.0316743722774 0.815 1.62032856092e-38
-0.00450270217651 -0.0315189152356 0.811 1.47368477858e-38
-0.00300180145101 -0.0315189152356 0.811 1.49208634975e-38
-0.00149719936736 -0.0314411867146 0.809 1.46432032133e-38
0.0 -0.0313634581937 0.807 1.62123337934e-38
0.00148979665109 -0.0312857296728 0.805 1.62090659654e-38
0.00297219058589 -0.0312080011519 0.803 1.86918641637e-38
0.00445828587884 -0.0312080011519 0.803 1.9887496855e-38
0.0059369784555 -0.0311691368914 0.802 2.09056312737e-38
0.00740271627868 -0.0310914083705 0.8 2.02617290242e-38
0.00886105138558 -0.0310136798495 0.798 2.10892812466e-38
0.0103378932832 -0.0310136798495 0.798 2.0903463465e-38
0.0117851243157 -0.0309359513286 0.796 2.08101986444e-38
0.0132582648551 -0.0309359513286 0.796 2.04428426468e-38
0.0146943918132 -0.0308582228077 0.794 1.97978571935e-38
0.016123116055 -0.0307804942868 0.792 1.95205290171e-38
0.0175222294316 -0.0306639015054 0.789 1.95201660808e-38
0.0189824152176 -0.0306639015054 0.789 2.04428454494e-38
0.0203389629757 -0.0305084444635 0.785 1.92450211273e-38
0.0217917460454 -0.0305084444635 0.785 1.97056405442e-38
0.0232445291151 -0.0305084444635 0.785 2.00751349233e-38
0.0246343890964 -0.0304307159426 0.783 1.87869170411e-38
0.0260834708079 -0.0304307159426 0.783 8.0815236619e-39
0.0275325525195 -0.0304307159426 0.783 6.70399121953e-39
0.028981634231 -0.0304307159426 0.783 1.53869465771e-38
0.0304307159426 -0.0304307159426 0.783 1.54838085309e-38
0.0318797976542 -0.0304307159426 0.783 1.45553656217e-38
0.0334140106029 -0.0305084444635 0.785 2.35014315815e-38
0.0350444588633 -0.0306639015054 0.789 1.52817076612e-38
0.0390234188631 -0.0315189152356 0.811 1.65692347032e-38
0.0405243195886 -0.0315189152356 0.811 1.71206078138e-38
-0.0262074663056 -0.0308323133007 0.833 2.31125684551e-38
-0.0246658506406 -0.0308323133007 0.833 2.34835257897e-38
-0.0231242349755 -0.0308323133007 0.833 2.34856459543e-38
-0.0216344383245 -0.0309063404635 0.835 2.34928710492e-38
-0.0200891213013 -0.0309063404635 0.835 6.06150147883e-39
-0.0185438042781 -0.0309063404635 0.835 1.02023832825e-38
-0.0169577723154 -0.0308323133007 0.833 2.13705568808e-38
-0.0154161566504 -0.0308323133007 0.833 1.68501053622e-38
-0.0138412287621 -0.0307582861379 0.831 1.49133231105e-38
-0.0122737035901 -0.0306842589751 0.829 1.84174478854e-38
-0.0107135811343 -0.0306102318124 0.827 1.89684860857e-38
-0.00916086139487 -0.0305362046496 0.825 1.5465761208e-38
-0.0076155443717 -0.0304621774868 0.823 1.78703711559e-38
-0.00606282463224 -0.0303141231612 0.819 1.57473871668e-38
-0.00453601439976 -0.0302400959984 0.817 1.30741020605e-38
-0.00300920416729 -0.0300920416729 0.813 1.43673393937e-38
-0.0015009007255 -0.0300180145101 0.811 1.63063202827e-38
0.0 -0.0300180145101 0.811 1.40936293699e-38
0.00149719936736 -0.0299439873473 0.809 1.36297771574e-38
0.00298699601845 -0.0298699601845 0.807 1.69440750359e-38
0.00446938995326 -0.0297959330217 0.805 1.60199887636e-38
0.00594438117178 -0.0297219058589 0.803 1.6478445977e-38
0.00742122306938 -0.0296848922775 0.802 1.86914535832e-38
0.00888325953442 -0.0296108651147 0.8 1.91531912363e-38
0.0103378932832 -0.0295368379519 0.798 2.09992492215e-38
0.0118147351808 -0.0295368379519 0.798 2.05364605946e-38
0.0132582648551 -0.0294628107892 0.796 1.96127414625e-38
0.0147314053946 -0.0294628107892 0.796 2.03510099532e-38
0.0161638309945 -0.0293887836264 0.794 2.04428426468e-38
0.0175444375805 -0.0292407293008 0.79 1.98903877337e-38
0.0189824152176 -0.0292037157194 0.789 1.93365105027e-38
0.0204426010036 -0.0292037157194 0.789 2.02588423493e-38
0.0218472664175 -0.0291296885566 0.787 1.88737400927e-38
0.0232445291151 -0.0290556613938 0.785 2.15481168105e-38
0.0246973121848 -0.0290556613938 0.785 1.83259318853e-38
0.0261500952545 -0.0290556613938 0.785 7.98968816575e-39
0.0276028783241 -0.0290556613938 0.785 7.53122814977e-39
0.0290556613938 -0.0290556613938 0.785 1.58475645927e-38
0.0305084444635 -0.0290556613938 0.785 1.44678797559e-38
0.0319612275332 -0.0290556613938 0.785 1.77825629915e-38
0.0334991418401 -0.0291296885566 0.787 1.86068964313e-38
0.0350444588633 -0.0292037157194 0.789 1.5278162376e-38
-0.0262074663056 -0.0292906976357 0.833 2.34845851714e-38
-0.0246658506406 -0.0292906976357 0.833 2.34852998336e-38
-0.0231797553476 -0.0293610234403 0.835 2.34827746938e-38
-0.0216862573384 -0.029431349245 0.837 2.34911166235e-38
-0.0201372389571 -0.029431349245 0.837 7.07779038749e-39
-0.0185882205758 -0.029431349245 0.837 5.32645877716e-39
-0.0169984872549 -0.0293610234403 0.835 2.2386153548e-38
-0.0154531702318 -0.0293610234403 0.835 1.83231166767e-38
-0.0138745409853 -0.0292906976357 0.833 1.56523202764e-38
-0.0122737035901 -0.0291500460264 0.829 1.39074360403e-38
-0.0107394906413 -0.0291500460264 0.829 1.63030790793e-38
-0.00918306954371 -0.0290797202217 0.827 1.63938131549e-38
-0.00763405116239 -0.0290093944171 0.825 1.74994698731e-38
-0.0060776300648 -0.0288687428078 0.821 1.52838880816e-38
-0.00454711847418 -0.0287984170032 0.819 1.57477557083e-38
-0.00303141231612 -0.0287984170032 0.819 1.45553053658e-38
-0.00150830344178 -0.0286577653939 0.815 1.31702185234e-38
0.0 -0.0285874395892 0.813 1.62047527687e-38
0.0015009007255 -0.0285171137846 0.811 1.59343147768e-38
0.00298699601845 -0.0283764621753 0.807 1.48254490851e-38
0.00446938995326 -0.0283061363706 0.805 1.55644406458e-38
0.00595918660434 -0.0283061363706 0.805 1.71299460668e-38
0.00743047646473 -0.028235810566 0.803 1.50069508674e-38
0.00890546768326 -0.0282006476636 0.802 1.69441451008e-38
0.0103638027902 -0.028130321859 0.8 1.65717107976e-38
0.0118147351808 -0.0280599960544 0.798 1.99818827144e-38
0.0132915770784 -0.0280599960544 0.798 2.02602618647e-38
0.0147314053946 -0.0279896702497 0.796 2.01651823626e-38
0.016204545934 -0.0279896702497 0.796 2.03495932405e-38
0.0175888538782 -0.0278490186404 0.792 1.99836581595e-38
0.0190064740455 -0.0277786928358 0.79 1.97985424285e-38
0.0204426010036 -0.0277435299334 0.789 1.97038440796e-38
0.0219027867896 -0.0277435299334 0.789 2.0070832937e-38
0.0233037508453 -0.0276732041288 0.787 2.09938486173e-38
0.0247602352731 -0.0276732041288 0.787 1.86014509855e-38
0.026216719701 -0.0276732041288 0.787 7.98968816575e-39
0.0276028783241 -0.0276028783241 0.785 7.25500419648e-39
0.0290556613938 -0.0276028783241 0.785 1.58464982046e-38
0.0305861729845 -0.0276732041288 0.787 1.62185219274e-38
0.0320426574123 -0.0276732041288 0.787 1.62159491434e-38
0.0335842730773 -0.0277435299334 0.789 1.40879190786e-38
-0.0248435158313 -0.0279489553102 0.839 2.32069290911e-38
-0.0232907960918 -0.0279489553102 0.839 2.34831446366e-38
-0.0217380763524 -0.0279489553102 0.839 2.3489649464e-38
-0.0201853566129 -0.0279489553102 0.839 1.31633563649e-38
-0.0186326368734 -0.0279489553102 0.839 4.49993931174e-39
-0.0170392021945 -0.0278823308637 0.837 2.25661713553e-38
-0.0154901838131 -0.0278823308637 0.837 1.20501802791e-38
-0.0139078532086 -0.0278157064172 0.835 1.51023862993e-38
-0.0123329253203 -0.0277490819706 0.833 1.5751317809e-38
-0.0107394906413 -0.0276158330776 0.829 1.42754940885e-38
-0.00918306954371 -0.0275492086311 0.827 1.46442569897e-38
-0.00765255795309 -0.0275492086311 0.827 1.48250805436e-38
-0.00609243549736 -0.0274159597381 0.823 1.74086615287e-38
-0.00456932662302 -0.0274159597381 0.823 1.80573001671e-38
-0.0030388150324 -0.0273493352916 0.821 1.49179796253e-38
-0.00151570615806 -0.0272827108451 0.819 1.51023891019e-38
0.0 -0.0272160863986 0.817 1.49179950396e-38
0.00150830344178 -0.0271494619521 0.815 1.43666205276e-38
0.00300920416729 -0.0270828375056 0.813 1.54711632135e-38
0.00450270217651 -0.0270162130591 0.811 1.39978338043e-38
0.0059739920369 -0.026882964166 0.807 1.61179857691e-38
0.00744898325543 -0.0268163397195 0.805 1.44598853482e-38
0.00893877990651 -0.0268163397195 0.805 1.59328700381e-38
0.0104026670506 -0.026749715273 0.803 1.67593838983e-38
0.0118443460459 -0.0266497786033 0.8 1.73114156192e-38
0.0132915770784 -0.0265831541568 0.798 1.85071001586e-38
0.014768418976 -0.0265831541568 0.798 1.92450365416e-38
0.016204545934 -0.0265165297102 0.796 1.93422558264e-38
0.0176332701758 -0.0264499052637 0.794 1.9618119646e-38
0.0190545917013 -0.0263832808172 0.792 2.03517134051e-38
0.0204685105106 -0.0263166563707 0.79 2.06265108365e-38
0.0219027867896 -0.0262833441475 0.789 2.05332432133e-38
0.0233629725755 -0.0262833441475 0.789 2.08101608094e-38
0.0248231583615 -0.0262833441475 0.789 1.86925676155e-38
0.0262833441475 -0.0262833441475 0.789 8.72437213501e-39
0.0277435299334 -0.0262833441475 0.789 7.4386751888e-39
0.0292037157194 -0.0262833441475 0.789 1.61212872283e-38
0.0306639015054 -0.0262833441475 0.789 1.63099944873e-38
0.0321648022309 -0.0263166563707 0.79 1.58439520453e-38
-0.0248435158313 -0.0263962355707 0.839 2.30218343795e-38
-0.0232907960918 -0.0263962355707 0.839 2.34824369808e-38
-0.0217380763524 -0.0263962355707 0.839 2.34892542979e-38
-0.0201853566129 -0.0263962355707 0.839 1.6755753134e-38
-0.0186326368734 -0.0263962355707 0.839 5.6938007618e-39
-0.017079917134 -0.0263962355707 0.839 2.31144111625e-38
-0.0154901838131 -0.0263333124823 0.837 1.6294049112e-38
-0.0139411654318 -0.0263333124823 0.837 1.30714914414e-38
-0.0123625361854 -0.026270389394 0.835 1.49154166504e-38
-0.0107913096553 -0.0262074663056 0.833 1.63009322901e-38
-0.00924969399022 -0.0262074663056 0.833 1.61179283159e-38
-0.00767106474379 -0.0260816201289 0.829 1.52853328203e-38
-0.00612204636247 -0.0260186970405 0.827 1.41811306499e-38
-0.00458043069744 -0.0259557739521 0.825 1.41811558733e-38
-0.00305362046496 -0.0259557739521 0.825 1.79611192444e-38
-0.00152681023248 -0.0259557739521 0.825 1.77778616351e-38
0.0 -0.0258928508638 0.823 1.50094493825e-38
0.0015194075162 -0.0258299277754 0.821 1.63909194736e-38
0.00303141231612 -0.025767004687 0.819 1.42744220951e-38
0.00454711847418 -0.025767004687 0.819 1.61183332911e-38
0.00603321376713 -0.0256411585103 0.815 1.59339112028e-38
0.00752301041821 -0.0255782354219 0.813 1.39056199575e-38
0.00902761250186 -0.0255782354219 0.813 1.77767854379e-38
0.0105063050785 -0.0255153123336 0.811 1.55626609968e-38
0.0119775949389 -0.0254523892452 0.809 1.60222000126e-38
0.0133248893016 -0.0251692353475 0.8 1.63009140732e-38
0.0148054325574 -0.0251692353475 0.8 1.68551388262e-38
0.016204545934 -0.0250433891708 0.796 1.34435880317e-38
0.0176776864735 -0.0250433891708 0.796 1.91564380449e-38
0.0190545917013 -0.0249175429941 0.792 2.06286618297e-38
0.0205203295245 -0.0249175429941 0.792 2.04439118375e-38
0.0219305469756 -0.0248546199057 0.79 2.00744510896e-38
0.0233925834406 -0.0248546199057 0.79 2.13640730728e-38
0.0248546199057 -0.0248546199057 0.79 1.85074687001e-38
0.0263166563707 -0.0248546199057 0.79 8.81620763117e-39
0.0277435299334 -0.0248231583615 0.789 7.89892886681e-39
0.0292037157194 -0.0248231583615 0.789 1.62120535337e-38
0.0307027657658 -0.0248546199057 0.79 1.6400372633e-38
0.0321648022309 -0.0248546199057 0.79 1.53771374879e-38
-0.0217898953663 -0.0249027375615 0.841 2.34831488404e-38
-0.0202334742687 -0.0249027375615 0.841 2.1548499365e-38
-0.0186770531711 -0.0249027375615 0.841 7.71418167727e-39
-0.017079917134 -0.0248435158313 0.839 2.34795853385e-38
-0.0155271973945 -0.0248435158313 0.839 1.78642488829e-38
-0.0139744776551 -0.0248435158313 0.839 1.78664208955e-38
-0.0123921470505 -0.024784294101 0.837 1.63905481295e-38
-0.0108431286692 -0.024784294101 0.837 1.57430459442e-38
-0.00927190213905 -0.0247250723708 0.835 1.58387602345e-38
-0.00770807832518 -0.0246658506406 0.833 1.58352822117e-38
-0.00613685179503 -0.0245474071801 0.829 1.70352140867e-38
-0.00459153477185 -0.0244881854499 0.827 1.55619028943e-38
-0.00306102318124 -0.0244881854499 0.827 1.49183425616e-38
-0.00152681023248 -0.0244289637197 0.825 1.39949597411e-38
0.0 -0.0244289637197 0.825 1.8239485783e-38
0.00152310887434 -0.0243697419894 0.823 1.77781881377e-38
0.0030388150324 -0.0243105202592 0.821 1.66696769745e-38
0.00454711847418 -0.024251298529 0.819 1.54697016592e-38
0.00604801919968 -0.0241920767987 0.817 1.54678687608e-38
0.00754151720891 -0.0241328550685 0.815 1.46449856649e-38
0.00902761250186 -0.0240736333383 0.813 1.47353806263e-38
0.0105322145855 -0.0240736333383 0.813 1.4180427198e-38
0.012007205804 -0.0240144116081 0.811 1.75030726115e-38
0.0135081065295 -0.0240144116081 0.811 1.32606583263e-38
0.0149719936736 -0.0239551898778 0.809 1.6487488556e-38
0.0164284781015 -0.0238959681476 0.807 1.3906364047e-38
0.0178331435154 -0.0237775246871 0.803 1.56544334345e-38
0.0192951799804 -0.023747913822 0.802 2.05386662384e-38
0.0206239675524 -0.0235702486313 0.796 2.06286618297e-38
0.0220415877198 -0.0235110269011 0.794 1.98903905363e-38
0.0235110269011 -0.0235110269011 0.794 2.07190750079e-38
0.0249175429941 -0.0234518051709 0.792 1.94294474195e-38
0.0263832808172 -0.0234518051709 0.792 8.44886564654e-39
0.0278490186404 -0.0234518051709 0.792 7.99506915185e-39
0.0293147564636 -0.0234518051709 0.792 1.63045896791e-38
0.0307804942868 -0.0234518051709 0.792 1.46424969589e-38
0.0324905217471 -0.0236294703616 0.798 1.65692347032e-38
0.0346058479238 -0.0240736333383 0.813 1.69383549356e-38
-0.0202815919245 -0.023401836836 0.843 2.26552070571e-38
-0.0187214694688 -0.023401836836 0.843 7.34683969264e-39
-0.0171613470131 -0.023401836836 0.843 2.34742337796e-38
-0.0155642109759 -0.0233463164639 0.841 1.74965888035e-38
-0.0140077898783 -0.0233463164639 0.841 1.7863545431e-38
-0.0124513687807 -0.0233463164639 0.841 1.77713357882e-38
-0.0108690381762 -0.0232907960918 0.839 1.8323437574e-38
-0.00929411028789 -0.0232352757197 0.837 1.72195829257e-38
-0.00772658511588 -0.0231797553476 0.835 1.35281662032e-38
-0.00613685179503 -0.0230131942314 0.829 1.51873568343e-38
-0.00460263884627 -0.0230131942314 0.829 1.6296945596e-38
-0.00306102318124 -0.0229576738593 0.827 1.67632823106e-38
-0.00153051159062 -0.0229576738593 0.827 1.49172761734e-38
0.0 -0.0229021534872 0.825 1.64878416832e-38
0.00152681023248 -0.0229021534872 0.825 1.62126588946e-38
0.00304621774868 -0.0228466331151 0.823 1.67625956744e-38
0.0045582225486 -0.022791112743 0.821 1.85121826681e-38
0.0060776300648 -0.022791112743 0.821 1.78682173601e-38
0.00756002399961 -0.0226800719988 0.817 1.51034302666e-38
0.00904982065069 -0.0226245516267 0.815 1.49197915042e-38
0.0105581240925 -0.0226245516267 0.815 1.48301027973e-38
0.0120368166691 -0.0225690312546 0.813 1.36297743548e-38
0.0135414187528 -0.0225690312546 0.813 1.66682700708e-38
0.015009007255 -0.0225135108825 0.811 1.43669736548e-38
0.0165099079805 -0.0225135108825 0.811 1.51985490051e-38
0.0179663924084 -0.0224579905105 0.809 1.5382917844e-38
0.0194154741199 -0.0224024701384 0.807 1.53803997107e-38
0.0206239675524 -0.0220971080919 0.796 1.8975952204e-38
0.0220971080919 -0.0220971080919 0.796 2.0540073142e-38
0.0236294703616 -0.022152628464 0.798 2.11818874569e-38
0.0251063122592 -0.022152628464 0.798 1.90606817156e-38
0.0265831541568 -0.022152628464 0.798 8.63253663885e-39
0.0278490186404 -0.0219860673477 0.792 7.99040563056e-39
0.0293147564636 -0.0219860673477 0.792 1.43594781093e-38
0.0308582228077 -0.0220415877198 0.794 1.62036933871e-38
0.0324905217471 -0.022152628464 0.798 1.65674242256e-38
0.0346058479238 -0.0225690312546 0.813 1.64748880802e-38
-0.0206424743431 -0.0222303569849 0.858 2.34878487955e-38
-0.0187658857665 -0.0218935333942 0.845 5.23462328101e-39
-0.0172020619526 -0.0218935333942 0.845 2.24589972461e-38
-0.0156012245573 -0.0218417143803 0.843 1.0581894143e-38
-0.0140411021016 -0.0218417143803 0.843 1.76751744837e-38
-0.0124513687807 -0.0217898953663 0.841 1.8420277107e-38
-0.0108690381762 -0.0217380763524 0.839 1.74011253456e-38
-0.00929411028789 -0.0216862573384 0.837 1.93365301209e-38
-0.00772658511588 -0.0216344383245 0.835 1.8602167049e-38
-0.00615165722759 -0.0215308002966 0.831 1.54697310865e-38
-0.00460263884627 -0.0214789812826 0.829 1.39866178113e-38
-0.00306842589751 -0.0214789812826 0.829 1.60152495722e-38
-0.00153421294876 -0.0214789812826 0.829 1.62047906038e-38
0.0 -0.0214271622687 0.827 1.70381063667e-38
0.00152681023248 -0.0213753432547 0.825 1.54729512704e-38
0.00305362046496 -0.0213753432547 0.825 1.67651096038e-38
0.00456932662302 -0.0213235242407 0.823 1.76849205145e-38
0.0060776300648 -0.0212717052268 0.821 1.60235788902e-38
0.007597037581 -0.0212717052268 0.821 1.82362894213e-38
0.00907202879953 -0.0211680671989 0.817 1.83306430508e-38
0.0105840335994 -0.0211680671989 0.817 1.51012946878e-38
0.0120664275343 -0.0211162481849 0.815 1.45484838449e-38
0.0135414187528 -0.021064429171 0.813 1.66696923888e-38
0.0150460208364 -0.021064429171 0.813 1.35364646927e-38
0.0165099079805 -0.021012610157 0.811 1.5380415125e-38
0.0179663924084 -0.0209607911431 0.809 1.4917992237e-38
0.0194635917757 -0.0209607911431 0.809 1.58442897582e-38
0.0209089721291 -0.0209089721291 0.807 1.23408488169e-38
0.0223469497663 -0.0208571531152 0.805 1.51949392603e-38
0.023747913822 -0.0207794245943 0.802 1.7312936028e-38
0.0252321584359 -0.0207794245943 0.802 1.97128334092e-38
0.0266497786033 -0.0207276055803 0.8 7.98968816575e-39
0.0279896702497 -0.0206239675524 0.796 7.81068069472e-39
0.0294628107892 -0.0206239675524 0.796 1.55536156152e-38
0.0310136798495 -0.0206757865664 0.798 1.62033262469e-38
0.0325719516262 -0.0207276055803 0.8 1.78578071138e-38
0.0346058479238 -0.021064429171 0.813 1.68433006568e-38
-0.0206424743431 -0.0206424743431 0.858 2.34896522666e-38
-0.0190545917013 -0.0206424743431 0.858 5.32645877716e-39
-0.0173242067712 -0.0204740625478 0.851 1.7207809216e-38
-0.0157122653015 -0.020425944892 0.849 1.80536834158e-38
-0.0141077265481 -0.0203778272361 0.847 1.26995363822e-38
-0.012510590511 -0.0203297095803 0.845 9.38121117198e-39
-0.0109208571901 -0.0202815919245 0.843 1.66678188527e-38
-0.00933852658556 -0.0202334742687 0.841 2.00769678217e-38
-0.00776359869727 -0.0201853566129 0.839 1.703483994e-38
-0.00616646266014 -0.0200410036455 0.833 1.77728001451e-38
-0.00462484699511 -0.0200410036455 0.833 1.92478867826e-38
-0.00307582861379 -0.0199928859897 0.831 1.67589214698e-38
-0.0015379143069 -0.0199928859897 0.831 1.47227661375e-38
0.0 -0.0199447683338 0.829 1.51844883763e-38
0.00153421294876 -0.0199447683338 0.829 1.63927621811e-38
0.00306102318124 -0.019896650678 0.827 1.5566216091e-38
0.00458043069744 -0.0198485330222 0.825 1.55604805764e-38
0.00610724092991 -0.0198485330222 0.825 1.86068361755e-38
0.0076155443717 -0.0198004153664 0.823 1.56584131221e-38
0.0091164450972 -0.0197522977106 0.821 1.67600873501e-38
0.0105840335994 -0.019656062399 0.817 1.76824163941e-38
0.0120960383994 -0.019656062399 0.817 1.72257766649e-38
0.013574730976 -0.0196079447432 0.815 1.56573593457e-38
0.0150460208364 -0.0195598270874 0.813 1.74090342741e-38
0.0165506229201 -0.0195598270874 0.813 1.44559224761e-38
0.018010808706 -0.0195117094315 0.811 1.56519727544e-38
0.0195117094315 -0.0195117094315 0.811 1.75019908091e-38
0.0209607911431 -0.0194635917757 0.809 1.43640995917e-38
0.0224579905105 -0.0194635917757 0.809 1.75920214328e-38
0.0238367464174 -0.0193673564641 0.805 1.53821975766e-38
0.0253265430684 -0.0193673564641 0.805 1.98990393505e-38
0.026749715273 -0.0193192388083 0.803 7.71418167727e-39
0.028235810566 -0.0193192388083 0.803 7.5330218118e-39
0.0298699601845 -0.0194154741199 0.807 1.6384085341e-38
0.0314411867146 -0.0194635917757 0.809 1.62022444445e-38
0.0330198159611 -0.0195117094315 0.811 1.70262443752e-38
0.0346058479238 -0.0195598270874 0.813 1.74875980725e-38
-0.0206424743431 -0.0190545917013 0.858 2.34882005214e-38
-0.0190545917013 -0.0190545917013 0.858 5.78671245517e-39
-0.0173852791805 -0.018965759106 0.854 1.33363116278e-38
-0.015804799255 -0.018965759106 0.854 1.94359158132e-38
-0.0141743509946 -0.0188991346595 0.851 1.90577740213e-38
-0.0125698122412 -0.0188547183618 0.849 1.71267272842e-38
-0.0109467666971 -0.0187658857665 0.845 1.15045482882e-38
-0.00938294288323 -0.0187658857665 0.845 1.07591023468e-38
-0.00780061227866 -0.0187214694688 0.843 1.54697016592e-38
-0.00619607352526 -0.0185882205758 0.837 1.88805349889e-38
-0.00463595106953 -0.0185438042781 0.835 1.82319187713e-38
-0.00308323133007 -0.0184993879804 0.833 1.5468587627e-38
-0.0015379143069 -0.0184549716828 0.831 2.2190628972e-38
0.0 -0.0184549716828 0.831 1.82287210082e-38
0.00153421294876 -0.0184105553851 0.829 1.40845517584e-38
0.00306842589751 -0.0184105553851 0.829 1.43600582469e-38
0.00459153477185 -0.0183661390874 0.827 1.85089722933e-38
0.00612204636247 -0.0183661390874 0.827 1.47310492127e-38
0.0076155443717 -0.0182773064921 0.823 1.51924211269e-38
0.00913865324604 -0.0182773064921 0.823 1.74104818154e-38
0.0106358526134 -0.0182328901944 0.821 1.77785678896e-38
0.0120960383994 -0.0181440575991 0.817 1.48243322502e-38
0.0136080431993 -0.0181440575991 0.817 1.84195764578e-38
0.0150830344178 -0.0180996413014 0.815 1.77781699208e-38
0.0165913378596 -0.0180996413014 0.815 1.93440536924e-38
0.0180552250037 -0.0180552250037 0.813 1.75005138405e-38
0.0195598270874 -0.0180552250037 0.813 1.59317588084e-38
0.021012610157 -0.018010808706 0.811 1.83284724394e-38
0.0225135108825 -0.018010808706 0.811 1.78682145575e-38
0.0239551898778 -0.0179663924084 0.809 1.96199343275e-38
0.0253894661568 -0.0179219761107 0.807 1.95266625004e-38
0.0268163397195 -0.017877559813 0.805 7.4386751888e-39
0.0283061363706 -0.017877559813 0.805 7.90036379644e-39
0.0299439873473 -0.0179663924084 0.809 1.70237290445e-38
0.0314411867146 -0.0179663924084 0.809 1.64791914677e-38
0.0330198159611 -0.018010808706 0.811 1.71205938008e-38
0.0346058479238 -0.0180552250037 0.813 1.66592667282e-38
-0.0206424743431 -0.0174667090596 0.858 2.34849621207e-38
-0.0190545917013 -0.0174667090596 0.858 8.73621030444e-39
-0.0174667090596 -0.0174667090596 0.858 6.88766221185e-39
-0.0158418128364 -0.01742599412 0.856 2.21084778495e-38
-0.0142243193295 -0.0173852791805 0.854 1.73975352189e-38
-0.0125994231063 -0.0173242067712 0.851 1.86914970235e-38
-0.0109726762041 -0.0172427768921 0.847 1.97996438491e-38
-0.00940515103207 -0.0172427768921 0.847 1.77749651512e-38
-0.00781911906936 -0.0172020619526 0.845 9.66496850581e-39
-0.00624048982293 -0.0171613470131 0.843 1.26015519884e-38
-0.00466926329278 -0.0171206320735 0.841 1.82316469194e-38
-0.00309803676263 -0.0170392021945 0.837 1.70351930672e-38
-0.00154531702318 -0.0169984872549 0.835 2.10839114709e-38
0.0 -0.0169577723154 0.833 1.74882987218e-38
0.00154161566504 -0.0169577723154 0.833 1.88766239649e-38
0.00307582861379 -0.0169170573759 0.831 1.58355918987e-38
0.00460263884627 -0.0168763424363 0.829 1.51837989375e-38
0.00613685179503 -0.0168763424363 0.829 1.49071952323e-38
0.00763405116239 -0.0167949125573 0.825 1.73114884867e-38
0.00913865324604 -0.0167541976177 0.823 1.51002226945e-38
0.0106617621204 -0.0167541976177 0.823 1.68479936054e-38
0.0121256492645 -0.0166727677387 0.819 1.68501347894e-38
0.0136413554225 -0.0166727677387 0.819 1.74061854344e-38
0.0151200479992 -0.0166320527991 0.817 1.72224948239e-38
0.0166320527991 -0.0166320527991 0.817 1.60239572408e-38
0.0180996413014 -0.0165913378596 0.815 1.68577032024e-38
0.0196079447432 -0.0165913378596 0.815 1.85153874377e-38
0.021064429171 -0.0165506229201 0.813 1.86976305069e-38
0.0225690312546 -0.0165506229201 0.813 1.7683495394e-38
0.0240144116081 -0.0165099079805 0.811 2.02638800173e-38
0.0254523892452 -0.016469193041 0.809 2.06312374162e-38
0.0269495886125 -0.016469193041 0.809 7.16316870032e-39
0.0284467879799 -0.016469193041 0.809 8.26985817551e-39
0.0299439873473 -0.016469193041 0.809 1.50912207531e-38
0.0315189152356 -0.0165099079805 0.811 1.65721087663e-38
0.0331012458401 -0.0165506229201 0.813 1.72138628253e-38
0.034690979161 -0.0165913378596 0.815 1.69376514837e-38
-0.0206905919989 -0.0159158399992 0.86 2.34835285923e-38
-0.019099007999 -0.0159158399992 0.86 1.35285431524e-38
-0.0175074239991 -0.0159158399992 0.86 6.06114274643e-39
-0.0158788264178 -0.0158788264178 0.858 2.19237334626e-38
-0.0142576315527 -0.0158418128364 0.856 1.68418334973e-38
-0.012643839404 -0.015804799255 0.854 1.78599735213e-38
-0.011024495218 -0.0157492788829 0.851 1.528384324e-38
-0.00944956732974 -0.0157492788829 0.851 1.84188575917e-38
-0.00783762586006 -0.0156752517201 0.847 1.84209987757e-38
-0.00627010068805 -0.0156752517201 0.847 1.57466430773e-38
-0.00469147144162 -0.0156382381387 0.845 1.4174628625e-38
-0.00311284219519 -0.0155642109759 0.841 1.5463160398e-38
-0.00155271973945 -0.0155271973945 0.839 1.82287210082e-38
0.0 -0.0154901838131 0.837 1.9429116713e-38
0.00154531702318 -0.0154531702318 0.835 1.83245221791e-38
0.00309063404635 -0.0154531702318 0.835 1.70344531816e-38
0.00462484699511 -0.0154161566504 0.833 1.86014243608e-38
0.00616646266014 -0.0154161566504 0.833 1.90667030951e-38
0.00767106474379 -0.0153421294876 0.829 1.32548807727e-38
0.00918306954371 -0.0153051159062 0.827 1.62932938122e-38
0.0106876716274 -0.0152681023248 0.825 1.82297775873e-38
0.0121848709947 -0.0152310887434 0.823 1.55604175179e-38
0.0136746676458 -0.015194075162 0.821 1.67625760562e-38
0.015194075162 -0.015194075162 0.821 1.60214503179e-38
0.0166727677387 -0.0151570615806 0.819 1.7498751007e-38
0.0181884738967 -0.0151570615806 0.819 1.62140910217e-38
0.019656062399 -0.0151200479992 0.817 1.59321063304e-38
0.0211680671989 -0.0151200479992 0.817 1.73132288994e-38
0.0226245516267 -0.0150830344178 0.815 1.74083532431e-38
0.0240736333383 -0.0150460208364 0.813 1.94337508071e-38
0.0255153123336 -0.015009007255 0.811 2.02617262216e-38
0.0270162130591 -0.015009007255 0.811 6.79582671569e-39
0.0285171137846 -0.015009007255 0.811 9.00490087718e-39
0.0300180145101 -0.015009007255 0.811 1.79543271508e-38
0.0315966437565 -0.0150460208364 0.813 1.62040296987e-38
0.0333455354773 -0.0151570615806 0.819 1.63851909655e-38
0.0348612416354 -0.0151570615806 0.819 1.68433006568e-38
-0.0206905919989 -0.0143242559993 0.86 2.34820908601e-38
-0.019099007999 -0.0143242559993 0.86 1.76773268781e-38
-0.0175074239991 -0.0143242559993 0.86 6.42848473106e-39
-0.0159528535806 -0.0143575682225 0.862 2.26601844692e-38
-0.0143242559993 -0.0143242559993 0.86 1.73968051424e-38
-0.0127030611342 -0.014290943776 0.858 1.90645801279e-38
-0.0110633594785 -0.0142243193295 0.854 1.97124410456e-38
-0.00948287955299 -0.0142243193295 0.854 1.74958377075e-38
-0.00787463944145 -0.0141743509946 0.851 1.57444906829e-38
-0.0062849061206 -0.0141410387714 0.849 1.87876359072e-38
-0.00470257551603 -0.0141077265481 0.847 1.92461169427e-38
-0.00312764762774 -0.0140744143248 0.845 1.81404882504e-38
-0.00156382381387 -0.0140744143248 0.845 1.38977292459e-38
0.0 -0.0140077898783 0.841 1.48171267735e-38
0.00155271973945 -0.0139744776551 0.839 1.5373583795e-38
0.00309803676263 -0.0139411654318 0.837 1.86021544373e-38
0.00463595106953 -0.0139078532086 0.835 1.90634787073e-38
0.00616646266014 -0.0138745409853 0.833 1.72220842434e-38
0.00768957153448 -0.0138412287621 0.831 2.0627254926e-38
0.00920527769254 -0.0138079165388 0.829 1.9247578497e-38
0.0107135811343 -0.0137746043156 0.827 1.46356600237e-38
0.0122144818598 -0.0137412920923 0.825 1.47227367102e-38
0.0137079798691 -0.0137079798691 0.823 1.62043576025e-38
0.015194075162 -0.0136746676458 0.821 1.74036869192e-38
0.0167134826782 -0.0136746676458 0.821 1.57477010577e-38
0.0181884738967 -0.0136413554225 0.819 1.66668099178e-38
0.0197041800548 -0.0136413554225 0.819 1.82337754918e-38
0.0211680671989 -0.0136080431993 0.817 1.69484639027e-38
0.0226800719988 -0.0136080431993 0.817 1.4180764911e-38
0.0241328550685 -0.013574730976 0.815 1.95251981435e-38
0.0255782354219 -0.0135414187528 0.813 2.05408368497e-38
0.0270828375056 -0.0135414187528 0.813 6.97949770801e-39
0.0285874395892 -0.0135414187528 0.813 7.8096044975e-39
0.0301660688356 -0.013574730976 0.815 1.61989724125e-38
0.0317521007983 -0.0136080431993 0.817 1.68490515857e-38
0.0333455354773 -0.0136413554225 0.819 1.65703066965e-38
0.0349463728726 -0.0136746676458 0.821 1.71198875464e-38
-0.0191878405943 -0.0127918937296 0.864 2.13654981934e-38
-0.0175888538782 -0.0127918937296 0.864 8.0815236619e-39
-0.015989867162 -0.0127918937296 0.864 2.34842558662e-38
-0.0143908804458 -0.0127918937296 0.864 1.74950964206e-38
-0.0127326719993 -0.0127326719993 0.86 1.68511941711e-38
-0.0111410879994 -0.0127326719993 0.86 1.78621020936e-38
-0.00952729585067 -0.0127030611342 0.858 1.97967725885e-38
-0.0079023996275 -0.012643839404 0.854 1.62994497163e-38
-0.00629971155316 -0.0125994231063 0.851 1.8045383525e-38
-0.00471367959045 -0.0125698122412 0.849 1.77670338019e-38
-0.0031424530603 -0.0125698122412 0.849 1.77688316678e-38
-0.00156752517201 -0.0125402013761 0.847 1.96116722718e-38
0.0 -0.012510590511 0.845 1.86947368255e-38
0.00156012245573 -0.0124809796459 0.843 1.19651915272e-38
0.00310543947891 -0.0124217579156 0.839 1.25086402951e-38
