# .PCD v0.7 - Point Cloud Data file format
VERSION 0.7
FIELDS x y z rgb
SIZE 4 4 4 4
TYPE F F F F
COUNT 1 1 1 1
WIDTH 841
HEIGHT 1
VIEWPOINT 0 0 0 1 0 0 0
POINTS 841
DATA ascii
0.0185438042781 -0.0386329255794 0.835 2.01658984261e-38
0.0200410036455 -0.0385403916259 0.833 2.13637353599e-38
0.0215826193105 -0.0385403916259 0.833 2.11793314885e-38
0.0230687146034 -0.0384478576724 0.831 2.15492056194e-38
0.0245474071801 -0.0383553237189 0.829 2.26555601843e-38
0.0260186970405 -0.0382627897654 0.827 1.83230872494e-38
0.0274825841846 -0.038170255812 0.825 1.28569708634e-38
0.0289390686124 -0.0380777218585 0.823 2.34533950702e-38
0.0304621774868 -0.0380777218585 0.823 1.95155544075e-38
0.0319075578402 -0.037985187905 0.821 1.76625936261e-38
0.0333455354773 -0.0378926539515 0.819 1.83148027729e-38
0.0347761103982 -0.037800119998 0.817 1.13116077066e-38
0.0361992826028 -0.0377075860445 0.815 9.55089160043e-39
0.0376150520911 -0.0376150520911 0.813 8.44886564654e-39
0.0391196541747 -0.0376150520911 0.813 9.46552169539e-39
0.0405243195886 -0.0375225181376 0.811 6.70399121953e-39
0.0419215822862 -0.0374299841841 0.809 8.63253663885e-39
0.0434187816536 -0.0374299841841 0.809 1.76704899429e-38
0.0448049402767 -0.0373374502306 0.807 1.93331656033e-38
0.0461836961836 -0.0372449162771 0.805 2.02468570436e-38
0.0475550493743 -0.0371523823236 0.803 1.98787975941e-38
0.0489800722579 -0.0371061153469 0.802 1.94207369482e-38
0.0503384706951 -0.0370135813934 0.8 2.2553160299e-38
0.0516894664159 -0.0369210474399 0.798 1.56443202635e-38
0.0531663083135 -0.0369210474399 0.798 5.14278778485e-39
0.0543692497088 -0.036735979533 0.794 9.10715642872e-39
0.0555573856715 -0.036550911626 0.79 1.26174272987e-38
0.0570194221366 -0.036550911626 0.79 1.28979756591e-38
0.0584814586016 -0.036550911626 0.79 8.29073472003e-39
0.0598676172248 -0.0365046446493 0.789 1.31720233959e-38
0.0613278030108 -0.0365046446493 0.789 7.91370275652e-39
0.0627879887967 -0.0365046446493 0.789 1.15021100289e-38
0.0640853148246 -0.0364121106958 0.787 9.84507179224e-39
0.0655417992524 -0.0364121106958 0.787 6.81234241939e-39
0.0668280212058 -0.0363195767423 0.785 1.35360989538e-38
0.0682808042755 -0.0363195767423 0.785 4.69078495219e-39
0.0697335873452 -0.0363195767423 0.785 5.88644006428e-39
0.0711863704149 -0.0363195767423 0.785 2.93873587706e-39
0.0724540855776 -0.0362270427888 0.783 1.46316817373e-38
0.0739031672892 -0.0362270427888 0.783 1.85034175462e-38
0.0753522490007 -0.0362270427888 0.783 1.92305681349e-38
0.0768013307123 -0.0362270427888 0.783 1.88607150234e-38
0.0780505390843 -0.0361345088353 0.781 2.03351052157e-38
0.0794959194377 -0.0361345088353 0.781 2.34838060494e-38
0.0809412997911 -0.0361345088353 0.781 2.30217601107e-38
0.0823866801445 -0.0361345088353 0.781 2.34820235978e-38
0.0842614180421 -0.0363195767423 0.785 1.73092758365e-38
0.0857142011118 -0.0363195767423 0.785 1.47339344863e-38
0.0871669841815 -0.0363195767423 0.785 2.33016610711e-38
-0.0350944271982 -0.0401079167979 0.903 2.35011807491e-38
-0.0333492368355 -0.0400190842026 0.901 7.98968816575e-39
-0.0315762862867 -0.0398858353096 0.898 1.07594652831e-38
-0.0299143764822 -0.0398858353096 0.898 1.0669419245e-38
-0.0280322358683 -0.0395749212258 0.891 1.00262162434e-38
-0.026324059087 -0.0394860886305 0.889 9.93547095747e-39
-0.024623285022 -0.0393972560352 0.887 6.70686107879e-39
-0.0229817326872 -0.0393972560352 0.887 1.3331627087e-38
-0.0213882980082 -0.0394860886305 0.889 2.18258499623e-38
-0.0196986280176 -0.0393972560352 0.887 1.07479816421e-38
-0.0179145733944 -0.0390863419515 0.88 2.25575771918e-38
-0.0161934418596 -0.0388642604631 0.875 2.01648292354e-38
-0.0145407854504 -0.0387754278677 0.873 2.0809116842e-38
-0.0129251426226 -0.0387754278677 0.873 1.86954795137e-38
-0.0113094997948 -0.0387754278677 0.873 7.53090024593e-39
-0.00969385696694 -0.0387754278677 0.873 4.49993931174e-39
-0.00804120055772 -0.0385977626771 0.869 1.93196514809e-38
-0.00643296044618 -0.0385977626771 0.869 2.34871173177e-38
-0.00482472033463 -0.0385977626771 0.869 3.30607786169e-39
-0.00319057071611 -0.0382868485934 0.862 2.93873587706e-39
-0.00159528535806 -0.0382868485934 0.862 1.90412723306e-38
0.0 -0.0381091834027 0.858 2.28391681182e-38
0.00158418128364 -0.0380203508073 0.856 2.34899997886e-38
0.00316836256728 -0.0380203508073 0.856 4.86728129637e-39
0.0047414397765 -0.037931518212 0.854 1.19386145005e-39
0.00629971155316 -0.037798269319 0.851 2.08981483399e-38
0.00785613265075 -0.0377094367236 0.849 2.28435443733e-38
0.00940515103207 -0.0376206041283 0.847 1.15956663196e-38
0.0109467666971 -0.0375317715329 0.845 1.95252401825e-38
0.0124809796459 -0.0374429389376 0.843 2.0539739633e-38
0.0139744776551 -0.0372652737469 0.839 2.01673445661e-38
0.0154901838131 -0.0371764411516 0.837 2.03484918199e-38
0.0170392021945 -0.0371764411516 0.837 2.00744300701e-38
0.0185438042781 -0.0370876085562 0.835 2.06286786452e-38
0.0200410036455 -0.0369987759609 0.833 1.97978389767e-38
0.0215826193105 -0.0369987759609 0.833 2.03484918199e-38
0.0231242349755 -0.0369987759609 0.833 2.09034536559e-38
0.0246658506406 -0.0369987759609 0.833 1.12961247598e-38
0.0260816201289 -0.0368211107702 0.829 1.89335853462e-38
0.0276158330776 -0.0368211107702 0.829 1.83071909197e-38
0.0290797202217 -0.0367322781748 0.827 1.77404890051e-38
0.0306102318124 -0.0367322781748 0.827 1.37753244237e-38
0.0319852863611 -0.0365546129841 0.823 1.51528764842e-38
0.0335083952355 -0.0365546129841 0.823 2.16252106469e-38
0.0349463728726 -0.0364657803888 0.821 2.12687105084e-38
0.0364657803888 -0.0364657803888 0.821 1.79502984177e-38
0.037800119998 -0.0362881151981 0.817 1.76770270002e-38
0.0392158894863 -0.0361992826028 0.815 1.27859964975e-38
0.0406242562583 -0.0361104500074 0.813 7.62234618111e-39
0.042128858342 -0.0361104500074 0.813 1.74919322887e-38
0.0435261210396 -0.0360216174121 0.811 1.15838281501e-38
0.0450270217651 -0.0360216174121 0.811 1.36153395793e-38
0.0464131803883 -0.0359327848167 0.809 1.997319046e-38
0.0477919362952 -0.0358439522214 0.807 1.92363078534e-38
0.0491632894858 -0.035755119626 0.805 1.99717092875e-38
0.0505272399602 -0.0356662870307 0.803 2.05248746589e-38
0.0519485614857 -0.035621870733 0.802 2.17226821654e-38
0.0532995572065 -0.0355330381377 0.8 1.39834228508e-38
0.0546431502111 -0.0354442055423 0.798 9.19861637689e-39
0.0559793404994 -0.035355372947 0.796 1.65879280247e-38
0.0574524810389 -0.035355372947 0.796 1.13255408172e-38
0.0584814586016 -0.035088875161 0.79 6.15835922869e-39
0.0599434950666 -0.035088875161 0.79 1.40918469182e-38
0.0613278030108 -0.0350444588633 0.789 1.19748646905e-38
0.0627879887967 -0.0350444588633 0.789 8.65406899105e-39
0.0642481745827 -0.0350444588633 0.789 8.93064887415e-39
0.0655417992524 -0.0349556262679 0.787 1.12365990024e-38
0.0669982836802 -0.0349556262679 0.787 1.43640771709e-38
0.0682808042755 -0.0348667936726 0.785 1.0313197965e-38
0.0697335873452 -0.0348667936726 0.785 1.59385088631e-38
0.0711863704149 -0.0348667936726 0.785 1.16010473057e-38
0.0724540855776 -0.0347779610773 0.783 6.89950038128e-39
0.0739031672892 -0.0347779610773 0.783 1.88772727661e-38
0.0753522490007 -0.0347779610773 0.783 1.87760695897e-38
0.0768013307123 -0.0347779610773 0.783 1.95060746234e-38
0.0780505390843 -0.0346891284819 0.781 1.92284157405e-38
0.0794959194377 -0.0346891284819 0.781 2.07950351937e-38
0.0809412997911 -0.0346891284819 0.781 2.21843707731e-38
0.0823866801445 -0.0346891284819 0.781 2.21843707731e-38
0.0842614180421 -0.0348667936726 0.785 1.82265153645e-38
0.0857142011118 -0.0348667936726 0.785 1.68511941711e-38
-0.0352110199796 -0.0385644504538 0.906 2.3502978615e-38
-0.0334232639983 -0.038436753598 0.903 5.87747175411e-39
-0.0317521007983 -0.038436753598 0.903 1.14905913555e-38
-0.0300143131519 -0.0383516223608 0.901 1.02095537267e-38
-0.0281895435892 -0.0381387942678 0.896 1.01191573641e-38
-0.0263832808172 -0.0379259661748 0.891 1.0302455611e-38
-0.0247343257662 -0.0379259661748 0.891 9.93474928876e-39
-0.0230853707151 -0.0379259661748 0.891 5.9711009123e-39
-0.0215085921477 -0.0380536630306 0.894 1.72188696647e-38
-0.0197874606129 -0.0379259661748 0.891 1.89681329585e-38
-0.0180977906223 -0.0378408349376 0.889 1.68367467839e-38
-0.016415523348 -0.0377557037004 0.887 2.2189224871e-38
-0.0147739710132 -0.0377557037004 0.887 2.0626142295e-38
-0.0131324186784 -0.0377557037004 0.887 2.02595612155e-38
-0.0114908663436 -0.0377557037004 0.887 2.22871083713e-38
-0.00984931400879 -0.0377557037004 0.887 1.42678962482e-38
-0.00820776167399 -0.0377557037004 0.887 1.73960106062e-38
-0.00643296044618 -0.0369895225655 0.869 2.34880533851e-38
-0.00482472033463 -0.0369895225655 0.869 8.83450298392e-39
-0.00320907750681 -0.0369043913283 0.867 2.38772290011e-39
-0.0016045387534 -0.0369043913283 0.867 1.49943924305e-38
0.0 -0.0366915632353 0.862 2.14591553775e-38
0.00159158399992 -0.0366064319981 0.86 2.32079660519e-38
0.00317576528356 -0.0365213007609 0.858 9.01709777901e-39
0.00476364792533 -0.0365213007609 0.858 5.23462328101e-39
0.00633672513455 -0.0364361695237 0.856 5.69488116291e-39
0.00787463944145 -0.0362233414307 0.851 2.34956428176e-38
0.00944956732974 -0.0362233414307 0.851 3.85709083864e-39
0.0109985857111 -0.0361382101935 0.849 1.46936793853e-39
0.0125402013761 -0.0360530789563 0.847 1.62826467464e-38
0.0140077898783 -0.0357976852446 0.841 2.02667512779e-38
0.0155271973945 -0.0357125540074 0.839 2.04475299902e-38
0.0170392021945 -0.0356274227702 0.837 2.00765964776e-38
0.0185882205758 -0.0356274227702 0.837 2.03502938897e-38
0.0200891213013 -0.035542291533 0.835 2.07165512693e-38
0.0216344383245 -0.035542291533 0.835 2.00722776757e-38
0.0231797553476 -0.035542291533 0.835 2.17317793951e-38
0.0247250723708 -0.035542291533 0.835 1.90534944558e-38
0.0262074663056 -0.0354571602958 0.833 1.29541859444e-38
0.0276824575241 -0.0353720290586 0.831 1.41426664083e-38
0.029220371831 -0.0353720290586 0.831 1.42345019045e-38
0.0306842589751 -0.0352868978214 0.829 2.17116805712e-38
0.032140743403 -0.0352017665842 0.827 1.8309037831e-38
0.0335898251145 -0.035116635347 0.825 1.69242774912e-38
0.035116635347 -0.035116635347 0.825 1.43263374006e-38
0.0365546129841 -0.0350315041098 0.823 2.3175720773e-38
0.0378926539515 -0.0348612416354 0.819 2.15405904365e-38
0.0394083601096 -0.0348612416354 0.819 1.72949447571e-38
0.0407241929281 -0.034690979161 0.815 1.92378885181e-38
0.0422324963699 -0.034690979161 0.815 1.74025154337e-38
0.0436334604256 -0.0346058479238 0.813 1.47923307972e-38
0.0451380625093 -0.0346058479238 0.813 1.79459950301e-38
0.0465279224906 -0.0345207166866 0.811 8.81620763117e-39
0.0480288232161 -0.0345207166866 0.811 1.83165600012e-38
0.0492854343044 -0.0343504542122 0.807 1.96093895566e-38
0.0506530861369 -0.034265322975 0.805 2.01550215474e-38
0.052142882788 -0.034265322975 0.805 2.15362197866e-38
0.0534994305461 -0.0341801917378 0.803 2.16326487391e-38
0.054985525839 -0.0341801917378 0.803 1.58283499882e-38
0.0564012953273 -0.0341376261192 0.802 1.8053257421e-38
0.0575968340063 -0.0339673636447 0.798 1.96213762636e-38
0.0586295129272 -0.0337119699331 0.792 1.90659996433e-38
0.0599434950666 -0.0336268386959 0.79 1.17854665914e-38
0.0614055315317 -0.0336268386959 0.79 1.01216348598e-38
0.0628675679967 -0.0336268386959 0.79 1.45502690991e-38
0.0642481745827 -0.0335842730773 0.789 1.36344406787e-38
0.0657083603687 -0.0335842730773 0.789 9.57569318195e-39
0.0669982836802 -0.0334991418401 0.787 1.08581503261e-38
0.0684547681081 -0.0334991418401 0.787 1.17887162025e-38
0.0699112525359 -0.0334991418401 0.787 1.54753853258e-38
0.0711863704149 -0.0334140106029 0.785 1.98018200656e-38
0.0726391534846 -0.0334140106029 0.785 7.07922531712e-39
0.0739031672892 -0.0333288793657 0.783 1.08559923265e-38
0.0753522490007 -0.0333288793657 0.783 1.99763966309e-38
0.0768013307123 -0.0333288793657 0.783 1.97855271684e-38
0.0780505390843 -0.0332437481285 0.781 1.97848097035e-38
0.0794959194377 -0.0332437481285 0.781 2.15372175111e-38
0.0809412997911 -0.0332437481285 0.781 2.18098541403e-38
0.0823866801445 -0.0332437481285 0.781 2.06127921246e-38
0.0842614180421 -0.0334140106029 0.785 1.8592481274e-38
0.0857142011118 -0.0334140106029 0.785 1.66660798413e-38
-0.0371727397934 -0.0371727397934 0.913 2.34925207246e-38
-0.0353664770214 -0.0370505949748 0.91 2.35047652706e-38
-0.0336083319052 -0.0369691650957 0.908 5.0516697535e-39
-0.0318575895053 -0.0368877352167 0.906 1.07555570616e-38
-0.0301808742682 -0.0368877352167 0.906 1.00276834029e-38
-0.0284097743985 -0.0367655903981 0.903 1.02106299239e-38
-0.026590556873 -0.0365620157004 0.898 9.65708760325e-39
-0.0248176063243 -0.0363991559423 0.894 9.84146484999e-39
-0.023163099236 -0.0363991559423 0.894 9.65962255217e-39
-0.0215567098035 -0.0364805858214 0.896 4.22443282327e-39
-0.0198540850594 -0.0363991559423 0.894 1.7681993202e-38
-0.0181385055618 -0.0362770111237 0.891 1.70312946549e-38
-0.0164525369294 -0.0361955812446 0.889 1.74799609959e-38
-0.0147739710132 -0.0361141513656 0.887 2.25593918733e-38
-0.0131324186784 -0.0361141513656 0.887 1.99833092362e-38
-0.0115167758506 -0.0361955812446 0.889 1.98914625297e-38
-0.00984931400879 -0.0361141513656 0.887 2.11815189154e-38
-0.00820776167399 -0.0361141513656 0.887 2.08130671024e-38
-0.00646257131129 -0.0355441422121 0.873 1.98911065998e-38
-0.00483582440905 -0.035462712333 0.871 2.21960169646e-38
-0.00321648022309 -0.035381282454 0.869 4.22443282327e-39
-0.00160824011154 -0.035381282454 0.869 3.12240686937e-39
0.0 -0.0351777077563 0.864 2.1461641281e-38
0.00159528535806 -0.0350962778772 0.862 2.34903571197e-38
0.00319057071611 -0.0350962778772 0.862 5.33004610123e-39
0.00477475199975 -0.0350148479982 0.86 7.6273796452e-39
0.00635153056711 -0.0349334181191 0.858 3.58158435016e-39
0.0079023996275 -0.034770558361 0.854 2.34881598838e-38
0.00948287955299 -0.034770558361 0.854 5.60196526564e-39
0.011024495218 -0.0346484135424 0.851 8.00081167296e-39
0.0125698122412 -0.0345669836633 0.849 4.5917776105e-39
0.0141410387714 -0.0345669836633 0.849 5.05095228869e-39
0.015804799255 -0.034770558361 0.854 6.52032022722e-39
0.017079917134 -0.034159834268 0.839 1.703205556e-38
0.0186326368734 -0.034159834268 0.839 2.13706199393e-38
0.0201372389571 -0.0340784043889 0.837 2.05332432133e-38
0.0216862573384 -0.0340784043889 0.837 2.02559430628e-38
0.0232352757197 -0.0340784043889 0.837 2.06257891678e-38
0.024784294101 -0.0340784043889 0.837 2.09974387439e-38
0.026270389394 -0.0339969745099 0.835 2.16417543765e-38
0.0277490819706 -0.0339155446308 0.833 2.24697171794e-38
0.0292906976357 -0.0339155446308 0.833 2.18239946431e-38
0.0307582861379 -0.0338341147517 0.831 2.13633878379e-38
0.0322184719239 -0.0337526848727 0.829 1.51748236208e-38
0.0336712549936 -0.0336712549936 0.827 1.93214367351e-38
0.0352017665842 -0.0336712549936 0.827 1.93238735932e-38
0.0366434455795 -0.0335898251145 0.825 1.66377021461e-38
0.037985187905 -0.0334269653564 0.821 1.53365488779e-38
0.0395045954212 -0.0334269653564 0.821 1.41426664083e-38
0.0408241295979 -0.0332641055983 0.817 2.30010601298e-38
0.0422324963699 -0.0331826757192 0.815 2.13644233974e-38
0.0437407998117 -0.0331826757192 0.815 2.19143783941e-38
0.0451380625093 -0.0331012458401 0.813 2.05307825332e-38
0.0466426645929 -0.0331012458401 0.813 1.37925603948e-38
0.0480288232161 -0.0330198159611 0.811 8.44886564654e-39
0.0495297239416 -0.0330198159611 0.811 1.45236738556e-38
0.0509047784904 -0.032938386082 0.809 1.91423732122e-38
0.0522724303229 -0.0328569562029 0.807 2.00664426689e-38
0.0537659283321 -0.0328569562029 0.807 2.08951089236e-38
0.0551224760902 -0.0327755263239 0.805 2.06181520912e-38
0.0564716211319 -0.0326940964448 0.803 1.71179929909e-38
0.0577411869737 -0.0325719516262 0.8 1.2514738746e-38
0.0590736759039 -0.0324905217471 0.798 1.69454973538e-38
0.0605505178015 -0.0324905217471 0.798 2.06351176117e-38
0.0618719026572 -0.0324090918681 0.796 1.92497070694e-38
0.0631858847967 -0.032327661989 0.794 1.46399087606e-38
0.0643296044618 -0.0321648022309 0.79 1.11321910564e-38
0.0657916409268 -0.0321648022309 0.79 1.2795004044e-38
0.0671685461546 -0.0321240872913 0.789 1.1969862055e-38
0.0684547681081 -0.0320426574123 0.787 1.41839402533e-38
0.0699112525359 -0.0320426574123 0.787 8.55971396026e-39
0.0713677369637 -0.0320426574123 0.787 1.11354154442e-38
0.0726391534846 -0.0319612275332 0.785 1.45495278123e-38
0.0740919365543 -0.0319612275332 0.785 8.6558542453e-39
0.0753522490007 -0.0318797976542 0.783 1.83209516706e-38
0.0768013307123 -0.0318797976542 0.783 1.96058022325e-38
0.0780505390843 -0.0317983677751 0.781 2.17201752425e-38
0.0794959194377 -0.0317983677751 0.781 2.08925753759e-38
0.0809412997911 -0.0317983677751 0.781 2.2826143049e-38
0.0823866801445 -0.0317983677751 0.781 1.78498071009e-38
0.0842614180421 -0.0319612275332 0.785 1.94254663305e-38
0.085932581242 -0.0320426574123 0.787 1.80512073214e-38
-0.0371727397934 -0.0354830698028 0.913 2.34917962533e-38
-0.0354830698028 -0.0354830698028 0.913 2.35022513411e-38
-0.0337933998122 -0.0354830698028 0.913 5.97397077156e-39
-0.0319982411146 -0.0353664770214 0.91 1.02041811484e-38
-0.0302474987147 -0.0352887485005 0.908 1.01198790328e-38
-0.0285041590311 -0.0352110199796 0.906 1.02127809171e-38
-0.0267386111986 -0.0350944271982 0.903 1.07652302249e-38
-0.0249286470685 -0.0349001058959 0.898 1.01184328928e-38
-0.0232667372639 -0.0349001058959 0.898 9.566702451e-39
-0.0216048274593 -0.0349001058959 0.898 1.00265721732e-38
-0.0198985013571 -0.0348223773749 0.896 5.14314651725e-39
-0.0181995779711 -0.034744648854 0.894 1.694516945e-38
-0.0164895505108 -0.0346280560726 0.891 1.80440158577e-38
-0.0148072832364 -0.0345503275517 0.889 1.67438350905e-38
-0.0131620295435 -0.0345503275517 0.889 2.16335525766e-38
-0.0115167758506 -0.0345503275517 0.889 2.05339424613e-38
-0.00984931400879 -0.0344725990308 0.887 2.03506442143e-38
-0.00820776167399 -0.0344725990308 0.887 2.01669550051e-38
-0.00646257131129 -0.0339284993843 0.873 2.08109048988e-38
-0.00483582440905 -0.0338507708634 0.871 2.06247634173e-38
-0.00322388293937 -0.0338507708634 0.871 2.10925434694e-38
-0.00161194146968 -0.0338507708634 0.871 5.14278778485e-39
0.0 -0.0336953138215 0.867 4.5917748079e-39
0.0016045387534 -0.0336953138215 0.867 1.13930007266e-38
0.00319797343239 -0.0335787210401 0.864 6.42848473106e-39
0.00477475199975 -0.0334232639983 0.86 7.17430762182e-39
0.00636633599967 -0.0334232639983 0.86 6.24624866837e-39
0.00792090641819 -0.0332678069564 0.856 1.9431933323e-38
0.00948287955299 -0.0331900784355 0.854 6.24481373874e-39
0.0110633594785 -0.0331900784355 0.854 5.33112229845e-39
0.012643839404 -0.0331900784355 0.854 1.16803327728e-38
0.0142243193295 -0.0331900784355 0.854 1.64776696576e-38
0.0157492788829 -0.0330734856541 0.851 7.25500419648e-39
0.0172834918317 -0.0329957571332 0.849 3.12240686937e-39
0.0187658857665 -0.0328403000913 0.845 1.37133604069e-38
0.0202334742687 -0.0326848430495 0.841 2.07223764671e-38
0.0217380763524 -0.0326071145285 0.839 2.13633850353e-38
0.0232907960918 -0.0326071145285 0.839 2.02576876794e-38
0.0248435158313 -0.0326071145285 0.839 2.03491854626e-38
0.0263333124823 -0.0325293860076 0.837 2.08101958418e-38
0.0278823308637 -0.0325293860076 0.837 2.03488477497e-38
0.0293610234403 -0.0324516574867 0.835 2.08098230964e-38
0.0308323133007 -0.0323739289658 0.833 2.13644290026e-38
0.0322962004448 -0.0322962004448 0.831 1.41614508142e-38
0.0337526848727 -0.0322184719239 0.829 1.48931346035e-38
0.0352868978214 -0.0322184719239 0.829 1.29495224231e-38
0.0367322781748 -0.032140743403 0.827 1.46936793853e-38
0.038170255812 -0.0320630148821 0.825 2.09701512589e-38
0.0396008307328 -0.0319852863611 0.823 1.85859820517e-38
0.0410240029374 -0.0319075578402 0.821 1.74803351426e-38
0.0424397724257 -0.0318298293193 0.819 1.14794370197e-38
0.0438481391977 -0.0317521007983 0.817 2.11656828414e-38
0.0453601439976 -0.0317521007983 0.817 1.19468653459e-38
0.0467574066952 -0.0316743722774 0.815 2.03186497678e-38
0.0481472666766 -0.0315966437565 0.813 1.99746940532e-38
0.0496518687602 -0.0315966437565 0.813 7.16496236236e-39
0.0510306246671 -0.0315189152356 0.811 9.36865553774e-39
0.0525315253926 -0.0315189152356 0.811 1.53634482032e-38
0.0538991772251 -0.0314411867146 0.809 1.92381841921e-38
0.0552594263413 -0.0313634581937 0.807 2.03430211507e-38
0.0566122727412 -0.0312857296728 0.805 2.13578849388e-38
0.0579577164249 -0.0312080011519 0.803 1.87797241761e-38
0.059369784555 -0.0311691368914 0.802 1.11293141906e-38
0.0607022734852 -0.0310914083705 0.8 8.91163045139e-39
0.0620273596991 -0.0310136798495 0.798 1.74043455295e-38
0.0633450431967 -0.0309359513286 0.796 1.87901330211e-38
0.064655323978 -0.0308582228077 0.794 2.03553315577e-38
0.0657916409268 -0.0307027657658 0.79 1.53792660602e-38
0.0672536773918 -0.0307027657658 0.79 1.08574889132e-38
0.0686287319406 -0.0306639015054 0.789 1.39895325121e-38
0.0700889177266 -0.0306639015054 0.789 1.41839850948e-38
0.0715491035126 -0.0306639015054 0.789 1.28024799713e-38
0.0728242213916 -0.0305861729845 0.787 9.93939879707e-39
0.0742807058194 -0.0305861729845 0.787 4.04076183095e-39
0.075544719624 -0.0305084444635 0.785 1.54646513796e-38
0.0768013307123 -0.0304307159426 0.783 2.02497941652e-38
0.0782504124238 -0.0304307159426 0.783 2.14432296205e-38
0.0796994941354 -0.0304307159426 0.783 2.09847696045e-38
0.0811485758469 -0.0304307159426 0.783 2.2826143049e-38
0.0825976575585 -0.0304307159426 0.783 1.68399753756e-38
0.0842614180421 -0.0305084444635 0.785 1.768059891e-38
-0.0355607983237 -0.033867426975 0.915 2.35001087558e-38
-0.0337933998122 -0.0337933998122 0.913 1.39934603517e-38
-0.0321037298216 -0.0337933998122 0.913 1.09331015771e-38
-0.0303141231612 -0.033682359068 0.91 1.00273302757e-38
-0.0286300052078 -0.033682359068 0.91 1.05790649214e-38
-0.0268866655242 -0.0336083319052 0.908 1.02106243187e-38
-0.0250674479987 -0.0334232639983 0.903 1.05793928252e-38
-0.0233962847988 -0.0334232639983 0.903 1.02102571785e-38
-0.0217251215989 -0.0334232639983 0.903 1.02095537267e-38
-0.0199429176548 -0.0332381960913 0.898 9.93260109822e-39
-0.0182402929107 -0.0331641689285 0.896 4.95911679253e-39
-0.0165450708829 -0.0330901417657 0.894 1.59241805863e-38
-0.0148405954597 -0.0329791010215 0.891 2.09020986003e-38
-0.0131916404086 -0.0329791010215 0.891 1.28741886176e-38
-0.0115167758506 -0.0329050738588 0.889 2.29189188164e-38
-0.00987152215763 -0.0329050738588 0.889 2.00733524716e-38
-0.00820776167399 -0.032831046696 0.887 1.97038861185e-38
-0.00656620933919 -0.032831046696 0.887 2.08087665174e-38
-0.00487468866951 -0.0324979244634 0.878 2.07183505366e-38
-0.00323128565565 -0.0323128565565 0.873 2.08109147079e-38
-0.00161194146968 -0.0322388293937 0.871 2.05361803349e-38
0.0 -0.0321648022309 0.869 1.21449010488e-38
0.0016045387534 -0.0320907750681 0.867 8.0815236619e-39
0.00320907750681 -0.0320907750681 0.867 4.86728129637e-39
0.00478585607417 -0.0319057071611 0.862 4.5917748079e-39
0.00636633599967 -0.0318316799983 0.86 1.73056899137e-38
0.00793941320889 -0.0317576528356 0.858 1.52817328845e-38
0.00950508770183 -0.0316836256728 0.856 6.24481373874e-39
0.0110892689855 -0.0316836256728 0.856 3.76525534248e-39
0.012643839404 -0.03160959851 0.854 1.85885141981e-38
0.0142243193295 -0.03160959851 0.854 2.29296037172e-38
0.0157492788829 -0.0314985577658 0.851 2.20105410999e-38
0.0173242067712 -0.0314985577658 0.851 4.5917748079e-39
0.0188547183618 -0.031424530603 0.849 1.46936793853e-39
0.0203778272361 -0.0313505034402 0.847 1.86919440377e-38
0.0218935333942 -0.0312764762774 0.845 2.33948950632e-38
0.023401836836 -0.0312024491147 0.843 1.67600298969e-38
0.0249027375615 -0.0311284219519 0.841 2.04514928622e-38
0.0263962355707 -0.0310543947891 0.839 2.0907430541e-38
0.0279489553102 -0.0310543947891 0.839 2.02573751899e-38
0.029431349245 -0.0309803676263 0.837 2.09023970769e-38
0.0309063404635 -0.0309063404635 0.835 2.12725963091e-38
0.0323739289658 -0.0308323133007 0.833 2.18250344066e-38
0.0338341147517 -0.0307582861379 0.831 2.19179685207e-38
0.0353720290586 -0.0307582861379 0.831 2.17325010638e-38
0.0368211107702 -0.0306842589751 0.829 2.21012905897e-38
0.0382627897654 -0.0306102318124 0.827 2.200873903e-38
0.0396970660444 -0.0305362046496 0.825 2.19172650689e-38
0.0412238762769 -0.0305362046496 0.825 2.23789634856e-38
0.0426470484815 -0.0304621774868 0.823 1.50912361674e-38
0.0439554785838 -0.0303141231612 0.819 1.39754971067e-38
0.0453601439976 -0.0302400959984 0.817 1.24896274775e-38
0.0467574066952 -0.0301660688356 0.815 2.34648534877e-38
0.048265710137 -0.0301660688356 0.815 2.1731098364e-38
0.0496518687602 -0.0300920416729 0.813 1.12215084192e-38
0.0511564708438 -0.0300920416729 0.813 1.14894815271e-38
0.0526610729275 -0.0300920416729 0.813 7.16316870032e-39
0.0540324261181 -0.0300180145101 0.811 1.11131768375e-38
0.0553963765925 -0.0299439873473 0.809 1.55499834496e-38
0.0567529243505 -0.0298699601845 0.807 1.94250529475e-38
0.0581020693923 -0.0297959330217 0.805 2.14497624739e-38
0.0594438117178 -0.0297219058589 0.803 2.21858603533e-38
0.0608540291689 -0.0296848922775 0.802 1.8135373511e-38
0.0621828167409 -0.0296108651147 0.8 1.0207371905e-38
0.0635042015967 -0.0295368379519 0.798 8.81728382839e-39
0.0648181837362 -0.0294628107892 0.796 1.48147263492e-38
0.0657916409268 -0.0292407293008 0.79 1.46413857292e-38
0.0672536773918 -0.0292407293008 0.79 1.43615842609e-38
0.0687157138569 -0.0292407293008 0.79 1.74018862507e-38
0.0701777503219 -0.0292407293008 0.79 9.75293221432e-39
0.0715491035126 -0.0292037157194 0.789 1.11311400825e-38
0.0730092892985 -0.0292037157194 0.789 1.34450551912e-38
0.0742807058194 -0.0291296885566 0.787 6.16194655276e-39
0.0757371902472 -0.0291296885566 0.787 1.75805125685e-38
0.0769975026937 -0.0290556613938 0.785 2.08036868105e-38
0.0782504124238 -0.028981634231 0.783 2.18116478023e-38
0.0796994941354 -0.028981634231 0.783 2.21807862516e-38
0.0811485758469 -0.028981634231 0.783 2.24577851229e-38
0.0825976575585 -0.028981634231 0.783 1.55503323729e-38
0.0844760968142 -0.0291296885566 0.787 1.75905416616e-38
-0.0356773911051 -0.0322795443332 0.918 2.34979213289e-38
-0.033867426975 -0.0321740556262 0.915 2.0631222002e-38
-0.0321740556262 -0.0321740556262 0.915 9.55089160043e-39
-0.030414059831 -0.0321037298216 0.913 1.14055409465e-38
-0.0287243898404 -0.0321037298216 0.913 1.12240559798e-38
-0.0268866655242 -0.03192791531 0.908 1.10389416501e-38
-0.0252062489289 -0.03192791531 0.908 1.03921275023e-38
-0.0234740133197 -0.0318575895053 0.906 1.02992074012e-38
-0.0217972980826 -0.0318575895053 0.906 1.03010080697e-38
-0.020053958399 -0.0317521007983 0.903 1.06704954423e-38
-0.0183420802595 -0.0316817749937 0.901 9.65780366677e-39
-0.0166190980456 -0.0315762862867 0.898 5.51012976948e-39
-0.0149238760178 -0.0315059604821 0.896 1.333662692e-38
-0.0132656675714 -0.0315059604821 0.896 2.17339920453e-38
-0.0115426853575 -0.0313301459705 0.891 1.12136163063e-38
-0.00989373030646 -0.0313301459705 0.891 2.34631523114e-38
-0.00822626846469 -0.0312598201658 0.889 2.00755048661e-38
-0.00658101477175 -0.0312598201658 0.889 1.96134309014e-38
-0.00491355292998 -0.0311191685565 0.885 2.07190694027e-38
-0.0032645978789 -0.0310136798495 0.882 1.96134701377e-38
-0.00161564282782 -0.0306972137286 0.873 2.00762209296e-38
0.0 -0.030626887924 0.871 2.20105172778e-38
0.00160824011154 -0.0305565621193 0.869 1.93371887312e-38
0.00320907750681 -0.0304862363147 0.867 1.6204660283e-38
0.00479696014859 -0.0303807476077 0.864 1.57433388156e-38
0.00638114143223 -0.0303104218031 0.862 2.15437755879e-38
0.00795791999959 -0.0302400959984 0.86 8.18483859508e-39
0.00952729585067 -0.0301697701938 0.858 6.33880443194e-39
0.0111151784924 -0.0301697701938 0.858 3.30607786169e-39
0.0126734502691 -0.0300994443891 0.856 2.07104598249e-38
0.0142243193295 -0.0300291185845 0.854 2.18243912106e-38
0.015804799255 -0.0300291185845 0.854 2.28391779273e-38
0.0173242067712 -0.0299236298775 0.851 5.97432950397e-39
0.0188547183618 -0.0298533040729 0.849 5.41829427332e-39
0.0203778272361 -0.0297829782682 0.847 7.99796983967e-39
0.0218935333942 -0.0297126524636 0.845 2.34935352647e-38
0.0234573572081 -0.0297126524636 0.845 3.489748854e-39
0.0249619592917 -0.0296423266589 0.843 3.30607786169e-39
0.0264591586591 -0.0295720008543 0.841 1.6845155976e-38
0.0280155797567 -0.0295720008543 0.841 2.19230103926e-38
0.0295016750496 -0.0295016750496 0.839 2.09038586312e-38
0.0309803676263 -0.029431349245 0.837 2.13651871051e-38
0.0324516574867 -0.0293610234403 0.835 2.016517956e-38
0.0339155446308 -0.0292906976357 0.833 2.09967352921e-38
0.0354571602958 -0.0292906976357 0.833 2.04410461822e-38
0.0369099433655 -0.029220371831 0.831 2.14537856018e-38
0.0383553237189 -0.0291500460264 0.829 2.09020215289e-38
0.0397933013561 -0.0290797202217 0.827 2.1177568655e-38
0.0413238129467 -0.0290797202217 0.827 2.12729494363e-38
0.0427506865094 -0.0290093944171 0.825 2.13662408816e-38
0.0442774967419 -0.0290093944171 0.825 2.12733389973e-38
0.0456932662302 -0.0289390686124 0.823 2.17321479366e-38
0.0471016330022 -0.0288687428078 0.821 1.58309059566e-38
0.0485025970579 -0.0287984170032 0.819 1.67413239637e-38
0.0497740135788 -0.0286577653939 0.815 2.34817363316e-38
0.0511564708438 -0.0285874395892 0.813 1.72199388555e-38
0.0526610729275 -0.0285874395892 0.813 8.36241113648e-39
0.0541656750111 -0.0285874395892 0.813 7.98968816575e-39
0.0555333268436 -0.0285171137846 0.811 7.80673463824e-39
0.0568935759598 -0.0284467879799 0.809 1.02884454289e-38
0.0582464223598 -0.0283764621753 0.807 1.55467604631e-38
0.0595918660434 -0.0283061363706 0.805 1.89633489256e-38
0.0609299070108 -0.028235810566 0.803 2.07150883138e-38
0.0623382737828 -0.0282006476636 0.802 2.10816287557e-38
0.0636633599967 -0.028130321859 0.8 1.91480596813e-38
0.0649810434943 -0.0280599960544 0.798 1.45415768448e-38
0.0659582020431 -0.0278490186404 0.792 1.14873291327e-38
0.0674239398663 -0.0278490186404 0.792 1.3706482834e-38
0.0687157138569 -0.0277786928358 0.79 1.53757754258e-38
0.0701777503219 -0.0277786928358 0.79 1.34450523886e-38
0.071639786787 -0.0277786928358 0.79 5.97145964471e-39
0.073101823252 -0.0277786928358 0.79 7.91401384478e-39
0.0744694750845 -0.0277435299334 0.789 1.343489858e-38
0.0759296608705 -0.0277435299334 0.789 2.117359177e-38
0.077193674675 -0.0276732041288 0.787 2.12638844365e-38
0.0784502857634 -0.0276028783241 0.785 2.17216059682e-38
0.079903068833 -0.0276028783241 0.785 2.19067118902e-38
0.0813558519027 -0.0276028783241 0.785 2.20896864371e-38
0.0828086349724 -0.0276028783241 0.785 1.58261975938e-38
0.0844760968142 -0.0276732041288 0.787 1.74976425799e-38
-0.0359494409284 -0.03081380651 0.925 2.3488578872e-38
-0.0340524948819 -0.0306472453938 0.92 2.34957913552e-38
-0.0322795443332 -0.0305806209472 0.918 8.26519465422e-39
-0.0305806209472 -0.0305806209472 0.918 1.19547686692e-38
-0.0287873129287 -0.0304806842775 0.915 1.15913993657e-38
-0.0270347198498 -0.030414059831 0.913 1.27002398341e-38
-0.025261769301 -0.0303141231612 0.91 1.03946302214e-38
-0.0235776513476 -0.0303141231612 0.91 1.10357088545e-38
-0.0218935333942 -0.0303141231612 0.91 1.03006577451e-38
-0.0201649991431 -0.0302474987147 0.908 1.02106075032e-38
-0.018382795199 -0.0300809375984 0.903 9.9326137099e-39
-0.0166746184177 -0.0300143131519 0.901 9.84004953854e-39
-0.0149571882411 -0.0299143764822 0.898 6.79941403976e-39
-0.0132952784365 -0.0299143764822 0.898 8.44886564654e-39
-0.011607459125 -0.0298477520357 0.896 2.12741251257e-38
-0.00989373030646 -0.0296811909194 0.891 1.18618695875e-38
-0.00824477525538 -0.0296811909194 0.891 2.03401526927e-38
-0.00658101477175 -0.0296145664729 0.889 2.09034830832e-38
-0.00492465700439 -0.0295479420264 0.887 2.10882092532e-38
-0.00327570195332 -0.0294813175799 0.885 1.9797826365e-38
-0.00163229893945 -0.0293813809101 0.882 2.0077260693e-38
0.0 -0.0290815709008 0.873 2.11821859335e-38
0.00161194146968 -0.0290149464543 0.871 2.11800699728e-38
0.00321648022309 -0.0289483220078 0.869 2.06258073847e-38
0.00481361626021 -0.0288816975613 0.867 2.1641385835e-38
0.00639594686478 -0.0287817608915 0.864 2.302398257e-38
0.00795791999959 -0.0286485119985 0.86 3.85709083864e-39
0.0095495039995 -0.0286485119985 0.86 8.09231926527e-39
0.0111151784924 -0.028581887552 0.858 3.58158435016e-39
0.0126734502691 -0.0285152631055 0.856 1.26898898436e-38
0.0142243193295 -0.028448638659 0.854 2.28438470538e-38
0.015804799255 -0.028448638659 0.854 2.34867655918e-38
0.0173852791805 -0.028448638659 0.854 4.77544580022e-39
0.0188991346595 -0.0283487019892 0.851 7.81033877789e-39
0.020425944892 -0.0282820775427 0.849 4.22443282327e-39
0.0219453524082 -0.0282154530962 0.847 2.34903038704e-38
0.0235128775802 -0.0282154530962 0.847 4.77544580022e-39
0.025021181022 -0.0281488286497 0.845 7.26219005501e-39
0.0265220817475 -0.0280822042032 0.843 3.76525534248e-39
0.0280155797567 -0.0280155797567 0.841 7.16318131201e-39
0.0295016750496 -0.0279489553102 0.839 1.11120950351e-38
0.0309803676263 -0.0278823308637 0.837 1.81398422518e-38
0.0325293860076 -0.0278823308637 0.837 2.10947266924e-38
0.0339969745099 -0.0278157064172 0.835 2.04428454494e-38
0.0354571602958 -0.0277490819706 0.833 2.06254360406e-38
0.0369099433655 -0.0276824575241 0.831 2.05321628122e-38
0.0383553237189 -0.0276158330776 0.829 2.14558763391e-38
0.0398895366677 -0.0276158330776 0.829 2.08087483005e-38
0.0414237496164 -0.0276158330776 0.829 2.13629744548e-38
0.0428543245373 -0.0275492086311 0.827 2.07180030146e-38
0.0443848361279 -0.0275492086311 0.827 2.13637227482e-38
0.0458043069744 -0.0274825841846 0.825 2.13615521369e-38
0.0472163751045 -0.0274159597381 0.823 2.210017936e-38
0.0485025970579 -0.0272827108451 0.819 1.73982568876e-38
0.050018303216 -0.0272827108451 0.819 1.56400154746e-38
0.0514081631973 -0.0272160863986 0.817 1.96040169783e-38
0.0529201679972 -0.0272160863986 0.817 2.31161810025e-38
0.0541656750111 -0.0270828375056 0.813 1.50040389692e-38
0.0556702770948 -0.0270828375056 0.813 7.80601717343e-39
0.0570342275691 -0.0270162130591 0.811 9.27682004158e-39
0.0583907753272 -0.0269495886125 0.809 7.16496236236e-39
0.0598879746946 -0.0269495886125 0.809 8.54070114269e-39
0.0610816626945 -0.0268163397195 0.805 1.49032113408e-38
0.0625714593456 -0.0268163397195 0.805 1.96126293586e-38
0.0639020975967 -0.026749715273 0.803 2.04381314814e-38
0.0651439032524 -0.0266497786033 0.8 2.09880836754e-38
0.0661247631593 -0.0264499052637 0.794 2.06192212819e-38
0.0675942023407 -0.0264499052637 0.794 1.87774891051e-38
0.0688896776894 -0.0263832808172 0.792 1.60152495722e-38
0.0703554155126 -0.0263832808172 0.792 1.59216596503e-38
0.0718211533358 -0.0263832808172 0.792 1.60152495722e-38
0.073101823252 -0.0263166563707 0.79 1.832512754e-38
0.074563859717 -0.0263166563707 0.79 2.02561840862e-38
0.0760258961821 -0.0263166563707 0.79 2.14464652186e-38
0.0773898466564 -0.0262833441475 0.789 2.08914991787e-38
0.0786501591029 -0.026216719701 0.787 2.18155938588e-38
0.0801066435307 -0.026216719701 0.787 2.0801816077e-38
0.0815631279585 -0.026216719701 0.787 2.23673607343e-38
0.0830196123864 -0.026216719701 0.787 1.50901039182e-38
-0.0359494409284 -0.0291019283706 0.925 2.34889305979e-38
-0.0341635356261 -0.0290390052822 0.923 2.34975906224e-38
-0.0323498701378 -0.0289446206497 0.92 7.25500419648e-39
-0.0306472453938 -0.0289446206497 0.92 1.3148628718e-38
-0.0288816975613 -0.0288816975613 0.918 1.26981168669e-38
-0.02709394158 -0.0287873129287 0.915 1.45416314954e-38
-0.0253450498591 -0.0287243898404 0.913 1.15902853335e-38
-0.0236553798685 -0.0287243898404 0.913 1.36106662489e-38
-0.0219657098779 -0.0287243898404 0.913 1.21362760567e-38
-0.0202094154408 -0.0286300052078 0.91 9.65169540676e-39
-0.0184845825479 -0.0285670821194 0.908 9.74605464145e-39
-0.0167671523712 -0.0285041590311 0.906 9.84114675524e-39
-0.0150404687992 -0.0284097743985 0.903 9.84184740447e-39
-0.0133396947342 -0.0283468513102 0.901 8.09013323967e-39
-0.011633368632 -0.0282524666776 0.898 6.70399121953e-39
-0.00994925067855 -0.0281895435892 0.896 1.84199421967e-38
-0.00829104223213 -0.0281895435892 0.896 1.85071576118e-38
-0.00661802835314 -0.0281266205009 0.894 1.49035378433e-38
-0.00494686515323 -0.0280322358683 0.891 2.25525773589e-38
-0.00329050738588 -0.0279693127799 0.889 2.09038586312e-38
-0.00164525369294 -0.0279693127799 0.889 2.07158352058e-38
0.0 -0.0279063896916 0.887 2.18221827642e-38
0.00163229893945 -0.0277490819706 0.882 2.08091196446e-38
0.00323868837192 -0.0275288511614 0.875 2.00711888668e-38
0.00483582440905 -0.0274030049846 0.871 2.11793314885e-38
0.00644776587873 -0.0274030049846 0.871 2.22864147285e-38
0.00805970734842 -0.0274030049846 0.871 4.5917748079e-39
0.0096716488181 -0.0274030049846 0.871 7.26038518258e-39
0.0115167758506 -0.0279693127799 0.889 1.16893305102e-38
0.0131028078133 -0.0278434666032 0.885 4.95911679253e-39
0.0142243193295 -0.0268681587335 0.854 1.29660465346e-38
0.015804799255 -0.0268681587335 0.854 1.51823920338e-38
0.0173852791805 -0.0268681587335 0.854 4.68361030406e-39
0.018965759106 -0.0268681587335 0.854 7.17250835459e-39
0.0204740625478 -0.0267737741009 0.851 5.96930725027e-39
0.0219971714221 -0.0267108510126 0.849 2.02591702532e-38
0.0235128775802 -0.0266479279242 0.847 6.42848473106e-39
0.0250804027522 -0.0266479279242 0.847 6.43924670327e-39
0.0265850048358 -0.0265850048358 0.845 6.52032022722e-39
0.0280822042032 -0.0265220817475 0.843 1.54460028996e-38
0.0295720008543 -0.0264591586591 0.841 7.98968816575e-39
0.0311284219519 -0.0264591586591 0.841 1.46936793853e-39
0.0326848430495 -0.0264591586591 0.841 1.19638112482e-38
0.0340784043889 -0.0263333124823 0.837 2.19216076928e-38
0.035542291533 -0.026270389394 0.835 2.05343530417e-38
0.0369987759609 -0.0262074663056 0.833 2.07187064664e-38
0.0385403916259 -0.0262074663056 0.833 2.09020187263e-38
0.0399857719793 -0.0261445432172 0.831 2.07180030146e-38
0.0415236862862 -0.0261445432172 0.831 2.0440693055e-38
0.0429579625652 -0.0260816201289 0.829 2.10871288521e-38
0.044492175514 -0.0260816201289 0.829 2.04410601952e-38
0.0459153477185 -0.0260186970405 0.827 2.16385117719e-38
0.0473311172068 -0.0259557739521 0.825 2.12715117041e-38
0.0486210405184 -0.0258299277754 0.821 2.13647919389e-38
0.0501404480346 -0.0258299277754 0.821 2.1366224066e-38
0.0515340093741 -0.025767004687 0.819 1.5273476434e-38
0.0530497155321 -0.025767004687 0.819 1.29488049583e-38
0.0542989239041 -0.0256411585103 0.815 2.34752539249e-38
0.0556702770948 -0.0255782354219 0.813 2.24707933766e-38
0.0571748791784 -0.0255782354219 0.813 1.0669419245e-38
0.0585351282946 -0.0255153123336 0.811 9.91823358506e-39
0.0600360290201 -0.0255153123336 0.811 9.65169540676e-39
0.0613851740619 -0.0254523892452 0.809 7.99580203095e-39
0.0628823734293 -0.0254523892452 0.809 8.35703015038e-39
0.0642204143967 -0.0253894661568 0.807 1.43375197624e-38
0.0657139124059 -0.0253894661568 0.807 1.84087290064e-38
0.0670408492988 -0.0253265430684 0.805 2.02565428186e-38
0.0677644648151 -0.0250433891708 0.796 2.11723894559e-38
0.0692376053545 -0.0250433891708 0.796 2.07099917912e-38
0.0705330807033 -0.0249804660824 0.794 2.17216101721e-38
0.0720025198846 -0.0249804660824 0.794 2.16298797733e-38
0.073286891159 -0.0249175429941 0.792 2.01572089743e-38
0.0747526289822 -0.0249175429941 0.792 2.06170688875e-38
0.0762183668053 -0.0249175429941 0.792 2.0707469454e-38
0.0776841046285 -0.0249175429941 0.792 2.34729628019e-38
0.0789499691122 -0.0248546199057 0.79 2.02486857381e-38
0.0804120055772 -0.0248546199057 0.79 2.19985473863e-38
0.0818740420422 -0.0248546199057 0.79 2.25517169616e-38
0.0837580333352 -0.0249804660824 0.794 1.46294985143e-38
0.0856568300607 -0.0251063122592 0.798 2.0357849691e-38
-0.0359494409284 -0.0273900502311 0.925 2.34914235079e-38
-0.0341635356261 -0.0273308285009 0.923 2.34950640813e-38
-0.0324553588448 -0.0273308285009 0.923 6.61215572338e-39
-0.0307471820635 -0.0273308285009 0.923 1.3696073989e-38
-0.0289446206497 -0.0272419959056 0.92 9.28399468972e-39
-0.0272419959056 -0.0272419959056 0.92 1.97928013087e-38
-0.0254838507894 -0.0271827741753 0.918 1.69405157378e-38
-0.0237071988825 -0.02709394158 0.915 2.08102140587e-38
-0.0220138275337 -0.02709394158 0.915 1.50951429875e-38
-0.0202760398873 -0.0270347198498 0.913 1.65648276195e-38
-0.0185252974874 -0.0269458872544 0.91 1.28813870879e-38
-0.0168041659526 -0.0268866655242 0.908 1.07558737551e-38
-0.0151237493574 -0.0268866655242 0.908 9.92971302208e-39
-0.0133693055993 -0.0267386111986 0.903 9.65709040585e-39
-0.0116722328924 -0.0266793894684 0.901 1.01184328928e-38
-0.00997145882739 -0.026590556873 0.898 3.94892633479e-39
-0.00829104223213 -0.0265313351428 0.896 1.40698983804e-38
-0.0066328337857 -0.0265313351428 0.896 2.1826919153e-38
-0.00494686515323 -0.0263832808172 0.891 9.83500766667e-39
-0.00329791010215 -0.0263832808172 0.891 2.11681182982e-38
-0.00164525369294 -0.026324059087 0.889 1.55367005414e-38
0.0 -0.0262648373568 0.887 1.82078220429e-38
0.0016415523348 -0.0262648373568 0.887 2.08894434739e-38
0.00327570195332 -0.0262056156265 0.885 2.15456309071e-38
0.00491355292998 -0.0262056156265 0.885 2.11796790105e-38
0.00655140390664 -0.0262056156265 0.885 2.1086062464e-38
0.00822626846469 -0.026324059087 0.889 6.70399121953e-39
0.00987152215763 -0.026324059087 0.889 2.02038091548e-39
0.0115167758506 -0.026324059087 0.889 1.58234328319e-38
0.0131028078133 -0.0262056156265 0.885 2.15530661967e-38
0.0147406587899 -0.0262056156265 0.885 5.60196526564e-39
0.0163785097666 -0.0262056156265 0.885 3.67341984632e-39
0.0178738584549 -0.0259983395707 0.878 6.06544753531e-39
0.0194987546781 -0.0259983395707 0.878 3.489748854e-39
0.0204740625478 -0.0251988462126 0.851 1.83126896148e-38
0.0220489904361 -0.0251988462126 0.851 1.41750251925e-38
0.0235683979523 -0.0251396244824 0.849 7.71525787449e-39
0.0251396244824 -0.0251396244824 0.849 2.93873587706e-39
0.0266479279242 -0.0250804027522 0.847 1.81322191882e-38
0.0281488286497 -0.025021181022 0.845 2.3486329788e-38
0.0297126524636 -0.025021181022 0.845 2.09045592804e-38
0.0312764762774 -0.025021181022 0.845 5.05418088035e-39
0.0328403000913 -0.025021181022 0.845 1.28569694621e-39
0.0343226940261 -0.0249619592917 0.843 1.73954248635e-38
0.0357976852446 -0.0249027375615 0.841 2.11832943605e-38
0.0372652737469 -0.0248435158313 0.839 2.09037983753e-38
0.0388179934863 -0.0248435158313 0.839 2.12722459845e-38
0.0402744779142 -0.024784294101 0.837 2.10882246675e-38
0.0417235596257 -0.0247250723708 0.835 2.09960290377e-38
0.043165238621 -0.0246658506406 0.833 2.07205015297e-38
0.0445995149 -0.0246066289103 0.831 2.05339620794e-38
0.0460263884627 -0.0245474071801 0.829 2.21009346599e-38
0.0474458593092 -0.0244881854499 0.827 2.06268737728e-38
0.0488579274393 -0.0244289637197 0.825 2.05361284869e-38
0.0502625928532 -0.0243697419894 0.823 2.09041697194e-38
0.0516598555508 -0.0243105202592 0.821 2.23782081857e-38
0.0530497155321 -0.024251298529 0.819 2.09956661014e-38
0.0542989239041 -0.0241328550685 0.815 1.16699239278e-38
0.0556702770948 -0.0240736333383 0.813 1.74595062422e-38
0.0571748791784 -0.0240736333383 0.813 2.34778056894e-38
0.0586794812621 -0.0240736333383 0.813 1.77716833102e-38
0.0601840833457 -0.0240736333383 0.813 7.44226251287e-39
0.0615369297456 -0.0240144116081 0.811 9.55340272728e-39
0.0630378304711 -0.0240144116081 0.811 9.83827689599e-39
0.0645387311966 -0.0240144116081 0.811 8.5475380779e-39
0.0660396319221 -0.0240144116081 0.811 7.16316870032e-39
0.0673739715314 -0.0239551898778 0.809 9.73635625478e-39
0.0687009084243 -0.0238959681476 0.807 1.59980780608e-38
0.0697594968522 -0.023747913822 0.802 1.74879091608e-38
0.0710660762754 -0.0236886920918 0.8 1.94257185643e-38
0.0721838864334 -0.0235702486313 0.796 2.12649438182e-38
0.0736570269729 -0.0235702486313 0.796 2.14490267922e-38
0.0749413982473 -0.0235110269011 0.794 2.1724576721e-38
0.0764108374286 -0.0235110269011 0.794 2.11699035524e-38
0.0778802766099 -0.0235110269011 0.794 2.07060345244e-38
0.0793497157912 -0.0235110269011 0.794 2.13510480036e-38
0.0806155802749 -0.0234518051709 0.792 2.18127239996e-38
0.082081318098 -0.0234518051709 0.792 2.31052634862e-38
0.0839690107491 -0.0235702486313 0.796 1.58251452186e-38
0.0856568300607 -0.0236294703616 0.798 1.98018074539e-38
-0.0342375627889 -0.0256781720917 0.925 2.34939836802e-38
-0.0325256846495 -0.0256781720917 0.925 8.09013323967e-39
-0.03081380651 -0.0256781720917 0.925 1.39708686179e-38
-0.0290390052822 -0.0256226517196 0.923 1.09474466695e-38
-0.0273308285009 -0.0256226517196 0.923 1.46270098082e-38
-0.0255393711615 -0.0255393711615 0.92 1.91521010261e-38
-0.0237849274034 -0.0254838507894 0.918 2.08991474657e-38
-0.0220860040175 -0.0254838507894 0.918 1.71227433927e-38
-0.020320456185 -0.0254005702312 0.915 1.9425153841e-38
-0.0185863698967 -0.0253450498591 0.913 1.5001113058e-38
-0.0168966999061 -0.0253450498591 0.913 1.91492900214e-38
-0.0151570615806 -0.025261769301 0.91 1.34384746937e-38
-0.013413721897 -0.0251507285568 0.906 1.04703227592e-38
-0.0116981423994 -0.0250674479987 0.903 1.00201430159e-38
-0.0100047710506 -0.0250119276266 0.901 1.02102767967e-38
-0.00830954902282 -0.0249286470685 0.898 6.80049023698e-39
-0.0066328337857 -0.0248731266964 0.896 7.80601717343e-39
-0.00496352126486 -0.0248176063243 0.894 2.04464159579e-38
-0.00329791010215 -0.0247343257662 0.891 1.75826831798e-38
-0.00164895505108 -0.0247343257662 0.891 1.60870058626e-38
0.0 -0.0246788053941 0.889 2.34758284573e-38
0.00164525369294 -0.0246788053941 0.889 1.89611600974e-38
0.0032831046696 -0.024623285022 0.887 1.83150830326e-38
0.00492465700439 -0.024623285022 0.887 1.97005075879e-38
0.00659582020431 -0.0247343257662 0.891 2.2654474178e-38
0.00822626846469 -0.0246788053941 0.889 1.83238481545e-38
0.00987152215763 -0.0246788053941 0.889 9.01171679291e-39
0.0115167758506 -0.0246788053941 0.889 1.93110026668e-38
0.0131028078133 -0.0245677646499 0.885 2.23775047339e-38
0.0147406587899 -0.0245677646499 0.885 2.11811419661e-38
0.0163785097666 -0.0245677646499 0.885 1.37136224497e-38
0.0178738584549 -0.0243734433476 0.878 1.06604509349e-38
0.0194987546781 -0.0243734433476 0.878 1.30560925726e-38
0.0211236509012 -0.0243734433476 0.878 2.20865797584e-38
0.0227485471244 -0.0243734433476 0.878 5.96930725027e-39
0.0235683979523 -0.0235683979523 0.849 6.98669197432e-39
0.0251396244824 -0.0235683979523 0.849 2.20405190779e-39
0.0267108510126 -0.0235683979523 0.849 2.0984522976e-38
0.0282154530962 -0.0235128775802 0.847 2.28367046355e-38
0.0297829782682 -0.0235128775802 0.847 2.32076731805e-38
0.0312764762774 -0.0234573572081 0.845 9.01494538457e-39
0.0328403000913 -0.0234573572081 0.845 5.23462328101e-39
0.0343226940261 -0.023401836836 0.843 3.03057137321e-39
0.0357976852446 -0.0233463164639 0.841 2.2754098091e-38
0.0372652737469 -0.0232907960918 0.839 2.29317841376e-38
0.0388179934863 -0.0232907960918 0.839 1.50058970909e-38
0.0403707132258 -0.0232907960918 0.839 1.34360532499e-38
0.0418234962955 -0.0232352757197 0.837 1.89752515547e-38
0.0433725146768 -0.0232352757197 0.837 2.16477827625e-38
0.0448141936721 -0.0231797553476 0.835 2.09070984332e-38
0.0462484699511 -0.0231242349755 0.833 2.07194519572e-38
0.0477900856161 -0.0231242349755 0.833 2.12708054496e-38
0.0492132578207 -0.0230687146034 0.831 2.08091042303e-38
0.0507511721276 -0.0230687146034 0.831 2.18243309547e-38
0.0521632402577 -0.0230131942314 0.829 2.14555400275e-38
0.0535679056716 -0.0229576738593 0.827 2.12718956598e-38
0.0550984172622 -0.0229576738593 0.827 2.2837448725e-38
0.0563550283506 -0.0228466331151 0.823 1.93336014071e-38
0.0578781372249 -0.0228466331151 0.823 1.11135299647e-38
0.0592568931318 -0.022791112743 0.821 2.3466273003e-38
0.0604801919968 -0.0226800719988 0.817 2.21920989341e-38
0.0618404411131 -0.0226245516267 0.815 1.11296729231e-38
0.063193287513 -0.0225690312546 0.813 9.55089160043e-39
0.0646978895966 -0.0225690312546 0.813 9.74604202977e-39
0.0662024916803 -0.0225690312546 0.813 9.5667052536e-39
0.0675405326476 -0.0225135108825 0.811 9.47340820314e-39
0.0688711708987 -0.0224579905105 0.809 9.37799519201e-39
0.0701944064336 -0.0224024701384 0.807 7.25500419648e-39
