# .PCD v0.7 - Point Cloud Data file format
VERSION 0.7
FIELDS x y z rgb
SIZE 4 4 4 4
TYPE F F F F
COUNT 1 1 1 1
WIDTH 859
HEIGHT 1
VIEWPOINT 0 0 0 1 0 0 0
POINTS 859
DATA ascii
0.0163877631619 -0.11024495218 0.805 1.85298922781e-38
0.0179219761107 -0.110518852683 0.807 1.8529173412e-38
0.0194635917757 -0.110792753185 0.809 1.83440758978e-38
0.021012610157 -0.111066653687 0.811 1.85284699602e-38
0.0225690312546 -0.11134055419 0.813 1.99114044081e-38
0.0241328550685 -0.111614454692 0.815 1.90823850262e-38
0.0256411585103 -0.111614454692 0.815 4.42404078302e-39
0.0272160863986 -0.111888355194 0.817 1.66885552674e-38
0.0287984170032 -0.112162255696 0.819 2.35070087494e-38
0.030388150324 -0.112436156199 0.821 0.0
0.0319852863611 -0.112710056701 0.823 0.0
0.0335898251145 -0.112983957203 0.825 1.59326346199e-38
0.0352868978214 -0.113531758208 0.829 2.35041122655e-38
0.0368211107702 -0.113531758208 0.829 0.0
0.0390955953468 -0.115722962227 0.845 0.0
0.0406594191607 -0.115722962227 0.845 2.14625226977e-38
0.0422232429745 -0.115722962227 0.845 2.47955839627e-39
0.0438907048163 -0.115996862729 0.847 1.59398625174e-38
0.0454582299883 -0.115996862729 0.847 2.21154843419e-38
0.0470257551603 -0.115996862729 0.847 0.0
0.0485932803324 -0.115996862729 0.847 4.20389539297e-45
0.0502792489648 -0.116270763231 0.849 2.23048558163e-38
0.051850475495 -0.116270763231 0.849 1.84351757123e-38
0.0535475482019 -0.116544663733 0.851 1.75142535719e-38
0.0551224760902 -0.116544663733 0.851 2.08311900954e-38
0.057030526211 -0.117229414989 0.856 1.94489815201e-38
0.059367933876 -0.118735867752 0.867 1.98177598356e-38
0.0609724726294 -0.118735867752 0.867 2.01858206864e-38
0.0625770113828 -0.118735867752 0.867 6.35142452591e-39
0.0643296044618 -0.119009768254 0.869 1.52825638545e-38
0.066089600257 -0.119283668757 0.871 1.78628868208e-38
0.0678569987686 -0.119557569259 0.873 1.7771396044e-38
0.0696317999964 -0.119831469761 0.875 5.42008793536e-39
0.0712511441823 -0.119831469761 0.875 8.37575990565e-39
0.0731203300427 -0.120242320515 0.878 1.83670992316e-39
0.0747452262659 -0.120242320515 0.878 2.17495786882e-38
0.076370122489 -0.120242320515 0.878 2.11992467423e-38
-0.0624160023037 -0.108484956385 0.803 9.1835496158e-41
-0.0609299070108 -0.108484956385 0.803 1.21691575252e-38
-0.0594438117178 -0.108484956385 0.803 6.81816061062e-39
-0.0578855399412 -0.108349856813 0.802 3.78350585368e-44
-0.056260643718 -0.108079657669 0.8 1.1063430742e-38
-0.0546431502111 -0.107809458525 0.798 1.08730307145e-38
-0.0530330594205 -0.10753925938 0.796 8.66566333455e-39
-0.0514303713462 -0.107269060236 0.794 8.75610453873e-39
-0.0498350859881 -0.106998861092 0.792 8.3883954139e-39
-0.0482472033463 -0.106728661948 0.79 8.11465736409e-39
-0.0467259451511 -0.106593562376 0.789 7.74267287765e-39
-0.0451510172628 -0.106323363232 0.787 8.30045833007e-39
-0.0435834920908 -0.106053164087 0.785 9.77564866372e-39
-0.042023369635 -0.105782964943 0.783 1.1616293433e-38
-0.0404706498956 -0.105512765799 0.781 9.03771228072e-39
-0.0390252695422 -0.105512765799 0.781 9.12987147682e-39
-0.0375317715329 -0.105377666227 0.78 5.72161373372e-39
-0.0360882418586 -0.105377666227 0.78 6.73495010651e-39
-0.0343782143982 -0.104567068795 0.774 8.2997969172e-39
-0.0329032231797 -0.104431969222 0.773 7.28626856652e-39
-0.0313912183798 -0.104161770078 0.771 5.4417674239e-39
-0.0298866162961 -0.103891570934 0.769 1.05117087081e-38
-0.0283894169288 -0.10362137179 0.767 8.11940636459e-39
-0.02693478318 -0.103486272218 0.766 5.72300662439e-39
-0.0255171630126 -0.103486272218 0.766 1.25379624654e-38
-0.0240995428453 -0.103486272218 0.766 0.0
-0.0226819226779 -0.103486272218 0.766 5.51014378246e-40
-0.0212643025105 -0.103486272218 0.766 4.68725368006e-39
-0.0198725918501 -0.10362137179 0.767 5.97652533866e-39
-0.0184531210037 -0.10362137179 0.767 6.06873638281e-39
-0.0170336501573 -0.10362137179 0.767 6.06907689833e-39
-0.0156141793108 -0.10362137179 0.767 5.79285014245e-39
-0.0141947084644 -0.10362137179 0.767 6.16199139431e-39
-0.0128085498412 -0.103891570934 0.769 6.16199139431e-39
-0.0114445993668 -0.104431969222 0.773 6.16199139431e-39
-0.0100269791995 -0.104567068795 0.774 5.88792263806e-39
-0.00861676174839 -0.104837267939 0.776 5.70353137833e-39
-0.00718063479032 -0.104837267939 0.776 5.98011826792e-39
-0.00575931326482 -0.105107467083 0.778 6.25418842547e-39
-0.00434724513466 -0.105782964943 0.783 6.52899566601e-39
-0.0028981634231 -0.105782964943 0.783 2.38774532088e-39
-0.00144908171155 -0.105782964943 0.783 4.41134501893e-39
0.0 -0.106053164087 0.785 2.34994823753e-38
0.00145648442783 -0.106323363232 0.787 1.66813105543e-38
0.00292407293008 -0.106728661948 0.79 2.66329104571e-39
0.00438610939512 -0.106728661948 0.79 2.14663888802e-38
0.00587775672528 -0.107269060236 0.794 1.95404386656e-38
0.00736570269729 -0.10753925938 0.796 1.87117668058e-38
0.00886105138558 -0.107809458525 0.798 1.88968797342e-38
0.0103378932832 -0.107809458525 0.798 1.85281168329e-38
0.0118443460459 -0.108079657669 0.8 1.87132171497e-38
0.0133748576365 -0.108484956385 0.803 1.83433570317e-38
0.0148979665109 -0.108755155529 0.805 1.85284699602e-38
0.0164284781015 -0.109025354673 0.807 1.89894453069e-38
0.0179219761107 -0.109025354673 0.807 1.80678645562e-38
0.0194635917757 -0.109295553818 0.809 1.8344804573e-38
0.021064429171 -0.109835952106 0.813 2.01872682277e-38
0.0226245516267 -0.11010615125 0.815 2.12003257421e-38
0.0241328550685 -0.11010615125 0.815 1.26116861789e-44
0.0256411585103 -0.11010615125 0.815 3.36311631438e-44
0.0272160863986 -0.110376350394 0.817 4.20389539297e-44
0.0287984170032 -0.110646549538 0.819 2.35090560465e-38
0.030388150324 -0.110916748683 0.821 7.34683969264e-40
0.0320630148821 -0.111457146971 0.825 0.0
0.0336712549936 -0.111727346115 0.827 2.05474733992e-38
0.0352868978214 -0.111997545259 0.829 2.31353605746e-38
0.0371764411516 -0.113078341836 0.837 0.0
0.0387254595329 -0.113078341836 0.837 1.84319092856e-39
0.0403707132258 -0.11334854098 0.839 1.51096338149e-38
0.042023369635 -0.113618740124 0.841 2.02038511937e-39
0.0436834287605 -0.113888939268 0.843 1.98037370419e-38
0.0453508906023 -0.114159138413 0.845 1.49267839835e-38
0.0469147144162 -0.114159138413 0.845 4.20389539297e-45
0.0485932803324 -0.114429337557 0.847 3.22298646795e-44
0.0501608055044 -0.114429337557 0.847 2.0648593899e-38
0.0526444168159 -0.116455831138 0.862 1.91738393692e-38
0.0545543176158 -0.117131328999 0.867 1.95415456914e-38
0.0561588563692 -0.117131328999 0.867 1.99096065422e-38
0.0577633951226 -0.117131328999 0.867 1.92656594511e-38
0.059367933876 -0.117131328999 0.867 2.03705832902e-38
0.0609724726294 -0.117131328999 0.867 1.6775308254e-38
0.0627213643502 -0.117401528143 0.869 1.65786346133e-38
0.0644776587873 -0.117671727287 0.871 1.9163387084e-38
0.0662413559407 -0.117941926431 0.873 1.03071443557e-38
0.0680124558104 -0.118212125575 0.875 1.45452692662e-38
0.0696317999964 -0.118212125575 0.875 8.09200537442e-39
0.0712511441823 -0.118212125575 0.875 8.37722426255e-39
0.0731203300427 -0.118617424291 0.878 1.92854541932e-39
0.0747452262659 -0.118617424291 0.878 2.24892849111e-38
0.076370122489 -0.118617424291 0.878 2.09230171838e-38
-0.0625714593456 -0.107265358878 0.805 0.0
-0.0610816626945 -0.107265358878 0.805 9.49542680591e-39
-0.0595918660434 -0.107265358878 0.805 1.00428146237e-38
-0.0579577164249 -0.106998861092 0.803 1.04159411684e-38
-0.0564012953273 -0.106865612199 0.802 3.78068083597e-39
-0.0547801004623 -0.106599114413 0.8 7.1765160682e-39
-0.0531663083135 -0.106332616627 0.798 1.22598901995e-38
-0.051559918881 -0.106066118841 0.796 6.26642596496e-39
-0.0499609321648 -0.105799621055 0.794 7.92708655815e-39
-0.0483693481649 -0.105533123269 0.792 7.2884742103e-39
-0.0467851668813 -0.105266625483 0.79 1.00504531017e-38
-0.0451510172628 -0.104866878804 0.787 1.17095484445e-38
-0.0436945328349 -0.104866878804 0.787 5.25413636212e-39
-0.0421307090211 -0.104600381018 0.785 1.07872796563e-38
-0.0405742879235 -0.104333883232 0.783 1.13422358871e-38
-0.0390252695422 -0.104067385446 0.781 1.10645896159e-38
-0.0375798891887 -0.104067385446 0.781 7.56223187829e-39
-0.0360882418586 -0.103934136553 0.78 7.74732378725e-39
-0.0344670469936 -0.103401140981 0.776 4.6113033033e-39
-0.0329457887983 -0.103134643195 0.774 8.39160298609e-39
-0.0313912183798 -0.102734896516 0.771 5.34777252681e-39
-0.029964344817 -0.102734896516 0.771 1.07883306301e-38
-0.0284634440915 -0.10246839873 0.769 3.22834923717e-39
-0.0269699460823 -0.102201900944 0.767 1.04170495955e-38
-0.0255504752359 -0.102201900944 0.767 1.43803700681e-38
-0.0241310043894 -0.102201900944 0.767 5.51012976948e-40
-0.022711533543 -0.102201900944 0.767 4.5917748079e-40
-0.0212920626966 -0.102201900944 0.767 5.69853154541e-39
-0.0198725918501 -0.102201900944 0.767 5.97759452939e-39
-0.0184531210037 -0.102201900944 0.767 6.06944543983e-39
-0.0170336501573 -0.102201900944 0.767 5.97617501404e-39
-0.0156548942503 -0.10246839873 0.769 5.79359423193e-39
-0.0142317220458 -0.10246839873 0.769 5.88649331362e-39
-0.0128085498412 -0.10246839873 0.769 5.51843666678e-39
-0.0114445993668 -0.103001394302 0.773 6.06872096852e-39
-0.0100528887065 -0.103401140981 0.776 5.97723159309e-39
-0.00863896989722 -0.103667638767 0.778 5.42622562263e-39
-0.00719914158102 -0.103667638767 0.778 5.98081891715e-39
-0.00578152141365 -0.104067385446 0.781 6.25418842547e-39
-0.00435834920908 -0.104600381018 0.785 3.12242648755e-39
-0.00290556613938 -0.104600381018 0.785 0.0
-0.00145648442783 -0.104866878804 0.787 2.27654808384e-38
0.0 -0.104866878804 0.787 1.70529713408e-38
0.00146203646504 -0.105266625483 0.79 2.75590566382e-40
0.00292407293008 -0.105266625483 0.79 2.13748532619e-38
0.00439721346954 -0.105533123269 0.792 2.05535718502e-38
0.00589256215783 -0.106066118841 0.796 1.82518606498e-38
0.00736570269729 -0.106066118841 0.796 1.85302692274e-38
0.00886105138558 -0.106332616627 0.798 1.93575019537e-38
0.0103378932832 -0.106332616627 0.798 1.94482584501e-38
0.0118443460459 -0.106599114413 0.8 1.82507914591e-38
0.0133748576365 -0.106998861092 0.803 1.88965294096e-38
0.0148979665109 -0.107265358878 0.805 1.80682120782e-38
0.0164284781015 -0.107531856664 0.807 1.88064861742e-38
0.0179219761107 -0.107531856664 0.807 1.83451577002e-38
0.0194635917757 -0.10779835445 0.809 2.11077952019e-38
0.021064429171 -0.108331350022 0.813 1.56711046823e-38
0.0226245516267 -0.108597847808 0.815 8.85071600715e-39
0.0241328550685 -0.108597847808 0.815 0.0
0.0256411585103 -0.108597847808 0.815 4.60587046915e-39
0.0272160863986 -0.108864345594 0.817 2.38220738935e-44
0.0287984170032 -0.10913084338 0.819 2.3495476063e-38
0.0304621774868 -0.109663838952 0.823 1.19386145005e-39
0.0320630148821 -0.109930336738 0.825 0.0
0.0337526848727 -0.110463332311 0.829 2.20279564372e-38
0.0353720290586 -0.110729830097 0.831 2.17538680628e-38
0.0371764411516 -0.111529323455 0.837 0.0
0.0387254595329 -0.111529323455 0.837 5.90124197996e-39
0.0403707132258 -0.111795821241 0.839 1.0598181435e-38
0.042023369635 -0.112062319027 0.841 1.56125107883e-39
0.0436834287605 -0.112328816813 0.843 5.61463300375e-39
0.0453508906023 -0.112595314599 0.845 5.04467447157e-44
0.0469147144162 -0.112595314599 0.845 1.01423180251e-39
0.0485932803324 -0.112861812385 0.847 1.79645664386e-38
0.0501608055044 -0.112861812385 0.847 2.00926007073e-38
0.0526444168159 -0.11486054578 0.862 1.94500535134e-38
0.0542397021739 -0.11486054578 0.862 1.95426050731e-38
0.055834987532 -0.11486054578 0.862 1.90805479239e-38
0.0577633951226 -0.115526790245 0.867 1.90801947967e-38
0.059367933876 -0.115526790245 0.867 2.0554608811e-38
0.0611131242387 -0.115793288031 0.869 4.22810562654e-39
0.0628657173177 -0.116059785817 0.871 2.20193090244e-38
0.0646257131129 -0.116326283603 0.873 1.33485211413e-38
0.0663931116244 -0.116592781389 0.875 1.22382849797e-38
0.0682456413732 -0.116992528068 0.878 8.73807823529e-39
0.0698705375964 -0.116992528068 0.878 8.46655423705e-39
0.0714954338195 -0.116992528068 0.878 8.56088964967e-39
0.0731203300427 -0.116992528068 0.878 3.48977547867e-39
-0.0628823734293 -0.106301155083 0.809 5.43237171769e-39
-0.0612334183782 -0.106038358655 0.807 5.71616968918e-39
-0.0595918660434 -0.105775562227 0.805 1.18874727118e-38
-0.0579577164249 -0.105512765799 0.803 1.07836643062e-38
-0.0564012953273 -0.105381367585 0.802 1.16187793364e-38
-0.0547801004623 -0.105118571157 0.8 4.60339997996e-39
-0.0531663083135 -0.104855774729 0.798 2.38888457653e-39
-0.051559918881 -0.104592978302 0.796 1.17044505207e-38
-0.0499609321648 -0.104330181874 0.794 1.00450679117e-38
-0.0483693481649 -0.104067385446 0.792 9.5883286902e-39
-0.0467851668813 -0.103804589018 0.79 5.80443888075e-39
-0.0452657593651 -0.103673190804 0.789 9.7720178994e-39
-0.0438055735791 -0.103673190804 0.789 1.09734673806e-38
-0.0422380484071 -0.103410394376 0.787 7.47003484713e-39
-0.0406779259514 -0.103147597948 0.785 6.64167547682e-39
-0.0391252062119 -0.10288480152 0.783 9.41047308651e-39
-0.0375798891887 -0.102622005092 0.781 1.13422302819e-38
-0.0360882418586 -0.102490606878 0.78 1.02358631054e-38
-0.0344670469936 -0.101965014023 0.776 4.61128788902e-39
-0.0329457887983 -0.101702217595 0.774 1.10631672979e-38
-0.0314726482588 -0.101570819381 0.773 5.53101191919e-39
-0.029964344817 -0.101308022953 0.771 1.00508034263e-38
-0.0284634440915 -0.101045226525 0.769 1.09752848647e-38
-0.0269699460823 -0.100782430097 0.767 9.77383538351e-39
-0.0255504752359 -0.100782430097 0.767 1.37364327861e-38
-0.0241310043894 -0.100782430097 0.767 1.83994412002e-39
-0.022711533543 -0.100782430097 0.767 1.83670992316e-40
-0.0212920626966 -0.100782430097 0.767 7.17114068729e-39
-0.0198725918501 -0.100782430097 0.767 6.07016430594e-39
-0.0185012386595 -0.101045226525 0.769 6.06979576444e-39
-0.0170780664549 -0.101045226525 0.769 5.70353137833e-39
-0.0156548942503 -0.101045226525 0.769 5.51807092788e-39
-0.0142317220458 -0.101045226525 0.769 5.7021020539e-39
-0.0128751742877 -0.101570819381 0.773 5.79429768376e-39
-0.0114594047994 -0.101702217595 0.774 5.70353137833e-39
-0.0100787982134 -0.10222781045 0.778 6.06944543983e-39
-0.00863896989722 -0.10222781045 0.778 5.97976794331e-39
-0.00721764837172 -0.102490606878 0.78 5.42694448874e-39
-0.00579632684621 -0.10288480152 0.783 4.5932377635e-39
-0.00436945328349 -0.103410394376 0.787 0.0
-0.00291296885566 -0.103410394376 0.787 2.1108833564e-38
-0.00145648442783 -0.103410394376 0.787 1.85291762146e-38
0.0 -0.103410394376 0.787 8.2652086672e-40
0.00146203646504 -0.103804589018 0.79 2.04551124162e-38
0.00292407293008 -0.103804589018 0.79 2.00007063566e-38
0.00440831754396 -0.104330181874 0.794 1.93564355656e-38
0.00589256215783 -0.104592978302 0.796 2.05553122628e-38
0.00738420948799 -0.104855774729 0.798 1.93596375326e-38
0.00888325953442 -0.105118571157 0.8 6.16571324303e-44
0.0103638027902 -0.105118571157 0.8 1.37297233691e-38
0.0118887623436 -0.105512765799 0.803 1.97244796008e-38
0.0134081698598 -0.105775562227 0.805 1.82515103252e-38
0.0148979665109 -0.105775562227 0.805 1.88972524796e-38
0.0164284781015 -0.106038358655 0.807 1.85288202848e-38
0.0179663924084 -0.106301155083 0.809 2.02805400548e-38
0.0195117094315 -0.106563951511 0.811 2.48541442255e-39
0.021064429171 -0.106826747939 0.813 1.00893489431e-43
0.0226245516267 -0.107089544367 0.815 7.56701170735e-44
0.0241328550685 -0.107089544367 0.815 6.34820294074e-39
0.0256411585103 -0.107089544367 0.815 3.9492850672e-39
0.0272160863986 -0.107352340794 0.817 0.0
0.0288687428078 -0.10787793365 0.821 2.26596379628e-38
0.0305362046496 -0.108403526506 0.825 1.92854541932e-39
0.0322184719239 -0.108929119362 0.829 3.31943503865e-39
0.0338341147517 -0.10919191579 0.831 2.3503034667e-38
0.035542291533 -0.109717508645 0.835 2.11988964176e-38
0.0371764411516 -0.109980305073 0.837 1.16307772539e-43
0.0387254595329 -0.109980305073 0.837 1.17081233239e-38
0.0403707132258 -0.110243101501 0.839 9.49214636621e-39
0.0421233063048 -0.110768694357 0.843 1.46940297099e-39
0.0436834287605 -0.110768694357 0.843 0.0
0.0453508906023 -0.111031490785 0.845 1.38225103469e-38
0.0470257551603 -0.111294287213 0.847 2.14736279881e-38
0.0487080224347 -0.111557083641 0.849 2.07375581346e-38
0.050575357616 -0.11221407471 0.854 1.93567886928e-38
0.0522779823601 -0.112476871138 0.856 1.89890921797e-38
0.0541138559972 -0.113002463994 0.86 1.90816311276e-38
0.055834987532 -0.113265260422 0.862 1.88968797342e-38
0.0577633951226 -0.113922251492 0.867 2.0832625025e-38
0.0596418343783 -0.114447844348 0.871 1.35477353362e-38
0.061253775848 -0.114447844348 0.871 1.94320300125e-38
0.0630100702851 -0.114710640775 0.873 1.35376642041e-38
0.0646257131129 -0.114710640775 0.873 2.09017510783e-38
0.0663931116244 -0.114973437203 0.875 1.23354229893e-38
0.0682456413732 -0.115367631845 0.878 8.54862268291e-39
0.0698705375964 -0.115367631845 0.878 8.65308808213e-39
0.0714954338195 -0.115367631845 0.878 7.73292404423e-39
0.0731203300427 -0.115367631845 0.878 1.28642001622e-39
-0.0630378304711 -0.105063050785 0.811 1.24406296754e-38
-0.0615369297456 -0.105063050785 0.811 0.0
-0.0598879746946 -0.104803955715 0.809 1.17956526299e-38
-0.0582464223598 -0.104544860646 0.807 9.95247431304e-39
-0.0564716211319 -0.104026670506 0.803 9.77524088587e-39
-0.0549170507134 -0.103897122971 0.802 1.24409982169e-38
-0.0531663083135 -0.103378932832 0.798 1.03194687757e-38
-0.051559918881 -0.103119837762 0.796 2.11831486255e-39
-0.0499609321648 -0.102860742692 0.794 2.29768386858e-39
-0.0484914929835 -0.102860742692 0.794 1.24450031279e-38
-0.0469036103417 -0.102601647623 0.792 8.29438229993e-39
-0.0454378725186 -0.102601647623 0.792 8.38804228669e-39
-0.0438055735791 -0.102213005018 0.789 5.81334693509e-39
-0.0422380484071 -0.101953909948 0.787 1.06050632118e-38
-0.0407815639793 -0.101953909948 0.787 1.09752007868e-38
-0.0391252062119 -0.101435719809 0.783 3.96661772791e-39
-0.0375798891887 -0.101176624739 0.781 7.3810005466e-39
-0.0361345088353 -0.101176624739 0.781 1.03309902516e-38
-0.0346447121842 -0.101047077204 0.78 1.10652734495e-38
-0.0330309200355 -0.100528887065 0.776 1.0511750747e-38
-0.0315133631984 -0.100269791995 0.774 1.16177437769e-38
-0.030042073338 -0.10014024446 0.773 7.28707010924e-39
-0.0285374712543 -0.0998811493901 0.771 7.93274920524e-39
-0.0271105976916 -0.0998811493901 0.771 1.0510694168e-38
-0.0256170996824 -0.0996220543204 0.769 1.39201079823e-38
-0.0241939274778 -0.0996220543204 0.769 2.30128100174e-39
-0.0227707552732 -0.0996220543204 0.769 1.83670992316e-40
-0.0213475830687 -0.0996220543204 0.769 4.40989887892e-39
-0.0199244108641 -0.0996220543204 0.769 5.97830078381e-39
-0.0185012386595 -0.0996220543204 0.769 6.07014889166e-39
-0.0170780664549 -0.0996220543204 0.769 5.61133574847e-39
-0.0156548942503 -0.0996220543204 0.769 5.61098542385e-39
-0.0142317220458 -0.0996220543204 0.769 5.61133574847e-39
-0.0128918303993 -0.100269791995 0.774 5.97688126847e-39
-0.0114890156645 -0.100528887065 0.776 6.43821955149e-39
-0.0100787982134 -0.100787982134 0.778 5.98011826792e-39
-0.00866117804606 -0.101047077204 0.78 6.07196357317e-39
-0.00722690176707 -0.101176624739 0.781 5.24290355363e-39
-0.00582593771132 -0.101953909948 0.787 0.0
-0.00436945328349 -0.101953909948 0.787 2.04565697666e-38
-0.00291296885566 -0.101953909948 0.787 2.14747476255e-38
-0.00146018578597 -0.102213005018 0.789 1.37760390859e-39
0.0 -0.102342552553 0.79 2.17311390017e-38
0.00146203646504 -0.102342552553 0.79 2.00922055412e-38
0.00293147564636 -0.102601647623 0.792 1.98184632875e-38
0.00440831754396 -0.102860742692 0.794 2.04624103786e-38
0.00589256215783 -0.103119837762 0.796 1.57604332555e-38
0.00738420948799 -0.103378932832 0.798 0.0
0.00888325953442 -0.103638027902 0.8 0.0
0.0103897122971 -0.103897122971 0.802 1.84216041367e-38
0.0118887623436 -0.104026670506 0.803 2.05531612697e-38
0.0133748576365 -0.104026670506 0.803 1.88050372316e-38
0.0148979665109 -0.104285765576 0.805 1.93578578835e-38
0.0164284781015 -0.104544860646 0.807 1.85281168329e-38
0.018010808706 -0.105063050785 0.811 2.03723825574e-38
0.0195117094315 -0.105063050785 0.811 5.74532370373e-44
0.021012610157 -0.105063050785 0.811 0.0
0.0225690312546 -0.105322145855 0.813 1.15986440788e-38
0.0241328550685 -0.105581240925 0.815 2.16532730499e-38
0.0256411585103 -0.105581240925 0.815 1.65303893084e-39
0.0272160863986 -0.105840335994 0.817 0.0
0.0290797202217 -0.107135811343 0.827 2.04505161572e-38
0.0306102318124 -0.107135811343 0.827 2.38772290011e-39
0.0322184719239 -0.107394906413 0.829 6.45226896989e-39
0.0339969745099 -0.108172191622 0.835 2.35041248772e-38
0.035542291533 -0.108172191622 0.835 1.61288430296e-38
0.0371764411516 -0.108431286692 0.837 1.54142831076e-44
0.0387254595329 -0.108431286692 0.837 1.84247906894e-38
0.0404669485374 -0.108949476832 0.841 1.14265422066e-38
0.0421233063048 -0.109208571901 0.843 3.08285662151e-44
0.0436834287605 -0.109208571901 0.843 5.5325617553e-39
0.0453508906023 -0.109467666971 0.845 2.14729875947e-38
0.0470257551603 -0.109726762041 0.847 2.01858178838e-38
0.0487080224347 -0.109985857111 0.849 1.9081628325e-38
0.050575357616 -0.110633594785 0.854 1.88976014029e-38
0.0522779823601 -0.110892689855 0.856 1.89890753641e-38
0.0541138559972 -0.111410879994 0.86 1.94504066406e-38
0.055834987532 -0.111669975064 0.862 1.89887250395e-38
0.0578966440156 -0.112576807808 0.869 1.87121353473e-38
0.0596418343783 -0.112835902878 0.871 6.61589438768e-39
0.061253775848 -0.112835902878 0.871 2.32196066383e-38
0.0630100702851 -0.113094997948 0.873 1.14145260723e-38
0.0646257131129 -0.113094997948 0.873 2.02542180644e-38
0.0663931116244 -0.113354093017 0.875 8.83091565985e-39
0.0682456413732 -0.113742735622 0.878 8.92354849483e-39
0.0698705375964 -0.113742735622 0.878 8.10312187513e-39
0.0714954338195 -0.113742735622 0.878 3.58338782129e-39
0.0731203300427 -0.113742735622 0.878 1.70412228545e-38
-0.0630378304711 -0.10356215006 0.811 1.53916283153e-38
-0.0615369297456 -0.10356215006 0.811 4.62428493227e-44
-0.0600360290201 -0.10356215006 0.811 1.30871131167e-38
-0.0583907753272 -0.103306756348 0.809 1.03169478397e-38
-0.0567529243505 -0.103051362636 0.807 1.20747338308e-38
-0.054985525839 -0.102540575213 0.803 1.05992534283e-38
-0.0534328060995 -0.102412878357 0.802 1.0600364658e-38
-0.051559918881 -0.101646697223 0.796 9.59014337172e-39
-0.0500867783416 -0.101646697223 0.796 6.72457489268e-39
-0.0484914929835 -0.101391303511 0.794 3.68032684645e-39
-0.0470220538022 -0.101391303511 0.794 9.86026607149e-39
-0.0454378725186 -0.101135909799 0.792 1.17035144533e-38
-0.0438610939512 -0.100880516088 0.79 8.848940562e-39
-0.0423453877931 -0.100752819232 0.789 8.20620979796e-39
-0.0407815639793 -0.10049742552 0.787 8.57816205454e-39
-0.0393250795514 -0.10049742552 0.787 1.22609649954e-38
-0.0376761245004 -0.0999866380971 0.783 9.8667344652e-39
-0.0362270427888 -0.0999866380971 0.783 5.90126299944e-39
-0.0346891284819 -0.0997312443855 0.781 1.01430186743e-38
-0.0331160512727 -0.0993481538181 0.778 1.05142674791e-38
-0.0315947930774 -0.0990927601065 0.776 1.02359051443e-38
-0.0300809375984 -0.0988373663949 0.774 1.0697232217e-38
-0.0286114984171 -0.098709669539 0.773 1.05110444926e-38
-0.0271105976916 -0.0984542758274 0.771 9.95823925492e-39
-0.0256837241289 -0.0984542758274 0.771 1.37357293343e-38
-0.0242568505662 -0.0984542758274 0.771 2.94665321338e-39
-0.0228299770035 -0.0984542758274 0.771 0.0
-0.0214031034407 -0.0984542758274 0.771 5.24042745924e-39
-0.019976229878 -0.0984542758274 0.771 6.06944543983e-39
-0.0185493563153 -0.0984542758274 0.771 6.25311082695e-39
-0.0171224827526 -0.0984542758274 0.771 5.51772060326e-39
-0.0156956091899 -0.0984542758274 0.771 5.79429768376e-39
-0.0142687356272 -0.0984542758274 0.771 6.06979576444e-39
-0.0128918303993 -0.0988373663949 0.774 6.16199139431e-39
-0.0115186265296 -0.0993481538181 0.778 6.43821955149e-39
-0.0100787982134 -0.0993481538181 0.778 6.43821955149e-39
-0.00867228212048 -0.0997312443855 0.781 6.71481484887e-39
-0.00724540855776 -0.0999866380971 0.783 7.34702186144e-40
-0.00582593771132 -0.10049742552 0.787 1.4550343368e-38
-0.00436945328349 -0.10049742552 0.787 2.31306704286e-38
-0.00292037157194 -0.100752819232 0.789 3.12246292131e-39
-0.00146203646504 -0.100880516088 0.79 1.64770993291e-38
0.0 -0.100880516088 0.79 2.09194606883e-38
0.00146573782318 -0.101135909799 0.792 2.07400888797e-38
0.00293887836264 -0.101391303511 0.794 1.92674601196e-38
0.00441942161837 -0.101646697223 0.796 2.10194769649e-44
0.00590736759039 -0.101902090934 0.798 2.80259692865e-44
0.00740271627868 -0.102157484646 0.8 2.5836454449e-39
0.00888325953442 -0.102157484646 0.8 0.0
0.0103897122971 -0.102412878357 0.802 2.25749813187e-38
0.0118887623436 -0.102540575213 0.803 2.19339279089e-38
0.0133748576365 -0.102540575213 0.803 1.78845074548e-38
0.0148979665109 -0.102795968925 0.805 1.89022523125e-38
0.016469193041 -0.103306756348 0.809 2.00050279611e-38
0.018010808706 -0.10356215006 0.811 2.04638593212e-38
0.0195117094315 -0.10356215006 0.811 5.6051938573e-44
0.021012610157 -0.10356215006 0.811 0.0
0.0225690312546 -0.103817543771 0.813 1.92541786128e-38
0.0241328550685 -0.104072937483 0.815 2.35033976033e-38
0.0256411585103 -0.104072937483 0.815 0.0
0.0276158330776 -0.105860693464 0.829 0.0
0.0291500460264 -0.105860693464 0.829 1.78722559023e-38
0.0306842589751 -0.105860693464 0.829 2.11221641163e-39
0.0322962004448 -0.106116087176 0.831 6.54518907106e-39
0.0339969745099 -0.106626874599 0.835 2.35066247936e-38
0.035542291533 -0.106626874599 0.835 9.1835496158e-41
0.0371764411516 -0.106882268311 0.837 7.00649232162e-45
0.0387254595329 -0.106882268311 0.837 1.99064185882e-38
0.0404669485374 -0.107393055734 0.841 2.01840452412e-38
0.0421233063048 -0.107648449446 0.843 1.308890818e-38
0.0436834287605 -0.107648449446 0.843 2.12924863395e-38
0.0454582299883 -0.108159236869 0.847 1.95397352138e-38
0.0471367959045 -0.10841463058 0.849 1.91723904266e-38
0.048822764537 -0.108670024292 0.851 1.89890781667e-38
0.050575357616 -0.109053114859 0.854 1.91745456236e-38
0.0522779823601 -0.109308508571 0.856 1.90809220706e-38
0.0542397021739 -0.110074689706 0.862 1.93571544317e-38
0.055834987532 -0.110074689706 0.862 2.11999782201e-38
0.0578966440156 -0.110968567697 0.869 2.93877791601e-39
0.0596418343783 -0.111223961408 0.871 2.34933194647e-38
0.061253775848 -0.111223961408 0.871 1.21576332466e-38
0.0630100702851 -0.11147935512 0.873 1.54672437817e-38
0.0647737674385 -0.111734748831 0.875 1.64770965265e-38
0.06662074515 -0.112117839399 0.878 6.61717797707e-39
0.068401098415 -0.11237323311 0.88 8.74386139405e-39
0.0700296959964 -0.11237323311 0.88 7.36451427017e-39
0.0716582935777 -0.11237323311 0.88 5.88614298901e-39
-0.063193287513 -0.102312941688 0.813 1.69593239658e-38
-0.0616886854293 -0.102312941688 0.813 4.20389539297e-44
-0.0601840833457 -0.102312941688 0.813 1.36431539525e-38
-0.0585351282946 -0.102061249334 0.811 1.02244116943e-38
-0.0568935759598 -0.101809556981 0.809 1.16162836239e-38
-0.0552594263413 -0.101557864627 0.807 9.77197305785e-39
-0.0536326794391 -0.101306172274 0.805 9.76916205313e-39
-0.0519485614857 -0.100928633744 0.802 1.07858124968e-38
-0.0503384706951 -0.10067694139 0.8 1.09662983377e-38
-0.0486136378021 -0.100173556683 0.796 1.13328948315e-38
-0.0471404972627 -0.100173556683 0.796 5.8039316107e-39
-0.0455526146209 -0.0999218643297 0.794 1.19390348901e-39
-0.0439721346954 -0.0996701719762 0.792 1.16159459109e-38
-0.0423990574862 -0.0994184796227 0.79 9.58693579953e-39
-0.0408852020072 -0.099292633446 0.789 7.56037515783e-39
-0.0393250795514 -0.0990409410925 0.787 6.91580308761e-39
-0.037772359812 -0.098789248739 0.785 1.10634783862e-38
-0.0362270427888 -0.0985375563856 0.783 1.16173934523e-38
-0.0346891284819 -0.0982858640321 0.781 8.29835077718e-39
-0.0331160512727 -0.0979083255019 0.778 5.16549582646e-39
-0.0316762229565 -0.0979083255019 0.778 1.00529978597e-38
-0.0300809375984 -0.0974049407949 0.774 1.0604317721e-38
-0.0286114984171 -0.0972790946182 0.773 1.04188516653e-38
-0.0271809234963 -0.0972790946182 0.773 1.03270189718e-38
-0.0256837241289 -0.0970274022647 0.771 1.28134157045e-38
-0.0242568505662 -0.0970274022647 0.771 6.08130182614e-39
-0.0228299770035 -0.0970274022647 0.771 0.0
-0.0214031034407 -0.0970274022647 0.771 1.38204041953e-38
-0.019976229878 -0.0970274022647 0.771 3.95545218174e-39
-0.0185493563153 -0.0970274022647 0.771 6.43783699701e-39
-0.0171224827526 -0.0970274022647 0.771 5.61098542385e-39
-0.0156956091899 -0.0970274022647 0.771 6.62296954362e-39
-0.0143242559993 -0.0974049407949 0.774 6.25490729158e-39
-0.0129251426226 -0.0976566331484 0.776 6.06979576444e-39
-0.0115186265296 -0.0979083255019 0.778 6.6222604866e-39
-0.0100787982134 -0.0979083255019 0.778 6.07083132401e-39
-0.00867228212048 -0.0982858640321 0.781 3.76527496066e-39
-0.00726391534846 -0.098789248739 0.785 1.12103877146e-44
-0.00582593771132 -0.0990409410925 0.787 2.35012732348e-38
-0.00436945328349 -0.0990409410925 0.787 1.09633892421e-38
-0.00292037157194 -0.099292633446 0.789 7.8103359753e-39
-0.00146203646504 -0.0994184796227 0.79 2.34976789042e-38
0.0 -0.0996701719762 0.792 2.10166379342e-38
0.00146943918132 -0.0999218643297 0.794 1.09688038593e-38
0.00294628107892 -0.100173556683 0.796 2.24207754292e-44
0.00441942161837 -0.100173556683 0.796 9.36473750724e-41
0.00590736759039 -0.100425249037 0.798 4.23598652911e-39
0.00742122306938 -0.100928633744 0.802 1.01019045774e-39
0.00890546768326 -0.100928633744 0.802 2.75507189123e-39
0.0104026670506 -0.10105447992 0.803 2.32181997346e-38
0.0118887623436 -0.10105447992 0.803 4.692333387e-39
0.0134081698598 -0.101306172274 0.805 5.88545355016e-44
0.0148979665109 -0.101306172274 0.805 2.66246708222e-44
0.0165099079805 -0.102061249334 0.811 1.94536982907e-38
0.0180552250037 -0.102312941688 0.813 2.00929075917e-38
0.0195598270874 -0.102312941688 0.813 3.50324616081e-44
0.0211162481849 -0.102564634041 0.815 4.34402523941e-44
0.0226800719988 -0.102816326395 0.817 2.24885268086e-38
0.024251298529 -0.103068018748 0.819 2.13847394226e-38
0.025767004687 -0.103068018748 0.819 1.40129846432e-44
0.0278157064172 -0.105081557576 0.835 3.13464861276e-39
0.029220371831 -0.104578172869 0.831 1.42820395536e-38
0.0307582861379 -0.104578172869 0.831 4.04078985692e-39
0.0323739289658 -0.104829865222 0.833 1.74924087302e-39
0.0339969745099 -0.105081557576 0.835 6.99038299448e-39
0.035542291533 -0.105081557576 0.835 1.92854541932e-39
0.0372652737469 -0.105584942283 0.839 7.28388355653e-39
0.0388179934863 -0.105584942283 0.839 2.12921360149e-38
0.0404669485374 -0.105836634636 0.841 1.98188402367e-38
0.0421233063048 -0.10608832699 0.843 2.0095425725e-38
0.0436834287605 -0.10608832699 0.843 1.93571516291e-38
0.0456729087604 -0.107095096404 0.851 1.89894481095e-38
0.047414397765 -0.107472634934 0.854 2.0095425725e-38
0.0489948776905 -0.107472634934 0.854 1.9909239402e-38
0.0506938010764 -0.107724327287 0.856 2.00021524967e-38
0.0522779823601 -0.107724327287 0.856 1.9541896016e-38
0.0542397021739 -0.108479404348 0.862 2.00032272926e-38
0.0559645350669 -0.108731096701 0.864 1.17038227389e-38
0.0578966440156 -0.109360327585 0.869 2.02632158019e-38
0.0596418343783 -0.109612019938 0.871 1.74167274027e-38
0.0613944274573 -0.109863712292 0.873 1.38134523536e-38
0.0631544232525 -0.110115404645 0.875 1.48207645443e-38
0.0647737674385 -0.110115404645 0.875 1.38981216094e-38
0.06662074515 -0.110492943176 0.878 8.00189627797e-39
0.068401098415 -0.110744635529 0.88 8.8374387042e-39
0.0701888543963 -0.110996327883 0.882 3.76529037494e-39
0.0718211533358 -0.110996327883 0.882 2.0180823656e-38
-0.0651753647966 -0.10155231259 0.819 1.90776640517e-38
-0.063193287513 -0.100808339604 0.813 1.96337062888e-38
-0.0616886854293 -0.100808339604 0.813 8.26766093952e-44
-0.0601840833457 -0.100808339604 0.813 1.20769016395e-38
-0.0585351282946 -0.100560348609 0.811 7.34683969264e-40
-0.0568935759598 -0.100312357613 0.809 1.05150732257e-38
-0.0553963765925 -0.100312357613 0.809 1.00500327121e-38
-0.0537659283321 -0.100064366618 0.807 1.05932068255e-38
-0.0520133352531 -0.0995683846274 0.803 1.16141312294e-38
-0.0504643168718 -0.0994443891297 0.802 8.85005459427e-39
-0.0488579274393 -0.0991963981344 0.8 1.07844083957e-38
-0.0472589407231 -0.098948407139 0.798 1.07850656047e-38
-0.0456673567232 -0.0987004161437 0.796 4.78635631006e-39
-0.0440831754396 -0.0984524251484 0.794 1.83993851482e-39
-0.0426137362582 -0.0984524251484 0.794 8.75108228504e-39
-0.0409370210211 -0.0979564431577 0.79 1.20744829983e-38
-0.0394250162212 -0.09783244766 0.789 7.09974733313e-39
-0.0378685951236 -0.0975844566647 0.787 7.65625760395e-39
-0.0364121106958 -0.0975844566647 0.787 5.26017315591e-39
-0.0348667936726 -0.0973364656693 0.785 1.1154659476e-38
-0.0332011825099 -0.096716488181 0.78 1.20780184744e-38
-0.0317576528356 -0.096716488181 0.78 1.93761602428e-39
-0.0302363946403 -0.0964684971857 0.778 7.93276742212e-39
-0.0286485119985 -0.095972515195 0.774 9.96255805679e-39
-0.0271809234963 -0.0958485196973 0.773 1.07894320507e-38
-0.0257503485754 -0.0958485196973 0.773 1.24468051977e-38
-0.0243197736545 -0.0958485196973 0.773 5.71360531299e-39
-0.0228891987337 -0.0958485196973 0.773 0.0
-0.0214586238128 -0.0958485196973 0.773 9.30748465588e-39
-0.020028048892 -0.0958485196973 0.773 4.0486539439e-39
-0.0185974739711 -0.0958485196973 0.773 5.97834002017e-39
-0.0171668990503 -0.0958485196973 0.773 5.88651012921e-39
-0.0157363241294 -0.0958485196973 0.773 6.06944543983e-39
-0.0143612695806 -0.0962205061903 0.776 6.06946085411e-39
-0.0129251426226 -0.0962205061903 0.776 6.53040537227e-39
-0.0115186265296 -0.0964684971857 0.778 6.16199139431e-39
-0.0101176624739 -0.0968404836787 0.781 5.97689107756e-39
-0.00871669841815 -0.0973364656693 0.785 9.1835496158e-40
-0.00728242213916 -0.0975844566647 0.787 2.21171855182e-38
-0.00582593771132 -0.0975844566647 0.787 1.92627881905e-38
-0.00438055735791 -0.09783244766 0.789 2.66335270285e-39
-0.00292037157194 -0.09783244766 0.789 2.34965522603e-38
-0.00146203646504 -0.0979564431577 0.79 1.73292008993e-38
0.0 -0.098204434153 0.792 4.62428493227e-44
0.00146943918132 -0.0984524251484 0.794 0.0
0.00295368379519 -0.098948407139 0.798 2.40033318499e-39
0.00443052569279 -0.098948407139 0.798 2.85661698445e-39
0.00590736759039 -0.098948407139 0.798 0.0
0.00743047646473 -0.0995683846274 0.803 1.00288352703e-38
0.00893877990651 -0.0998163756227 0.805 1.97136924052e-38
0.0104285765576 -0.0998163756227 0.805 3.76536604506e-39
0.0119183732087 -0.0998163756227 0.805 0.0
0.0134081698598 -0.0998163756227 0.805 3.31868954787e-39
0.0149349800922 -0.100064366618 0.807 0.0
0.0165099079805 -0.100560348609 0.811 1.15230272111e-38
0.0180552250037 -0.100808339604 0.813 1.82497124592e-38
0.0195598270874 -0.100808339604 0.813 4.7644147787e-44
0.021064429171 -0.100808339604 0.813 9.40366417728e-39
0.0230687146034 -0.103040258562 0.831 2.15676467072e-38
0.0246066289103 -0.103040258562 0.831 2.04627607032e-38
0.0261445432172 -0.103040258562 0.831 8.54792063238e-44
0.0277490819706 -0.103288249557 0.833 7.46749989821e-39
0.0293610234403 -0.103536240553 0.835 1.08740270377e-38
0.0309063404635 -0.103536240553 0.835 3.4036993192e-39
0.0324516574867 -0.103536240553 0.835 4.23668297444e-39
0.0339969745099 -0.103536240553 0.835 2.20800637206e-39
0.0357125540074 -0.104032222543 0.839 1.26116861789e-44
0.0372652737469 -0.104032222543 0.839 1.87947068593e-38
0.0388179934863 -0.104032222543 0.839 2.07386217202e-38
0.040563183849 -0.104528204534 0.843 1.88976014029e-38
0.0422232429745 -0.104776195529 0.845 1.9081628325e-38
0.0437870667884 -0.104776195529 0.845 1.90816409367e-38
0.0456729087604 -0.105520168515 0.851 1.93589565015e-38
0.047414397765 -0.105892155008 0.854 2.0002876968e-38
0.0489948776905 -0.105892155008 0.854 1.04952434511e-38
0.0506938010764 -0.106140146004 0.856 1.82266456852e-38
0.0524001271787 -0.106388136999 0.858 2.15690900447e-38
0.0542397021739 -0.10688411899 0.862 1.69625497548e-38
0.0559645350669 -0.107132109985 0.864 1.1042321582e-38
0.0578966440156 -0.107752087473 0.869 2.33121708096e-38
0.0596418343783 -0.108000078469 0.871 1.26116861789e-44
0.0613944274573 -0.108248069464 0.873 1.59339868729e-38
0.0633709527037 -0.108868046952 0.878 1.53732152535e-38
0.0649958489268 -0.108868046952 0.878 9.18794408778e-39
0.0669242565174 -0.109364028943 0.882 8.7449151705e-39
0.0687897410197 -0.109736015436 0.885 6.71877491833e-39
0.0705867503963 -0.109984006431 0.887 1.28836824147e-38
0.0723911624893 -0.110231997427 0.889 2.05538647215e-38
-0.0651753647966 -0.100036606432 0.819 1.91698610829e-38
-0.0633487445548 -0.0995480271576 0.815 1.9264926572e-38
-0.0618404411131 -0.0995480271576 0.815 5.88545355016e-44
-0.0601840833457 -0.0993037375204 0.813 1.43821525198e-38
-0.0586794812621 -0.0993037375204 0.813 7.91702523518e-39
-0.0570342275691 -0.0990594478832 0.811 0.0
-0.0553963765925 -0.098815158246 0.809 9.95959150794e-39
-0.0538991772251 -0.098815158246 0.809 1.10552345473e-38
-0.052142882788 -0.0983265789716 0.805 1.09669863752e-38
-0.0506530861369 -0.0983265789716 0.805 9.31316551985e-39
-0.0489800722579 -0.0979601445158 0.802 7.834152444e-39
-0.0473773841836 -0.0977158548786 0.8 9.77164095011e-39
-0.0458968409278 -0.0977158548786 0.8 1.12403432719e-38
-0.0441942161837 -0.0972272756042 0.796 1.05960332445e-38
-0.0427210756443 -0.0972272756042 0.796 2.8559345521e-39
-0.041040659049 -0.0967386963298 0.792 7.64542556682e-39
-0.0394749845561 -0.0964944066926 0.79 1.14307559111e-38
-0.0379648304352 -0.096372261874 0.789 1.16134642114e-38
-0.0364121106958 -0.0961279722369 0.787 8.38796941917e-39
-0.0348667936726 -0.0958836825997 0.785 8.295143205e-39
-0.0332437481285 -0.0953951033253 0.781 9.95779364201e-39
-0.0317576528356 -0.0952729585067 0.78 1.19868962391e-38
-0.0302363946403 -0.0950286688695 0.778 1.03291573532e-38
-0.0287225391613 -0.0947843792323 0.776 2.76910869795e-39
-0.0272160863986 -0.0945400895951 0.774 7.10739001495e-39
-0.0257836607987 -0.0945400895951 0.774 1.17142722216e-38
-0.0243512351987 -0.0945400895951 0.774 7.09654536614e-39
-0.0229188095988 -0.0945400895951 0.774 9.1835496158e-41
-0.0214863839989 -0.0945400895951 0.774 2.20410795973e-39
-0.020053958399 -0.0945400895951 0.774 6.34675539943e-39
-0.018621532799 -0.0945400895951 0.774 5.42659416413e-39
-0.0172335234968 -0.0947843792323 0.776 6.06873638281e-39
-0.0158381114782 -0.0950286688695 0.778 6.3449533296e-39
-0.0144352967434 -0.0952729585067 0.78 6.25490729158e-39
-0.0130084231807 -0.0953951033253 0.781 6.43821955149e-39
-0.0115630428273 -0.0953951033253 0.781 6.53006485674e-39
-0.0101435719809 -0.0956393929625 0.783 2.84691719648e-39
-0.00871669841815 -0.0958836825997 0.785 9.11805712947e-39
-0.00730092892985 -0.096372261874 0.789 2.26740138838e-38
-0.00584074314388 -0.096372261874 0.789 2.11227246357e-39
-0.00438055735791 -0.096372261874 0.789 1.89726073045e-38
-0.00292407293008 -0.0964944066926 0.79 2.17517016553e-38
-0.00146203646504 -0.0964944066926 0.79 1.40129846432e-45
0.0 -0.096982985967 0.794 9.2304510754e-40
0.0014768418976 -0.0974715652414 0.798 4.14378389275e-39
0.00295368379519 -0.0974715652414 0.798 3.96226109098e-39
0.00444162976721 -0.0977158548786 0.8 0.0
0.00592217302295 -0.0977158548786 0.8 1.47444007845e-38
0.00743047646473 -0.0980822893344 0.803 2.35022317229e-38
0.00893877990651 -0.0983265789716 0.805 1.35441578212e-38
0.0104285765576 -0.0983265789716 0.805 3.22298646795e-44
0.0119183732087 -0.0983265789716 0.805 5.43021932325e-39
0.013441482083 -0.0985708686088 0.807 3.22001291261e-39
0.0150460208364 -0.0993037375204 0.813 2.10194769649e-44
0.0165913378596 -0.0995480271576 0.815 1.05967366963e-38
0.0180996413014 -0.0995480271576 0.815 1.44707482139e-38
0.0197041800548 -0.100036606432 0.819 4.7644147787e-44
0.0213753432547 -0.100769475344 0.825 1.40033437098e-38
0.0231242349755 -0.101746633892 0.833 2.2027199736e-38
0.0246066289103 -0.101502344255 0.831 1.90801793824e-38
0.0261445432172 -0.101502344255 0.831 0.0
0.0277490819706 -0.101746633892 0.833 1.64818651452e-38
0.0293610234403 -0.10199092353 0.835 4.97169204495e-39
0.0309063404635 -0.10199092353 0.835 2.39494379109e-39
0.0324516574867 -0.10199092353 0.835 4.96629144067e-39
0.0339969745099 -0.10199092353 0.835 1.28569694621e-39
0.0358828164819 -0.102968082078 0.843 1.63071204241e-38
0.0374429389376 -0.102968082078 0.843 2.11989230423e-38
0.0390030613933 -0.102968082078 0.843 1.88039652382e-38
0.0406594191607 -0.103212371716 0.845 1.80674946134e-38
0.0423231796443 -0.103456661353 0.847 1.90816409367e-38
0.0438907048163 -0.103456661353 0.847 1.90819968665e-38
0.0458339178395 -0.104311675083 0.854 2.01879842912e-38
0.047414397765 -0.104311675083 0.854 8.1003220808e-39
0.0491096197928 -0.10455596472 0.856 2.0077302732e-38
0.0508122445369 -0.104800254357 0.858 1.80436837499e-38
0.0524001271787 -0.104800254357 0.858 1.96290595831e-38
0.0542397021739 -0.105288833632 0.862 5.1450256585e-39
0.0559645350669 -0.105533123269 0.864 2.35037283097e-38
0.0578966440156 -0.106143847362 0.869 4.20389539297e-45
0.0596418343783 -0.106388136999 0.871 1.18802728403e-38
0.0613944274573 -0.106632426636 0.873 1.84225051716e-38
0.0633709527037 -0.107243150729 0.878 1.27063635084e-38
0.0651439032524 -0.107487440366 0.88 8.55548764409e-39
0.0673036457267 -0.108342454097 0.887 8.46903033144e-39
0.0689451980615 -0.108342454097 0.887 5.51880520827e-39
0.0705867503963 -0.108342454097 0.887 2.15683893954e-38
0.0723911624893 -0.108586743734 0.889 7.83553272298e-39
0.0740364161822 -0.108586743734 0.889 1.30017516195e-38
-0.0635042015967 -0.0982803119949 0.817 2.0278000902e-38
-0.0619921967968 -0.0982803119949 0.817 8.54792063238e-44
-0.0603321376713 -0.0980397237158 0.815 1.53037486847e-38
-0.0588238342295 -0.0980397237158 0.815 1.1604771957e-38
-0.0570342275691 -0.0975585471577 0.811 1.18907223229e-38
-0.0555333268436 -0.0975585471577 0.811 0.0
-0.0538991772251 -0.0973179588787 0.809 1.92890415172e-39
-0.0522724303229 -0.0970773705996 0.807 1.26219366772e-38
-0.0507789323136 -0.0970773705996 0.807 1.15233397006e-38
-0.0490411446672 -0.0965961940415 0.803 9.48862910706e-39
-0.047495827644 -0.096475899902 0.802 1.24449428721e-38
-0.0458968409278 -0.0962353116229 0.8 8.57165022058e-39
-0.0443052569279 -0.0959947233438 0.798 1.05971402703e-38
-0.0427210756443 -0.0957541350648 0.796 1.15240809875e-38
-0.0411442970769 -0.0955135467857 0.794 7.65048005038e-39
-0.0394749845561 -0.0950323702276 0.79 6.72914452697e-39
-0.0379648304352 -0.0949120760881 0.789 6.72311053578e-39
-0.0365046446493 -0.0949120760881 0.789 1.26279104125e-38
-0.0349556262679 -0.094671487809 0.787 8.47912948947e-39
-0.0333288793657 -0.0941903112509 0.783 8.84900362043e-39
-0.0317983677751 -0.0939497229719 0.781 7.10055307974e-39
-0.0303141231612 -0.0938294288323 0.78 9.59159231433e-39
-0.0287965663241 -0.0935888405533 0.778 1.13418981742e-38
-0.0272864122032 -0.0933482522742 0.776 8.66927868459e-39
-0.0257836607987 -0.0931076639951 0.774 1.16195584584e-38
-0.0243512351987 -0.0931076639951 0.774 7.74191477518e-39
-0.022978031329 -0.0933482522742 0.776 0.0
-0.021541904371 -0.0933482522742 0.776 3.95215492646e-39
-0.0201057774129 -0.0933482522742 0.776 5.15215546508e-39
-0.0186696504548 -0.0933482522742 0.776 6.07231389779e-39
-0.0172779397944 -0.0935888405533 0.778 6.07231389779e-39
-0.0158788264178 -0.0938294288323 0.78 6.43856987611e-39
-0.0144538035341 -0.0939497229719 0.781 6.62296954362e-39
-0.0130084231807 -0.0939497229719 0.781 6.53184730838e-39
-0.0115926536924 -0.0941903112509 0.783 6.43929855131e-39
-0.0101694814878 -0.09443089953 0.785 1.19386145005e-39
-0.00873890656699 -0.094671487809 0.787 2.34987326807e-38
-0.0073101823252 -0.0950323702276 0.79 1.61273604558e-38
-0.00586295129272 -0.0952729585067 0.792 3.30613531492e-39
-0.00439721346954 -0.0952729585067 0.792 2.22987825888e-38
-0.00293887836264 -0.0955135467857 0.794 2.10170302978e-38
-0.00146943918132 -0.0955135467857 0.794 0.0
0.0 -0.0957541350648 0.796 2.58006792992e-39
0.0014768418976 -0.0959947233438 0.798 4.14161748532e-39
0.00296848922775 -0.096475899902 0.802 4.0508441734e-39
0.00445273384163 -0.096475899902 0.802 0.0
0.00595918660434 -0.0968367823205 0.805 2.2112250145e-38
0.00744898325543 -0.0968367823205 0.805 2.31310263584e-38
0.00900540435302 -0.0975585471577 0.811 0.0
0.0105063050785 -0.0975585471577 0.811 2.10194769649e-44
0.012007205804 -0.0975585471577 0.811 2.1008594481e-38
0.013574730976 -0.0980397237158 0.815 8.74815216995e-39
0.0151570615806 -0.0985209002739 0.819 0.0
0.0166727677387 -0.0985209002739 0.819 1.15115085377e-38
0.0181884738967 -0.0985209002739 0.819 1.03201245833e-38
0.0197522977106 -0.098761488553 0.821 1.40129846432e-45
0.0213753432547 -0.0992426651111 0.825 1.80484523686e-38
0.0230131942314 -0.0997238416692 0.829 2.35030458773e-38
0.0246066289103 -0.0999644299483 0.831 9.49148495333e-39
0.0261445432172 -0.0999644299483 0.831 2.24207754292e-44
0.0277490819706 -0.100205018227 0.833 2.20121063503e-38
0.0293610234403 -0.100445606506 0.835 5.51012976948e-40
0.0309803676263 -0.100686194785 0.837 0.0
0.0325293860076 -0.100686194785 0.837 2.18427440166e-38
0.0340784043889 -0.100686194785 0.837 1.82482509049e-38
0.0358828164819 -0.101407959623 0.843 2.10155813551e-38
0.0374429389376 -0.101407959623 0.843 1.92645874577e-38
0.0390030613933 -0.101407959623 0.843 1.87135674743e-38
0.0406594191607 -0.101648547902 0.845 1.88972454731e-38
0.0425230529838 -0.102370312739 0.851 1.95422519459e-38
0.044253437914 -0.102731195157 0.854 1.96340944485e-38
0.0459412572255 -0.102971783436 0.856 9.58223724578e-39
0.0475254385092 -0.102971783436 0.856 2.12816262764e-38
0.0492243618951 -0.103212371716 0.858 1.91646342396e-38
0.0509306879973 -0.103452959995 0.86 2.10011115472e-38
0.0526444168159 -0.103693548274 0.862 5.142835429e-39
0.0543655483507 -0.103934136553 0.864 2.34994179156e-38
0.0561588563692 -0.104295018971 0.867 1.13321759654e-38
0.0578966440156 -0.10453560725 0.869 8.40779078595e-45
0.0597787846294 -0.105016783808 0.873 1.57467467734e-38
0.0613944274573 -0.105016783808 0.873 1.81412127217e-38
0.0635153056711 -0.105858842785 0.88 6.52749487535e-39
0.0655140390664 -0.106460313483 0.885 9.02077899008e-39
0.0673036457267 -0.106700901762 0.887 7.27015083158e-39
0.0689451980615 -0.106700901762 0.887 1.50031183161e-38
0.0707459087963 -0.106941490041 0.889 2.09223193371e-38
0.0723911624893 -0.106941490041 0.889 0.0
0.0744528189729 -0.107542960739 0.894 1.70516218904e-38
-0.0635042015967 -0.096768307195 0.817 2.00014098085e-38
-0.0619921967968 -0.096768307195 0.817 3.92363570011e-44
-0.0604801919968 -0.096768307195 0.817 1.48388497023e-38
-0.0588238342295 -0.096531420274 0.815 9.29955470787e-39
-0.0571748791784 -0.0962945333531 0.813 1.21669939204e-38
-0.0556702770948 -0.0962945333531 0.813 1.24456491265e-38
-0.0540324261181 -0.0960576464322 0.811 2.66548688041e-39
-0.0524019778577 -0.0958207595113 0.809 8.40779078595e-45
-0.0507789323136 -0.0955838725904 0.807 1.24455664499e-38
-0.0491632894858 -0.0953469856695 0.805 1.03183925784e-38
-0.0475550493743 -0.0951100987485 0.803 1.17953177196e-38
-0.0458968409278 -0.0947547683672 0.8 1.02333267552e-38
-0.0444162976721 -0.0947547683672 0.8 8.20077696381e-39
-0.0428284150303 -0.0945178814462 0.798 1.20764938616e-38
-0.0412479351048 -0.0942809945253 0.796 8.75715551258e-39
-0.0395749212258 -0.0938072206835 0.792 1.35487750997e-38
-0.038012948091 -0.0935703337626 0.79 5.5220660298e-39
-0.0365046446493 -0.0934518903021 0.789 4.04434915502e-39
-0.0349556262679 -0.0932150033812 0.787 8.84790360113e-39
-0.0333288793657 -0.0927412295394 0.783 1.18914986423e-38
-0.0317983677751 -0.0925043426184 0.781 7.28563798221e-39
-0.0303529874217 -0.0925043426184 0.781 7.6533863434e-39
-0.0288705934869 -0.092385899158 0.78 5.44274132633e-39
-0.0273567380079 -0.0921490122371 0.778 9.12926751719e-39
-0.0259169096917 -0.0921490122371 0.778 1.30928934729e-38
-0.0244770813755 -0.0921490122371 0.778 8.66422560232e-39
-0.0230372530593 -0.0921490122371 0.778 0.0
-0.021541904371 -0.0919121253161 0.776 3.86180901057e-39
-0.0201057774129 -0.0919121253161 0.776 6.07088877725e-39
