# .PCD v0.7 - Point Cloud Data file format
VERSION 0.7
FIELDS x y z rgb
SIZE 4 4 4 4
TYPE F F F F
COUNT 1 1 1 1
WIDTH 848
HEIGHT 1
VIEWPOINT 0 0 0 1 0 0 0
POINTS 848
DATA ascii
-0.0225671805756 -0.0902687223023 0.871 6.43924670327e-40
-0.0209552391059 -0.0902687223023 0.871 1.28856820677e-39
-0.0192988813385 -0.0900614462465 0.869 1.01270158459e-39
-0.017690641227 -0.0900614462465 0.869 1.19744877412e-39
-0.0160824011154 -0.0900614462465 0.869 1.10489581315e-39
-0.0144408487806 -0.0898541701907 0.867 1.01234285218e-39
-0.0128363100272 -0.0898541701907 0.867 1.19744877412e-39
-0.0112576807808 -0.0900614462465 0.869 1.19744877412e-39
-0.00962723252043 -0.0898541701907 0.867 2.30449698171e-39
-0.00802269376702 -0.0898541701907 0.867 2.11939105977e-39
-0.00641815501362 -0.0898541701907 0.867 2.02719683121e-39
-0.00482472033463 -0.0900614462465 0.869 2.11903653126e-39
-0.00321648022309 -0.0900614462465 0.869 2.30306765728e-39
-0.00161194146968 -0.0902687223023 0.871 2.3037795169e-39
0.0 -0.0906832744139 0.875 3.67341984632e-40
0.00162489622317 -0.0909941884976 0.878 1.37298060457e-38
0.00325719516262 -0.0912014645534 0.88 3.30787152372e-39
0.00492465700439 -0.0919269307487 0.887 9.92793197173e-39
0.00656620933919 -0.0919269307487 0.887 2.20405190779e-39
0.00822626846469 -0.0921342068045 0.889 1.04944068759e-38
0.00989373030646 -0.0923414828603 0.891 1.35364296602e-38
0.011581549618 -0.092652396944 0.894 1.5750219191e-38
0.0132656675714 -0.0928596729998 0.896 5.06135552849e-39
0.015007156576 -0.0933778631393 0.901 2.7597550307e-39
0.0167116319991 -0.0935851391951 0.903 7.18039626364e-39
0.018382795199 -0.0935851391951 0.903 1.29897593072e-38
0.0201649991431 -0.0941033293346 0.908 1.10575957352e-38
0.0218454157384 -0.0941033293346 0.908 3.22464560533e-39
0.0235776513476 -0.0943106053904 0.91 6.71983149737e-39
0.0254005702312 -0.0948287955299 0.915 4.32164930553e-39
0.02709394158 -0.0948287955299 0.915 3.86678642271e-39
0.0291019283706 -0.095865175809 0.925 3.40688166802e-39
0.0309137431798 -0.0961760898927 0.928 3.58230181498e-39
0.0326311733564 -0.0961760898927 0.928 1.17563952534e-38
0.0345336714401 -0.0966942800322 0.933 1.41426664083e-38
0.036338083533 -0.096901556088 0.935 1.41426664083e-38
0.0381906132817 -0.0972124701717 0.938 1.42345019045e-38
0.0400116814863 -0.0974197462275 0.94 1.43263374006e-38
0.0417513198118 -0.0974197462275 0.94 1.41426664083e-38
0.0436297590675 -0.0977306603112 0.943 1.3958995416e-38
0.0456155377093 -0.0982488504507 0.948 1.33161469429e-38
0.0475198864719 -0.0985597645344 0.951 1.96707874488e-38
0.0496944343788 -0.0993888687576 0.959 1.73813207944e-38
0.0517375840717 -0.0999070588971 0.964 1.28569694621e-38
0.0536881998112 -0.100217972981 0.967 1.48773503776e-38
0.055649919625 -0.100528887065 0.97 1.51528568661e-38
0.0574450783226 -0.100528887065 0.97 1.53365278584e-38
0.0592402370202 -0.100528887065 0.97 1.47855148814e-38
0.0612241649829 -0.100839801148 0.973 1.37753244237e-38
-0.0620384637735 -0.0922193380417 0.906 2.16410509247e-38
-0.0600286263038 -0.0917104012975 0.901 2.34903697314e-38
-0.0581668431598 -0.0914050392511 0.898 2.93873587706e-39
-0.0565049333552 -0.0914050392511 0.898 8.56194622871e-39
-0.054720878732 -0.0912014645534 0.896 4.23196620381e-39
-0.0529442268251 -0.0909978898557 0.894 2.66323359248e-39
-0.0511176065834 -0.0906925278092 0.891 4.31770605165e-39
-0.0493576107881 -0.0904889531116 0.889 0.0
-0.0476050177091 -0.0902853784139 0.887 0.0
-0.0459634653743 -0.0902853784139 0.887 3.21424236553e-39
-0.0442219763698 -0.0900818037162 0.885 6.7040178442e-39
-0.0425841253931 -0.0900818037162 0.885 1.11160480981e-38
-0.0409462744165 -0.0900818037162 0.885 4.5917748079e-39
-0.0391751745468 -0.0897764416697 0.882 0.0
-0.0374577443701 -0.0895728669721 0.88 1.17905154697e-38
-0.0358291467888 -0.0895728669721 0.88 4.40811502597e-39
-0.0341228206866 -0.0893692922744 0.878 1.1307304319e-38
-0.0324979244634 -0.0893692922744 0.878 1.42747177691e-38
-0.0307675395333 -0.0890639302279 0.875 1.08653782236e-38
-0.0291481953473 -0.0890639302279 0.875 1.65303893084e-39
-0.0275288511614 -0.0890639302279 0.875 0.0
-0.0258502852452 -0.0888603555303 0.873 6.90566749582e-39
-0.0242346424173 -0.0888603555303 0.873 6.99278061615e-39
-0.0225671805756 -0.0886567808326 0.871 4.22443282327e-39
-0.0209552391059 -0.0886567808326 0.871 3.5891205333e-39
-0.0193432976362 -0.0886567808326 0.871 2.38808163251e-39
-0.017690641227 -0.0884532061349 0.869 1.29071919991e-39
-0.0160824011154 -0.0884532061349 0.869 1.01306031699e-39
-0.0144741610039 -0.0884532061349 0.869 1.19709004172e-39
-0.0128659208924 -0.0884532061349 0.869 1.01270158459e-39
-0.0112576807808 -0.0884532061349 0.869 1.38183723125e-39
-0.00964944066926 -0.0884532061349 0.869 1.84280837408e-39
-0.00804120055772 -0.0884532061349 0.869 2.39704994269e-39
-0.00643296044618 -0.0884532061349 0.869 2.3037795169e-39
-0.00482472033463 -0.0884532061349 0.869 2.11974979218e-39
-0.00322388293937 -0.0886567808326 0.871 2.3037795169e-39
-0.00161564282782 -0.0888603555303 0.873 2.58036360389e-39
0.0 -0.0893692922744 0.878 3.03882361987e-39
0.00162859758131 -0.0895728669721 0.88 2.75506488474e-40
0.0032645978789 -0.0897764416697 0.882 0.0
0.00491355292998 -0.0900818037162 0.885 2.02574928989e-38
0.00656620933919 -0.0902853784139 0.887 1.04003699399e-38
0.00824477525538 -0.0906925278092 0.891 1.06838358036e-38
0.00989373030646 -0.0906925278092 0.891 9.65603102421e-39
0.011607459125 -0.0912014645534 0.896 1.22310851082e-38
0.0132656675714 -0.0912014645534 0.896 1.56120343469e-39
0.015007156576 -0.0917104012975 0.901 9.8612623947e-39
0.0167116319991 -0.0919139759952 0.903 1.39106828489e-38
0.0184438676083 -0.0922193380417 0.906 9.57607853903e-39
0.0201649991431 -0.0924229127394 0.908 4.22981380937e-39
0.0218935333942 -0.092626487437 0.91 4.2380898781e-39
0.0237071988825 -0.0931354241812 0.915 5.06603306276e-39
0.0254838507894 -0.0934407862277 0.918 5.79963242702e-39
0.0271827741753 -0.0934407862277 0.918 5.43120863997e-39
0.0291963130031 -0.094458659716 0.928 5.3390144114e-39
0.0309803676263 -0.0946622344137 0.93 3.86354802196e-39
0.0327014991611 -0.0946622344137 0.93 9.64811368789e-39
0.0345336714401 -0.0949675964602 0.933 1.36834889275e-38
0.0364546763144 -0.0954765332043 0.938 1.4510008393e-38
0.0382720431608 -0.095680107902 0.94 1.43263374006e-38
0.0400116814863 -0.095680107902 0.94 1.43263374006e-38
0.0417513198118 -0.095680107902 0.94 1.4510008393e-38
0.0437685599977 -0.096290831995 0.946 1.3958995416e-38
0.0456155377093 -0.0964944066926 0.948 1.96815227963e-38
0.0476697914766 -0.0971051307856 0.954 1.44221806104e-38
0.0496944343788 -0.0976140675298 0.959 1.34998221391e-38
0.0517375840717 -0.098123004274 0.964 1.55201988507e-38
0.0536881998112 -0.0984283663205 0.967 1.48773503776e-38
0.055649919625 -0.0987337283669 0.97 1.50610213699e-38
0.0574450783226 -0.0987337283669 0.97 1.49691858738e-38
0.0592402370202 -0.0987337283669 0.97 1.46018438891e-38
0.0612241649829 -0.0990390904134 0.973 1.19386145005e-38
-0.0638558306199 -0.0907424961441 0.908 2.21949631882e-38
-0.0620384637735 -0.0905426228046 0.906 2.21949477739e-38
-0.0601618751969 -0.0902428127953 0.903 2.34892949355e-38
-0.0583611644621 -0.0900429394558 0.901 3.21424236553e-39
-0.0565049333552 -0.0897431294465 0.898 0.0
-0.0548430235506 -0.0897431294465 0.898 1.1020259539e-39
-0.0530626702856 -0.089543256107 0.896 6.34747146294e-39
-0.0511176065834 -0.0890435727582 0.891 1.02224849089e-38
-0.0494686515323 -0.0890435727582 0.891 6.16733594665e-39
-0.0477123570952 -0.0888436994186 0.889 6.53108219942e-39
-0.0459634653743 -0.0886438260791 0.887 2.47955839627e-39
-0.0443219130396 -0.0886438260791 0.887 1.56120343469e-39
-0.0425841253931 -0.0884439527396 0.885 5.41829427332e-39
-0.0409462744165 -0.0884439527396 0.885 2.20405190779e-39
-0.0391751745468 -0.0881441427303 0.882 4.5917748079e-40
-0.0375428756073 -0.0881441427303 0.882 2.75506488474e-40
-0.0358291467888 -0.0879442693908 0.88 1.28987155447e-38
-0.0342005492075 -0.0879442693908 0.88 1.54674960155e-38
-0.0324979244634 -0.0877443960512 0.878 6.79690291291e-39
-0.0308730282403 -0.0877443960512 0.878 7.4386751888e-39
-0.0291481953473 -0.087444586042 0.875 2.38772290011e-39
-0.0275288511614 -0.087444586042 0.875 0.0
-0.0259095069754 -0.087444586042 0.875 1.12359558064e-38
-0.0242901627894 -0.087444586042 0.875 1.25241905041e-38
-0.0226189995895 -0.0872447127024 0.873 5.14314651725e-39
-0.0209552391059 -0.0870448393629 0.871 7.2675780476e-39
-0.0193432976362 -0.0870448393629 0.871 2.47955839627e-39
-0.017690641227 -0.0868449660234 0.869 1.38183723125e-39
-0.0160824011154 -0.0868449660234 0.869 1.38183723125e-39
-0.0144741610039 -0.0868449660234 0.869 1.38147849885e-39
-0.0128659208924 -0.0868449660234 0.869 1.47367272741e-39
-0.0112576807808 -0.0868449660234 0.869 1.01306031699e-39
-0.00964944066926 -0.0868449660234 0.869 5.34156617591e-39
-0.00804120055772 -0.0868449660234 0.869 2.85515122626e-39
-0.00643296044618 -0.0868449660234 0.869 2.39597374547e-39
-0.00482472033463 -0.0868449660234 0.869 2.67291516357e-39
-0.00322388293937 -0.0870448393629 0.871 2.67291516357e-39
-0.00161934418596 -0.087444586042 0.875 0.0
0.0 -0.0877443960512 0.878 1.31798524504e-38
0.00162859758131 -0.0879442693908 0.88 1.92854541932e-39
0.0032645978789 -0.0881441427303 0.882 5.05095228869e-39
0.00491355292998 -0.0884439527396 0.885 1.97021681266e-38
0.00656620933919 -0.0886438260791 0.887 6.88766221185e-39
0.00824477525538 -0.0890435727582 0.891 1.36401061284e-38
0.00992704252972 -0.0893433827674 0.894 6.90452263497e-39
0.011607459125 -0.089543256107 0.896 5.69634551981e-39
0.0132952784365 -0.0897431294465 0.898 1.37287648809e-38
0.015007156576 -0.0900429394558 0.901 1.19792479521e-38
0.0167671523712 -0.0905426228046 0.906 5.24574398562e-39
0.0184438676083 -0.0905426228046 0.906 6.25557571095e-39
0.0201649991431 -0.0907424961441 0.908 6.53469194427e-39
0.0218935333942 -0.0909423694836 0.91 6.53504226888e-39
0.0237071988825 -0.0914420528324 0.915 6.16841774907e-39
0.0254838507894 -0.0917418628417 0.918 6.16912400349e-39
0.0271827741753 -0.0917418628417 0.918 6.26131963335e-39
0.0291963130031 -0.0927412295394 0.928 6.07656964122e-39
0.0309803676263 -0.0929411028789 0.93 5.70779132566e-39
0.0327014991611 -0.0929411028789 0.93 6.43745304123e-39
0.0346076986028 -0.0934407862277 0.935 1.27687282965e-38
0.0364546763144 -0.093740596237 0.938 1.46936793853e-38
0.0382720431608 -0.0939404695765 0.94 1.4510008393e-38
0.0401393783421 -0.0942402795858 0.943 1.46018438891e-38
0.0418845687048 -0.0942402795858 0.943 1.4601848093e-38
0.0438610939512 -0.0947399629346 0.948 1.99663563274e-38
0.0457598906767 -0.0950397729439 0.951 1.23977919813e-38
0.0477697281463 -0.0955394562927 0.956 1.47855232892e-38
0.0498498914207 -0.0961390763113 0.962 1.49691970841e-38
0.0518985931508 -0.0966387596601 0.967 1.44181728968e-38
0.0538547609274 -0.0969385696694 0.97 1.71811298945e-38
0.055649919625 -0.0969385696694 0.97 1.36834889275e-38
0.0574450783226 -0.0969385696694 0.97 1.57039006716e-38
0.0592402370202 -0.0969385696694 0.97 1.76568314868e-38
-0.0638558306199 -0.0890620795488 0.908 2.11804231e-38
-0.0620384637735 -0.0888659075675 0.906 2.15488552948e-38
-0.0601618751969 -0.0885716495954 0.903 2.34910871962e-38
-0.058490711997 -0.0885716495954 0.903 5.88608133188e-39
-0.0566937026203 -0.088375477614 0.901 0.0
-0.0548430235506 -0.0880812196419 0.898 8.56987757802e-39
-0.0530626702856 -0.0878850476605 0.896 1.83670992316e-39
-0.0512897197369 -0.0876888756792 0.894 8.26519465422e-40
-0.0494686515323 -0.0873946177071 0.891 5.70743259326e-39
-0.0477123570952 -0.0871984457257 0.889 7.63885627962e-39
-0.0459634653743 -0.0870022737443 0.887 9.02580124377e-39
-0.0443219130396 -0.0870022737443 0.887 6.6290161465e-39
-0.0426803607048 -0.0870022737443 0.887 1.65303893084e-39
-0.0409462744165 -0.0868061017629 0.885 1.37753664627e-39
-0.0393084234398 -0.0868061017629 0.885 1.65303893084e-39
-0.0375428756073 -0.0865118437908 0.882 0.0
-0.0359105766679 -0.0865118437908 0.882 3.6773659028e-39
-0.0342005492075 -0.0863156718095 0.88 7.16532109476e-39
-0.0324979244634 -0.0861194998281 0.878 1.1674591653e-38
-0.0308730282403 -0.0861194998281 0.878 8.0815236619e-39
-0.0291481953473 -0.085825241856 0.875 3.30607786169e-39
-0.0275288511614 -0.085825241856 0.875 0.0
-0.0259095069754 -0.085825241856 0.875 3.6795491258e-39
-0.0242901627894 -0.085825241856 0.875 1.00377223051e-38
-0.0226708186035 -0.085825241856 0.875 5.60483512489e-39
-0.0210033567617 -0.0856290698746 0.873 1.04796792291e-38
-0.0193432976362 -0.0854328978932 0.871 2.57139389242e-39
-0.0177313561665 -0.0854328978932 0.871 2.1154450033e-39
-0.0160824011154 -0.0852367259118 0.869 1.38183723125e-39
-0.0144741610039 -0.0852367259118 0.869 1.01270158459e-39
-0.0128659208924 -0.0852367259118 0.869 1.65841991695e-39
-0.0112576807808 -0.0852367259118 0.869 8.28671859863e-40
-0.00964944066926 -0.0852367259118 0.869 2.39597374547e-39
-0.00804120055772 -0.0852367259118 0.869 2.94770418723e-39
-0.00643296044618 -0.0852367259118 0.869 2.39704994269e-39
-0.00483582440905 -0.0854328978932 0.871 1.75133161033e-39
-0.00322388293937 -0.0854328978932 0.871 1.01019045774e-39
-0.00161934418596 -0.085825241856 0.875 1.0314752005e-38
0.0 -0.0863156718095 0.88 9.38515722846e-39
0.00162859758131 -0.0863156718095 0.88 1.53785023526e-38
0.0032831046696 -0.0870022737443 0.887 1.51011993995e-38
0.00492465700439 -0.0870022737443 0.887 1.70301105577e-38
0.00658101477175 -0.0871984457257 0.889 7.25501260427e-39
0.00824477525538 -0.0873946177071 0.891 8.09050598506e-39
0.00994925067855 -0.0878850476605 0.896 1.06784029695e-38
0.011633368632 -0.0880812196419 0.898 1.34532415769e-38
0.0132952784365 -0.0880812196419 0.898 6.99815599706e-39
0.0150404687992 -0.0885716495954 0.903 2.75506488474e-39
0.0167671523712 -0.0888659075675 0.906 9.66464620717e-39
0.0184438676083 -0.0888659075675 0.906 1.57538513566e-38
0.0201649991431 -0.0890620795488 0.908 5.3336334253e-39
0.0218935333942 -0.0892582515302 0.91 6.81235222848e-39
0.0238367464174 -0.0902391114372 0.92 6.90490659075e-39
0.0255393711615 -0.0902391114372 0.92 6.99745254523e-39
0.0272419959056 -0.0902391114372 0.92 6.90633871778e-39
0.0291963130031 -0.0910237993627 0.928 7.09106769044e-39
0.0309803676263 -0.0912199713441 0.93 6.63009935021e-39
0.0327014991611 -0.0912199713441 0.93 5.52125047409e-39
0.0346076986028 -0.0917104012975 0.935 1.29606599433e-38
0.0364546763144 -0.0920046592696 0.938 1.49691858738e-38
0.0382720431608 -0.092200831251 0.94 1.46018438891e-38
0.0401393783421 -0.0924950892231 0.943 1.46936793853e-38
0.0420178175978 -0.0927893471952 0.946 1.70864581702e-38
0.0439998948814 -0.0932797771486 0.951 1.28569694621e-38
0.0459042436441 -0.0935740351207 0.954 1.42345019045e-38
0.047919633151 -0.0940644650742 0.959 1.41426664083e-38
0.0499535294486 -0.0945548950276 0.964 1.47855148814e-38
0.0518985931508 -0.0948491529997 0.967 1.671909937e-38
0.0538547609274 -0.0951434109718 0.97 2.03413522042e-38
0.055649919625 -0.0951434109718 0.97 1.3426672958e-38
0.0574450783226 -0.0951434109718 0.97 1.76654648866e-38
0.0594234542481 -0.0954376689439 0.973 1.24089126859e-38
-0.0637151790106 -0.0871891923303 0.906 2.13648213662e-38
-0.0620384637735 -0.0871891923303 0.906 2.11815189154e-38
-0.0601618751969 -0.0869004863955 0.903 2.34874858592e-38
-0.058490711997 -0.0869004863955 0.903 6.89950038128e-39
-0.0566937026203 -0.0867080157722 0.901 0.0
-0.0550262407785 -0.0867080157722 0.901 2.11509187608e-39
-0.0531811137461 -0.0864193098374 0.898 3.86247182474e-39
-0.0514044618392 -0.0862268392141 0.896 9.02938576525e-39
-0.0494686515323 -0.085745662656 0.891 4.0569580386e-39
-0.0477123570952 -0.0855531920328 0.889 2.30449698171e-39
-0.0460671034023 -0.0855531920328 0.889 1.744874427e-39
-0.0443219130396 -0.0853607214095 0.887 4.87230915526e-39
-0.0426803607048 -0.0853607214095 0.887 5.7992792998e-39
-0.0409462744165 -0.0851682507863 0.885 8.56915871191e-39
-0.0393084234398 -0.0851682507863 0.885 7.73965167816e-39
-0.0376705724632 -0.0851682507863 0.885 5.51012976948e-40
-0.0359105766679 -0.0848795448514 0.882 6.42849874404e-40
-0.0342782777284 -0.0848795448514 0.882 0.0
-0.0325719516262 -0.0846870742281 0.88 4.49993931174e-39
-0.0308730282403 -0.0844946036049 0.878 6.06114274643e-39
-0.0292481320171 -0.0844946036049 0.878 1.65303893084e-39
-0.0276232357939 -0.0844946036049 0.878 4.78911266414e-39
-0.0259095069754 -0.08420589767 0.875 5.15211482743e-39
-0.0242901627894 -0.08420589767 0.875 7.63884787183e-39
-0.0226708186035 -0.08420589767 0.875 6.71331826211e-39
-0.0210033567617 -0.0840134270468 0.873 8.64402308236e-39
-0.0193432976362 -0.0838209564235 0.871 2.75506488474e-39
-0.0177313561665 -0.0838209564235 0.871 1.28749060825e-39
-0.0161194146968 -0.0838209564235 0.871 1.01270158459e-39
-0.0144741610039 -0.0836284858003 0.869 1.01270158459e-39
-0.0128659208924 -0.0836284858003 0.869 1.28964300269e-39
-0.0112576807808 -0.0836284858003 0.869 1.19744877412e-39
-0.00964944066926 -0.0836284858003 0.869 2.67327389597e-39
-0.00804120055772 -0.0836284858003 0.869 2.58179713222e-39
-0.00644776587873 -0.0838209564235 0.871 2.39704994269e-39
-0.00483582440905 -0.0838209564235 0.871 2.76511079343e-39
-0.00323128565565 -0.0840134270468 0.873 3.67341984632e-40
-0.00162489622317 -0.0844946036049 0.878 7.64282195427e-39
0.0 -0.0846870742281 0.88 1.5924568746e-38
0.00163785097666 -0.0851682507863 0.885 1.62966134882e-38
0.0032831046696 -0.0853607214095 0.887 1.41807480954e-38
0.00492465700439 -0.0853607214095 0.887 7.53342118187e-39
0.00658101477175 -0.0855531920328 0.889 9.83971743081e-39
0.00824477525538 -0.085745662656 0.891 1.65771254148e-38
0.00994925067855 -0.0862268392141 0.896 1.2799332655e-38
0.011633368632 -0.0864193098374 0.898 3.58588913904e-39
0.0132952784365 -0.0864193098374 0.898 7.44765330806e-39
0.0150404687992 -0.0869004863955 0.903 1.11440922843e-38
0.0167671523712 -0.0871891923303 0.906 1.42830148573e-38
0.0184845825479 -0.0873816629536 0.908 6.16661007405e-39
0.0202094154408 -0.0875741335768 0.91 6.81053474437e-39
0.0218935333942 -0.0875741335768 0.91 6.6301091593e-39
0.0238367464174 -0.0885364866931 0.92 7.0903712451e-39
0.0254838507894 -0.0883440160698 0.918 7.36802732542e-39
0.0271827741753 -0.0883440160698 0.918 7.64461841891e-39
0.0291963130031 -0.089306369186 0.928 7.55314445775e-39
0.0309803676263 -0.0894988398093 0.93 8.01303379816e-39
0.0328069878681 -0.0897875457442 0.933 6.44643116049e-39
0.0346076986028 -0.0899800163674 0.935 1.22292255852e-38
0.0365324048353 -0.0904611929255 0.94 1.58918526307e-38
0.0383941879794 -0.0907498988604 0.943 1.51528568661e-38
0.0402670751979 -0.0910386047953 0.946 1.51528568661e-38
0.0421066501932 -0.0912310754185 0.948 1.42345019045e-38
0.0439998948814 -0.0915197813534 0.951 1.46018438891e-38
0.0460004789557 -0.0920009579115 0.956 1.42345019045e-38
0.047919633151 -0.0922896638464 0.959 1.95796582071e-38
0.0499535294486 -0.0927708404045 0.964 1.74807485256e-38
0.0518985931508 -0.0930595463393 0.967 1.96033135264e-38
0.0538547609274 -0.0933482522742 0.97 1.8228034372e-38
0.055649919625 -0.0933482522742 0.97 1.51865777123e-38
0.0576227435133 -0.0936369582091 0.973 1.37082414636e-38
0.0594234542481 -0.0936369582091 0.973 1.92245089204e-38
-0.0637151790106 -0.0855124770932 0.906 2.12722684052e-38
-0.0620384637735 -0.0855124770932 0.906 2.14559337924e-38
-0.0603617485364 -0.0855124770932 0.906 2.34882061266e-38
-0.058490711997 -0.0852293231956 0.903 7.6374129422e-39
-0.056819548797 -0.0852293231956 0.903 1.83670992316e-40
-0.0550262407785 -0.0850405539305 0.901 4.5917748079e-40
-0.0533587789368 -0.0850405539305 0.901 0.0
-0.0514044618392 -0.0845686307677 0.896 0.0
-0.0497462533928 -0.0845686307677 0.896 4.5917748079e-40
-0.0479807055603 -0.0843798615026 0.894 3.13030038362e-39
-0.0461707414302 -0.0840967076049 0.891 6.81596757852e-39
-0.0444218497093 -0.0839079383398 0.889 9.12228764954e-39
-0.0427765960164 -0.0839079383398 0.889 2.02038091548e-39
-0.04103880837 -0.0837191690747 0.887 5.51012976948e-40
-0.0393972560352 -0.0837191690747 0.887 3.12889347996e-39
-0.0377557037004 -0.0837191690747 0.887 1.65735072622e-39
-0.0360327214865 -0.0835303998096 0.885 8.11181272821e-39
-0.0343948705098 -0.0835303998096 0.885 5.8975607689e-39
-0.0327570195332 -0.0835303998096 0.885 2.84690318349e-39
-0.0309433540449 -0.0830584766468 0.88 5.51012976948e-40
-0.0292481320171 -0.0828697073817 0.878 0.0
-0.0276232357939 -0.0828697073817 0.878 2.75506488474e-40
-0.0259983395707 -0.0828697073817 0.878 4.5132124108e-39
-0.0243734433476 -0.0828697073817 0.878 4.9677263703e-39
-0.0227485471244 -0.0828697073817 0.878 5.79711569497e-39
-0.0210514744175 -0.0825865534841 0.875 5.24717891525e-39
-0.0193877139339 -0.082397784219 0.873 2.94232320112e-39
-0.0177313561665 -0.0822090149539 0.871 1.56263836431e-39
-0.0161194146968 -0.0822090149539 0.871 1.10489581315e-39
-0.0145074732272 -0.0822090149539 0.871 4.63482269672e-40
-0.0128955317575 -0.0822090149539 0.871 1.38183723125e-39
-0.0112835902878 -0.0822090149539 0.871 1.01270158459e-39
-0.0096716488181 -0.0822090149539 0.871 2.85407502904e-39
-0.00805970734842 -0.0822090149539 0.871 2.02719683121e-39
-0.00644776587873 -0.0822090149539 0.871 2.02719683121e-39
-0.00484692848347 -0.082397784219 0.873 2.39597374547e-39
-0.00323128565565 -0.082397784219 0.873 1.5669431532e-39
-0.00162859758131 -0.0830584766468 0.88 1.03179623798e-38
0.0 -0.0830584766468 0.88 1.11465529644e-38
0.00163785097666 -0.0835303998096 0.885 7.16354705091e-39
0.0032831046696 -0.0837191690747 0.887 5.78563625795e-39
0.00492465700439 -0.0837191690747 0.887 1.26005668756e-38
0.00658101477175 -0.0839079383398 0.889 1.35429891383e-38
0.00827253544143 -0.0843798615026 0.894 4.23268366863e-39
0.00994925067855 -0.0845686307677 0.896 2.93873587706e-39
0.011633368632 -0.0847574000328 0.898 9.20372270849e-39
0.0132952784365 -0.0847574000328 0.898 1.46482198618e-38
0.0150904371341 -0.0855124770932 0.906 5.15178692359e-39
0.0167671523712 -0.0855124770932 0.906 1.05866053084e-38
0.0184845825479 -0.0857012463583 0.908 6.53041798395e-39
0.0202094154408 -0.0858900156234 0.91 6.81450602422e-39
0.0219657098779 -0.0861731695211 0.913 7.09216911103e-39
0.0238367464174 -0.086833861949 0.92 7.36696093729e-39
0.0254838507894 -0.0866450926839 0.918 7.91941585036e-39
0.0271827741753 -0.0866450926839 0.918 8.19672440866e-39
0.0291963130031 -0.0875889390094 0.928 8.38254219022e-39
0.0309803676263 -0.0877777082745 0.93 8.56657331624e-39
0.0328069878681 -0.0880608621722 0.933 7.36803012802e-39
0.034718739347 -0.0885327853349 0.938 1.12229839865e-38
0.0365324048353 -0.0887215546 0.94 1.44253545514e-38
0.0383941879794 -0.0890047084977 0.943 1.57049460402e-38
0.0402670751979 -0.0892878623953 0.946 1.53383215204e-38
0.0421066501932 -0.0894766316605 0.948 1.52446923622e-38
0.0439998948814 -0.0897597855581 0.951 1.41426664083e-38
0.0460004789557 -0.0902317087209 0.956 2.03143533867e-38
0.0480695381556 -0.0907980165162 0.962 1.277992327e-38
0.0501089864904 -0.091269939679 0.967 1.68453913941e-38
0.0520596022298 -0.0915530935766 0.97 1.94223021986e-38
0.0540213220437 -0.0918362474743 0.973 2.12743913724e-38
0.0558220327785 -0.0918362474743 0.973 7.89928759921e-39
0.0577411869737 -0.0920250167394 0.975 1.32271855099e-38
-0.0637151790106 -0.0838357618561 0.906 2.12726215325e-38
-0.0620384637735 -0.0838357618561 0.906 2.17321521405e-38
-0.0603617485364 -0.0838357618561 0.906 2.34864068594e-38
-0.058490711997 -0.0835581599956 0.903 8.46680366818e-39
-0.056819548797 -0.0835581599956 0.903 9.1835496158e-41
-0.0550262407785 -0.0833730920887 0.901 8.27243936728e-40
-0.0533587789368 -0.0833730920887 0.901 4.59536213197e-40
-0.0514044618392 -0.0829104223213 0.896 7.36118898891e-40
-0.0497462533928 -0.0829104223213 0.896 9.1835496158e-41
-0.0479807055603 -0.0827253544143 0.894 4.5917748079e-40
-0.0461707414302 -0.0824477525538 0.891 0.0
-0.0445217863791 -0.0824477525538 0.891 6.42851275703e-40
-0.0427765960164 -0.0822626846469 0.889 8.563689444e-39
-0.0411313423234 -0.0822626846469 0.889 7.64673998478e-39
-0.0393972560352 -0.0820776167399 0.887 5.62245365048e-39
-0.0377557037004 -0.0820776167399 0.887 2.94196446872e-39
-0.0361141513656 -0.0820776167399 0.887 0.0
-0.0344725990308 -0.0820776167399 0.887 2.29589721304e-39
-0.0327570195332 -0.0818925488329 0.885 8.56620757734e-39
-0.0311191685565 -0.0818925488329 0.885 7.834420092e-39
-0.0293813809101 -0.0816149469725 0.882 9.30623609895e-39
-0.0276861588823 -0.0814298790655 0.88 3.21639475997e-39
-0.0259983395707 -0.0812448111586 0.878 0.0
-0.0243734433476 -0.0812448111586 0.878 0.0
-0.0227485471244 -0.0812448111586 0.878 1.83670992316e-40
-0.0211236509012 -0.0812448111586 0.878 3.21854855571e-39
-0.0194321302315 -0.0809672092981 0.875 1.28677314343e-39
-0.0178127860456 -0.0809672092981 0.875 1.38183723125e-39
-0.0161564282782 -0.0807821413911 0.873 1.10525454556e-39
-0.0145407854504 -0.0807821413911 0.873 1.19673130931e-39
-0.0128955317575 -0.0805970734842 0.871 1.01306031699e-39
-0.0112835902878 -0.0805970734842 0.871 1.10489581315e-39
-0.0096716488181 -0.0805970734842 0.871 2.94555319408e-39
-0.00805970734842 -0.0805970734842 0.871 2.94734545482e-39
-0.00646257131129 -0.0807821413911 0.873 2.48816797403e-39
-0.00485803255789 -0.0809672092981 0.875 2.76511079343e-39
-0.00324979244634 -0.0812448111586 0.878 9.1835496158e-40
-0.00162859758131 -0.0814298790655 0.88 1.19773856264e-38
0.0 -0.0814298790655 0.88 3.12671165825e-39
0.00163785097666 -0.0818925488329 0.885 9.57279389543e-39
0.0032831046696 -0.0820776167399 0.887 1.35346528137e-38
0.00492465700439 -0.0820776167399 0.887 9.56813037414e-39
0.00658101477175 -0.0822626846469 0.889 2.8469003809e-39
0.00827253544143 -0.0827253544143 0.894 4.87337974729e-39
0.00994925067855 -0.0829104223213 0.896 1.39113288475e-38
0.011633368632 -0.0830954902282 0.898 1.36326680361e-38
0.0133396947342 -0.0833730920887 0.901 5.15103863021e-39
0.0150904371341 -0.0838357618561 0.906 1.07767671152e-38
0.0167671523712 -0.0838357618561 0.906 1.32638687011e-38
0.0184845825479 -0.0840208297631 0.908 5.98258034932e-39
0.0202760398873 -0.0844834995305 0.913 7.64100727276e-39
0.0220138275337 -0.0846685674374 0.915 7.36695813469e-39
0.0238367464174 -0.0851312372049 0.92 7.55170532423e-39
0.0256226517196 -0.0854088390653 0.923 8.38253938762e-39
0.0273900502311 -0.0855939069723 0.925 8.38254219022e-39
0.0291963130031 -0.0858715088327 0.928 8.84244133972e-39
0.0309803676263 -0.0860565767397 0.93 9.02717872017e-39
0.0328069878681 -0.0863341786002 0.933 8.93354535808e-39
0.034718739347 -0.0867968483676 0.938 9.93798909081e-39
0.0364546763144 -0.0867968483676 0.938 1.41545185907e-38
0.0383941879794 -0.087259518135 0.943 1.59815301272e-38
0.0402670751979 -0.0875371199954 0.946 1.57067397023e-38
0.0421066501932 -0.0877221879024 0.948 1.43263374006e-38
0.0439998948814 -0.0879997897629 0.951 1.98634127383e-38
0.0460004789557 -0.0884624595303 0.956 1.60070757982e-38
0.0480695381556 -0.0890176632512 0.962 2.57139389242e-39
0.0501089864904 -0.0894803330186 0.967 1.58387994708e-38
0.0520596022298 -0.089757934879 0.97 2.05325551758e-38
0.0540213220437 -0.0900355367395 0.973 1.62054394049e-38
0.0558220327785 -0.0900355367395 0.973 1.60128407401e-38
0.0579188521644 -0.0904982065069 0.978 1.99811932755e-38
0.0597288162946 -0.0904982065069 0.978 1.68512193944e-38
-0.0618330383968 -0.0818869967957 0.903 2.14555862703e-38
-0.0601618751969 -0.0818869967957 0.903 2.34853376686e-38
-0.058490711997 -0.0818869967957 0.903 1.0033050376e-38
-0.056819548797 -0.0818869967957 0.903 9.1835496158e-41
-0.0551483855971 -0.0818869967957 0.903 7.35044102969e-40
-0.0533587789368 -0.0817056302469 0.901 3.67341984632e-40
-0.0515192039415 -0.0814335804237 0.898 7.36118898891e-40
-0.0497462533928 -0.0812522138748 0.896 6.43924670327e-40
-0.0479807055603 -0.081070847326 0.894 4.5917748079e-40
-0.046326198472 -0.081070847326 0.894 7.17464813734e-43
-0.0445217863791 -0.0807987975028 0.891 4.5917748079e-40
-0.0427765960164 -0.0806174309539 0.889 0.0
-0.0411313423234 -0.0806174309539 0.889 0.0
-0.0393972560352 -0.0804360644051 0.887 3.67341984632e-40
-0.0377557037004 -0.0804360644051 0.887 8.19707473327e-39
-0.0361141513656 -0.0804360644051 0.887 7.46595146341e-39
-0.0344725990308 -0.0804360644051 0.887 7.09650052458e-39
-0.032831046696 -0.0804360644051 0.887 2.57139389242e-39
-0.0311191685565 -0.0802546978563 0.885 2.75506488474e-39
-0.0293813809101 -0.079982648033 0.882 4.13259732711e-39
-0.0276861588823 -0.0798012814842 0.88 9.02431166351e-39
-0.026057561301 -0.0798012814842 0.88 3.22358482239e-39
-0.0244289637197 -0.0798012814842 0.88 8.29608207497e-39
-0.0227485471244 -0.0796199149354 0.878 7.36800490464e-39
-0.0211236509012 -0.0796199149354 0.878 3.12240686937e-39
-0.0194321302315 -0.0793478651121 0.875 6.42848473106e-40
-0.0178127860456 -0.0793478651121 0.875 4.5917748079e-40
-0.0161564282782 -0.0791664985633 0.873 1.37789117478e-39
-0.0145407854504 -0.0791664985633 0.873 1.56227963191e-39
-0.0129251426226 -0.0791664985633 0.873 1.01270158459e-39
-0.0113094997948 -0.0791664985633 0.873 1.38183723125e-39
-0.00969385696694 -0.0791664985633 0.873 2.11939105977e-39
-0.00807821413911 -0.0791664985633 0.873 2.76618558935e-39
-0.00646257131129 -0.0791664985633 0.873 3.04240954264e-39
-0.00485803255789 -0.0793478651121 0.875 1.74738555385e-39
-0.00324979244634 -0.0796199149354 0.878 1.1020259539e-39
-0.00163229893945 -0.079982648033 0.882 8.18704564016e-39
0.0 -0.079982648033 0.882 1.62094919601e-38
0.00163785097666 -0.0802546978563 0.885 1.1693357842e-38
0.00329050738588 -0.0806174309539 0.889 6.07441584548e-39
0.00494686515323 -0.0807987975028 0.891 2.20405190779e-39
0.0066328337857 -0.0812522138748 0.896 1.33538937196e-38
0.00829104223213 -0.0812522138748 0.896 1.31770582612e-38
0.00997145882739 -0.0814335804237 0.898 6.53683172702e-39
0.0116722328924 -0.0817056302469 0.901 9.57600286891e-39
0.0133693055993 -0.0818869967957 0.903 1.50194882847e-38
0.0150904371341 -0.082159046619 0.906 2.94196446872e-39
0.0168041659526 -0.0823404131678 0.908 8.73336706985e-39
0.0185252974874 -0.0825217797166 0.91 1.49158720724e-38
0.020320456185 -0.0829751960887 0.915 7.0785078523e-39
0.0220860040175 -0.0832472459119 0.918 7.82722022049e-39
0.0239144749383 -0.083700662284 0.923 8.47365882026e-39
0.0256781720917 -0.0838820288328 0.925 8.38326105633e-39
0.0274788828265 -0.0841540786561 0.928 9.48851700319e-39
0.0292592360915 -0.0843354452049 0.93 9.211927311e-39
0.0309803676263 -0.0843354452049 0.93 9.57891756972e-39
0.0328773136727 -0.084788861577 0.935 9.85406952968e-39
0.034718739347 -0.0850609114002 0.938 8.92742728898e-39
0.0364546763144 -0.0850609114002 0.938 1.50772105711e-38
0.038516332798 -0.0857863775955 0.946 1.62602652074e-38
0.0402670751979 -0.0857863775955 0.946 1.47855302957e-38
0.0421066501932 -0.0859677441444 0.948 2.0141817112e-38
0.0439998948814 -0.0862397939676 0.951 1.63722836053e-38
0.0461448319232 -0.0869652601629 0.959 1.04882593796e-38
0.0480695381556 -0.0872373099862 0.962 2.57139389242e-39
0.0501089864904 -0.0876907263582 0.967 2.03542777813e-38
0.0520596022298 -0.0879627761815 0.97 2.0444322418e-38
0.0540213220437 -0.0882348260047 0.973 1.50076318984e-38
0.0558220327785 -0.0882348260047 0.973 1.96149400998e-38
0.0579188521644 -0.0886882423768 0.978 1.97071357297e-38
0.0597288162946 -0.0886882423768 0.978 7.53481547384e-39
0.0617275496898 -0.0889602922 0.981 1.2214120989e-38
-0.0618330383968 -0.0802158335958 0.903 2.1181521718e-38
-0.0601618751969 -0.0802158335958 0.903 2.34856992037e-38
-0.058490711997 -0.0802158335958 0.903 1.21542589199e-38
-0.056819548797 -0.0802158335958 0.903 0.0
-0.0551483855971 -0.0802158335958 0.903 7.35046905566e-40
-0.0534772223972 -0.0802158335958 0.903 3.67341984632e-40
-0.051691317095 -0.0800381684051 0.901 4.5917748079e-40
-0.0497462533928 -0.0795940054284 0.896 0.0
-0.0480880449463 -0.0795940054284 0.896 1.19692160564e-38
-0.046326198472 -0.0794163402377 0.894 3.85709083864e-39
-0.0445217863791 -0.0791498424517 0.891 1.65303893084e-39
-0.042872831328 -0.0791498424517 0.891 9.1835496158e-41
-0.0411313423234 -0.078972177261 0.889 7.36118898891e-40
-0.0394860886305 -0.078972177261 0.889 1.37789117478e-39
-0.0377557037004 -0.0787945120703 0.887 0.0
-0.0361141513656 -0.0787945120703 0.887 0.0
-0.0344725990308 -0.0787945120703 0.887 2.02218859049e-39
-0.032831046696 -0.0787945120703 0.887 7.54775786645e-39
-0.0311191685565 -0.0786168468796 0.885 6.16589821443e-39
-0.0293813809101 -0.0783503490936 0.882 8.57058102985e-39
-0.0276861588823 -0.0781726839029 0.88 3.12707039066e-39
-0.026057561301 -0.0781726839029 0.88 6.42848473106e-40
-0.0244289637197 -0.0781726839029 0.88 1.46936793853e-39
-0.0228003661383 -0.0781726839029 0.88 7.26937451223e-39
-0.0211236509012 -0.0779950187122 0.878 1.03150350673e-38
-0.0194987546781 -0.0779950187122 0.878 3.40939279487e-39
-0.0178738584549 -0.0779950187122 0.878 7.73787343041e-39
-0.0161934418596 -0.0777285209262 0.875 3.85780830345e-39
-0.0145740976737 -0.0777285209262 0.875 1.01019045774e-39
-0.0129251426226 -0.0775508557355 0.873 1.83670992316e-40
-0.0113094997948 -0.0775508557355 0.873 1.37789117478e-39
-0.00969385696694 -0.0775508557355 0.873 3.31362525522e-39
-0.00807821413911 -0.0775508557355 0.873 3.50051082621e-39
-0.00647737674385 -0.0777285209262 0.875 1.93249147579e-39
-0.00487468866951 -0.0779950187122 0.878 1.20728084467e-38
-0.00324979244634 -0.0779950187122 0.878 1.16071934007e-38
-0.00162859758131 -0.0781726839029 0.88 1.37272879123e-38
0.0 -0.0783503490936 0.882 6.07154598623e-39
0.0016415523348 -0.0787945120703 0.887 2.20405190779e-39
0.00329050738588 -0.078972177261 0.889 8.82953257826e-39
0.00494686515323 -0.0791498424517 0.891 1.49194411796e-38
0.00661802835314 -0.0794163402377 0.894 1.02231883608e-38
0.00830954902282 -0.0797716706191 0.898 8.19026722533e-39
0.00997145882739 -0.0797716706191 0.898 1.28921896977e-38
0.0116722328924 -0.0800381684051 0.901 1.29858118494e-38
0.013413721897 -0.0804823313819 0.906 1.46936793853e-39
0.0150904371341 -0.0804823313819 0.906 1.51870009045e-38
0.0168041659526 -0.0806599965725 0.908 1.91608311156e-38
0.0185863698967 -0.0811041595493 0.913 2.25720301841e-38
0.020320456185 -0.08128182474 0.915 5.60196526564e-39
0.0220860040175 -0.081548322526 0.918 8.19703689821e-39
0.0239144749383 -0.0819924855027 0.923 8.84316721232e-39
0.0256781720917 -0.0821701506934 0.925 9.48957358223e-39
0.0274788828265 -0.0824366484794 0.928 9.48636320745e-39
0.0292592360915 -0.0826143136701 0.93 1.00388167192e-38
0.0311469287426 -0.0830584766468 0.935 1.04994417413e-38
0.0329828023797 -0.0833249744329 0.938 1.13291771867e-38
0.034718739347 -0.0833249744329 0.938 1.04043314107e-38
0.0366489976167 -0.0837691374096 0.943 1.45290744599e-38
0.038516332798 -0.0840356351956 0.946 1.57967857403e-38
0.0403522064351 -0.0842133003863 0.948 2.00535843542e-38
0.0422398990862 -0.0844797981723 0.951 1.59145690801e-38
0.0441386958117 -0.0847462959584 0.954 1.10396310889e-38
0.0461448319232 -0.0851904589351 0.959 1.01299333493e-38
0.0480695381556 -0.0854569567211 0.962 2.93873587706e-39
0.0501089864904 -0.0859011196979 0.967 2.12758851566e-38
0.0522206113089 -0.0864341152699 0.973 1.99862337461e-38
0.0541323627879 -0.0866117804606 0.975 1.46388717997e-38
0.0561088880343 -0.0868782782466 0.978 1.77716286596e-38
0.0579188521644 -0.0868782782466 0.978 1.67604432799e-38
0.0599120335225 -0.0871447760327 0.981 1.12057241933e-38
0.0617275496898 -0.0871447760327 0.981 1.34998179352e-38
-0.0620384637735 -0.0788056161447 0.906 2.10896764127e-38
-0.0603617485364 -0.0788056161447 0.906 2.33023869437e-38
-0.058490711997 -0.0785446703959 0.903 1.30769410912e-38
-0.056819548797 -0.0785446703959 0.903 0.0
-0.0551483855971 -0.0785446703959 0.903 4.60269092294e-40
-0.0534772223972 -0.0785446703959 0.903 3.67341984632e-40
-0.0518060591973 -0.0785446703959 0.903 1.83670992316e-40
-0.0498572941369 -0.0781097608145 0.898 0.0
-0.0480880449463 -0.077935796982 0.896 1.35325690829e-38
-0.0464298364999 -0.077935796982 0.896 1.23387104355e-38
-0.0446716913837 -0.0777618331494 0.894 3.67341984632e-39
-0.0430171842954 -0.0777618331494 0.894 5.33148103086e-39
-0.0412238762769 -0.0775008874006 0.891 0.0
-0.0394860886305 -0.0773269235681 0.889 0.0
-0.0378408349376 -0.0773269235681 0.889 4.5917748079e-40
-0.0361141513656 -0.0771529597355 0.887 1.10489581315e-39
-0.0344725990308 -0.0771529597355 0.887 1.01270158459e-39
-0.032831046696 -0.0771529597355 0.887 4.59536213197e-40
-0.0311191685565 -0.076978995903 0.885 0.0
-0.0294813175799 -0.076978995903 0.885 1.10203576299e-39
-0.0277490819706 -0.0767180501541 0.882 7.17866145614e-39
-0.026057561301 -0.0765440863216 0.88 9.39813325224e-39
-0.0244289637197 -0.0765440863216 0.88 5.61955576526e-39
-0.0228003661383 -0.0765440863216 0.88 2.75685854677e-39
-0.0211236509012 -0.076370122489 0.878 2.57139389242e-39
-0.0194987546781 -0.076370122489 0.878 0.0
-0.0178738584549 -0.076370122489 0.878 4.60257601646e-39
-0.0162489622317 -0.076370122489 0.878 8.65845785784e-39
-0.0145740976737 -0.0761091767402 0.875 7.0056935815e-39
-0.0129547534877 -0.0761091767402 0.875 8.2042591905e-39
-0.0113354093017 -0.0761091767402 0.875 2.48529811478e-39
-0.00971606511577 -0.0761091767402 0.875 2.85335756422e-39
-0.00809672092981 -0.0761091767402 0.875 3.13209264436e-39
-0.00649958489268 -0.076370122489 0.878 2.39382135102e-39
-0.00487468866951 -0.076370122489 0.878 1.32685476367e-38
-0.00325719516262 -0.0765440863216 0.88 9.39239213243e-39
-0.00162859758131 -0.0765440863216 0.88 3.76561407488e-39
0.0 -0.0767180501541 0.882 7.91366352016e-39
0.0016415523348 -0.0771529597355 0.887 1.38134257289e-38
0.00329050738588 -0.0773269235681 0.889 1.59356838454e-38
0.00494686515323 -0.0775008874006 0.891 4.9591490224e-39
0.00661802835314 -0.0777618331494 0.894 1.25284042086e-38
0.00833730920887 -0.0783707065634 0.901 1.26231810302e-38
0.0100047710506 -0.0783707065634 0.901 5.6991817479e-39
0.0116981423994 -0.0785446703959 0.903 7.07133320417e-39
0.013413721897 -0.0788056161447 0.906 2.06376063178e-38
0.0150904371341 -0.0788056161447 0.906 1.86072621702e-38
0.016841179534 -0.0791535438098 0.91 4.40810381558e-39
0.0185863698967 -0.0794144895587 0.913 2.22950495297e-38
0.0203870806315 -0.07984939914 0.918 4.95911679253e-39
0.0221341216733 -0.0800233629726 0.92 9.48491987003e-39
0.0239662939522 -0.0804582725539 0.925 8.6584032072e-39
0.0256781720917 -0.0804582725539 0.925 9.94733995547e-39
0.0274788828265 -0.0807192183028 0.928 1.13298834411e-38
0.0292592360915 -0.0808931821353 0.93 1.18819880296e-38
0.0311469287426 -0.0813280917167 0.935 1.26202719346e-38
0.0329828023797 -0.0815890374655 0.938 1.08688898775e-38
0.0347927665098 -0.0817630012981 0.94 1.04068537479e-38
0.0366489976167 -0.0820239470469 0.943 1.29603236317e-38
0.038516332798 -0.0822848927957 0.946 2.08833492269e-38
0.0403522064351 -0.0824588566283 0.948 1.37025605996e-38
0.0421066501932 -0.0824588566283 0.948 1.26109014518e-38
0.0442312297651 -0.0831547119585 0.956 1.22511390905e-38
0.0461448319232 -0.0834156577073 0.959 8.00978418702e-39
0.0480695381556 -0.0836766034561 0.962 3.12240686937e-39
0.0502644435323 -0.0843724587863 0.97 2.10000395539e-38
0.0523279506949 -0.0848073683677 0.975 1.95263093732e-38
0.0542989239041 -0.0850683141165 0.978 1.51938280306e-38
0.0562810011878 -0.0853292598653 0.981 1.08365885466e-38
0.0580965173551 -0.0853292598653 0.981 1.23999443758e-38
0.0599120335225 -0.0853292598653 0.981 1.46018452904e-38
0.0617275496898 -0.0853292598653 0.981 1.37753244237e-38
-0.0620384637735 -0.0771289009076 0.906 2.19176378143e-38
-0.0603617485364 -0.0771289009076 0.906 2.33023869437e-38
-0.058490711997 -0.076873507196 0.903 1.35368402407e-38
-0.056819548797 -0.076873507196 0.903 0.0
-0.0551483855971 -0.076873507196 0.903 6.26495179897e-39
-0.0534772223972 -0.076873507196 0.903 3.67413731113e-39
-0.0518060591973 -0.076873507196 0.903 5.51264369892e-39
-0.0500238552532 -0.0767032447216 0.901 1.19386145005e-39
-0.0481953843324 -0.07644785101 0.898 1.744874427e-39
-0.0464298364999 -0.0762775885356 0.896 4.22515028808e-39
-0.0447716280535 -0.0762775885356 0.896 1.25274120893e-38
-0.0430171842954 -0.0761073260612 0.894 8.56510895934e-39
-0.0412238762769 -0.0758519323495 0.891 9.67397885494e-39
-0.0395749212258 -0.0758519323495 0.891 4.88485918431e-39
-0.0378408349376 -0.0756816698751 0.889 1.28572076829e-39
-0.0361955812446 -0.0756816698751 0.889 9.1835496158e-41
-0.0344725990308 -0.0755114074007 0.887 1.83670992316e-40
-0.032831046696 -0.0755114074007 0.887 6.43924670327e-40
-0.0311894943612 -0.0755114074007 0.887 6.42848473106e-40
-0.0294813175799 -0.0753411449263 0.885 5.51371709355e-40
-0.0277490819706 -0.0750857512147 0.882 0.0
-0.0261167830312 -0.0750857512147 0.882 0.0
-0.0244844840917 -0.0750857512147 0.882 1.37860863959e-39
-0.0228003661383 -0.0749154887403 0.88 2.57605741371e-39
-0.021171768557 -0.0749154887403 0.88 9.58069021227e-39
-0.0195431709757 -0.0749154887403 0.88 8.75307072756e-39
-0.0178738584549 -0.0747452262659 0.878 8.66087649899e-39
-0.0162489622317 -0.0747452262659 0.878 4.41456099891e-39
-0.0146240660085 -0.0747452262659 0.878 5.51012976948e-40
-0.0129547534877 -0.0744898325543 0.875 1.83744840745e-39
-0.0113354093017 -0.0744898325543 0.875 4.23555352788e-39
-0.00971606511577 -0.0744898325543 0.875 1.93500260264e-39
-0.00809672092981 -0.0744898325543 0.875 3.50051082621e-39
-0.00649958489268 -0.0747452262659 0.878 3.2232148796e-39
-0.00488579274393 -0.0749154887403 0.88 6.62797358044e-39
-0.00325719516262 -0.0749154887403 0.88 4.0432729578e-39
-0.00162859758131 -0.0749154887403 0.88 2.94734545482e-39
0.0 -0.0750857512147 0.882 1.63085301304e-38
0.0016415523348 -0.0755114074007 0.887 7.45053998289e-39
0.00329050738588 -0.0756816698751 0.889 6.70937220564e-39
0.00494686515323 -0.0758519323495 0.891 1.53843807996e-38
0.00661802835314 -0.0761073260612 0.894 7.18256407237e-39
0.00833730920887 -0.0767032447216 0.901 6.42848473106e-40
0.0100047710506 -0.0767032447216 0.901 1.47256920487e-38
0.0116981423994 -0.076873507196 0.903 2.21081849782e-38
0.013413721897 -0.0771289009076 0.906 1.96196092263e-38
0.0151237493574 -0.077299163382 0.908 2.57139389242e-39
0.0168966999061 -0.077724819568 0.913 1.36247927388e-38
0.0186270848362 -0.0778950820425 0.915 1.82355901733e-38
0.0204314969292 -0.0783207382285 0.92 9.10175862703e-39
0.0221341216733 -0.0783207382285 0.92 8.84244694491e-39
0.0239662939522 -0.0787463944145 0.925 1.02246499151e-38
0.0257614526498 -0.0790017881261 0.928 1.04994445439e-38
0.0275381045567 -0.0791720506005 0.93 1.20649695831e-38
0.0293536207241 -0.0794274443121 0.933 1.45549424295e-38
0.0311469287426 -0.0795977067866 0.935 1.25270015088e-38
0.0329828023797 -0.0798531004982 0.938 1.2251845345e-38
0.0347927665098 -0.0800233629726 0.94 1.08660354326e-38
0.0366489976167 -0.0802787566842 0.943 1.59137689387e-38
0.038516332798 -0.0805341503958 0.946 1.49036149147e-38
0.0403522064351 -0.0807044128702 0.948 1.2053424285e-38
0.0421066501932 -0.0807044128702 0.948 1.15121517337e-38
0.0442312297651 -0.0813854627679 0.956 1.15117986065e-38
0.0461448319232 -0.0816408564795 0.959 1.13285157738e-38
0.0481694748254 -0.0820665126655 0.964 4.40953874521e-39
0.0502644435323 -0.0825773000887 0.97 2.05351293611e-38
0.052488959774 -0.0832583499864 0.978 1.91579024018e-38
0.0544654850204 -0.083513743698 0.981 1.01155476192e-38
0.0562810011878 -0.083513743698 0.981 1.77379036094e-38
0.0580965173551 -0.083513743698 0.981 1.58975853427e-38
0.0599120335225 -0.083513743698 0.981 1.41426748161e-38
0.0617275496898 -0.083513743698 0.981 1.42345019045e-38
-0.0620384637735 -0.0754521856705 0.906 2.12726411506e-38
-0.0603617485364 -0.0754521856705 0.906 2.26566419867e-38
-0.0586850332993 -0.0754521856705 0.906 1.57499109054e-38
-0.0570083180621 -0.0754521856705 0.906 9.1835496158e-41
-0.055331602825 -0.0754521856705 0.906 8.19707753587e-39
-0.0534772223972 -0.0752023439961 0.903 9.38910328493e-39
-0.0518060591973 -0.0752023439961 0.903 1.19716627235e-38
-0.0500238552532 -0.0750357828798 0.901 6.0751333103e-39
-0.0481953843324 -0.0747859412054 0.898 0.0
-0.0464298364999 -0.0746193800891 0.896 8.40779078595e-45
-0.0447716280535 -0.0746193800891 0.896 0.0
-0.0430171842954 -0.0744528189729 0.894 1.7448758283e-39
-0.0413626772071 -0.0744528189729 0.894 8.56368383881e-39
-0.0395749212258 -0.0742029772985 0.891 5.7099437201e-39
-0.0379259661748 -0.0742029772985 0.891 8.75387787547e-39
-0.0361955812446 -0.0740364161822 0.889 8.56904100284e-39
-0.0345503275517 -0.0740364161822 0.889 3.12599419344e-39
-0.032831046696 -0.0738698550659 0.887 0.0
-0.0311894943612 -0.0738698550659 0.887 4.4091800128e-39
-0.0294813175799 -0.0737032939496 0.885 2.93873587706e-39
-0.0277490819706 -0.0734534522752 0.882 4.5917748079e-40
-0.0261167830312 -0.0734534522752 0.882 7.36118898891e-40
-0.0244844840917 -0.0734534522752 0.882 1.37789117478e-39
-0.0228003661383 -0.073286891159 0.88 6.43924670327e-40
-0.021171768557 -0.073286891159 0.88 0.0
-0.0195431709757 -0.073286891159 0.88 0.0
-0.0178738584549 -0.0731203300427 0.878 5.33402719017e-39
-0.0162489622317 -0.0731203300427 0.878 9.20975669968e-39
-0.0146240660085 -0.0731203300427 0.878 8.47656511328e-39
-0.0129991697854 -0.0731203300427 0.878 7.647816182e-39
-0.0113742735622 -0.0731203300427 0.878 8.26519465422e-40
-0.00974937733903 -0.0731203300427 0.878 2.30126839005e-39
-0.00812448111586 -0.0731203300427 0.878 3.68419302891e-39
-0.00649958489268 -0.0731203300427 0.878 4.23806745733e-39
-0.00488579274393 -0.073286891159 0.88 4.42101818223e-39
-0.00325719516262 -0.073286891159 0.88 4.97454228603e-39
-0.00162859758131 -0.073286891159 0.88 4.14515296135e-39
0.0 -0.0734534522752 0.882 5.42762972369e-39
0.0016415523348 -0.0738698550659 0.887 1.43669764574e-38
0.00329050738588 -0.0740364161822 0.889 1.34485682465e-38
0.00496352126486 -0.0744528189729 0.894 2.11221641163e-39
0.00661802835314 -0.0744528189729 0.894 6.15297824259e-39
0.00833730920887 -0.0750357828798 0.901 2.04511019e-38
0.0100047710506 -0.0750357828798 0.901 2.07306231085e-38
0.0116981423994 -0.0752023439961 0.903 2.02659903728e-38
0.013413721897 -0.0754521856705 0.906 2.29588740395e-39
0.0151570615806 -0.075785307903 0.91 6.16206846572e-39
0.0168966999061 -0.0760351495774 0.913 1.43475642698e-38
0.0186881572455 -0.0764515523681 0.918 1.43674248729e-38
0.0204314969292 -0.0766181134844 0.92 6.44211656252e-39
0.0221341216733 -0.0766181134844 0.92 1.20588417049e-38
0.0240440224732 -0.0772843579495 0.928 1.16900339621e-38
0.0257614526498 -0.0772843579495 0.928 1.39063794613e-38
0.0275381045567 -0.0774509190657 0.93 1.45542095504e-38
0.0293536207241 -0.0777007607401 0.933 1.51992552595e-38
0.0311469287426 -0.0778673218564 0.935 1.31752674018e-38
0.0329828023797 -0.0781171635308 0.938 9.6718292631e-39
0.0347927665098 -0.0782837246471 0.94 1.13295177022e-38
0.0366489976167 -0.0785335663215 0.943 1.69329809559e-38
0.0385977626771 -0.0789499691122 0.948 9.38336356642e-39
0.0406076001467 -0.079449652461 0.954 1.05848074425e-38
0.0423731479792 -0.079449652461 0.954 1.3166981524e-38
0.0442312297651 -0.0796162135772 0.956 1.01256201526e-38
0.0461448319232 -0.0798660552517 0.959 1.0683109931e-38
0.0481694748254 -0.0802824580423 0.964 8.17910167917e-39
0.0502644435323 -0.0807821413911 0.97 1.4448076606e-38
0.052488959774 -0.0814483858562 0.978 1.24153908887e-38
0.0544654850204 -0.0816982275306 0.981 1.5896877687e-38
0.0562810011878 -0.0816982275306 0.981 1.69092499664e-38
0.0580965173551 -0.0816982275306 0.981 1.70046699841e-38
0.0599120335225 -0.0816982275306 0.981 1.50682254453e-38
0.0617275496898 -0.0816982275306 0.981 1.6531466907e-38
-0.0603617485364 -0.0737754704334 0.906 2.23804278425e-38
-0.0586850332993 -0.0737754704334 0.906 1.60261250496e-38
-0.0570083180621 -0.0737754704334 0.906 9.1835496158e-40
-0.055331602825 -0.0737754704334 0.906 0.0
-0.0536548875879 -0.0737754704334 0.906 2.93874008095e-39
-0.0518060591973 -0.0735311807962 0.903 8.19739422932e-39
-0.0500238552532 -0.073368321038 0.901 1.09643070926e-38
-0.0481953843324 -0.0731240314008 0.898 4.60110185048e-39
