# .PCD v0.7 - Point Cloud Data file format
VERSION 0.7
FIELDS x y z rgb
SIZE 4 4 4 4
TYPE F F F F
COUNT 1 1 1 1
WIDTH 861
HEIGHT 1
VIEWPOINT 0 0 0 1 0 0 0
POINTS 861
DATA ascii
0.0334232639983 0.0270569279986 0.86 1.36305058326e-38
0.0350148479982 0.0270569279986 0.86 1.14214204607e-38
0.0366064319981 0.0270569279986 0.86 1.33578762099e-38
0.038198015998 0.0270569279986 0.86 1.14228245618e-38
0.0397895999979 0.0270569279986 0.86 1.11455174048e-38
0.0413811839978 0.0270569279986 0.86 1.06795198044e-38
0.0430727046675 0.027119851087 0.862 1.15092370329e-38
0.0446679900256 0.027119851087 0.862 1.04050979209e-38
0.0462632753836 0.027119851087 0.862 9.94085474617e-39
0.0479696014859 0.0271827741753 0.864 1.07706364344e-38
0.0495685882021 0.0271827741753 0.864 9.20327989818e-39
0.0510491314578 0.027119851087 0.862 1.02156872101e-38
0.0526444168159 0.027119851087 0.862 9.85190732615e-39
0.0543655483507 0.0271827741753 0.864 1.04061741181e-38
0.0559645350669 0.0271827741753 0.864 1.0220687043e-38
0.057563521783 0.0271827741753 0.864 1.03121764184e-38
0.0591625084992 0.0271827741753 0.864 1.04050811053e-38
0.0607614952154 0.0271827741753 0.864 1.03096596864e-38
0.0625770113828 0.0272771588079 0.867 1.08628348669e-38
0.0639594686478 0.0271827741753 0.864 1.01291752468e-38
0.065558455364 0.0271827741753 0.864 1.04043888639e-38
0.0671574420802 0.0271827741753 0.864 5.33255722808e-39
0.00797642679028 0.028715136445 0.862 1.56519321167e-38
0.00957171214834 0.028715136445 0.862 1.45484866475e-38
0.0111669975064 0.028715136445 0.862 8.27810902087e-39
0.0127622828645 0.028715136445 0.862 7.2718646196e-39
0.0143575682225 0.028715136445 0.862 1.22504524543e-38
0.015989867162 0.0287817608915 0.864 1.16028760002e-38
0.0175888538782 0.0287817608915 0.864 1.18776678264e-38
0.0191878405943 0.0287817608915 0.864 1.0494754398e-38
0.0207387096547 0.028715136445 0.862 1.18773413239e-38
0.0223339950128 0.028715136445 0.862 9.57461137954e-39
0.0239848007429 0.0287817608915 0.864 8.00801434706e-39
0.0255245657289 0.028715136445 0.862 9.02104383549e-39
0.027119851087 0.028715136445 0.862 9.39055643144e-39
0.0287817608915 0.0287817608915 0.864 8.00838008596e-39
0.0303104218031 0.028715136445 0.862 9.9415567967e-39
0.0319057071611 0.028715136445 0.862 8.92852590698e-39
0.0335009925192 0.028715136445 0.862 1.10414471717e-38
0.0350962778772 0.028715136445 0.862 9.28869184217e-39
0.0369043913283 0.0288816975613 0.867 1.00312539114e-38
0.0385089300817 0.0288816975613 0.867 7.91758295196e-39
0.0398821339514 0.028715136445 0.862 1.04040385393e-38
0.0414774193095 0.028715136445 0.862 1.14149156333e-38
0.0431726413373 0.0287817608915 0.864 1.24272907153e-38
0.0447716280535 0.0287817608915 0.864 1.66685629422e-38
0.0463706147697 0.0287817608915 0.864 1.15038854741e-38
0.0482472033463 0.0289483220078 0.869 1.4826481842e-38
0.0497407013555 0.0288816975613 0.867 1.42747177691e-38
0.051345240109 0.0288816975613 0.867 1.6582558249e-38
0.0529497788624 0.0288816975613 0.867 1.45563591423e-38
0.0546801637925 0.0289483220078 0.869 1.04108040083e-38
0.0564179514389 0.0290149464543 0.871 8.74840720627e-39
0.0578966440156 0.0289483220078 0.869 1.12322956148e-38
0.0595048841271 0.0289483220078 0.869 1.18762623241e-38
0.0611131242387 0.0289483220078 0.869 1.17840652929e-38
0.0628657173177 0.0290149464543 0.871 1.30730132516e-38
0.0644776587873 0.0290149464543 0.871 1.59306475787e-38
0.0662413559407 0.0290815709008 0.873 1.05851171294e-38
0.0678569987686 0.0290815709008 0.873 4.86728129637e-39
0.00962723252043 0.0304862363147 0.867 1.68515122658e-38
0.0112317712738 0.0304862363147 0.867 8.18663225712e-39
0.0128363100272 0.0304862363147 0.867 9.39094599241e-39
0.0144408487806 0.0304862363147 0.867 8.19457061292e-39
0.0160824011154 0.0305565621193 0.869 8.931056652e-39
0.017690641227 0.0305565621193 0.869 8.19492093753e-39
0.0192988813385 0.0305565621193 0.869 8.93213565182e-39
0.0209071214501 0.0305565621193 0.869 8.65445294683e-39
0.0225153615616 0.0305565621193 0.869 8.19238038342e-39
0.0241236016732 0.0305565621193 0.869 1.63920180916e-38
0.0256726200545 0.0304862363147 0.867 1.60235606734e-38
0.0272771588079 0.0304862363147 0.867 1.10475778525e-38
0.0288816975613 0.0304862363147 0.867 1.31659277475e-38
0.0303807476077 0.0303807476077 0.864 1.46449478299e-38
0.0319797343239 0.0303807476077 0.864 1.39095309815e-38
0.0337730423424 0.0305565621193 0.869 1.75016236689e-38
0.035462712333 0.030626887924 0.871 1.77787878934e-38
0.0370746538027 0.030626887924 0.871 1.41872445151e-38
0.0385977626771 0.0305565621193 0.869 1.36376608626e-38
0.0402060027886 0.0305565621193 0.869 1.46514302366e-38
0.0419104782118 0.030626887924 0.871 1.24301381538e-38
0.0435224196815 0.030626887924 0.871 1.31616257612e-38
0.0451343611511 0.030626887924 0.871 1.30654448386e-38
0.0467463026208 0.030626887924 0.871 1.4906428722e-38
0.0483582440905 0.030626887924 0.871 1.38097795503e-38
0.0499701855602 0.030626887924 0.871 1.33452463068e-38
0.0515821270299 0.030626887924 0.871 1.45502719017e-38
0.0533162133182 0.0306972137286 0.873 1.41811334525e-38
0.054931856146 0.0306972137286 0.873 1.08650447146e-38
0.0566770465087 0.0307675395333 0.875 1.10493939353e-38
0.0581631418016 0.0306972137286 0.873 1.56602292049e-38
0.0597787846294 0.0306972137286 0.873 1.47386022114e-38
0.0615350790666 0.0307675395333 0.875 1.39113260449e-38
0.0631544232525 0.0307675395333 0.875 1.25244805729e-38
0.0647737674385 0.0307675395333 0.875 1.2334388831e-38
0.0663931116244 0.0307675395333 0.875 1.03071387505e-38
0.0680124558104 0.0307675395333 0.875 4.13259732711e-39
0.0096716488181 0.0322388293937 0.871 1.61121843934e-38
0.0112835902878 0.0322388293937 0.871 8.37281437628e-39
0.0128955317575 0.0322388293937 0.871 9.39054101716e-39
0.0145074732272 0.0322388293937 0.871 7.27548137094e-39
0.0161194146968 0.0322388293937 0.871 8.10274072195e-39
0.0177720711061 0.0323128565565 0.873 7.54808857289e-39
0.0193877139339 0.0323128565565 0.873 9.20764914679e-39
0.0209552391059 0.0322388293937 0.871 8.37640590424e-39
0.0225671805756 0.0322388293937 0.871 6.89950038128e-39
0.0241791220453 0.0322388293937 0.871 1.47296605259e-38
0.0257910635149 0.0322388293937 0.871 1.38955207995e-38
0.0274030049846 0.0322388293937 0.871 1.17761535618e-38
0.0290815709008 0.0323128565565 0.873 1.19676844372e-38
0.0306972137286 0.0323128565565 0.873 1.13205283726e-38
0.0322388293937 0.0322388293937 0.871 8.64904953995e-39
0.0338507708634 0.0322388293937 0.871 1.10392765604e-38
0.0355441422121 0.0323128565565 0.873 1.2886819922e-38
0.0371597850399 0.0323128565565 0.873 1.37183602398e-38
0.0387754278677 0.0323128565565 0.873 1.21532023409e-38
0.0403910706956 0.0323128565565 0.873 1.39989128041e-38
0.0420067135234 0.0323128565565 0.873 1.65792792106e-38
0.0436223563512 0.0323128565565 0.873 1.60278976921e-38
0.0453416372069 0.0323868837192 0.875 1.49240290307e-38
0.0469609813929 0.0323868837192 0.875 1.33524517835e-38
0.0485803255789 0.0323868837192 0.875 1.36293889977e-38
0.0501996697648 0.0323868837192 0.875 1.15996782371e-38
0.0519966791415 0.0324979244634 0.878 1.28882506477e-38
0.0536215753646 0.0324979244634 0.878 1.07630834357e-38
0.0552464715878 0.0324979244634 0.878 1.3258098154e-38
0.056871367811 0.0324979244634 0.878 1.26091610391e-38
0.0584962640342 0.0324979244634 0.878 1.68511717503e-38
0.0601211602573 0.0324979244634 0.878 1.45502116459e-38
0.0618867080898 0.0325719516262 0.88 1.41894151264e-38
0.0635153056711 0.0325719516262 0.88 9.67218239031e-39
0.0651439032524 0.0325719516262 0.88 1.04990942193e-38
0.0669242565174 0.032645978789 0.882 1.08657005222e-38
0.0689451980615 0.032831046696 0.887 3.94892633479e-39
0.0113094997948 0.0339284993843 0.873 1.31684486835e-38
0.0129251426226 0.0339284993843 0.873 8.28206068254e-39
0.0145407854504 0.0339284993843 0.873 9.7626221932e-39
0.0161564282782 0.0339284993843 0.873 1.29890012047e-38
0.0177720711061 0.0339284993843 0.873 1.50140988908e-38
0.0194321302315 0.0340062279052 0.875 1.48307431907e-38
0.0210033567617 0.0339284993843 0.873 1.56609326568e-38
0.0226189995895 0.0339284993843 0.873 1.39106800463e-38
0.0242346424173 0.0339284993843 0.873 8.7473758506e-39
0.0258502852452 0.0339284993843 0.873 1.66736426491e-38
0.0275288511614 0.0340062279052 0.875 1.29872565881e-38
0.0292481320171 0.0341228206866 0.878 1.25320237625e-38
0.0308730282403 0.0341228206866 0.878 1.27153360224e-38
0.0323868837192 0.0340062279052 0.875 1.00405613358e-38
0.0340062279052 0.0340062279052 0.875 9.66714472233e-39
0.0356255720912 0.0340062279052 0.875 1.37269768241e-38
0.0372449162771 0.0340062279052 0.875 1.0767399435e-38
0.0388642604631 0.0340062279052 0.875 1.26080287899e-38
0.0404836046491 0.0340062279052 0.875 1.26998768978e-38
0.0422473018025 0.0341228206866 0.878 1.2236065323e-38
0.0438721980256 0.0341228206866 0.878 1.32504989125e-38
0.0456007322767 0.0342005492075 0.88 1.25158457718e-38
0.047121990472 0.0341228206866 0.878 1.34475130687e-38
0.0487468866951 0.0341228206866 0.878 1.46477994723e-38
0.0504865250206 0.0342005492075 0.88 1.52006355385e-38
0.0521151226019 0.0342005492075 0.88 1.56605416945e-38
0.0537437201832 0.0342005492075 0.88 1.65828062788e-38
0.0553723177646 0.0342005492075 0.88 1.26173978715e-38
0.0570009153459 0.0342005492075 0.88 1.27974759345e-38
0.0586295129272 0.0342005492075 0.88 1.38083852584e-38
0.0602581105085 0.0342005492075 0.88 1.25179967649e-38
0.0620273596991 0.0342782777284 0.882 1.04022112461e-38
0.0636596586385 0.0342782777284 0.882 1.02214297312e-38
0.0655140390664 0.0343948705098 0.885 1.01299361519e-38
0.067151890043 0.0343948705098 0.885 1.13248317602e-38
0.0689451980615 0.0344725990308 0.887 4.49993931174e-39
0.0705867503963 0.0344725990308 0.887 2.34915117897e-38
0.0113742735622 0.0357477169098 0.878 1.10457659736e-38
0.0129991697854 0.0357477169098 0.878 9.0189362826e-39
0.0146240660085 0.0357477169098 0.878 8.56046365494e-39
0.0162489622317 0.0357477169098 0.878 1.20602878449e-38
0.0178738584549 0.0357477169098 0.878 1.14141757477e-38
0.0194987546781 0.0357477169098 0.878 1.25179841532e-38
0.0211236509012 0.0357477169098 0.878 1.11329421524e-38
0.0226708186035 0.0356255720912 0.875 1.15038854741e-38
0.0242901627894 0.0356255720912 0.875 1.42779561699e-38
0.0259983395707 0.0357477169098 0.878 1.19719766144e-38
0.0276232357939 0.0357477169098 0.878 1.16889998038e-38
0.0293147564636 0.0358291467888 0.88 1.4183281643e-38
0.0308730282403 0.0357477169098 0.878 1.2805774424e-38
0.0324979244634 0.0357477169098 0.878 1.49240528528e-38
0.0341228206866 0.0357477169098 0.878 1.52006173216e-38
0.0357477169098 0.0357477169098 0.878 1.03185873589e-38
0.0373726131329 0.0357477169098 0.878 1.4094737797e-38
0.0389975093561 0.0357477169098 0.878 1.29858665001e-38
0.0406224055793 0.0357477169098 0.878 1.2156076404e-38
0.0423435371141 0.0358291467888 0.88 1.2430880842e-38
0.0439721346954 0.0358291467888 0.88 1.22454007733e-38
0.0456007322767 0.0358291467888 0.88 1.18737259738e-38
0.047336669244 0.0359105766679 0.882 1.0861760071e-38
0.0489689681835 0.0359105766679 0.882 1.18730407389e-38
0.0506012671229 0.0359105766679 0.882 1.33438099759e-38
0.0522335660624 0.0359105766679 0.882 1.46349019212e-38
0.0537437201832 0.0358291467888 0.88 1.04889894561e-38
0.0553723177646 0.0358291467888 0.88 1.09524591141e-38
0.0571304628807 0.0359105766679 0.882 1.01277851587e-38
0.0587627618202 0.0359105766679 0.882 9.76080751169e-39
0.0606004861364 0.0360327214865 0.885 1.0220687043e-38
0.062238337113 0.0360327214865 0.885 1.05859018566e-38
0.0638761880897 0.0360327214865 0.885 1.14153023916e-38
0.0656620933919 0.0361141513656 0.887 1.22457693148e-38
0.0673036457267 0.0361141513656 0.887 1.20602584176e-38
0.0689451980615 0.0361141513656 0.887 4.04076183095e-39
0.0705867503963 0.0361141513656 0.887 2.35001325778e-38
0.0113742735622 0.0373726131329 0.878 1.06759016517e-38
0.0129991697854 0.0373726131329 0.878 8.65088103705e-39
0.0146573782318 0.0374577443701 0.88 8.10197981689e-39
0.0162859758131 0.0374577443701 0.88 1.04068537479e-38
0.0179145733944 0.0374577443701 0.88 1.12349132403e-38
0.0195431709757 0.0374577443701 0.88 1.32609974405e-38
0.021171768557 0.0374577443701 0.88 1.36312064818e-38
0.0228003661383 0.0374577443701 0.88 1.07695672437e-38
0.0244289637197 0.0374577443701 0.88 1.00359622742e-38
0.0261167830312 0.0375428756073 0.882 1.10468744007e-38
0.0276861588823 0.0374577443701 0.88 1.18715931976e-38
0.0293147564636 0.0374577443701 0.88 1.14137889893e-38
0.0309433540449 0.0374577443701 0.88 1.16871851223e-38
0.0325719516262 0.0374577443701 0.88 1.16867843509e-38
0.0342005492075 0.0374577443701 0.88 1.18719267066e-38
0.0358291467888 0.0374577443701 0.88 1.32538073781e-38
0.0374577443701 0.0374577443701 0.88 1.23336489454e-38
0.0390863419515 0.0374577443701 0.88 1.48232784738e-38
0.0407149395328 0.0374577443701 0.88 1.36293889977e-38
0.0424397724257 0.0375428756073 0.882 1.42772793427e-38
0.0442219763698 0.0376705724632 0.885 1.05909535375e-38
0.0459634653743 0.0377557037004 0.887 1.58446274712e-38
0.0476050177091 0.0377557037004 0.887 1.52928185567e-38
0.0491355292998 0.0376705724632 0.885 1.43698575271e-38
0.0507733802764 0.0376705724632 0.885 1.13234262578e-38
0.0524112312531 0.0376705724632 0.885 1.40820826705e-38
0.0538658650018 0.0375428756073 0.882 1.1873346222e-38
0.0554981639413 0.0375428756073 0.882 1.17847659421e-38
0.0573247841831 0.0376705724632 0.885 1.20620759017e-38
0.0589626351597 0.0376705724632 0.885 1.18773441265e-38
0.0607374363875 0.0377557037004 0.887 1.16021963704e-38
0.0623789887223 0.0377557037004 0.887 1.42751409613e-38
0.0640205410571 0.0377557037004 0.887 1.33556663622e-38
0.0658101477175 0.0378408349376 0.889 1.36305002274e-38
0.0674554014104 0.0378408349376 0.889 1.13241283084e-38
0.0692561121452 0.0379259661748 0.891 4.22443282327e-39
0.0114001830692 0.0390863419515 0.88 1.10457295398e-38
0.0130287806505 0.0390863419515 0.88 9.20296740862e-39
0.0146573782318 0.0390863419515 0.88 8.65589908685e-39
0.0162859758131 0.0390863419515 0.88 8.37967092967e-39
0.0179145733944 0.0390863419515 0.88 7.64100727276e-39
0.0195875872734 0.0391751745468 0.882 8.37968634395e-39
0.0213401803524 0.0393972560352 0.887 7.45413431346e-39
0.0229817326872 0.0393972560352 0.887 8.83953224411e-39
0.024623285022 0.0393972560352 0.887 9.02504033871e-39
0.0262648373568 0.0393972560352 0.887 8.01017935319e-39
0.0278434666032 0.0393084234398 0.885 1.13278151246e-38
0.0293813809101 0.0391751745468 0.882 1.22518817787e-38
0.0310136798495 0.0391751745468 0.882 1.39092170907e-38
0.032645978789 0.0391751745468 0.882 1.3724821627e-38
0.0342782777284 0.0391751745468 0.882 1.2430810777e-38
0.0359105766679 0.0391751745468 0.882 1.27946088779e-38
0.0375428756073 0.0391751745468 0.882 1.25172989183e-38
0.0391751745468 0.0391751745468 0.882 1.35292480056e-38
0.0408074734862 0.0391751745468 0.882 1.15034987157e-38
0.0426803607048 0.0393972560352 0.887 1.16882360961e-38
0.0443219130396 0.0393972560352 0.887 1.05848228568e-38
0.0460671034023 0.0394860886305 0.889 1.17844548539e-38
0.0477123570952 0.0394860886305 0.889 1.13223402515e-38
0.0493576107881 0.0394860886305 0.889 1.23405026962e-38
0.0514044618392 0.0397970027142 0.896 1.20663947036e-38
0.0530626702856 0.0397970027142 0.896 1.2802159074e-38
0.0544155166855 0.0395749212258 0.891 1.37205084304e-38
0.0560644717366 0.0395749212258 0.891 1.46370669273e-38
0.05790774809 0.0397081701189 0.894 1.59256379367e-38
0.0593623818388 0.0395749212258 0.891 1.63894999582e-38
0.0608743866387 0.0394860886305 0.889 1.69465889653e-38
0.0625196403316 0.0394860886305 0.889 9.66715733402e-39
0.0641648940246 0.0394860886305 0.889 1.0955731146e-38
0.0659582020431 0.0395749212258 0.891 1.12316187876e-38
0.0678347906197 0.0397081701189 0.894 1.0770986759e-38
0.0698002117917 0.0398858353096 0.898 4.5917748079e-39
0.0131028078133 0.0409462744165 0.885 8.46611563063e-39
0.0147406587899 0.0409462744165 0.885 1.02214129156e-38
0.0163785097666 0.0409462744165 0.885 9.57174011898e-39
0.0180163607432 0.0409462744165 0.885 1.10468141449e-38
0.0197430443153 0.0411313423234 0.889 9.85190732615e-39
0.0215085921477 0.0413626772071 0.894 1.04057999714e-38
0.0230853707151 0.0412238762769 0.891 1.05908932817e-38
0.0247343257662 0.0412238762769 0.891 1.00373719805e-38
0.026324059087 0.0411313423234 0.889 1.09579017573e-38
0.0279693127799 0.0411313423234 0.889 1.11433495961e-38
0.0295479420264 0.04103880837 0.887 1.16047173064e-38
0.0311894943612 0.04103880837 0.887 9.94732173859e-39
0.032831046696 0.04103880837 0.887 9.0224913768e-39
0.0343948705098 0.0409462744165 0.885 1.28014836481e-38
0.0360327214865 0.0409462744165 0.885 8.65343560415e-39
0.0377557037004 0.04103880837 0.887 1.27118061516e-38
0.0393972560352 0.04103880837 0.887 1.34446418082e-38
0.0411313423234 0.0411313423234 0.889 1.67572006753e-38
0.0427765960164 0.0411313423234 0.889 1.52842356036e-38
0.0444218497093 0.0411313423234 0.889 1.0397539317e-38
0.0460671034023 0.0411313423234 0.889 1.67665193101e-38
0.0477123570952 0.0411313423234 0.889 1.60253038887e-38
0.0503014571137 0.041917880928 0.906 1.46467456958e-38
0.0514044618392 0.0414552111606 0.896 1.43723462331e-38
0.0530626702856 0.0414552111606 0.896 1.2529565885e-38
0.0545987339134 0.0413626772071 0.894 1.3354965713e-38
0.0562532410017 0.0413626772071 0.894 1.371800431e-38
0.0580372956249 0.0414552111606 0.896 1.44519596041e-38
0.0596955040713 0.0414552111606 0.896 1.4724233297e-38
0.0612167622666 0.0413626772071 0.894 1.26076812679e-38
0.0628712693549 0.0413626772071 0.894 1.0585523506e-38
0.0645257764432 0.0413626772071 0.894 1.07745292416e-38
0.066328337857 0.0414552111606 0.896 1.08650250964e-38
0.0681383019871 0.0415477451141 0.898 1.08645710757e-38
0.0698002117917 0.0415477451141 0.898 4.49993931174e-39
0.0117629161668 0.0436908314768 0.908 1.33470609883e-38
0.013413721897 0.0435945961652 0.906 8.83091565985e-39
0.0148072832364 0.0427765960164 0.889 1.21575183401e-38
0.0164525369294 0.0427765960164 0.889 1.00323917658e-38
0.0180977906223 0.0427765960164 0.889 1.12326781693e-38
0.0198540850594 0.0430171842954 0.894 1.00341069551e-38
0.0215085921477 0.0430171842954 0.894 1.49193837263e-38
0.02321491825 0.0431134196071 0.896 1.16900535802e-38
0.0248176063243 0.0430171842954 0.894 1.45473600035e-38
0.0264721134126 0.0430171842954 0.894 1.42725499604e-38
0.0281266205009 0.0430171842954 0.894 1.19687690422e-38
0.0296811909194 0.042872831328 0.891 1.53796962589e-38
0.0313301459705 0.042872831328 0.891 1.50133393871e-38
0.0330901417657 0.0430171842954 0.894 1.40946831463e-38
0.0346280560726 0.042872831328 0.891 1.49251066293e-38
0.0362770111237 0.042872831328 0.891 1.35432722006e-38
0.0380536630306 0.0430171842954 0.894 1.03182524486e-38
0.0397081701189 0.0430171842954 0.894 1.31691339184e-38
0.0413626772071 0.0430171842954 0.894 1.27006111782e-38
0.0430171842954 0.0430171842954 0.894 1.34374601536e-38
0.0446716913837 0.0430171842954 0.894 1.20588360997e-38
0.0467925695976 0.0434502431977 0.903 1.03092645202e-38
0.0486247418765 0.0435945961652 0.906 1.32569869243e-38
0.0503014571137 0.0435945961652 0.906 1.19684397371e-38
0.0518060591973 0.0434502431977 0.903 1.25266371712e-38
0.0530626702856 0.0431134196071 0.896 1.2341581696e-38
0.054720878732 0.0431134196071 0.896 1.19752976917e-38
0.0565049333552 0.0432096549187 0.898 1.16976346049e-38
0.0581668431598 0.0432096549187 0.898 1.24315870964e-38
0.0598287529643 0.0432096549187 0.898 1.39960191227e-38
0.0614906627689 0.0432096549187 0.898 1.47306960855e-38
0.0631525725735 0.0432096549187 0.898 1.08617376502e-38
0.064814482378 0.0432096549187 0.898 1.05912464089e-38
0.0664763921826 0.0432096549187 0.898 1.11440950868e-38
0.0685176911964 0.0434502431977 0.903 9.6668070094e-39
0.0701888543963 0.0434502431977 0.903 6.43458318198e-39
0.0117629161668 0.0453712480721 0.908 1.47292681624e-38
0.013413721897 0.0452713114023 0.906 8.55361550934e-39
0.0150904371341 0.0452713114023 0.906 8.74809471671e-39
0.0166190980456 0.0448715647232 0.898 8.93284470885e-39
0.0182402929107 0.0447716280535 0.896 8.65660113738e-39
0.0198985013571 0.0447716280535 0.896 7.91761378053e-39
0.0215567098035 0.0447716280535 0.896 1.49147145998e-38
0.02321491825 0.0447716280535 0.896 8.828404533e-39
0.0248731266964 0.0447716280535 0.896 1.12301754502e-38
0.0264721134126 0.0446716913837 0.894 1.27009488911e-38
0.0281266205009 0.0446716913837 0.894 1.03074582465e-38
0.0298477520357 0.0447716280535 0.896 1.30718767985e-38
0.0315059604821 0.0447716280535 0.896 1.16878857715e-38
0.0331641689285 0.0447716280535 0.896 1.15992900774e-38
0.0348223773749 0.0447716280535 0.896 9.76080470909e-39
0.0364805858214 0.0447716280535 0.896 1.06848671593e-38
0.038223925505 0.0448715647232 0.898 1.09611205399e-38
0.0400190842026 0.0450214697279 0.901 1.09614988905e-38
0.0416865460443 0.0450214697279 0.901 1.09615311203e-38
0.0432096549187 0.0448715647232 0.898 1.17887302155e-38
0.0448715647232 0.0448715647232 0.898 1.25223155668e-38
0.0467925695976 0.0451214063976 0.903 1.169145628e-38
0.0486247418765 0.0452713114023 0.906 1.33517034901e-38
0.0503014571137 0.0452713114023 0.906 1.32580827397e-38
0.0518060591973 0.0451214063976 0.903 1.25219652421e-38
0.0531811137461 0.0448715647232 0.898 1.16933382238e-38
0.0548430235506 0.0448715647232 0.898 1.24337745233e-38
0.0566937026203 0.0450214697279 0.901 1.25241330509e-38
0.0583611644621 0.0450214697279 0.901 1.16925941344e-38
0.0600286263038 0.0450214697279 0.901 1.23358139516e-38
0.0614906627689 0.0448715647232 0.898 1.2242507092e-38
0.0631525725735 0.0448715647232 0.898 1.13230731306e-38
0.0650310118292 0.0450214697279 0.901 1.10489581315e-38
0.0666984736709 0.0450214697279 0.901 1.16947227067e-38
0.0685176911964 0.0451214063976 0.903 9.29875036255e-39
0.0701888543963 0.0451214063976 0.903 8.09085070448e-39
0.0101380199437 0.0473107597371 0.913 1.42711612736e-38
0.0117629161668 0.0470516646673 0.908 1.50072787712e-38
0.013413721897 0.0469480266394 0.906 9.01602158179e-39
0.0150904371341 0.0469480266394 0.906 8.65805007999e-39
0.0166746184177 0.0466889315697 0.901 8.93319223086e-39
0.0182810078502 0.0465334745278 0.898 9.30267680085e-39
0.0199429176548 0.0465334745278 0.898 8.10272530767e-39
0.0216048274593 0.0465334745278 0.898 1.51978217312e-38
0.0232667372639 0.0465334745278 0.898 1.12326781693e-38
0.0249286470685 0.0465334745278 0.898 1.13299086645e-38
0.026590556873 0.0465334745278 0.898 1.21546246588e-38
0.0282524666776 0.0465334745278 0.898 1.1324492646e-38
0.0299143764822 0.0465334745278 0.898 1.32573638736e-38
0.0316817749937 0.0466889315697 0.901 1.24272654919e-38
0.0332381960913 0.0465334745278 0.898 1.28900232903e-38
0.0349001058959 0.0465334745278 0.898 1.23400893132e-38
0.036684160519 0.0466889315697 0.901 1.15146670644e-38
0.038436753598 0.0467925695976 0.903 1.12380633593e-38
0.0401079167979 0.0467925695976 0.903 1.1147316672e-38
0.0417790799978 0.0467925695976 0.903 9.39563333578e-39
0.0434502431977 0.0467925695976 0.903 1.13295555373e-38
0.0451214063976 0.0467925695976 0.903 1.10468772033e-38
0.0469480266394 0.0469480266394 0.906 1.21506982205e-38
0.0486247418765 0.0469480266394 0.906 1.14159722123e-38
0.0503014571137 0.0469480266394 0.906 1.25197960321e-38
0.0519781723508 0.0469480266394 0.906 1.04004091762e-38
0.0533587789368 0.0466889315697 0.901 1.16000453773e-38
0.0550262407785 0.0466889315697 0.901 1.27103544064e-38
0.0566937026203 0.0466889315697 0.901 1.27117641126e-38
0.0583611644621 0.0466889315697 0.901 1.261992161e-38
0.0600286263038 0.0466889315697 0.901 1.35397115012e-38
0.0616960881456 0.0466889315697 0.901 1.07720825744e-38
0.0633635499874 0.0466889315697 0.901 1.09585996039e-38
0.0651753647966 0.0467925695976 0.903 1.14174099445e-38
0.0668465279965 0.0467925695976 0.903 1.16007348161e-38
0.068745324722 0.0469480266394 0.906 9.39094599241e-39
0.0704220399591 0.0469480266394 0.906 8.7344166424e-39
0.00679569354383 0.0492687781928 0.918 1.62054548192e-38
0.00846685674374 0.0491077691137 0.915 1.40860511478e-38
0.0101380199437 0.0490004297277 0.913 1.30719188375e-38
0.0117888256738 0.0488394206486 0.91 1.62043576025e-38
0.0134433327621 0.0487320812626 0.908 8.6465440183e-39
0.0151237493574 0.0487320812626 0.908 9.39453892168e-39
0.0167671523712 0.0486247418765 0.906 9.20729601958e-39
0.0183420802595 0.0483563934114 0.901 9.48491706743e-39
0.0200095421013 0.0483563934114 0.901 9.4842136156e-39
0.0216770039431 0.0483563934114 0.901 1.00405893618e-38
0.0233444657848 0.0483563934114 0.901 1.1785145694e-38
0.0249286470685 0.0481953843324 0.898 9.4791969671e-39
0.026590556873 0.0481953843324 0.898 1.05891234417e-38
0.0282524666776 0.0481953843324 0.898 9.94410715991e-39
0.0300143131519 0.0483563934114 0.901 1.22457104603e-38
0.0317521007983 0.0484637327975 0.903 1.04011000164e-38
0.0334232639983 0.0484637327975 0.903 1.15059832179e-38
0.0350944271982 0.0484637327975 0.903 1.14145260723e-38
0.0367655903981 0.0484637327975 0.903 1.15085391863e-38
0.0385644504538 0.0486247418765 0.906 1.06819776819e-38
0.0402411656909 0.0486247418765 0.906 1.09600541517e-38
0.041917880928 0.0486247418765 0.906 1.1884154437e-38
0.0435945961652 0.0486247418765 0.906 1.24369722864e-38
0.0452713114023 0.0486247418765 0.906 1.12370095828e-38
0.0469480266394 0.0486247418765 0.906 1.22497335882e-38
0.0486247418765 0.0486247418765 0.906 1.3168817225e-38
0.0503014571137 0.0486247418765 0.906 1.28878708959e-38
0.0519781723508 0.0486247418765 0.906 1.37187077618e-38
0.0536548875879 0.0486247418765 0.906 1.36268848774e-38
0.0551483855971 0.0484637327975 0.903 1.20642268949e-38
0.0566937026203 0.0483563934114 0.901 1.33542636624e-38
0.0583611644621 0.0483563934114 0.901 1.2988720945e-38
0.0601618751969 0.0484637327975 0.903 1.16954513819e-38
0.0618330383968 0.0484637327975 0.903 1.19674013749e-38
0.0635042015967 0.0484637327975 0.903 1.21553575379e-38
0.0653918942478 0.0486247418765 0.906 1.10482785018e-38
0.0670686094849 0.0486247418765 0.906 1.15114454793e-38
0.068745324722 0.0486247418765 0.906 1.10508162533e-38
0.0704220399591 0.0486247418765 0.906 1.26984826058e-38
0.0720987551962 0.0486247418765 0.906 2.3509809945e-38
0.00679569354383 0.0509677015787 0.918 1.66660616245e-38
0.00846685674374 0.0508011404625 0.915 1.43629939672e-38
0.0101602280925 0.0508011404625 0.915 1.35325368531e-38
0.0118276899343 0.0506900997183 0.913 1.4821448378e-38
0.0135173599249 0.0506900997183 0.913 8.18699098952e-39
0.0151570615806 0.050523538602 0.91 8.93283910365e-39
0.0168041659526 0.0504124978578 0.908 8.74948760739e-39
0.018382795199 0.0501348959974 0.903 8.65730739181e-39
0.020053958399 0.0501348959974 0.903 9.20977211396e-39
0.0217251215989 0.0501348959974 0.903 8.38003386597e-39
0.0233962847988 0.0501348959974 0.903 1.53815011313e-38
0.0250119276266 0.0500238552532 0.901 9.66755250018e-39
0.0266793894684 0.0500238552532 0.901 1.22511362879e-38
0.0283468513102 0.0500238552532 0.901 1.15118154221e-38
0.0300809375984 0.0501348959974 0.903 1.08674885791e-38
0.0318575895053 0.0503014571137 0.906 1.09597010245e-38
0.0335343047424 0.0503014571137 0.906 1.12326361303e-38
0.0352110199796 0.0503014571137 0.906 1.33509818214e-38
0.0368877352167 0.0503014571137 0.906 1.32602309303e-38
0.038649581691 0.0504124978578 0.908 1.26152777069e-38
0.0403299982863 0.0504124978578 0.908 1.0589486378e-38
0.0420104148815 0.0504124978578 0.908 1.15125202752e-38
0.0437870667884 0.050523538602 0.91 1.16043641791e-38
0.0454711847418 0.050523538602 0.91 1.13277758883e-38
0.0470516646673 0.0504124978578 0.908 8.9306937157e-39
0.0487320812626 0.0504124978578 0.908 1.25234324016e-38
0.0504124978578 0.0504124978578 0.908 1.24286948164e-38
0.0522076565554 0.050523538602 0.91 1.19662719283e-38
0.0537733310484 0.0504124978578 0.908 1.3072287379e-38
0.0554537476436 0.0504124978578 0.908 1.26148811394e-38
0.0570083180621 0.0503014571137 0.906 1.26159377185e-38
0.058490711997 0.0501348959974 0.903 1.39077863649e-38
0.0601618751969 0.0501348959974 0.903 1.4921917274e-38
0.0618330383968 0.0501348959974 0.903 1.46424843472e-38
0.0635042015967 0.0501348959974 0.903 1.48271894978e-38
0.0653918942478 0.0503014571137 0.906 1.20624262264e-38
0.0670686094849 0.0503014571137 0.906 1.14203218427e-38
0.068745324722 0.0503014571137 0.906 8.55865177602e-39
0.00679569354383 0.0526666249647 0.918 1.62962001052e-38
0.00849461692979 0.0526666249647 0.918 1.50079696113e-38
0.0101602280925 0.0524945118112 0.915 1.32548807727e-38
0.0118535994412 0.0524945118112 0.915 1.54664618572e-38
0.0135173599249 0.0523797697089 0.913 8.2799026829e-39
0.0152070299155 0.0523797697089 0.913 9.02539346592e-39
0.016841179534 0.0522076565554 0.91 8.84170285543e-39
0.0184845825479 0.0520929144531 0.908 8.75094635909e-39
0.0201649991431 0.0520929144531 0.908 8.56585445013e-39
0.0218454157384 0.0520929144531 0.908 9.57641064676e-39
0.0235258323337 0.0520929144531 0.908 1.04976438754e-38
0.0251507285568 0.0519781723508 0.906 1.10508400753e-38
0.026827443794 0.0519781723508 0.906 8.74702272339e-39
0.0285041590311 0.0519781723508 0.906 1.08685157309e-38
0.0302474987147 0.0520929144531 0.908 9.48454852594e-39
0.03192791531 0.0520929144531 0.908 9.02469001409e-39
0.0336083319052 0.0520929144531 0.908 1.18769629733e-38
0.0352887485005 0.0520929144531 0.908 1.25190715608e-38
0.0369691650957 0.0520929144531 0.908 1.1875501419e-38
0.038649581691 0.0520929144531 0.908 1.0311404303e-38
0.0403299982863 0.0520929144531 0.908 1.03146945518e-38
0.0420104148815 0.0520929144531 0.908 9.94482322342e-39
0.0437870667884 0.0522076565554 0.91 1.31723737205e-38
0.0454711847418 0.0522076565554 0.91 1.26195376542e-38
0.0471553026952 0.0522076565554 0.91 1.39067171742e-38
0.0488394206486 0.0522076565554 0.91 1.25248547196e-38
0.050523538602 0.0522076565554 0.91 1.31698555871e-38
0.0523797697089 0.0523797697089 0.913 1.27996255264e-38
0.0540694396995 0.0523797697089 0.913 1.61182758379e-38
0.0557591096901 0.0523797697089 0.913 1.39978366068e-38
0.0574487796807 0.0523797697089 0.913 1.31680353004e-38
0.0597861873457 0.0529534802205 0.923 1.5196355973e-38
0.061494364127 0.0529534802205 0.923 1.39999287455e-38
0.0633394911595 0.0530682223228 0.925 1.16904067074e-38
0.0638558306199 0.0520929144531 0.908 1.15049812895e-38
0.0655362472152 0.0520929144531 0.908 1.1691108758e-38
0.0684751255778 0.0530682223228 0.925 1.14171044615e-38
0.0704146372428 0.0532403354763 0.928 8.28205507734e-39
0.0721320674195 0.0532403354763 0.928 1.47328849137e-38
0.00679569354383 0.0543655483507 0.918 1.63876796715e-38
0.00849461692979 0.0543655483507 0.918 1.52820523806e-38
0.0101935403157 0.0543655483507 0.918 1.41739461927e-38
0.0118924637017 0.0543655483507 0.918 1.50976765351e-38
0.01354697079 0.05418788316 0.915 8.64832086475e-39
0.0152403421387 0.05418788316 0.915 9.20942459194e-39
0.0169337134875 0.05418788316 0.915 8.38144076963e-39
0.0185863698967 0.0540694396995 0.913 9.48889955767e-39
0.0202760398873 0.0540694396995 0.913 1.14235462305e-38
0.0219657098779 0.0540694396995 0.913 1.45541969387e-38
0.0237071988825 0.05418788316 0.915 1.29868670272e-38
0.0254005702312 0.05418788316 0.915 1.1879158808e-38
0.02709394158 0.05418788316 0.915 1.23394110847e-38
0.0288816975613 0.0543655483507 0.918 1.16986701645e-38
0.0305806209472 0.0543655483507 0.918 1.18827265139e-38
0.0322795443332 0.0543655483507 0.918 1.14210098803e-38
0.0339784677192 0.0543655483507 0.918 1.22489754857e-38
0.0356773911051 0.0543655483507 0.918 1.29832937161e-38
0.0373763144911 0.0543655483507 0.918 1.270814596e-38
0.0387347129282 0.0538917745088 0.91 1.21599972371e-38
0.0404188308816 0.0538917745088 0.91 1.1975275271e-38
0.0427044195327 0.0546616570018 0.923 1.50148219608e-38
0.0440276550675 0.05418788316 0.915 1.21524596527e-38
0.0456210897465 0.0540694396995 0.913 1.33531524328e-38
0.0473107597371 0.0540694396995 0.913 1.35386577248e-38
0.0490004297277 0.0540694396995 0.913 1.32616952872e-38
0.0506900997183 0.0540694396995 0.913 1.35364927186e-38
0.0524945118112 0.05418788316 0.915 1.4181112433e-38
0.05418788316 0.05418788316 0.915 1.25223323823e-38
0.0558812545087 0.05418788316 0.915 1.07710133837e-38
0.0575746258575 0.05418788316 0.915 1.11393839214e-38
0.0597861873457 0.0546616570018 0.923 1.04922418698e-38
0.061494364127 0.0546616570018 0.923 1.030962045e-38
0.0633394911595 0.0547801004623 0.925 1.02159814828e-38
0.0650513692989 0.0547801004623 0.925 9.66317904768e-39
0.0667632474384 0.0547801004623 0.925 9.29116933786e-39
0.0684751255778 0.0547801004623 0.925 1.05797655706e-38
0.0704146372428 0.054957765653 0.928 1.12240938149e-38
0.0721320674195 0.054957765653 0.928 2.29186105307e-38
0.00679569354383 0.0560644717366 0.918 1.67564720001e-38
0.00849461692979 0.0560644717366 0.918 1.66639064274e-38
0.0101935403157 0.0560644717366 0.918 1.3160497716e-38
0.0118924637017 0.0560644717366 0.918 1.53778213215e-38
0.0135913870877 0.0560644717366 0.918 9.11072693721e-39
0.0152903104736 0.0560644717366 0.918 8.7462828378e-39
0.0169337134875 0.0558812545087 0.915 8.9327970647e-39
0.0186270848362 0.0558812545087 0.915 8.56585445013e-39
0.0203870806315 0.0560644717366 0.918 1.15135586374e-38
0.0220860040175 0.0560644717366 0.918 9.4831192015e-39
0.0237849274034 0.0560644717366 0.918 1.17858463433e-38
0.0254838507894 0.0560644717366 0.918 1.3628291781e-38
0.0272419959056 0.0561866165552 0.92 1.21528071747e-38
0.0289446206497 0.0561866165552 0.92 1.17872504443e-38
0.0307471820635 0.0563698337831 0.923 1.37251201036e-38
0.0324553588448 0.0563698337831 0.923 1.1510706995e-38
0.0341635356261 0.0563698337831 0.923 1.2986218226e-38
0.0358717124074 0.0563698337831 0.923 1.21560595884e-38
0.0376613190678 0.0564919786017 0.925 1.26163314833e-38
0.0393731972073 0.0564919786017 0.925 1.20635080288e-38
0.0410850753467 0.0564919786017 0.925 1.26141776876e-38
0.0427969534861 0.0564919786017 0.925 1.2153921207e-38
0.044412596314 0.0563698337831 0.923 1.32613449626e-38
0.0461207730953 0.0563698337831 0.923 1.15071448943e-38
0.0478289498766 0.0563698337831 0.923 1.12326879784e-38
0.0492687781928 0.0560644717366 0.918 1.0771324472e-38
0.0509677015787 0.0560644717366 0.918 1.03989350103e-38
0.0526666249647 0.0560644717366 0.918 9.01171679291e-39
0.0546616570018 0.0563698337831 0.923 8.73656903684e-39
0.0564919786017 0.0564919786017 0.925 1.06723493601e-38
0.0582038567412 0.0564919786017 0.925 1.19665984309e-38
0.0599157348806 0.0564919786017 0.925 1.3805881138e-38
0.06162761302 0.0564919786017 0.925 1.75847767197e-38
0.0635449165362 0.0566751958296 0.928 1.97964530925e-38
0.0652623467129 0.0566751958296 0.928 2.2290280911e-38
0.0669797768895 0.0566751958296 0.928 2.34914291131e-38
0.0686972070662 0.0566751958296 0.928 2.3491419304e-38
0.0704146372428 0.0566751958296 0.928 2.34914249092e-38
0.0722875244614 0.0567973406482 0.93 2.34972304887e-38
0.006773485395 0.0575746258575 0.915 1.63884181558e-38
0.00846685674374 0.0575746258575 0.915 1.64799075313e-38
0.0101602280925 0.0575746258575 0.915 1.40856826063e-38
0.0119572374691 0.0580780105644 0.923 1.32577170008e-38
0.0136209979528 0.0578892412993 0.92 1.11386412332e-38
0.0153236226969 0.0578892412993 0.92 7.26685918149e-39
0.0169892338596 0.0577633951226 0.918 8.19170495756e-39
0.0186881572455 0.0577633951226 0.918 7.82432373657e-39
0.0204314969292 0.0578892412993 0.92 7.91615222623e-39
0.0221341216733 0.0578892412993 0.92 7.82360066656e-39
0.0238367464174 0.0578892412993 0.92 8.46898969378e-39
0.0256226517196 0.0580780105644 0.923 6.98882475059e-39
0.0273308285009 0.0580780105644 0.923 8.92813214211e-39
0.0290390052822 0.0580780105644 0.923 7.17500686975e-39
0.03081380651 0.0582038567412 0.925 9.19575212283e-39
0.0325256846495 0.0582038567412 0.925 9.4759165274e-39
0.0342375627889 0.0582038567412 0.925 8.55397984694e-39
0.0360660337097 0.0583926260063 0.928 7.35796039725e-39
0.0377834638864 0.0583926260063 0.928 7.26397250665e-39
0.0395008940631 0.0583926260063 0.928 7.99829774351e-39
0.0413071568351 0.058518472183 0.93 9.74711822699e-39
0.0429357544164 0.0583926260063 0.928 9.65779385768e-39
0.044653184593 0.0583926260063 0.928 1.25165548288e-38
0.0463706147697 0.0583926260063 0.928 1.31587390864e-38
0.0479325879045 0.0582038567412 0.925 1.63844903162e-38
0.0495371266579 0.0580780105644 0.923 1.83205410901e-38
0.0512453034392 0.0580780105644 0.923 2.08130825167e-38
0.0530682223228 0.0582038567412 0.925 2.08148817839e-38
0.0547801004623 0.0582038567412 0.925 2.30286544991e-38
0.0566751958296 0.0583926260063 0.928 2.266309917e-38
0.0583926260063 0.0583926260063 0.928 2.34943101827e-38
0.0601100561829 0.0583926260063 0.928 2.34921157493e-38
0.0618274863596 0.0583926260063 0.928 2.3487480254e-38
0.0636818667874 0.058518472183 0.93 2.29303099716e-38
0.0654029983222 0.058518472183 0.93 2.20973193099e-38
0.067124129857 0.058518472183 0.93 2.22806343724e-38
0.0686972070662 0.0583926260063 0.928 2.28349025657e-38
0.0704146372428 0.0583926260063 0.928 1.96102079149e-38
0.0722875244614 0.058518472183 0.93 2.34911138209e-38
0.00675867996244 0.0591384496713 0.913 1.74954887842e-38
0.00844834995305 0.0591384496713 0.913 1.54675758895e-38
0.0101602280925 0.0592679972062 0.915 1.52856439085e-38
0.0119831469761 0.0599157348806 0.925 1.28871702466e-38
0.0136654142505 0.0597861873457 0.923 1.18740524764e-38
0.0153735910318 0.0597861873457 0.923 8.64365734346e-39
0.0170817678131 0.0597861873457 0.923 9.01386918735e-39
0.0187899445944 0.0597861873457 0.923 1.11365266738e-38
0.0205425376733 0.0599157348806 0.925 1.10428638845e-38
0.0222544158128 0.0599157348806 0.925 1.05808375639e-38
0.0239662939522 0.0599157348806 0.925 1.26080890458e-38
0.0256781720917 0.0599157348806 0.925 1.32509403215e-38
0.0273900502311 0.0599157348806 0.925 1.4635647412e-38
0.0291963130031 0.0601100561829 0.928 1.54661283482e-38
0.0309137431798 0.0601100561829 0.928 1.71242231639e-38
0.0326311733564 0.0601100561829 0.928 1.85081441259e-38
0.0344226306959 0.0602396037178 0.93 2.08147850943e-38
0.0361437622307 0.0602396037178 0.93 2.00783747253e-38
0.0379870385841 0.0604339250201 0.933 2.18311805016e-38
0.0397137221561 0.0604339250201 0.933 2.26637998193e-38
0.0414404057281 0.0604339250201 0.933 2.28474834233e-38
0.0431670893001 0.0604339250201 0.933 2.22021350337e-38
0.0447494199046 0.0602396037178 0.93 2.33070210378e-38
0.0464705514394 0.0602396037178 0.93 2.30272041552e-38
0.0480880449463 0.0601100561829 0.928 2.3302740071e-38
0.049805475123 0.0601100561829 0.928 2.28399248194e-38
0.0516339460438 0.0602396037178 0.93 2.20083859028e-38
0.0532403354763 0.0601100561829 0.928 2.15466664666e-38
0.054957765653 0.0601100561829 0.928 2.19157951068e-38
0.0566751958296 0.0601100561829 0.928 2.10882148584e-38
0.0583926260063 0.0601100561829 0.928 2.08109147079e-38
0.0601100561829 0.0601100561829 0.928 2.20994927238e-38
0.0619607352526 0.0602396037178 0.93 2.1546316142e-38
0.0636818667874 0.0602396037178 0.93 2.17335786623e-38
0.0654029983222 0.0602396037178 0.93 2.13651478688e-38
0.067124129857 0.0602396037178 0.93 2.17339317895e-38
0.0688452613918 0.0602396037178 0.93 2.03496058522e-38
0.00675867996244 0.0608281196619 0.913 1.79568186594e-38
0.00844834995305 0.0608281196619 0.913 1.62058597945e-38
0.0102712688367 0.06162761302 0.925 1.57455472619e-38
0.0119831469761 0.06162761302 0.925 1.25190981855e-38
0.0136950251156 0.06162761302 0.925 1.51916349985e-38
0.015406903255 0.06162761302 0.925 2.24794660128e-38
0.0171743017665 0.0618274863596 0.928 2.15571215545e-38
0.0188917319432 0.0618274863596 0.928 2.25705448078e-38
0.0206091621199 0.0618274863596 0.928 2.18333300935e-38
0.0223265922965 0.0618274863596 0.928 2.22021406389e-38
0.0240440224732 0.0618274863596 0.928 2.30300614028e-38
0.0258169730219 0.0619607352526 0.93 2.22907335304e-38
0.0275381045567 0.0619607352526 0.93 2.20134235708e-38
0.0292592360915 0.0619607352526 0.93 2.14595533463e-38
0.0310803042961 0.0621606085921 0.933 2.19190601322e-38
0.0328069878681 0.0621606085921 0.933 2.16410299052e-38
0.0346076986028 0.0622938574851 0.935 2.1361923481e-38
0.036338083533 0.0622938574851 0.935 2.04400064187e-38
0.0379870385841 0.0621606085921 0.933 2.11764602279e-38
0.0397137221561 0.0621606085921 0.933 2.08091042303e-38
0.0414404057281 0.0621606085921 0.933 2.01640977576e-38
0.0431670893001 0.0621606085921 0.933 2.02566465147e-38
0.0447494199046 0.0619607352526 0.93 2.03477729538e-38
0.0464705514394 0.0619607352526 0.93 2.06257919704e-38
0.0483471400161 0.0621606085921 0.933 2.11814922907e-38
0.0500738235881 0.0621606085921 0.933 2.03506596286e-38
0.0516339460438 0.0619607352526 0.93 2.00740825481e-38
0.0533550775786 0.0619607352526 0.93 2.09974611647e-38
0.0550762091134 0.0619607352526 0.93 2.05375774295e-38
0.0567973406482 0.0619607352526 0.93 1.95241317554e-38
0.058518472183 0.0619607352526 0.93 1.97063846337e-38
0.060563472555 0.0622938574851 0.935 1.94287103365e-38
0.0622938574851 0.0622938574851 0.935 1.97013273475e-38
0.0640242424153 0.0622938574851 0.935 1.95158893178e-38
0.0656139757361 0.0621606085921 0.933 2.1546316142e-38
0.0673406593081 0.0621606085921 0.933 2.15477412626e-38
0.0690673428801 0.0621606085921 0.933 2.12718802456e-38
0.00858715088327 0.0635449165362 0.928 1.71252797429e-38
0.0102712688367 0.0633394911595 0.925 1.5743777422e-38
0.0119831469761 0.0633394911595 0.925 1.3072634901e-38
0.0136950251156 0.0633394911595 0.925 1.1505265753e-38
0.0154568715899 0.0635449165362 0.928 2.04442677673e-38
0.0172113153479 0.0636818667874 0.93 2.00744090507e-38
0.0189324468827 0.0636818667874 0.93 1.93386418777e-38
0.0206535784175 0.0636818667874 0.93 1.96120225964e-38
0.0223747099523 0.0636818667874 0.93 1.8874812086e-38
0.0240958414871 0.0636818667874 0.93 1.89670063146e-38
0.0258169730219 0.0636818667874 0.93 1.9797784326e-38
0.027626937152 0.0638872921641 0.933 1.98903877337e-38
0.0293536207241 0.0638872921641 0.933 1.95223338895e-38
0.0310803042961 0.0638872921641 0.933 1.98925429308e-38
0.0328773136727 0.0640242424153 0.935 2.01687668841e-38
0.0346076986028 0.0640242424153 0.935 2.00765712542e-38
0.036338083533 0.0640242424153 0.935 1.94312046478e-38
0.0380684684631 0.0640242424153 0.935 2.00751545414e-38
0.0397988533933 0.0640242424153 0.935 1.97999899698e-38
0.0415292383234 0.0640242424153 0.935 1.90627920711e-38
0.0432596232536 0.0640242424153 0.935 1.94301130362e-38
0.0449900081837 0.0640242424153 0.935 1.96130973923e-38
0.0467203931138 0.0640242424153 0.935 1.96130973923e-38
0.048450778044 0.0640242424153 0.935 1.86886425785e-38
0.0503421720532 0.064229667792 0.938 1.905704955e-38
0.0521891497647 0.0643666180432 0.94 2.00697217073e-38
0.0539287880902 0.0643666180432 0.94 2.05332432133e-38
0.0556684264157 0.0643666180432 0.94 2.00747831974e-38
0.0580798612435 0.0651198444245 0.951 2.16428305737e-38
0.0598398570387 0.0651198444245 0.951 2.01695333943e-38
0.061599852834 0.0651198444245 0.951 2.07230350773e-38
0.0626269797177 0.0643666180432 0.94 2.11832915579e-38
0.0643666180432 0.0643666180432 0.94 2.22864021169e-38
0.0661062563686 0.0643666180432 0.94 2.12711739911e-38
0.0678458946941 0.0643666180432 0.94 2.09005964084e-38
0.00858715088327 0.0652623467129 0.928 1.79542949209e-38
0.0103045810599 0.0652623467129 0.928 1.69426681322e-38
0.0120220112366 0.0652623467129 0.928 1.25158513769e-38
0.0137394414132 0.0652623467129 0.928 1.07662994157e-38
0.0154901838131 0.0654029983222 0.93 1.86014790114e-38
0.0172113153479 0.0654029983222 0.93 1.94311892335e-38
0.0189324468827 0.0654029983222 0.93 1.76820114189e-38
0.0206535784175 0.0654029983222 0.93 1.87851317869e-38
0.022446886436 0.0656139757361 0.933 1.76770143886e-38
0.024173570008 0.0656139757361 0.933 1.83220306704e-38
0.0259557739521 0.0657546273454 0.935 1.79550278e-38
0.0276861588823 0.0657546273454 0.935 1.89673720535e-38
0.029510928445 0.0659656047594 0.938 1.76773240755e-38
0.0312468654123 0.0659656047594 0.938 1.80439920356e-38
0.0329828023797 0.0659656047594 0.938 1.85046016434e-38
0.034718739347 0.0659656047594 0.938 1.87822423094e-38
0.0364546763144 0.0659656047594 0.938 1.82280175564e-38
0.0380684684631 0.0657546273454 0.935 1.90577740213e-38
0.0397988533933 0.0657546273454 0.935 1.94294320052e-38
0.0415292383234 0.0657546273454 0.935 1.95241289528e-38
0.0433984241838 0.0659656047594 0.938 1.94312466867e-38
0.0449900081837 0.0657546273454 0.935 2.07212372114e-38
0.0467203931138 0.0657546273454 0.935 1.97077915373e-38
0.0486062350858 0.0659656047594 0.938 2.02581010625e-38
0.0504495114392 0.0661062563686 0.94 2.10882148584e-38
0.0525222719973 0.0665282111965 0.946 2.17321297197e-38
0.0542730143972 0.0665282111965 0.946 1.99804169562e-38
0.0563198654482 0.0668798402198 0.951 1.97045867678e-38
0.0580798612435 0.0668798402198 0.951 1.93372167572e-38
0.0598398570387 0.0668798402198 0.951 1.95233820607e-38
0.061599852834 0.0668798402198 0.951 1.88823496704e-38
0.0633598486293 0.0668798402198 0.951 1.68511745529e-38
0.0645720434199 0.0663172337826 0.943 1.74929678483e-38
0.0663172337826 0.0663172337826 0.943 1.77659225722e-38
0.0684233065639 0.0666688628058 0.948 1.85034848085e-38
0.00855939069723 0.0667632474384 0.925 1.74933237781e-38
0.0102712688367 0.0667632474384 0.925 1.74025756895e-38
0.0119831469761 0.0667632474384 0.925 1.38058643224e-38
0.0137394414132 0.0669797768895 0.928 1.00287624027e-38
0.0154901838131 0.067124129857 0.93 2.03532085905e-38
0.01726683572 0.0673406593081 0.933 1.88819937406e-38
0.018993519292 0.0673406593081 0.933 1.89724363461e-38
0.020720202864 0.0673406593081 0.933 1.89709481671e-38
0.0224950040919 0.0674850122756 0.935 1.89695230466e-38
0.024225389022 0.0674850122756 0.935 1.99851169112e-38
0.0260945748824 0.0678458946941 0.94 1.84181541398e-38
0.0278342132079 0.0678458946941 0.94 2.03524602972e-38
0.0295738515333 0.0678458946941 0.94 1.99854700384e-38
0.0313134898588 0.0678458946941 0.94 1.98925429308e-38
0.0331586168913 0.0680624241453 0.943 2.03524574946e-38
0.0347927665098 0.0678458946941 0.94 2.09045368596e-38
0.0365324048353 0.0678458946941 0.94 1.89684286325e-38
0.0382720431608 0.0678458946941 0.94 2.06258171938e-38
0.0400116814863 0.0678458946941 0.94 1.96130945897e-38
0.0417513198118 0.0678458946941 0.94 1.82301601418e-38
0.0434909581373 0.0678458946941 0.94 1.96152329712e-38
0.0452305964628 0.0678458946941 0.94 1.87883785954e-38
0.0469702347883 0.0678458946941 0.94 1.73135988422e-38
0.0488653301556 0.0680624241453 0.943 1.80486583595e-38
0.0508788689834 0.0684233065639 0.948 1.72153103666e-38
0.0526333127414 0.0684233065639 0.948 1.75812006061e-38
0.0543877564995 0.0684233065639 0.948 1.70269183998e-38
0.0563198654482 0.068639836015 0.951 1.69361815216e-38
0.0580798612435 0.068639836015 0.951 1.78610329029e-38
0.0598398570387 0.068639836015 0.951 1.74039952049e-38
0.061599852834 0.068639836015 0.951 1.74980083188e-38
0.0633598486293 0.068639836015 0.951 1.86957877994e-38
0.0649144190478 0.0684233065639 0.948 1.81430063838e-38
0.0666688628058 0.0684233065639 0.948 1.92478769736e-38
0.0684233065639 0.0684233065639 0.948 1.82312153195e-38
0.0715842664149 0.0697946597545 0.967 1.84152422416e-38
0.00854088390653 0.0683270712523 0.923 1.85993112027e-38
0.0102490606878 0.0683270712523 0.923 1.8323437574e-38
0.0119831469761 0.0684751255778 0.925 1.49140293649e-38
0.0137690522784 0.0688452613918 0.93 1.09474368604e-38
0.015540152148 0.0690673428801 0.933 1.92461505739e-38
0.01726683572 0.0690673428801 0.933 1.72214284357e-38
0.018993519292 0.0690673428801 0.933 1.82337180386e-38
0.020720202864 0.0690673428801 0.933 1.84184596229e-38
0.0224950040919 0.0692153972057 0.935 1.81429671474e-38
0.024225389022 0.0692153972057 0.935 1.75919485653e-38
0.0261778554405 0.069807614508 0.943 1.74983404266e-38
0.0279230458032 0.069807614508 0.943 1.76827120681e-38
0.0296682361659 0.069807614508 0.943 1.58384491462e-38
0.0314134265286 0.069807614508 0.943 1.58370548543e-38
0.0331586168913 0.069807614508 0.943 1.63873069261e-38
0.034903807254 0.069807614508 0.943 1.68443516307e-38
0.0366489976167 0.069807614508 0.943 1.57358460727e-38
0.038516332798 0.0700296959964 0.946 1.55500282911e-38
0.0402670751979 0.0700296959964 0.946 1.65634739652e-38
0.0420178175978 0.0700296959964 0.946 1.73975352189e-38
0.0438610939512 0.0701777503219 0.948 1.5556877838e-38
0.0456155377093 0.0701777503219 0.948 1.6479850078e-38
0.0475198864719 0.0703998318103 0.951 1.75880557581e-38
