# .PCD v0.7 - Point Cloud Data file format
VERSION 0.7
FIELDS x y z rgb
SIZE 4 4 4 4
TYPE F F F F
COUNT 1 1 1 1
WIDTH 835
HEIGHT 1
VIEWPOINT 0 0 0 1 0 0 0
POINTS 835
DATA ascii
-0.0401782426026 -0.0185438042781 0.835 1.92436282366e-38
-0.0386329255794 -0.0185438042781 0.835 1.94308935595e-38
-0.0367322781748 -0.0183661390874 0.827 1.78624496156e-38
-0.035116635347 -0.0183217227897 0.825 1.82316104857e-38
-0.0335898251145 -0.0183217227897 0.825 1.82298350405e-38
-0.0320630148821 -0.0183217227897 0.825 1.79561096024e-38
-0.0305362046496 -0.0183217227897 0.825 1.70348847816e-38
-0.0290093944171 -0.0183217227897 0.825 1.0304638834e-38
-0.0274159597381 -0.0182773064921 0.823 1.99786204915e-38
-0.0258928508638 -0.0182773064921 0.823 1.8867215647e-38
-0.0244289637197 -0.0183217227897 0.825 1.86810475408e-38
-0.0229021534872 -0.0183217227897 0.825 1.94168273255e-38
-0.0214789812826 -0.0184105553851 0.829 1.93278210509e-38
-0.0199447683338 -0.0184105553851 0.829 1.90512313588e-38
-0.0184105553851 -0.0184105553851 0.829 1.82204393343e-38
-0.0169170573759 -0.0184549716828 0.831 2.08991096307e-38
-0.015379143069 -0.0184549716828 0.831 1.73971050203e-38
-0.0138412287621 -0.0184549716828 0.831 1.97902061039e-38
-0.0123033144552 -0.0184549716828 0.831 2.16341565362e-38
-0.0107913096553 -0.0184993879804 0.833 2.06267546625e-38
-0.00927190213905 -0.0185438042781 0.835 2.1822472833e-38
-0.00772658511588 -0.0185438042781 0.835 2.09909521333e-38
-0.0061812680927 -0.0185438042781 0.835 2.14497876973e-38
-0.00465815921836 -0.0186326368734 0.839 2.15409015247e-38
-0.00311284219519 -0.0186770531711 0.841 2.20933410235e-38
-0.00156012245573 -0.0187214694688 0.843 2.12607217059e-38
0.0 -0.0187214694688 0.843 2.20926081444e-38
0.00156012245573 -0.0187214694688 0.843 2.25557765233e-38
0.00312764762774 -0.0187658857665 0.845 1.85996517182e-38
0.00470257551603 -0.0188103020641 0.847 1.04893355768e-38
0.0062849061206 -0.0188547183618 0.849 9.84003552556e-39
0.00785613265075 -0.0188547183618 0.849 9.94517354804e-39
0.00944956732974 -0.0188991346595 0.851 1.22439686463e-38
0.011024495218 -0.0188991346595 0.851 1.33513503629e-38
0.012643839404 -0.018965759106 0.854 1.63974060842e-38
0.0142243193295 -0.018965759106 0.854 1.2065964505e-38
0.0158418128364 -0.0190101754037 0.856 9.39450669181e-39
0.01742599412 -0.0190101754037 0.856 9.2998013364e-39
0.0190545917013 -0.0190545917013 0.858 1.03125323483e-38
0.0206905919989 -0.019099007999 0.86 9.94088277214e-39
0.0223339950128 -0.0191434242967 0.862 1.20538320629e-38
0.0239848007429 -0.0191878405943 0.864 1.76558197493e-38
0.0255837874591 -0.0191878405943 0.864 1.85672859276e-38
0.0272771588079 -0.0192544650409 0.867 1.95714045591e-38
0.0288816975613 -0.0192544650409 0.867 1.90232852635e-38
0.0305565621193 -0.0192988813385 0.869 1.95746205391e-38
0.0322388293937 -0.0193432976362 0.871 1.94856478957e-38
0.0339284993843 -0.0193877139339 0.873 1.99422932302e-38
0.0355441422121 -0.0193877139339 0.873 1.89307365064e-38
0.0372449162771 -0.0194321302315 0.875 1.92101554202e-38
0.0388642604631 -0.0194321302315 0.875 1.89317874803e-38
0.0406224055793 -0.0194987546781 0.878 1.96689839777e-38
0.0422473018025 -0.0194987546781 0.878 1.97597334675e-38
0.0439721346954 -0.0195431709757 0.88 1.93892035289e-38
0.0456007322767 -0.0195431709757 0.88 2.14149738382e-38
0.047229329858 -0.0195431709757 0.88 2.14275659062e-38
0.0491355292998 -0.0196542117199 0.885 2.03261733393e-38
0.0507733802764 -0.0196542117199 0.885 2.0230402997e-38
0.0525296747135 -0.0196986280176 0.887 2.03218937737e-38
0.0544155166855 -0.0197874606129 0.891 2.13338764922e-38
0.0563790871785 -0.0198985013571 0.896 1.86605535508e-38
0.0580372956249 -0.0198985013571 0.896 1.97565286979e-38
0.0598287529643 -0.0199429176548 0.898 1.98490620407e-38
0.0614906627689 -0.0199429176548 0.898 2.04015351707e-38
0.0631525725735 -0.0199429176548 0.898 2.05884025248e-38
0.0650310118292 -0.0200095421013 0.901 2.06870819626e-38
0.0666984736709 -0.0200095421013 0.901 2.17963260049e-38
0.0688970804057 -0.0201649991431 0.908 1.79247821739e-38
0.0707329540428 -0.0202094154408 0.91 1.95739325015e-38
0.0726558095962 -0.0202760398873 0.913 1.99441051091e-38
0.0743454795868 -0.0202760398873 0.913 1.85518464211e-38
0.0760351495774 -0.0202760398873 0.913 2.34666079134e-38
0.0778950820425 -0.020320456185 0.915 2.34791901723e-38
0.0795884533912 -0.020320456185 0.915 2.34867754009e-38
0.0817259877167 -0.0204314969292 0.92 2.13633724236e-38
0.0838820288328 -0.0205425376733 0.925 2.28334227945e-38
0.0858715088327 -0.0206091621199 0.928 2.3485325057e-38
0.0882496314373 -0.0207646191617 0.935 2.34853362674e-38
0.0899800163674 -0.0207646191617 0.935 2.31100447165e-38
0.0917104012975 -0.0207646191617 0.935 1.53537470139e-38
0.0934407862277 -0.0207646191617 0.935 2.16025194208e-38
0.0951711711578 -0.0207646191617 0.935 2.05945233965e-38
0.0972124701717 -0.0208312436082 0.938 2.04039930482e-38
0.098948407139 -0.0208312436082 0.938 1.88266354448e-38
0.101221041037 -0.0209422843524 0.943 2.35022849723e-38
-0.0401782426026 -0.0169984872549 0.835 1.97063874363e-38
-0.0386329255794 -0.0169984872549 0.835 1.92464854842e-38
-0.0367322781748 -0.0168356274968 0.827 1.8417422662e-38
-0.035116635347 -0.0167949125573 0.825 1.92464826816e-38
-0.0335898251145 -0.0167949125573 0.825 1.74951384596e-38
-0.0320630148821 -0.0167949125573 0.825 1.81383372573e-38
-0.0305362046496 -0.0167949125573 0.825 1.75869809622e-38
-0.0290093944171 -0.0167949125573 0.825 5.97791682803e-39
-0.0274825841846 -0.0167949125573 0.825 1.97977997403e-38
-0.0259557739521 -0.0167949125573 0.825 1.9510471898e-38
-0.0244289637197 -0.0167949125573 0.825 1.95115130627e-38
-0.0229576738593 -0.0168356274968 0.827 1.90494419006e-38
-0.0214789812826 -0.0168763424363 0.829 1.79430887371e-38
-0.0199928859897 -0.0169170573759 0.831 1.8034209571e-38
-0.0184993879804 -0.0169577723154 0.833 1.74821498241e-38
-0.0169577723154 -0.0169577723154 0.833 1.72040887685e-38
-0.0154531702318 -0.0169984872549 0.835 2.0991715841e-38
-0.0139078532086 -0.0169984872549 0.835 2.17298848395e-38
-0.0123625361854 -0.0169984872549 0.835 2.23741402163e-38
-0.0108172191622 -0.0169984872549 0.835 2.13611191357e-38
-0.00929411028789 -0.0170392021945 0.837 2.16345040583e-38
-0.00776359869727 -0.017079917134 0.839 2.20022552221e-38
-0.00621087895782 -0.017079917134 0.839 2.23709999064e-38
-0.0046803673672 -0.0171613470131 0.843 2.19096462091e-38
-0.00312024491147 -0.0171613470131 0.843 2.1908579821e-38
-0.00156012245573 -0.0171613470131 0.843 2.34788090191e-38
0.0 -0.0172020619526 0.845 1.95212352715e-38
0.00156382381387 -0.0172020619526 0.845 1.12243782785e-38
0.00313505034402 -0.0172427768921 0.847 1.0114818944e-38
0.00471367959045 -0.0172834918317 0.849 9.39306895959e-39
0.00629971155316 -0.0173242067712 0.851 9.76146752326e-39
0.00787463944145 -0.0173242067712 0.851 8.46968613912e-39
0.00948287955299 -0.0173852791805 0.854 1.53815011313e-38
0.0110633594785 -0.0173852791805 0.854 1.24279689438e-38
0.0126734502691 -0.01742599412 0.856 1.01231020192e-38
0.0142576315527 -0.01742599412 0.856 9.47771719592e-39
0.0158418128364 -0.01742599412 0.856 1.14141855568e-38
0.0174667090596 -0.0174667090596 0.858 1.05862521812e-38
0.0191434242967 -0.0175481389386 0.862 1.0312179221e-38
0.0207387096547 -0.0175481389386 0.862 1.15035043209e-38
0.0224635425477 -0.0176499262875 0.867 1.76597279707e-38
0.0241236016732 -0.017690641227 0.869 1.8474368629e-38
0.0257318417847 -0.017690641227 0.869 1.92079862102e-38
0.0273400818963 -0.017690641227 0.869 1.92980322482e-38
0.0290149464543 -0.0177313561665 0.871 1.92065610896e-38
0.030626887924 -0.0177313561665 0.871 1.93923802725e-38
0.0323128565565 -0.0177720711061 0.873 1.94852975711e-38
0.0340062279052 -0.0178127860456 0.875 1.89299699962e-38
0.0356255720912 -0.0178127860456 0.875 1.97608320855e-38
0.0373726131329 -0.0178738584549 0.878 1.92090680126e-38
0.0390863419515 -0.0179145733944 0.88 1.89335699319e-38
0.0407149395328 -0.0179145733944 0.88 1.93923956868e-38
0.0424397724257 -0.0179552883339 0.882 1.95735247237e-38
0.0440720713651 -0.0179552883339 0.882 1.91125914159e-38
0.0457043703046 -0.0179552883339 0.882 2.18805902855e-38
0.047336669244 -0.0179552883339 0.882 1.89339356708e-38
0.0492465700439 -0.0180570756828 0.887 2.16158163419e-38
0.0508881223787 -0.0180570756828 0.887 1.94932275191e-38
0.0529442268251 -0.0181995779711 0.894 1.99502231782e-38
0.0545987339134 -0.0181995779711 0.894 1.97597208558e-38
0.0563790871785 -0.0182402929107 0.896 1.96664714495e-38
0.0581668431598 -0.0182810078502 0.898 2.05891606273e-38
0.0598287529643 -0.0182810078502 0.898 1.98515381351e-38
0.0616960881456 -0.0183420802595 0.901 2.24391044131e-38
0.0633635499874 -0.0183420802595 0.901 2.17980594111e-38
0.0651753647966 -0.018382795199 0.903 1.78275979215e-38
0.0672166638105 -0.0184845825479 0.908 1.97576245133e-38
0.069276469615 -0.0185863698967 0.913 2.12399054172e-38
0.0709661396056 -0.0185863698967 0.913 2.17195124283e-38
0.0726558095962 -0.0185863698967 0.913 2.348646151e-38
0.0743454795868 -0.0185863698967 0.913 1.78456158172e-38
0.0760351495774 -0.0185863698967 0.913 2.34842082221e-38
0.0781504757541 -0.0186881572455 0.918 2.34842180312e-38
0.0800233629726 -0.0187288721851 0.92 2.34870598645e-38
0.0824366484794 -0.0188917319432 0.928 1.87819130043e-38
0.0843354452049 -0.0189324468827 0.93 1.89555577061e-38
0.0865192465071 -0.0190342342316 0.935 1.86724547787e-38
0.0882496314373 -0.0190342342316 0.935 1.82972206811e-38
0.0899800163674 -0.0190342342316 0.935 1.73615722951e-38
0.0920046592696 -0.0190953066409 0.938 2.0488648291e-38
0.093740596237 -0.0190953066409 0.938 2.23365447798e-38
0.0954765332043 -0.0190953066409 0.938 2.01296118024e-38
0.0974197462275 -0.0191360215804 0.94 2.13220467306e-38
0.0994758506739 -0.0191970939897 0.943 1.85507702239e-38
0.101221041037 -0.0191970939897 0.943 2.3508391831e-38
-0.0432688766489 -0.0154531702318 0.835 2.34900053938e-38
-0.041623622956 -0.0154161566504 0.833 1.97928223282e-38
-0.0400820072909 -0.0154161566504 0.833 1.97992879193e-38
-0.0386329255794 -0.0154531702318 0.835 1.85082141909e-38
-0.0369987759609 -0.0154161566504 0.833 2.03528134244e-38
-0.0354571602958 -0.0154161566504 0.833 1.84163688856e-38
-0.0337526848727 -0.0153421294876 0.829 1.83256025802e-38
-0.0322184719239 -0.0153421294876 0.829 1.74032791413e-38
-0.0306102318124 -0.0153051159062 0.827 1.76802359737e-38
-0.0290797202217 -0.0153051159062 0.827 5.60985737859e-39
-0.0275492086311 -0.0153051159062 0.827 1.91489396968e-38
-0.0260186970405 -0.0153051159062 0.827 1.88632878074e-38
-0.0244881854499 -0.0153051159062 0.827 1.91416725629e-38
-0.0230131942314 -0.0153421294876 0.829 1.79413287062e-38
-0.0215308002966 -0.015379143069 0.831 1.72055461189e-38
-0.0200410036455 -0.0154161566504 0.833 2.01543194969e-38
-0.0185438042781 -0.0154531702318 0.835 1.98860296955e-38
-0.0170392021945 -0.0154901838131 0.837 2.2374927746e-38
-0.0154901838131 -0.0154901838131 0.837 2.080970819e-38
-0.0139744776551 -0.0155271973945 0.839 2.25574636866e-38
-0.0124217579156 -0.0155271973945 0.839 2.32935797829e-38
-0.0108949476832 -0.0155642109759 0.841 2.1818547796e-38
-0.00933852658556 -0.0155642109759 0.841 2.24621011222e-38
-0.00778210548797 -0.0155642109759 0.841 2.10781128978e-38
-0.00624048982293 -0.0156012245573 0.843 2.15394371679e-38
-0.00469147144162 -0.0156382381387 0.845 2.34791551398e-38
-0.00312764762774 -0.0156382381387 0.845 2.09027221781e-38
-0.00156382381387 -0.0156382381387 0.845 1.23299915564e-38
0.0 -0.0156752517201 0.847 9.37977624236e-39
0.00157122653015 -0.0157122653015 0.849 9.4842136156e-39
0.0031424530603 -0.0157122653015 0.849 1.03103281058e-38
0.0047414397765 -0.015804799255 0.854 6.80874108234e-39
0.006321919702 -0.015804799255 0.854 1.30665434565e-38
0.0079023996275 -0.015804799255 0.854 1.80511666837e-38
0.00948287955299 -0.015804799255 0.854 1.2619212553e-38
0.0110892689855 -0.0158418128364 0.856 1.0313197965e-38
0.0126734502691 -0.0158418128364 0.856 1.3253050677e-38
0.0142576315527 -0.0158418128364 0.856 2.03552320655e-38
0.0158788264178 -0.0158788264178 0.858 1.9807606027e-38
0.0175481389386 -0.0159528535806 0.862 8.28029784907e-39
0.0192544650409 -0.016045387534 0.867 1.22414477104e-38
0.0208590037943 -0.016045387534 0.867 1.62782368602e-38
0.0225153615616 -0.0160824011154 0.869 1.89378635104e-38
0.0241236016732 -0.0160824011154 0.869 1.88406890671e-38
0.0257910635149 -0.0161194146968 0.871 1.93920271453e-38
0.0274030049846 -0.0161194146968 0.871 1.91154178349e-38
0.0290815709008 -0.0161564282782 0.873 1.92097658592e-38
0.0306972137286 -0.0161564282782 0.873 1.93012384191e-38
0.0323868837192 -0.0161934418596 0.875 1.88399253594e-38
0.0341228206866 -0.0162489622317 0.878 1.91161409049e-38
0.0358291467888 -0.0162859758131 0.88 1.93001846426e-38
0.0374577443701 -0.0162859758131 0.88 1.9576042857e-38
0.0393972560352 -0.016415523348 0.887 1.94856478957e-38
0.04103880837 -0.016415523348 0.887 1.97600865947e-38
0.0426803607048 -0.016415523348 0.887 1.93927726361e-38
0.0443219130396 -0.016415523348 0.887 2.12381678071e-38
0.0459634653743 -0.016415523348 0.887 2.02278834624e-38
0.0477123570952 -0.0164525369294 0.889 2.05930716513e-38
0.0493576107881 -0.0164525369294 0.889 1.84718687126e-38
0.0514044618392 -0.0165820844643 0.896 2.0584497106e-38
0.0530626702856 -0.0165820844643 0.896 1.95760876986e-38
0.0548430235506 -0.0166190980456 0.898 1.97590370222e-38
0.0566937026203 -0.0166746184177 0.901 1.93909761714e-38
0.058490711997 -0.0167116319991 0.903 2.08636049315e-38
0.0601618751969 -0.0167116319991 0.903 2.29941811556e-38
0.0618330383968 -0.0167116319991 0.903 1.92144251766e-38
0.0637151790106 -0.0167671523712 0.906 1.87430900304e-38
0.0653918942478 -0.0167671523712 0.906 2.0589906118e-38
0.06773485395 -0.0169337134875 0.915 2.34651912006e-38
0.0694282252987 -0.0169337134875 0.915 1.84949382892e-38
0.0711215966475 -0.0169337134875 0.915 5.23462328101e-39
0.0728149679962 -0.0169337134875 0.915 2.34850167713e-38
0.074508339345 -0.0169337134875 0.915 2.30192559903e-38
0.0762017106937 -0.0169337134875 0.915 2.34878333812e-38
0.0783207382285 -0.017026247441 0.92 2.34827845028e-38
0.0804582725539 -0.0171187813945 0.925 2.31164920908e-38
0.0828808114561 -0.01726683572 0.933 1.68400062041e-38
0.084788861577 -0.0173038493014 0.935 1.7364083422e-38
0.0865192465071 -0.0173038493014 0.935 1.95735247237e-38
0.0882496314373 -0.0173038493014 0.935 2.09550368537e-38
0.0902687223023 -0.0173593696735 0.938 1.93913264961e-38
0.0920046592696 -0.0173593696735 0.938 2.34500319538e-38
0.093740596237 -0.0173593696735 0.938 2.24442289616e-38
0.0954765332043 -0.0173593696735 0.938 2.12438136386e-38
0.0977306603112 -0.017451903627 0.943 2.0129614605e-38
0.0994758506739 -0.017451903627 0.943 2.34306505948e-38
0.101543059195 -0.0175074239991 0.946 2.35098435762e-38
-0.0432688766489 -0.0139078532086 0.835 2.34892921329e-38
-0.041623622956 -0.0138745409853 0.833 1.93286267976e-38
-0.0400820072909 -0.0138745409853 0.833 2.00755048661e-38
-0.0386329255794 -0.0139078532086 0.835 1.91539367271e-38
-0.0369987759609 -0.0138745409853 0.833 1.94287285534e-38
-0.0354571602958 -0.0138745409853 0.833 1.75841125043e-38
-0.0339155446308 -0.0138745409853 0.833 1.81408609958e-38
-0.0322962004448 -0.0138412287621 0.831 1.74943957714e-38
-0.0307582861379 -0.0138412287621 0.831 1.86007601453e-38
-0.0291500460264 -0.0138079165388 0.829 1.1414191162e-38
-0.0275492086311 -0.0137746043156 0.827 1.93318413762e-38
-0.0260186970405 -0.0137746043156 0.827 1.8683170508e-38
-0.0245474071801 -0.0138079165388 0.829 1.79438174123e-38
-0.0230687146034 -0.0138412287621 0.831 1.77583639683e-38
-0.0215826193105 -0.0138745409853 0.833 1.6927901249e-38
-0.0200891213013 -0.0139078532086 0.835 1.96951910615e-38
-0.0185882205758 -0.0139411654318 0.837 1.96101070214e-38
-0.017079917134 -0.0139744776551 0.839 2.04362761622e-38
-0.0155642109759 -0.0140077898783 0.841 2.17284625216e-38
-0.0140077898783 -0.0140077898783 0.841 2.16330971546e-38
-0.0124513687807 -0.0140077898783 0.841 2.1724576721e-38
-0.0109208571901 -0.0140411021016 0.843 2.07097045251e-38
-0.0093607347344 -0.0140411021016 0.843 2.12635943677e-38
-0.00781911906936 -0.0140744143248 0.845 2.13557942015e-38
-0.00625529525549 -0.0140744143248 0.845 2.16388648991e-38
-0.00469147144162 -0.0140744143248 0.845 1.38962831058e-38
-0.00313505034402 -0.0141077265481 0.847 9.19431158801e-39
-0.00156752517201 -0.0141077265481 0.847 9.759696282e-39
0.0 -0.0141410387714 0.849 9.94447009621e-39
0.00157492788829 -0.0141743509946 0.851 9.02288654297e-39
0.003160959851 -0.0142243193295 0.854 1.40820434342e-38
0.0047414397765 -0.0142243193295 0.854 2.07233125344e-38
0.00633672513455 -0.0142576315527 0.856 1.95270128251e-38
0.00792090641819 -0.0142576315527 0.856 1.38141838314e-38
0.00950508770183 -0.0142576315527 0.856 8.55720283341e-39
0.0110892689855 -0.0142576315527 0.856 9.01782225032e-39
0.0127030611342 -0.014290943776 0.858 1.95303493167e-38
0.0143242559993 -0.0143242559993 0.86 1.46396313035e-38
0.0159158399992 -0.0143242559993 0.86 8.83270932188e-39
0.0175481389386 -0.0143575682225 0.862 1.12280188519e-38
0.0192988813385 -0.0144741610039 0.869 1.59148647541e-38
0.0209071214501 -0.0144741610039 0.869 1.68278387296e-38
0.0225671805756 -0.0145074732272 0.871 1.60913428814e-38
0.0241791220453 -0.0145074732272 0.871 1.60942113393e-38
0.0258502852452 -0.0145407854504 0.873 1.50793643668e-38
0.0275288511614 -0.0145740976737 0.875 1.45287059184e-38
0.0291481953473 -0.0145740976737 0.875 1.56353897884e-38
0.0308730282403 -0.0146240660085 0.878 1.60992167775e-38
0.0324979244634 -0.0146240660085 0.878 1.47152229479e-38
0.0342005492075 -0.0146573782318 0.88 1.60985175295e-38
0.0361141513656 -0.0147739710132 0.887 1.56368513427e-38
0.0377557037004 -0.0147739710132 0.887 1.56350366612e-38
0.0394860886305 -0.0148072832364 0.889 1.76593314032e-38
0.0411313423234 -0.0148072832364 0.889 1.81088259116e-38
0.0427765960164 -0.0148072832364 0.889 1.88388533661e-38
0.0444218497093 -0.0148072832364 0.889 1.98483613915e-38
0.0460671034023 -0.0148072832364 0.889 1.9756162959e-38
0.0478196964812 -0.0148405954597 0.891 1.97576273159e-38
0.0496352126486 -0.0148905637946 0.894 2.00348756184e-38
0.0514044618392 -0.0149238760178 0.896 1.99451981219e-38
0.0531811137461 -0.0149571882411 0.898 1.97608096647e-38
0.0550262407785 -0.015007156576 0.901 2.04951377042e-38
0.0570083180621 -0.0150904371341 0.906 1.90218209066e-38
0.0586850332993 -0.0150904371341 0.906 2.07670904998e-38
0.0603617485364 -0.0150904371341 0.906 2.01198657716e-38
0.0621754140247 -0.0151237493574 0.908 2.13256340547e-38
0.0639964822292 -0.0151570615806 0.91 2.30881368163e-38
0.0656806001826 -0.0151570615806 0.91 2.07075955709e-38
0.0679569354383 -0.0152903104736 0.918 1.48131610988e-38
0.0696558588243 -0.0152903104736 0.918 1.51884078081e-38
0.0713547822102 -0.0152903104736 0.918 8.73838652095e-39
0.0730537055962 -0.0152903104736 0.918 2.17285592112e-38
0.0747526289822 -0.0152903104736 0.918 2.34917724312e-38
0.0770345162751 -0.015406903255 0.925 2.34827732925e-38
0.0787463944145 -0.015406903255 0.925 2.3112197111e-38
0.0807192183028 -0.0154568715899 0.928 1.54527571582e-38
0.0828808114561 -0.015540152148 0.933 1.94834744818e-38
0.084788861577 -0.0155734643713 0.935 2.0406907749e-38
0.0865192465071 -0.0155734643713 0.935 2.06816967726e-38
0.0885327853349 -0.0156234327062 0.938 2.13245802782e-38
0.0902687223023 -0.0156234327062 0.938 2.3468700052e-38
0.092200831251 -0.0156567449294 0.94 2.34644541176e-38
0.0939404695765 -0.0156567449294 0.94 1.83911343029e-38
0.095680107902 -0.0156567449294 0.94 2.1417113621e-38
0.0980415743949 -0.0157566815992 0.946 2.02231807047e-38
0.0997923167948 -0.0157566815992 0.946 2.3432811397e-38
-0.0450288724442 -0.0124217579156 0.839 2.34943073801e-38
-0.0432688766489 -0.0123625361854 0.835 2.34954073994e-38
-0.0417235596257 -0.0123625361854 0.835 1.91524723702e-38
-0.0401782426026 -0.0123625361854 0.835 1.92446806118e-38
-0.0386329255794 -0.0123625361854 0.835 1.95223493038e-38
-0.0369987759609 -0.0123329253203 0.833 1.87844311376e-38
-0.0353720290586 -0.0123033144552 0.831 1.85996671325e-38
-0.0338341147517 -0.0123033144552 0.831 1.75840900835e-38
-0.0322962004448 -0.0123033144552 0.831 1.86925704181e-38
-0.0307582861379 -0.0123033144552 0.831 1.75891095346e-38
-0.029220371831 -0.0123033144552 0.831 1.42704452101e-38
-0.0276158330776 -0.0122737035901 0.829 1.77569570646e-38
-0.0260816201289 -0.0122737035901 0.829 1.674779516e-38
-0.0246066289103 -0.0123033144552 0.831 1.72066125071e-38
-0.0231797553476 -0.0123625361854 0.835 1.57296985763e-38
-0.0216862573384 -0.0123921470505 0.837 2.34830703677e-38
-0.0201853566129 -0.0124217579156 0.839 1.53698955774e-38
-0.0186326368734 -0.0124217579156 0.839 1.94196411328e-38
-0.0171206320735 -0.0124513687807 0.841 1.98806445055e-38
-0.0156012245573 -0.0124809796459 0.843 1.72059538968e-38
-0.0140411021016 -0.0124809796459 0.843 1.83100607789e-38
-0.0124809796459 -0.0124809796459 0.843 1.75732244152e-38
-0.0109467666971 -0.012510590511 0.845 1.83104195113e-38
-0.00938294288323 -0.012510590511 0.845 2.01618374632e-38
-0.00783762586006 -0.0125402013761 0.847 1.81368364666e-38
-0.00627010068805 -0.0125402013761 0.847 8.73585157203e-39
-0.00470257551603 -0.0125402013761 0.847 9.56992403617e-39
-0.0031424530603 -0.0125698122412 0.849 9.20979873863e-39
-0.00157492788829 -0.0125994231063 0.851 9.66751326383e-39
0.0 -0.012643839404 0.854 9.11431426127e-39
0.0015804799255 -0.012643839404 0.854 7.17464813734e-39
0.00316836256728 -0.0126734502691 0.856 2.35007617608e-38
0.00476364792533 -0.0127030611342 0.858 1.56504803715e-38
0.00636633599967 -0.0127326719993 0.86 1.85902952484e-38
0.00795791999959 -0.0127326719993 0.86 1.87862107867e-38
0.0095495039995 -0.0127326719993 0.86 1.03103813551e-38
0.0111669975064 -0.0127622828645 0.862 1.66685657448e-38
0.0127622828645 -0.0127622828645 0.862 1.05862703981e-38
0.0143908804458 -0.0127918937296 0.864 1.0485402132e-38
0.016045387534 -0.0128363100272 0.867 8.65410262222e-39
0.017690641227 -0.0128659208924 0.869 1.05804816341e-38
0.0193432976362 -0.0128955317575 0.871 1.62818704271e-38
0.0209552391059 -0.0128955317575 0.871 1.36153998352e-38
0.0225671805756 -0.0128955317575 0.871 9.75361464667e-39
0.0242346424173 -0.0129251426226 0.873 1.06794763641e-38
0.0259095069754 -0.0129547534877 0.875 1.28900695331e-38
0.0275288511614 -0.0129547534877 0.875 1.0308939419e-38
0.0291481953473 -0.0129547534877 0.875 1.05919358478e-38
0.0308730282403 -0.0129991697854 0.878 1.03154008062e-38
0.0325719516262 -0.0130287806505 0.88 1.08674829739e-38
0.0343948705098 -0.0131028078133 0.885 1.06823756506e-38
0.0361141513656 -0.0131324186784 0.887 1.13251820848e-38
0.0378408349376 -0.0131620295435 0.889 1.11397734824e-38
0.0394860886305 -0.0131620295435 0.889 1.20552417691e-38
0.0412238762769 -0.0131916404086 0.891 1.63790602847e-38
0.042872831328 -0.0131916404086 0.891 1.46233832478e-38
0.0445217863791 -0.0131916404086 0.891 1.85712908386e-38
0.046326198472 -0.0132360567063 0.894 1.93923774699e-38
0.0480880449463 -0.0132656675714 0.896 1.91168723827e-38
0.0498572941369 -0.0132952784365 0.898 2.20627913157e-38
0.0515192039415 -0.0132952784365 0.898 1.95760456596e-38
0.0531811137461 -0.0132952784365 0.898 1.97600865947e-38
0.0551483855971 -0.0133693055993 0.903 1.96657399717e-38
0.0570083180621 -0.013413721897 0.906 1.91104404228e-38
0.0588145808341 -0.0134433327621 0.908 2.14117536544e-38
0.0604949974294 -0.0134433327621 0.908 2.16101172611e-38
0.0621754140247 -0.0134433327621 0.908 2.18978949202e-38
0.0642074596432 -0.0135173599249 0.913 1.68382461733e-38
0.0658971296338 -0.0135173599249 0.913 1.62886625207e-38
0.0679569354383 -0.0135913870877 0.918 1.18726119416e-38
0.0696558588243 -0.0135913870877 0.918 9.10503065895e-39
0.0715102392521 -0.0136209979528 0.92 1.04864881383e-38
0.0732128639962 -0.0136209979528 0.92 1.42610915428e-38
0.0749154887403 -0.0136209979528 0.92 1.98846466139e-38
0.0770345162751 -0.0136950251156 0.925 1.63650655169e-38
0.0790017881261 -0.0137394414132 0.928 1.77310666742e-38
0.0811541278841 -0.013813468576 0.933 2.08631593186e-38
0.0830584766468 -0.0138430794411 0.935 2.04940559018e-38
0.084788861577 -0.0138430794411 0.935 2.08596238426e-38
0.0867968483676 -0.0138874957388 0.938 2.34589946588e-38
0.0885327853349 -0.0138874957388 0.938 2.11512214413e-38
0.0904611929255 -0.0139171066039 0.94 2.03161540552e-38
0.092200831251 -0.0139171066039 0.94 2.23462333574e-38
0.0942402795858 -0.0139615229016 0.943 2.26253159595e-38
0.0959854699485 -0.0139615229016 0.943 2.04965992585e-38
0.0980415743949 -0.0140059391993 0.946 1.91154178349e-38
0.0997923167948 -0.0140059391993 0.946 2.3449732076e-38
-0.0450288724442 -0.0108690381762 0.839 2.34896368523e-38
-0.0432688766489 -0.0108172191622 0.835 2.34928682466e-38
-0.0417235596257 -0.0108172191622 0.835 2.07205211479e-38
-0.0402744779142 -0.0108431286692 0.837 2.03510099532e-38
-0.0387254595329 -0.0108431286692 0.837 1.92454106883e-38
-0.0369987759609 -0.0107913096553 0.833 1.89670245314e-38
-0.0353720290586 -0.0107654001483 0.831 1.85996517182e-38
-0.0338341147517 -0.0107654001483 0.831 1.83212865809e-38
-0.0323739289658 -0.0107913096553 0.833 1.79539488002e-38
-0.0308323133007 -0.0107913096553 0.833 1.78657020294e-38
-0.0292906976357 -0.0107913096553 0.833 1.62058471828e-38
-0.0277490819706 -0.0107913096553 0.833 1.3154736978e-38
-0.0262074663056 -0.0107913096553 0.833 1.63829530918e-38
-0.0247250723708 -0.0108172191622 0.835 1.49042609133e-38
-0.0232352757197 -0.0108431286692 0.837 1.7016834656e-38
-0.0217380763524 -0.0108690381762 0.839 2.34856235335e-38
-0.0202334742687 -0.0108949476832 0.841 1.61089221706e-38
-0.0186770531711 -0.0108949476832 0.841 1.65626976458e-38
-0.0171613470131 -0.0109208571901 0.843 1.94204468794e-38
-0.0156382381387 -0.0109467666971 0.845 2.0069386797e-38
-0.0140744143248 -0.0109467666971 0.845 1.85952530424e-38
-0.012510590511 -0.0109467666971 0.845 2.09908820684e-38
-0.0109726762041 -0.0109726762041 0.847 2.05374723321e-38
-0.00940515103207 -0.0109726762041 0.847 1.08624172799e-38
-0.00785613265075 -0.0109985857111 0.849 9.3819286368e-39
-0.0062849061206 -0.0109985857111 0.849 9.48420100392e-39
-0.00472478366487 -0.011024495218 0.851 6.35315092562e-39
-0.003160959851 -0.0110633594785 0.854 1.53717256732e-38
-0.00158788264178 -0.0111151784924 0.858 2.08087889382e-38
0.0 -0.0111151784924 0.858 6.79690291291e-39
0.00158788264178 -0.0111151784924 0.858 1.14070053034e-38
0.00317576528356 -0.0111151784924 0.858 2.35000218753e-38
0.00477475199975 -0.0111410879994 0.86 1.96202243963e-38
0.00636633599967 -0.0111410879994 0.86 1.43564793306e-38
0.00795791999959 -0.0111410879994 0.86 2.32986202535e-38
0.0095495039995 -0.0111410879994 0.86 1.38970285966e-38
0.0111669975064 -0.0111669975064 0.862 2.07259693963e-38
0.0127622828645 -0.0111669975064 0.862 9.01676847387e-39
0.0144408487806 -0.0112317712738 0.867 9.4762794637e-39
0.0161194146968 -0.0112835902878 0.871 1.4463095723e-38
0.0177720711061 -0.0113094997948 0.873 1.83321074076e-38
0.0193877139339 -0.0113094997948 0.873 1.5567314709e-38
0.0210033567617 -0.0113094997948 0.873 1.45578795511e-38
0.0226708186035 -0.0113354093017 0.875 1.1600767046e-38
0.0243734433476 -0.0113742735622 0.878 1.648879877e-38
0.026057561301 -0.0114001830692 0.88 1.86075872714e-38
0.0276861588823 -0.0114001830692 0.88 1.06808986821e-38
0.0293813809101 -0.0114260925761 0.882 1.04068929842e-38
0.0310136798495 -0.0114260925761 0.882 1.04065034233e-38
0.032645978789 -0.0114260925761 0.882 1.08667444896e-38
0.0344725990308 -0.0114908663436 0.887 1.15092580524e-38
0.0361955812446 -0.0115167758506 0.889 1.05901926325e-38
0.0378408349376 -0.0115167758506 0.889 1.14170848433e-38
0.0395749212258 -0.0115426853575 0.891 1.16010879433e-38
0.0412238762769 -0.0115426853575 0.891 1.16007502304e-38
0.0430171842954 -0.011581549618 0.894 1.2428669593e-38
0.0446716913837 -0.011581549618 0.894 1.45395267451e-38
0.0464298364999 -0.011607459125 0.896 1.76540022652e-38
0.0481953843324 -0.011633368632 0.898 1.9946668084e-38
0.0500238552532 -0.0116722328924 0.901 1.93909607572e-38
0.051691317095 -0.0116722328924 0.901 1.97568664109e-38
0.0534772223972 -0.0116981423994 0.903 1.92984063949e-38
0.055331602825 -0.0117370066599 0.906 2.12344571688e-38
0.0571341642389 -0.0117629161668 0.908 2.17977034813e-38
0.0588145808341 -0.0117629161668 0.908 1.92245089204e-38
0.0606282463224 -0.0117888256738 0.91 1.85871086957e-38
0.0625177896526 -0.0118276899343 0.913 1.40785107607e-38
0.0643481112525 -0.0118535994412 0.915 1.44559252787e-38
0.0660414826012 -0.0118535994412 0.915 1.69434094191e-38
0.0681049897639 -0.0119183732087 0.92 1.19677152657e-38
0.069807614508 -0.0119183732087 0.92 1.47235298452e-38
0.0715102392521 -0.0119183732087 0.92 2.03424157898e-38
0.0734516015962 -0.0119572374691 0.923 1.7291315394e-38
0.0755669277728 -0.0120220112366 0.928 1.82910900003e-38
0.0774509190657 -0.0120479207436 0.93 2.00381448477e-38
0.0794274443121 -0.012086785004 0.933 2.0035977039e-38
0.0813280917167 -0.012112694511 0.935 1.96671692962e-38
0.0830584766468 -0.012112694511 0.935 2.20682367615e-38
0.084788861577 -0.012112694511 0.935 2.34598018067e-38
0.0867968483676 -0.0121515587715 0.938 2.03229657671e-38
0.0885327853349 -0.0121515587715 0.938 2.1516807599e-38
0.0904611929255 -0.0121774682784 0.94 2.19734893672e-38
0.0924950892231 -0.0122163325389 0.943 2.24405561583e-38
0.0942402795858 -0.0122163325389 0.943 2.28111309385e-38
0.096290831995 -0.0122551967994 0.946 2.06852672811e-38
0.0982488504507 -0.0122811063063 0.948 1.96653714302e-38
0.100003294209 -0.0122811063063 0.948 2.34508531147e-38
-0.042023369635 -0.00933852658556 0.841 2.26544769806e-38
-0.0403707132258 -0.00931631843672 0.839 1.95176745721e-38
-0.0388179934863 -0.00931631843672 0.839 1.97067377609e-38
-0.0372652737469 -0.00931631843672 0.839 1.90595732885e-38
-0.0357125540074 -0.00931631843672 0.839 1.86918669663e-38
-0.0340784043889 -0.00929411028789 0.837 1.89673748561e-38
-0.0325293860076 -0.00929411028789 0.837 1.81390561234e-38
-0.0309063404635 -0.00927190213905 0.835 1.76798856491e-38
-0.0293610234403 -0.00927190213905 0.835 1.72210725059e-38
-0.0278157064172 -0.00927190213905 0.835 7.81571135621e-39
-0.0263333124823 -0.00929411028789 0.837 1.41692420337e-38
-0.024784294101 -0.00929411028789 0.837 1.89486479034e-38
-0.0232907960918 -0.00931631843672 0.839 2.34788622684e-38
-0.0217898953663 -0.00933852658556 0.841 2.09034858858e-38
-0.0202334742687 -0.00933852658556 0.841 1.94229327829e-38
-0.0187214694688 -0.0093607347344 0.843 2.28409813984e-38
-0.0171613470131 -0.0093607347344 0.843 2.16421271219e-38
-0.0156382381387 -0.00938294288323 0.845 2.06249610004e-38
-0.0140744143248 -0.00938294288323 0.845 2.08120161285e-38
-0.0125402013761 -0.00940515103207 0.847 1.37143399145e-38
-0.0109726762041 -0.00940515103207 0.847 8.08726338041e-39
-0.00944956732974 -0.00944956732974 0.851 8.93102722474e-39
-0.0079023996275 -0.00948287955299 0.854 1.04068383336e-38
-0.006321919702 -0.00948287955299 0.854 7.82469928456e-39
-0.00476364792533 -0.00952729585067 0.858 2.04520954206e-38
-0.00318316799983 -0.0095495039995 0.86 1.79597571823e-38
-0.00159158399992 -0.0095495039995 0.86 2.34957605266e-38
0.0 -0.0095495039995 0.86 4.68361030406e-39
0.00159528535806 -0.00957171214834 0.862 1.47375372246e-38
0.00319057071611 -0.00957171214834 0.862 1.33520384005e-38
0.00479696014859 -0.00959392029717 0.864 1.4340696506e-38
0.00639594686478 -0.00959392029717 0.864 2.18315882795e-38
0.00799493358098 -0.00959392029717 0.864 1.09542836047e-38
0.00962723252043 -0.00962723252043 0.867 1.85996489156e-38
0.0112576807808 -0.00964944066926 0.869 1.06816161469e-38
0.0128659208924 -0.00964944066926 0.869 1.6393771116e-38
0.0145074732272 -0.0096716488181 0.871 1.13291827919e-38
0.0161564282782 -0.00969385696694 0.873 1.75084970378e-38
0.0178127860456 -0.00971606511577 0.875 1.39978310017e-38
0.0194321302315 -0.00971606511577 0.875 1.51977614754e-38
0.0211236509012 -0.00974937733903 0.878 1.53839351867e-38
0.0228003661383 -0.00977158548786 0.88 1.32617008924e-38
0.0245677646499 -0.00982710585995 0.885 1.23350670595e-38
0.0262056156265 -0.00982710585995 0.885 1.08602704907e-38
0.0278434666032 -0.00982710585995 0.885 1.0770986759e-38
0.0294813175799 -0.00982710585995 0.885 1.05901898299e-38
0.0311191685565 -0.00982710585995 0.885 1.05894709638e-38
0.032831046696 -0.00984931400879 0.887 1.15092524472e-38
0.0345503275517 -0.00987152215763 0.889 1.12326879784e-38
0.0362770111237 -0.00989373030646 0.891 1.18780573874e-38
0.0380536630306 -0.00992704252972 0.894 1.13256052769e-38
0.0397081701189 -0.00992704252972 0.894 1.27074481134e-38
0.0414552111606 -0.00994925067855 0.896 1.30762320341e-38
0.0431134196071 -0.00994925067855 0.896 1.20617101628e-38
0.0448715647232 -0.00997145882739 0.898 1.16000285617e-38
0.0465334745278 -0.00997145882739 0.898 1.51848358983e-38
0.0484637327975 -0.0100269791995 0.903 1.8395510558e-38
0.0501348959974 -0.0100269791995 0.903 1.98551380709e-38
0.0519781723508 -0.0100602914227 0.906 2.04944496666e-38
0.0537733310484 -0.0100824995716 0.908 2.14243134925e-38
0.0555758924622 -0.0101047077204 0.91 2.04216508101e-38
0.0574487796807 -0.0101380199437 0.913 1.70176922507e-38
0.0592679972062 -0.0101602280925 0.915 1.62894080115e-38
0.060961368555 -0.0101602280925 0.915 1.50073362244e-38
0.0626547399037 -0.0101602280925 0.915 1.31612179834e-38
0.0645590886664 -0.0101935403157 0.918 1.39009760544e-38
0.0662580120524 -0.0101935403157 0.918 1.61143129658e-38
0.0681049897639 -0.0102157484646 0.92 1.94269082667e-38
0.069807614508 -0.0102157484646 0.92 1.99693424944e-38
0.0717434248149 -0.0102490606878 0.923 1.91211855794e-38
0.0736107599962 -0.0102712688367 0.925 2.01299453114e-38
0.0759740771681 -0.010360101432 0.933 1.98487089135e-38
0.0777007607401 -0.010360101432 0.933 2.04922958709e-38
0.0795977067866 -0.0103823095809 0.935 2.27089244324e-38
0.0813280917167 -0.0103823095809 0.935 2.33693521948e-38
0.0833249744329 -0.0104156218041 0.938 2.11574137792e-38
0.0850609114002 -0.0104156218041 0.938 2.0041014707e-38
0.0869819162745 -0.0104378299529 0.94 2.2344827855e-38
0.0887215546 -0.0104378299529 0.94 2.21640071038e-38
0.0910386047953 -0.0105044543995 0.946 2.22569061855e-38
0.0927893471952 -0.0105044543995 0.946 2.18863258001e-38
0.0947399629346 -0.0105266625483 0.948 2.20703443144e-38
0.0964944066926 -0.0105266625483 0.948 2.09604318528e-38
0.0985597645344 -0.0105599747715 0.951 1.73597786331e-38
-0.034159834268 -0.00776359869727 0.839 1.85082141909e-38
-0.0326071145285 -0.00776359869727 0.839 1.73111353595e-38
-0.0309803676263 -0.00774509190657 0.837 1.77731084307e-38
-0.029431349245 -0.00774509190657 0.837 1.72221473018e-38
-0.0279489553102 -0.00776359869727 0.839 7.91256069827e-39
-0.0263962355707 -0.00776359869727 0.839 2.30297503145e-38
-0.0249027375615 -0.00778210548797 0.841 2.26516099239e-38
-0.0233463164639 -0.00778210548797 0.841 2.18214765098e-38
-0.0218417143803 -0.00780061227866 0.843 2.29299722587e-38
-0.0202815919245 -0.00780061227866 0.843 2.11768231642e-38
-0.0187658857665 -0.00781911906936 0.845 2.14518672242e-38
-0.0172427768921 -0.00783762586006 0.847 2.19158217315e-38
-0.0156752517201 -0.00783762586006 0.847 1.64812429687e-38
-0.0141077265481 -0.00783762586006 0.847 9.47484033018e-39
-0.0125994231063 -0.00787463944145 0.851 8.74123255813e-39
-0.0110892689855 -0.00792090641819 0.856 9.6714635242e-39
-0.00952729585067 -0.00793941320889 0.858 9.48673174894e-39
-0.00793941320889 -0.00793941320889 0.858 9.67112861386e-39
-0.00635153056711 -0.00793941320889 0.858 8.37751713393e-39
-0.00477475199975 -0.00795791999959 0.86 1.42654229564e-38
-0.00319057071611 -0.00797642679028 0.862 6.3366492349e-39
-0.00159528535806 -0.00797642679028 0.862 2.34993590611e-38
0.0 -0.00799493358098 0.864 7.71418167727e-39
0.0016045387534 -0.00802269376702 0.867 1.19680627878e-38
0.00320907750681 -0.00802269376702 0.867 2.09186044949e-38
0.00482472033463 -0.00804120055772 0.869 1.95277036652e-38
0.00643296044618 -0.00804120055772 0.869 1.57411780133e-38
0.00805970734842 -0.00805970734842 0.871 9.47376413295e-39
0.0096716488181 -0.00805970734842 0.871 1.4833730759e-38
0.0112835902878 -0.00805970734842 0.871 1.41886416096e-38
0.0129251426226 -0.00807821413911 0.873 1.70471307288e-38
0.0145740976737 -0.00809672092981 0.875 1.16961113935e-38
0.0162489622317 -0.00812448111586 0.878 1.50090794397e-38
0.0179145733944 -0.00814298790655 0.88 1.53811213794e-38
0.0195431709757 -0.00814298790655 0.88 1.08642235537e-38
0.021171768557 -0.00814298790655 0.88 1.1410599634e-38
0.0229299136732 -0.00818925488329 0.885 1.04929775515e-38
0.024623285022 -0.00820776167399 0.887 1.04047279781e-38
0.0262648373568 -0.00820776167399 0.887 9.85335346616e-39
0.0279063896916 -0.00820776167399 0.887 1.04068383336e-38
0.0295479420264 -0.00820776167399 0.887 1.10500973872e-38
0.0311894943612 -0.00820776167399 0.887 1.10497414573e-38
0.0329050738588 -0.00822626846469 0.889 1.21564267286e-38
0.0346280560726 -0.00824477525538 0.891 1.18794797053e-38
0.0363991559423 -0.00827253544143 0.894 1.21542743342e-38
0.0381387942678 -0.00829104223213 0.896 1.2339736186e-38
0.0397970027142 -0.00829104223213 0.896 1.32616952872e-38
0.0415477451141 -0.00830954902282 0.898 1.33527993055e-38
0.0432096549187 -0.00830954902282 0.898 1.38155907351e-38
0.0448715647232 -0.00830954902282 0.898 1.42762003429e-38
0.0466889315697 -0.00833730920887 0.901 1.2615231464e-38
0.0484637327975 -0.00835581599956 0.903 1.57340720288e-38
0.0503014571137 -0.00838357618561 0.906 1.79208361175e-38
0.0520929144531 -0.00840208297631 0.908 2.34666835835e-38
0.0540694396995 -0.00844834995305 0.913 1.67427588933e-38
0.0557591096901 -0.00844834995305 0.913 1.35185392827e-38
0.0575746258575 -0.00846685674374 0.915 1.25195059633e-38
0.0592679972062 -0.00846685674374 0.915 1.08592769701e-38
0.0611612418945 -0.00849461692979 0.918 1.38098944568e-38
0.0628601652804 -0.00849461692979 0.918 1.03910428973e-38
0.0649107176896 -0.00854088390653 0.923 2.05307194748e-38
0.0666188944709 -0.00854088390653 0.923 2.08033757222e-38
0.0683270712523 -0.00854088390653 0.923 1.78380053652e-38
0.0701870037173 -0.00855939069723 0.925 2.00374119686e-38
0.0725207100241 -0.00863341786002 0.933 2.02153110126e-38
0.0742473935961 -0.00863341786002 0.933 1.83746760524e-38
0.0761369369263 -0.00865192465071 0.935 2.18816594762e-38
0.0778673218564 -0.00865192465071 0.935 2.25345496541e-38
0.0795977067866 -0.00865192465071 0.935 2.31774023311e-38
0.0815890374655 -0.00867968483676 0.938 1.85694537363e-38
0.0833249744329 -0.00867968483676 0.938 2.29912944808e-38
0.085242277949 -0.00869819162745 0.94 2.21654364282e-38
0.0869819162745 -0.00869819162745 0.94 2.16101172611e-38
0.0892878623953 -0.00875371199954 0.946 2.17019597637e-38
0.0912310754185 -0.00877221879024 0.948 2.2531713426e-38
0.0929855191766 -0.00877221879024 0.948 2.18866999468e-38
0.0953395829532 -0.00882773916233 0.954 2.18866817299e-38
0.0971051307856 -0.00882773916233 0.954 2.04951531185e-38
0.0988706786181 -0.00882773916233 0.954 1.87344412162e-38
-0.0310543947891 -0.00621087895782 0.839 1.6666106466e-38
-0.0295016750496 -0.00621087895782 0.839 1.72199935061e-38
-0.0280155797567 -0.00622568439037 0.841 8.74159269184e-39
-0.0264591586591 -0.00622568439037 0.841 2.19233607172e-38
-0.0249619592917 -0.00624048982293 0.843 2.22842371107e-38
-0.023401836836 -0.00624048982293 0.843 2.21920358757e-38
-0.0218935333942 -0.00625529525549 0.845 2.25619100066e-38
-0.0203297095803 -0.00625529525549 0.845 2.23778942949e-38
-0.0188103020641 -0.00627010068805 0.847 1.85077881961e-38
-0.0172834918317 -0.0062849061206 0.849 1.15917202631e-38
-0.0157492788829 -0.00629971155316 0.851 8.92133584456e-39
-0.0141743509946 -0.00629971155316 0.851 9.57820851269e-39
-0.0126734502691 -0.00633672513455 0.856 9.48636320745e-39
-0.0111151784924 -0.00635153056711 0.858 9.57928330862e-39
-0.00952729585067 -0.00635153056711 0.858 1.01295858272e-38
-0.00793941320889 -0.00635153056711 0.858 1.4090367147e-38
-0.00636633599967 -0.00636633599967 0.86 9.20579102502e-39
-0.00478585607417 -0.00638114143223 0.862 7.64028280146e-39
-0.00319057071611 -0.00638114143223 0.862 1.49932545762e-38
-0.00159528535806 -0.00638114143223 0.862 2.34993520546e-38
0.0 -0.00639594686478 0.864 1.74952337479e-38
0.00160824011154 -0.00643296044618 0.869 5.60734625174e-39
0.00321648022309 -0.00643296044618 0.869 8.73621030444e-39
0.00483582440905 -0.00644776587873 0.871 1.2139145916e-38
0.00644776587873 -0.00644776587873 0.871 2.34796063579e-38
0.00807821413911 -0.00646257131129 0.873 1.75962827814e-38
0.00969385696694 -0.00646257131129 0.873 9.95055873804e-39
0.0113354093017 -0.00647737674385 0.875 1.24301773901e-38
0.0129547534877 -0.00647737674385 0.875 1.41832662287e-38
0.0146240660085 -0.00649958489268 0.878 1.31684458809e-38
0.0162859758131 -0.00651439032524 0.88 1.31616285638e-38
0.0179145733944 -0.00651439032524 0.88 1.36211493628e-38
0.0195875872734 -0.0065291957578 0.882 1.14131359842e-38
0.0212920626966 -0.00655140390664 0.885 1.02214297312e-38
0.0229817326872 -0.00656620933919 0.887 1.03143316155e-38
0.0246788053941 -0.00658101477175 0.889 1.04969208054e-38
0.026324059087 -0.00658101477175 0.889 1.14203190401e-38
0.0280322358683 -0.00659582020431 0.891 1.11433467935e-38
0.0297811275891 -0.00661802835314 0.894 1.2063861156e-38
0.0315059604821 -0.0066328337857 0.896 1.21567798559e-38
0.0332381960913 -0.00664763921826 0.898 1.18794825079e-38
0.0349001058959 -0.00664763921826 0.898 1.33549629104e-38
0.0365620157004 -0.00664763921826 0.898 1.2431937421e-38
0.038223925505 -0.00664763921826 0.898 1.39988903833e-38
0.0400190842026 -0.00666984736709 0.901 1.49226039102e-38
0.0416865460443 -0.00666984736709 0.901 1.52906829778e-38
0.0433540078861 -0.00666984736709 0.901 1.59353307182e-38
0.0450214697279 -0.00666984736709 0.901 1.43676897183e-38
0.0467925695976 -0.00668465279965 0.903 1.48282979249e-38
0.0487320812626 -0.00672166638105 0.908 1.39023983723e-38
0.050523538602 -0.0067364718136 0.91 1.57175030758e-38
0.0524945118112 -0.006773485395 0.915 2.34760554676e-38
0.05418788316 -0.006773485395 0.915 1.34359635668e-38
0.0558812545087 -0.006773485395 0.915 1.08451981244e-38
0.0577633951226 -0.00679569354383 0.918 9.10893327517e-39
0.0595918660434 -0.00681049897639 0.92 1.16843502955e-38
0.0612944907875 -0.00681049897639 0.92 1.63812126791e-38
0.0635449165362 -0.00686972070662 0.928 2.19129714904e-38
0.0652623467129 -0.00686972070662 0.928 1.72030125713e-38
0.0669797768895 -0.00686972070662 0.928 1.84668716823e-38
0.0686972070662 -0.00686972070662 0.928 2.10450422541e-38
0.0704146372428 -0.00686972070662 0.928 2.13199139543e-38
0.0725207100241 -0.00690673428801 0.933 2.10508071959e-38
0.0744065519961 -0.00692153972057 0.935 2.3468658013e-38
0.0763812265635 -0.00694374786941 0.938 2.18935565002e-38
0.0781171635308 -0.00694374786941 0.938 1.88452951351e-38
0.0798531004982 -0.00694374786941 0.938 2.34450797651e-38
0.0817630012981 -0.00695855330196 0.94 1.97679955233e-38
0.0835026396236 -0.00695855330196 0.94 2.19785396468e-38
0.0855143277723 -0.0069807614508 0.943 2.14225170279e-38
0.0875371199954 -0.00700296959964 0.946 2.21611358432e-38
0.0897597855581 -0.00703998318103 0.951 2.11455419786e-38
0.0915197813534 -0.00703998318103 0.951 2.34515201328e-38
0.0935740351207 -0.00706219132986 0.954 2.17966525075e-38
0.095839266302 -0.00709920491126 0.959 2.1980676627e-38
0.0976140675298 -0.00709920491126 0.959 2.14167338691e-38
-0.0370505949748 -0.00555758924622 1.001 1.73118233971e-38
-0.0351980652261 -0.00555758924622 1.001 1.77727973425e-38
-0.0280822042032 -0.0046803673672 0.843 1.04908097428e-38
-0.0265220817475 -0.0046803673672 0.843 2.29307331637e-38
-0.0249619592917 -0.0046803673672 0.843 2.30232370793e-38
-0.023401836836 -0.0046803673672 0.843 2.34834935599e-38
-0.0218935333942 -0.00469147144162 0.845 2.03510155584e-38
-0.0203778272361 -0.00470257551603 0.847 1.25150974784e-38
-0.0188547183618 -0.00471367959045 0.849 8.92131622638e-39
-0.0173242067712 -0.00472478366487 0.851 8.93104404032e-39
-0.0157492788829 -0.00472478366487 0.851 9.3008985531e-39
-0.0142576315527 -0.00475254385092 0.856 9.94657344521e-39
-0.0127030611342 -0.00476364792533 0.858 9.67003419976e-39
-0.0111410879994 -0.00477475199975 0.86 9.02288934557e-39
-0.0095495039995 -0.00477475199975 0.86 1.71342228297e-38
-0.00795791999959 -0.00477475199975 0.86 1.21570825363e-38
-0.00638114143223 -0.00478585607417 0.862 9.66568597063e-39
-0.00479696014859 -0.00479696014859 0.864 7.825753061e-39
-0.00319797343239 -0.00479696014859 0.864 1.60220991191e-38
-0.0015989867162 -0.00479696014859 0.864 1.03010052671e-38
0.0 -0.00482472033463 0.869 1.08527357088e-38
0.00160824011154 -0.00482472033463 0.869 1.3353195873e-38
0.00322388293937 -0.00483582440905 0.871 1.59349986104e-38
0.00484692848347 -0.00484692848347 0.873 1.72203466333e-38
0.00647737674385 -0.00485803255789 0.875 1.05776145775e-38
0.00812448111586 -0.00487468866951 0.878 1.31633269376e-38
0.00974937733903 -0.00487468866951 0.878 1.39035124046e-38
0.0113742735622 -0.00487468866951 0.878 1.28011081001e-38
0.0129991697854 -0.00487468866951 0.878 1.20570410364e-38
0.014690690455 -0.00489689681835 0.882 1.34439439616e-38
0.0163229893945 -0.00489689681835 0.882 1.54744310416e-38
0.0180163607432 -0.00491355292998 0.885 1.17868762976e-38
0.0196986280176 -0.00492465700439 0.887 9.65960433529e-39
0.0213882980082 -0.00493576107881 0.889 1.0496923608e-38
0.0230335517011 -0.00493576107881 0.889 1.02199807886e-38
0.0247343257662 -0.00494686515323 0.891 1.11422958196e-38
0.0263832808172 -0.00494686515323 0.891 1.13270388053e-38
0.0281266205009 -0.00496352126486 0.894 1.16018180198e-38
0.0297811275891 -0.00496352126486 0.894 1.2615996573e-38
0.0315762862867 -0.00498572941369 0.898 1.17876596235e-38
0.0333492368355 -0.00500238552532 0.901 1.33528119172e-38
0.0350166986772 -0.00500238552532 0.901 1.40928712674e-38
0.036684160519 -0.00500238552532 0.901 1.52895913663e-38
0.038436753598 -0.00501348959974 0.903 1.66721376546e-38
0.0401079167979 -0.00501348959974 0.903 1.74082705665e-38
0.041917880928 -0.00503014571137 0.906 1.64888982622e-38
0.0435945961652 -0.00503014571137 0.906 1.35393037234e-38
0.0452713114023 -0.00503014571137 0.906 1.03092701254e-38
0.0470516646673 -0.00504124978578 0.908 1.13184026028e-38
0.0490004297277 -0.00506900997183 0.913 1.37108562865e-38
0.0508011404625 -0.00508011404625 0.915 1.65526363229e-38
0.0524945118112 -0.00508011404625 0.915 2.34555236425e-38
0.0543655483507 -0.00509677015787 0.918 2.08069392242e-38
0.0560644717366 -0.00509677015787 0.918 9.82639808891e-39
0.0578892412993 -0.00510787423229 0.92 1.6844029332e-38
0.0597861873457 -0.00512453034392 0.923 1.86800358034e-38
0.06162761302 -0.00513563441834 0.925 1.94057710806e-38
0.0636818667874 -0.00516339460438 0.93 1.8193136435e-38
0.0654029983222 -0.00516339460438 0.93 2.0125995051e-38
0.067124129857 -0.00516339460438 0.93 1.87401935464e-38
0.0690673428801 -0.00518005071601 0.933 2.27993179925e-38
0.0709457821358 -0.00519115479043 0.935 2.12395396783e-38
0.0729093526288 -0.00520781090205 0.938 2.34558837762e-38
0.0750431855961 -0.0052355710881 0.943 1.99512769546e-38
0.0767883759588 -0.0052355710881 0.943 2.1790950624e-38
0.0785335663215 -0.0052355710881 0.943 2.12449276709e-38
0.0805341503958 -0.00525222719973 0.946 2.02210913687e-38
0.0822848927957 -0.00525222719973 0.946 2.22536846003e-38
0.0840356351956 -0.00525222719973 0.946 2.14303923253e-38
0.0859677441444 -0.00526333127414 0.948 1.99430751547e-38
0.0877221879024 -0.00526333127414 0.948 2.28086029961e-38
0.0900429394558 -0.0052966434974 0.954 2.2532812044e-38
0.0922896638464 -0.00532440368344 0.959 2.24369814459e-38
0.0945548950276 -0.00535216386949 0.964 2.28997448495e-38
0.0963389496508 -0.00535216386949 0.964 2.02278834624e-38
0.0987337283669 -0.00538547609274 0.97 2.17833710006e-38
-0.0282820775427 -0.0031424530603 0.849 1.39027514996e-38
-0.0267108510126 -0.0031424530603 0.849 2.2834889954e-38
-0.0251988462126 -0.00314985577658 0.851 2.256121216e-38
