# .PCD v0.7 - Point Cloud Data file format
VERSION 0.7
FIELDS x y z rgb
SIZE 4 4 4 4
TYPE F F F F
COUNT 1 1 1 1
WIDTH 847
HEIGHT 1
VIEWPOINT 0 0 0 1 0 0 0
POINTS 847
DATA ascii
0.0289594260822 -0.0361992826028 0.978 1.47220192454e-38
0.0307693902124 -0.0361992826028 0.978 1.49078426322e-38
0.0325793543425 -0.0361992826028 0.978 1.48156484036e-38
0.0343893184726 -0.0361992826028 0.978 1.50922324906e-38
0.0361992826028 -0.0361992826028 0.978 1.49082013646e-38
0.0380092467329 -0.0361992826028 0.978 1.47230954426e-38
0.039819210863 -0.0361992826028 0.978 1.44468714894e-38
0.0415014781374 -0.0360882418586 0.975 1.48156484036e-38
0.043217057635 -0.0360142146958 0.973 1.42621242998e-38
0.0448789674395 -0.0359031739516 0.97 1.43553947256e-38
0.0466741261371 -0.0359031739516 0.97 1.454085938e-38
0.04831937983 -0.0357921332074 0.967 1.41727999305e-38
0.0499535294486 -0.0356810924633 0.964 1.38947823152e-38
0.0516302446857 -0.0356070653005 0.962 1.38947823152e-38
0.0532440368344 -0.0354960245563 0.959 1.39873352762e-38
0.0548467249088 -0.0353849838121 0.956 1.41706475361e-38
0.0563198654482 -0.0351999159051 0.951 1.42628417646e-38
0.057774499197 -0.0350148479982 0.946 1.45397831827e-38
0.0593364723318 -0.034903807254 0.943 1.46319774113e-38
0.0608873413922 -0.0347927665098 0.94 1.45394244503e-38
0.0626269797177 -0.0347927665098 0.94 1.34280714539e-38
0.0643666180432 -0.0347927665098 0.94 1.88661198316e-38
0.0722949271776 -0.0380499616724 1.028 2.34935576854e-38
-0.0104711421762 -0.0331586168913 0.943 2.34974827224e-38
-0.00875371199954 -0.0332641055983 0.946 2.11702342589e-38
-0.00700296959964 -0.0332641055983 0.946 2.01589676039e-38
-0.00526333127414 -0.0333344314029 0.948 2.0528461983e-38
-0.00353109566493 -0.0335454088169 0.954 1.95146842012e-38
-0.00177480122781 -0.0337212233285 0.959 1.95157617997e-38
0.0 -0.0338267120354 0.962 1.8778925436e-38
0.00178405462316 -0.0338970378401 0.964 1.74878461024e-38
0.00357921332074 -0.0340025265471 0.967 1.71176342585e-38
0.00538547609274 -0.034108015254 0.97 1.71190691881e-38
0.00718063479032 -0.034108015254 0.97 1.67506510063e-38
0.00900355367395 -0.034213503961 0.973 1.65669800139e-38
0.0108042644087 -0.034213503961 0.973 1.61049326739e-38
0.0126308846505 -0.0342838297657 0.975 1.59212616816e-38
0.0144797130411 -0.0343893184726 0.978 1.57357970272e-38
0.0163396455061 -0.0344948071796 0.981 1.56432440663e-38
0.0181551616735 -0.0344948071796 0.981 1.54581381443e-38
0.0199706778408 -0.0344948071796 0.981 1.54588556091e-38
0.0218528184547 -0.0346002958866 0.984 1.51851427827e-38
0.0236017101755 -0.0344948071796 0.981 1.49078426322e-38
0.0254172263429 -0.0344948071796 0.981 1.4816007136e-38
0.0272327425102 -0.0344948071796 0.981 1.48163658684e-38
0.0290482586776 -0.0344948071796 0.981 1.44475889542e-38
0.0308637748449 -0.0344948071796 0.981 1.44468714894e-38
0.0326792910123 -0.0344948071796 0.981 1.46301837493e-38
0.0343893184726 -0.0343893184726 0.978 1.46301837493e-38
0.0361992826028 -0.0343893184726 0.978 1.41695713388e-38
0.0381258395143 -0.0344948071796 0.981 1.41699300713e-38
0.0399413556816 -0.0344948071796 0.981 1.39869765438e-38
0.0416291749932 -0.0343893184726 0.978 1.38025880866e-38
0.0433058902303 -0.0342838297657 0.975 1.42621242998e-38
0.0450177683697 -0.034213503961 0.973 1.43543185284e-38
0.0466741261371 -0.034108015254 0.97 1.41713678035e-38
0.04831937983 -0.0340025265471 0.967 1.40802469695e-38
0.0501089864904 -0.0340025265471 0.967 1.35260054009e-38
0.0516302446857 -0.0338267120354 0.962 1.43561262034e-38
0.0532440368344 -0.0337212233285 0.959 1.40802469695e-38
0.0548467249088 -0.0336157346215 0.956 1.42649941591e-38
0.0563198654482 -0.0334399201099 0.951 1.40795295047e-38
0.057774499197 -0.0332641055983 0.946 1.40795295047e-38
0.0593364723318 -0.0331586168913 0.943 1.40795295047e-38
0.0608873413922 -0.0330531281843 0.94 1.44490238838e-38
0.0626269797177 -0.0330531281843 0.94 1.3801153157e-38
0.0643666180432 -0.0330531281843 0.94 1.84973190953e-38
0.0722949271776 -0.0361474635888 1.028 2.3489987177e-38
-0.0104711421762 -0.0314134265286 0.943 2.3493870175e-38
-0.00875371199954 -0.0315133631984 0.946 2.07993049502e-38
-0.00701777503219 -0.0315799876449 0.948 2.03455280736e-38
-0.00527998738577 -0.0316799243146 0.951 2.02536729593e-38
-0.00353849838121 -0.0318464854309 0.956 1.97008663203e-38
-0.00178035326502 -0.0320463587704 0.962 1.88707679386e-38
0.0 -0.0321129832169 0.964 1.83190388982e-38
0.00178960666037 -0.0322129198867 0.967 1.73016850027e-38
0.00359031739516 -0.0323128565565 0.97 1.72105459519e-38
0.00540213220437 -0.0324127932262 0.973 1.67510125413e-38
0.00720284293916 -0.0324127932262 0.973 1.65666633205e-38
0.00900355367395 -0.0324127932262 0.973 1.6289321131e-38
0.0108264725576 -0.0324794176727 0.975 1.61049326739e-38
0.012669748911 -0.0325793543425 0.978 1.59209029492e-38
0.0145241293388 -0.0326792910123 0.981 1.56428853338e-38
0.0163396455061 -0.0326792910123 0.981 1.55517673025e-38
0.0181551616735 -0.0326792910123 0.981 1.55488974432e-38
0.0200317502501 -0.032779227682 0.984 1.54595730739e-38
0.0219194429012 -0.0328791643518 0.987 1.47230954426e-38
0.0237460631429 -0.0328791643518 0.987 1.46319774113e-38
0.0254949548638 -0.032779227682 0.984 1.43550359932e-38
0.0273160230683 -0.032779227682 0.984 1.43553947256e-38
0.0291370912729 -0.032779227682 0.984 1.43553947256e-38
0.0309581594775 -0.032779227682 0.984 1.39862590789e-38
0.0326792910123 -0.0326792910123 0.981 1.39851828817e-38
0.0344948071796 -0.0326792910123 0.981 1.34305825807e-38
0.0363103233469 -0.0326792910123 0.981 1.39869765438e-38
0.0381258395143 -0.0326792910123 0.981 1.37114700553e-38
0.0399413556816 -0.0326792910123 0.981 1.36192758267e-38
0.0416291749932 -0.0325793543425 0.978 1.39869765438e-38
0.0434391391233 -0.0325793543425 0.978 1.38940648504e-38
0.0451103023232 -0.0324794176727 0.975 1.41706475361e-38
0.0468184791045 -0.0324127932262 0.973 1.37093176608e-38
0.04831937983 -0.0322129198867 0.967 1.41706475361e-38
0.0501089864904 -0.0322129198867 0.967 1.40773771103e-38
0.0517375840717 -0.0321129832169 0.964 1.42621242998e-38
0.0532440368344 -0.0319464221007 0.959 1.36192758267e-38
0.0548467249088 -0.0318464854309 0.956 1.36192758267e-38
0.0563198654482 -0.0316799243146 0.951 1.39873352762e-38
0.057774499197 -0.0315133631984 0.946 1.39866178113e-38
0.0593364723318 -0.0314134265286 0.943 1.43553947256e-38
0.0608873413922 -0.0313134898588 0.94 1.47252478371e-38
0.0624937308247 -0.0312468654123 0.938 1.37093176608e-38
0.064229667792 -0.0312468654123 0.938 1.80359892201e-38
0.0720839497637 -0.0341450288354 1.025 2.34877997501e-38
-0.0104711421762 -0.0296682361659 0.943 2.34938827867e-38
-0.00875371199954 -0.0297626207984 0.946 2.08919069566e-38
-0.00701777503219 -0.0298255438868 0.948 2.01596850687e-38
-0.00530774757182 -0.0300772362403 0.956 2.01607612659e-38
-0.00356070653005 -0.0302660055054 0.962 1.90529955935e-38
-0.00178405462316 -0.0303289285938 0.964 1.88693246012e-38
0.0 -0.0304233132263 0.967 1.83165179622e-38
0.00179515869758 -0.0305176978589 0.97 1.73005891873e-38
0.00360142146958 -0.0306120824914 0.973 1.71176342585e-38
0.00541323627879 -0.0306750055798 0.975 1.69350394634e-38
0.00723985652055 -0.0307693902124 0.978 1.64726333909e-38
0.00904982065069 -0.0307693902124 0.978 1.64733508557e-38
0.0108930970041 -0.0308637748449 0.981 1.61049326739e-38
0.0127474774319 -0.0309581594775 0.984 1.57375906893e-38
0.0146129619341 -0.03105254411 0.987 1.56446789959e-38
0.0164395821759 -0.03105254411 0.987 1.5001113058e-38
0.0182662024177 -0.03105254411 0.987 1.47223779778e-38
0.020133537599 -0.0311154671984 0.989 1.45379895207e-38
0.0219638591989 -0.0311154671984 0.989 1.42621242998e-38
0.0237460631429 -0.03105254411 0.987 1.41706475361e-38
0.0255726833847 -0.03105254411 0.987 1.39851828817e-38
0.0273993036265 -0.03105254411 0.987 1.38025880866e-38
0.0292259238682 -0.03105254411 0.987 1.36167646999e-38
0.03105254411 -0.03105254411 0.987 1.37093176608e-38
0.0328791643518 -0.03105254411 0.987 1.39844654169e-38
0.0346002958866 -0.0309581594775 0.984 1.40773771103e-38
0.0364213640911 -0.0309581594775 0.984 1.41703126257e-38
0.0382424322957 -0.0309581594775 0.984 1.36189170943e-38
0.0400635005002 -0.0309581594775 0.984 1.35267228657e-38
0.0418845687048 -0.0309581594775 0.984 1.38940648504e-38
0.0435723880163 -0.0308637748449 0.981 1.38025880866e-38
0.0452491032535 -0.0307693902124 0.978 1.36185583619e-38
0.0470590673836 -0.0307693902124 0.978 1.41710174789e-38
0.0484692848347 -0.0305176978589 0.97 1.36181996295e-38
0.0501089864904 -0.0304233132263 0.967 1.39866178113e-38
0.0517375840717 -0.0303289285938 0.964 1.39869765438e-38
0.0534105979507 -0.0302660055054 0.962 1.39887702058e-38
0.0550188380623 -0.0301716208728 0.959 1.36210694887e-38
0.0564975306389 -0.0300143131519 0.954 1.43579114576e-38
0.057774499197 -0.0297626207984 0.946 1.42649941591e-38
0.0590218568899 -0.029510928445 0.938 1.39866178113e-38
0.0607577938573 -0.029510928445 0.938 1.41713650009e-38
0.0622938574851 -0.0294165438124 0.935 1.35231355417e-38
0.0640242424153 -0.0294165438124 0.935 1.82207364096e-38
0.0656139757361 -0.0293536207241 0.933 2.34888787499e-38
-0.0104711421762 -0.0279230458032 0.943 2.34938925958e-38
-0.00875371199954 -0.0280118783985 0.946 2.09840577449e-38
-0.00700296959964 -0.0280118783985 0.946 1.9883102383e-38
-0.00530774757182 -0.0283079870497 0.956 2.00685670374e-38
-0.00356810924633 -0.0285448739706 0.964 1.85923831831e-38
-0.00178960666037 -0.028633706566 0.967 1.89618775622e-38
0.0 -0.0287225391613 0.97 1.81292596458e-38
0.00180071073479 -0.0288113717566 0.973 1.76704408975e-38
0.00360882418586 -0.0288705934869 0.975 1.69325283365e-38
0.00542989239041 -0.0289594260822 0.978 1.6934680731e-38
0.00726206466939 -0.0290482586776 0.981 1.638008043e-38
0.00910534102278 -0.0291370912729 0.984 1.61049326739e-38
0.0109264092273 -0.0291370912729 0.984 1.56461139255e-38
0.0127863416924 -0.0292259238682 0.987 1.51855015151e-38
0.0146425727992 -0.0292851455985 0.989 1.4353959796e-38
0.0164728943991 -0.0292851455985 0.989 1.45397831827e-38
0.018303215999 -0.0292851455985 0.989 1.38036642838e-38
0.020133537599 -0.0292851455985 0.989 1.3988052741e-38
0.0220304836454 -0.0293739781938 0.992 1.37114700553e-38
0.0238663572825 -0.0293739781938 0.992 1.36181996295e-38
0.0257022309196 -0.0293739781938 0.992 1.35245704713e-38
0.0275381045567 -0.0293739781938 0.992 1.33419756762e-38
0.0293739781938 -0.0293739781938 0.992 1.32508576449e-38
0.0312098518309 -0.0293739781938 0.992 1.3340899479e-38
0.033045725468 -0.0293739781938 0.992 1.3616047235e-38
0.0348815991052 -0.0293739781938 0.992 1.38940648504e-38
0.0366064319981 -0.0292851455985 0.989 1.33394645494e-38
0.038436753598 -0.0292851455985 0.989 1.35260054009e-38
0.0402670751979 -0.0292851455985 0.989 1.35260054009e-38
0.0420973967978 -0.0292851455985 0.989 1.38940648504e-38
0.0438388858024 -0.0292259238682 0.987 1.38018706218e-38
0.0456655060441 -0.0292259238682 0.987 1.38025880866e-38
0.0473477733185 -0.0291370912729 0.984 1.39873352762e-38
0.0488690315137 -0.0289594260822 0.978 1.3616047235e-38
0.050523538602 -0.0288705934869 0.975 1.39873352762e-38
0.0522206113089 -0.0288113717566 0.973 1.39873352762e-38
0.0534105979507 -0.0284856522404 0.962 1.36192758267e-38
0.0550188380623 -0.028396819645 0.959 1.38047404811e-38
0.0566159740994 -0.0283079870497 0.956 1.37107525905e-38
0.057774499197 -0.0280118783985 0.946 1.38947823152e-38
0.0590218568899 -0.0277749914776 0.938 1.39869765438e-38
0.0607577938573 -0.0277749914776 0.938 1.43571883876e-38
0.0622938574851 -0.0276861588823 0.935 1.30607294692e-38
0.0640242424153 -0.0276861588823 0.935 1.82221965626e-38
0.0656139757361 -0.027626937152 0.933 2.34914277118e-38
-0.0104378299529 -0.0260945748824 0.94 2.34924786856e-38
-0.00875371199954 -0.0262611359986 0.946 2.1536174945e-38
-0.00700296959964 -0.0262611359986 0.946 1.9790549422e-38
-0.00532440368344 -0.0266220184172 0.959 1.96090308242e-38
-0.00357921332074 -0.0268440999056 0.967 1.86863710737e-38
-0.00178960666037 -0.0268440999056 0.967 1.90551788165e-38
0.0 -0.0269273804637 0.97 1.77615841522e-38
0.00180071073479 -0.0270106610218 0.973 1.74878461024e-38
0.00363103233469 -0.0272327425102 0.981 1.67488587455e-38
0.00546320461367 -0.0273160230683 0.984 1.70269183998e-38
0.00730648096706 -0.0273993036265 0.987 1.61967681701e-38
0.00913310120883 -0.0273993036265 0.987 1.57368732244e-38
0.0109819295994 -0.0274548239986 0.989 1.46309012141e-38
0.0128511154598 -0.0275381045567 0.992 1.45405006475e-38
0.0146869890969 -0.0275381045567 0.992 1.38940648504e-38
0.016522862734 -0.0275381045567 0.992 1.43553947256e-38
0.0183587363711 -0.0275381045567 0.992 1.39869765438e-38
0.0201946100083 -0.0275381045567 0.992 1.35260054009e-38
0.0220304836454 -0.0275381045567 0.992 1.35267228657e-38
0.0238663572825 -0.0275381045567 0.992 1.38947823152e-38
0.0257799594405 -0.0276213851148 0.995 1.35260054009e-38
0.0275381045567 -0.0275381045567 0.992 1.33434106058e-38
0.0293739781938 -0.0275381045567 0.992 1.33430518734e-38
0.0312098518309 -0.0275381045567 0.992 1.33416169438e-38
0.033045725468 -0.0275381045567 0.992 1.38011573609e-38
0.0348815991052 -0.0275381045567 0.992 1.36178408971e-38
0.0367174727423 -0.0275381045567 0.992 1.36181996295e-38
0.0385533463794 -0.0275381045567 0.992 1.35260054009e-38
0.0402670751979 -0.0274548239986 0.989 1.34345286372e-38
0.0420973967978 -0.0274548239986 0.989 1.35270815981e-38
0.0439277183977 -0.0274548239986 0.989 1.33405407466e-38
0.0456655060441 -0.0273993036265 0.987 1.38933557933e-38
0.0473477733185 -0.0273160230683 0.984 1.36164059675e-38
0.0490189365184 -0.0272327425102 0.981 1.39862730919e-38
0.0506789956439 -0.0271494619521 0.978 1.39869765438e-38
0.0522206113089 -0.0270106610218 0.973 1.36181996295e-38
0.0538547609274 -0.0269273804637 0.97 1.38036642838e-38
0.055305693318 -0.0267608193474 0.964 1.38025880866e-38
0.0569713044808 -0.0267052989754 0.962 1.43554283568e-38
0.05838522329 -0.0265387378591 0.956 1.39869765438e-38
0.0590218568899 -0.0260390545103 0.938 1.37114700553e-38
0.0607577938573 -0.0260390545103 0.938 1.36185583619e-38
0.0622938574851 -0.0259557739521 0.935 1.26887239633e-38
0.0640242424153 -0.0259557739521 0.935 1.9329267191e-38
0.0656139757361 -0.02590025358 0.933 2.34946815268e-38
-0.0104156218041 -0.0243031175429 0.938 2.34945988502e-38
-0.00882773916233 -0.0247176696545 0.954 2.20933438261e-38
-0.00712141306009 -0.0249249457103 0.962 1.94214137754e-38
-0.00534105979507 -0.0249249457103 0.962 1.91470002997e-38
-0.00357921332074 -0.0250544932452 0.967 1.83190290891e-38
-0.00179515869758 -0.0251322217661 0.97 1.78559055518e-38
0.0 -0.0252099502871 0.973 1.77637127245e-38
0.00180996413014 -0.0253394978219 0.978 1.73963693386e-38
0.00364213640911 -0.0254949548638 0.984 1.62918322579e-38
0.0054798607253 -0.0255726833847 0.987 1.5921620414e-38
0.00730648096706 -0.0255726833847 0.987 1.53663026482e-38
0.00915160799952 -0.0256245023987 0.989 1.4723454175e-38
0.0110152418227 -0.0257022309196 0.992 1.43553947256e-38
0.0128511154598 -0.0257022309196 0.992 1.41717237333e-38
0.0146869890969 -0.0257022309196 0.992 1.38940648504e-38
0.0165728310689 -0.0257799594405 0.995 1.38025880866e-38
0.0184142567432 -0.0257799594405 0.995 1.39851828817e-38
0.0203167548268 -0.0258576879614 0.998 1.38025880866e-38
0.0220971080919 -0.0257799594405 0.995 1.34345286372e-38
0.0239385337662 -0.0257799594405 0.995 1.38011573609e-38
0.0257799594405 -0.0257799594405 0.995 1.33405407466e-38
0.027704665673 -0.0258576879614 0.998 1.31579459515e-38
0.0295516433845 -0.0258576879614 0.998 1.33419756762e-38
0.0313042364635 -0.0257799594405 0.995 1.33441280706e-38
0.0331456621378 -0.0257799594405 0.995 1.33419756762e-38
0.0349870878121 -0.0257799594405 0.995 1.35267228657e-38
0.0368285134865 -0.0257799594405 0.995 1.35260054009e-38
0.0385533463794 -0.0257022309196 0.992 1.34338111724e-38
0.0403892200165 -0.0257022309196 0.992 1.31579459515e-38
0.0420973967978 -0.0256245023987 0.989 1.35267228657e-38
0.0439277183977 -0.0256245023987 0.989 1.36185583619e-38
0.0456655060441 -0.0255726833847 0.987 1.35260054009e-38
0.0473477733185 -0.0254949548638 0.984 1.36192758267e-38
0.0490189365184 -0.0254172263429 0.981 1.35267228657e-38
0.0506789956439 -0.0253394978219 0.978 1.39851828817e-38
0.0522206113089 -0.0252099502871 0.973 1.42610481026e-38
0.0538547609274 -0.0251322217661 0.97 1.38947823152e-38
0.055305693318 -0.0249767647243 0.964 1.3988052741e-38
0.0569713044808 -0.0249249457103 0.962 1.35267228657e-38
0.05838522329 -0.0247694886685 0.956 1.33419756762e-38
0.0590218568899 -0.0243031175429 0.938 1.38947823152e-38
0.0607577938573 -0.0243031175429 0.938 1.38025922905e-38
0.0622938574851 -0.024225389022 0.935 1.34280714539e-38
0.0640242424153 -0.024225389022 0.935 2.08068383307e-38
0.0656139757361 -0.024173570008 0.933 2.34985995573e-38
-0.0104156218041 -0.0225671805756 0.938 2.34909722898e-38
-0.00879997897629 -0.0228799453383 0.951 2.34790682593e-38
-0.00718063479032 -0.0233370630686 0.97 1.9328502082e-38
-0.00538547609274 -0.0233370630686 0.97 1.90547892556e-38
-0.00359031739516 -0.0233370630686 0.97 1.8317235427e-38
-0.00180071073479 -0.0234092395523 0.973 1.81310533079e-38
0.0 -0.0234573572081 0.975 1.74882048348e-38
0.00181551616735 -0.0236017101755 0.981 1.68453563617e-38
0.00364213640911 -0.0236738866592 0.984 1.60145321074e-38
0.0054798607253 -0.0237460631429 0.987 1.52751846168e-38
0.00732128639962 -0.0237941807988 0.989 1.52755433492e-38
0.00915160799952 -0.0237941807988 0.989 1.4908560097e-38
0.0110152418227 -0.0238663572825 0.992 1.46330536085e-38
0.0128511154598 -0.0238663572825 0.992 1.41727999305e-38
0.0147314053946 -0.0239385337662 0.995 1.39873352762e-38
0.0165728310689 -0.0239385337662 0.995 1.38962466721e-38
0.0184142567432 -0.0239385337662 0.995 1.34359635668e-38
0.0203167548268 -0.0240107102499 0.998 1.37114700553e-38
0.0221637325384 -0.0240107102499 0.998 1.36171234323e-38
0.0240107102499 -0.0240107102499 0.998 1.36181996295e-38
0.0258576879614 -0.0240107102499 0.998 1.35270815981e-38
0.0277879462311 -0.0240828867336 1.001 1.3248346518e-38
0.0296404759799 -0.0240828867336 1.001 1.29753511564e-38
0.031398621096 -0.0240107102499 0.998 1.28831569278e-38
0.0332455988076 -0.0240107102499 0.998 1.29753511564e-38
0.0350925765191 -0.0240107102499 0.998 1.34359635668e-38
0.0369395542306 -0.0240107102499 0.998 1.33419756762e-38
0.0386699391608 -0.0239385337662 0.995 1.36171234323e-38
0.0403892200165 -0.0238663572825 0.992 1.36182080373e-38
0.0422250936536 -0.0238663572825 0.992 1.33419756762e-38
0.0439277183977 -0.0237941807988 0.989 1.35260054009e-38
0.0457580399976 -0.0237941807988 0.989 1.3248346518e-38
0.0474921262859 -0.0237460631429 0.987 1.28781346741e-38
0.0490189365184 -0.0236017101755 0.981 1.38011797817e-38
0.0506789956439 -0.0235295336918 0.978 1.3616047235e-38
0.0523279506949 -0.0234573572081 0.975 1.38018706218e-38
0.0538547609274 -0.0233370630686 0.97 1.40773771103e-38
0.0554778064715 -0.0232648865848 0.967 1.41699300713e-38
0.0569713044808 -0.0231445924453 0.962 1.36181996295e-38
0.0585684405179 -0.0230724159616 0.959 1.36192758267e-38
0.0590218568899 -0.0225671805756 0.938 1.38947823152e-38
0.0607577938573 -0.0225671805756 0.938 1.38018706218e-38
0.0622938574851 -0.0224950040919 0.935 1.43453502182e-38
0.0640242424153 -0.0224950040919 0.935 2.26515496681e-38
-0.00879997897629 -0.0211199495431 0.951 2.34956554292e-38
-0.00718063479032 -0.021541904371 0.97 1.89550616465e-38
-0.00538547609274 -0.021541904371 0.97 1.92395504581e-38
-0.00359031739516 -0.021541904371 0.97 1.84108842034e-38
-0.00180441209293 -0.0216529451152 0.975 1.78555468194e-38
0.0 -0.0217195695617 0.978 1.71183517233e-38
0.00181551616735 -0.0217861940082 0.981 1.59212616816e-38
0.00365324048353 -0.0219194429012 0.987 1.54592143415e-38
0.0054798607253 -0.0219194429012 0.987 1.51826316558e-38
0.00732128639962 -0.0219638591989 0.989 1.54588556091e-38
0.00917936818557 -0.0220304836454 0.992 1.50926276568e-38
0.0110152418227 -0.0220304836454 0.992 1.44497413486e-38
0.0128899797203 -0.0220971080919 0.995 1.41727999305e-38
0.0147314053946 -0.0220971080919 0.995 1.36199932915e-38
0.0166227994038 -0.0221637325384 0.998 1.35260054009e-38
0.0184697771153 -0.0221637325384 0.998 1.33405407466e-38
0.0203778272361 -0.0222303569849 1.001 1.33412582114e-38
0.0222303569849 -0.0222303569849 1.001 1.33391058169e-38
0.0240828867336 -0.0222303569849 1.001 1.3155793557e-38
0.0259354164824 -0.0222303569849 1.001 1.35267228657e-38
0.0277879462311 -0.0222303569849 1.001 1.32512163773e-38
0.0296404759799 -0.0222303569849 1.001 1.30679041174e-38
0.0314930057286 -0.0222303569849 1.001 1.29739162268e-38
0.0333455354773 -0.0222303569849 1.001 1.28831569278e-38
0.0351980652261 -0.0222303569849 1.001 1.29742749592e-38
0.0370505949748 -0.0222303569849 1.001 1.29724812971e-38
0.0387865319422 -0.0221637325384 0.998 1.33412582114e-38
0.0405113648351 -0.0220971080919 0.995 1.32490639828e-38
0.0423527905094 -0.0220971080919 0.995 1.35270815981e-38
0.0440609672907 -0.0220304836454 0.992 1.35260054009e-38
0.0457580399976 -0.0219638591989 0.989 1.38025880866e-38
0.0475883615975 -0.0219638591989 0.989 1.36185583619e-38
0.049168841523 -0.0218528184547 0.984 1.36181996295e-38
0.0508344526857 -0.0217861940082 0.981 1.36185583619e-38
0.052488959774 -0.0217195695617 0.978 1.38025880866e-38
0.0538547609274 -0.021541904371 0.97 1.41699300713e-38
0.0554778064715 -0.0214752799245 0.967 1.41699300713e-38
0.0569713044808 -0.0213642391803 0.962 1.40773771103e-38
0.0585684405179 -0.0212976147338 0.959 1.38940648504e-38
0.0603432417457 -0.0212976147338 0.959 1.41717237333e-38
0.0607577938573 -0.0208312436082 0.938 1.31550760922e-38
0.0624937308247 -0.0208312436082 0.938 1.58219530607e-38
0.0640242424153 -0.0207646191617 0.935 2.34802411461e-38
-0.00904982065069 -0.0199096054315 0.978 2.34928023856e-38
-0.00723985652055 -0.0199096054315 0.978 2.10742032751e-38
-0.00542989239041 -0.0199096054315 0.978 1.81317707727e-38
-0.00361992826028 -0.0199096054315 0.978 1.75814990826e-38
-0.00180996413014 -0.0199096054315 0.978 1.7303480066e-38
0.0 -0.0199706778408 0.981 1.66559596638e-38
0.00182106820456 -0.0200317502501 0.984 1.61960507052e-38
0.00365324048353 -0.0200928226594 0.987 1.58287087206e-38
0.00549096479971 -0.020133537599 0.989 1.55539196969e-38
0.00732128639962 -0.020133537599 0.989 1.52759020816e-38
0.00917936818557 -0.0201946100083 0.992 1.47230954426e-38
0.0110152418227 -0.0201946100083 0.992 1.4448306419e-38
0.0128899797203 -0.0202556824175 0.995 1.44475889542e-38
0.0147758216923 -0.0203167548268 0.998 1.38025880866e-38
0.0166227994038 -0.0203167548268 0.998 1.39855640349e-38
0.0185252974874 -0.0203778272361 1.001 1.36167646999e-38
0.0204388996454 -0.0204388996454 1.004 1.35260054009e-38
0.0222969814314 -0.0204388996454 1.004 1.31579459515e-38
0.0241550632173 -0.0204388996454 1.004 1.32490639828e-38
0.0260131450033 -0.0204388996454 1.004 1.36171234323e-38
0.0278712267892 -0.0204388996454 1.004 1.31565110219e-38
0.0297293085752 -0.0204388996454 1.004 1.34341699048e-38
0.0315873903611 -0.0204388996454 1.004 1.31586634163e-38
0.0334454721471 -0.0204388996454 1.004 1.29731987619e-38
0.035303553933 -0.0204388996454 1.004 1.28831569278e-38
0.0370505949748 -0.0203778272361 1.001 1.2695539879e-38
0.0389031247236 -0.0203778272361 1.001 1.29714050999e-38
0.0406335096537 -0.0203167548268 0.998 1.3155793557e-38
0.0424804873652 -0.0203167548268 0.998 1.31568697543e-38
0.0441942161837 -0.0202556824175 0.995 1.33405407466e-38
0.0458968409278 -0.0201946100083 0.992 1.33419756762e-38
0.0475883615975 -0.020133537599 0.989 1.34352517072e-38
0.0493187465277 -0.0200928226594 0.987 1.31590221487e-38
0.0509899097276 -0.0200317502501 0.984 1.30657517229e-38
0.0526499688531 -0.0199706778408 0.981 1.35260054009e-38
0.0538547609274 -0.0197467456734 0.97 1.38025880866e-38
0.055649919625 -0.0197467456734 0.97 1.38940648504e-38
0.0570897479412 -0.0196246008548 0.964 1.39862590789e-38
0.0587516577458 -0.0195838859153 0.962 1.43536108727e-38
0.0605320110108 -0.0195838859153 0.962 1.38018706218e-38
0.0623123642758 -0.0195838859153 0.962 1.24128587424e-38
0.0622938574851 -0.0190342342316 0.935 2.05321025564e-38
0.0640242424153 -0.0190342342316 0.935 2.34831670573e-38
0.0657546273454 -0.0190342342316 0.935 2.35098449775e-38
-0.00723985652055 -0.0180996413014 0.978 2.34888689408e-38
-0.00542989239041 -0.0180996413014 0.978 1.7668288503e-38
-0.00361992826028 -0.0180996413014 0.978 1.76726353309e-38
-0.00181551616735 -0.0181551616735 0.981 1.73045394477e-38
0.0 -0.0181551616735 0.981 1.72105459519e-38
0.00182106820456 -0.0182106820456 0.984 1.59194736247e-38
0.00365324048353 -0.0182662024177 0.987 1.56436027987e-38
0.00549096479971 -0.018303215999 0.989 1.54592143415e-38
0.00734349454845 -0.0183587363711 0.992 1.48127785444e-38
0.00917936818557 -0.0183587363711 0.992 1.45376307883e-38
0.0110485540459 -0.0184142567432 0.995 1.44468714894e-38
0.0129288439807 -0.0184697771153 0.998 1.39862590789e-38
0.0148202379899 -0.0185252974874 1.001 1.38025880866e-38
0.0166727677387 -0.0185252974874 1.001 1.38018706218e-38
0.0185252974874 -0.0185252974874 1.001 1.35245704713e-38
0.0204388996454 -0.0185808178595 1.004 1.35256466685e-38
0.0222969814314 -0.0185808178595 1.004 1.3802946819e-38
0.0242272397011 -0.0186363382316 1.007 1.37107525905e-38
0.0260908735242 -0.0186363382316 1.007 1.39869765438e-38
0.0279545073474 -0.0186363382316 1.007 1.36171234323e-38
0.0298181411705 -0.0186363382316 1.007 1.38947823152e-38
0.0316817749937 -0.0186363382316 1.007 1.38947823152e-38
0.0335454088169 -0.0186363382316 1.007 1.34345286372e-38
0.03540904264 -0.0186363382316 1.007 1.33434106058e-38
0.037161635719 -0.0185808178595 1.004 1.33441280706e-38
0.0390197175049 -0.0185808178595 1.004 1.31565110219e-38
0.0407556544723 -0.0185252974874 1.001 1.29724812971e-38
0.042608184221 -0.0185252974874 1.001 1.32490639828e-38
0.0443274650768 -0.0184697771153 0.998 1.30657517229e-38
0.0460356418581 -0.0184142567432 0.995 1.33419756762e-38
0.047732714565 -0.0183587363711 0.992 1.3340899479e-38
0.0494186831974 -0.018303215999 0.989 1.33423344086e-38
0.0511453667694 -0.0182662024177 0.987 1.34345286372e-38
0.0526499688531 -0.0181551616735 0.981 1.38947823152e-38
0.0542989239041 -0.0180996413014 0.978 1.37114700553e-38
0.055649919625 -0.0179515869758 0.97 1.39873352762e-38
0.0572674131319 -0.0178960666037 0.967 1.39869765438e-38
0.0590570197923 -0.0178960666037 0.967 1.41717237333e-38
0.0608466264526 -0.0178960666037 0.967 1.2601193256e-38
0.062636233113 -0.0178960666037 0.967 1.51747941935e-38
0.0680901843313 -0.018913940092 1.022 2.34895569783e-38
0.0699815783405 -0.018913940092 1.022 2.34788496568e-38
0.0718729723497 -0.018913940092 1.022 2.35098687996e-38
-0.00723985652055 -0.0162896771712 0.978 2.34942639399e-38
-0.00542989239041 -0.0162896771712 0.978 2.12625616108e-38
-0.00361992826028 -0.0162896771712 0.978 1.70240051003e-38
-0.00180996413014 -0.0162896771712 0.978 1.73027401804e-38
0.0 -0.0163396455061 0.981 1.6936474393e-38
0.00182662024177 -0.0164395821759 0.987 1.61063676035e-38
0.00366064319981 -0.0164728943991 0.989 1.57368732244e-38
0.00550762091134 -0.016522862734 0.992 1.52776957437e-38
0.00734349454845 -0.016522862734 0.992 1.47230954426e-38
0.00920712837161 -0.0165728310689 0.995 1.48156484036e-38
0.0110818662692 -0.0166227994038 0.998 1.46323361437e-38
0.0129677082412 -0.0166727677387 1.001 1.42628417646e-38
0.0148202379899 -0.0166727677387 1.001 1.41706475361e-38
0.0166727677387 -0.0166727677387 1.001 1.41706475361e-38
0.0185808178595 -0.0167227360735 1.004 1.39866178113e-38
0.0204999720547 -0.0167727044084 1.007 1.42646354267e-38
0.0223636058779 -0.0167727044084 1.007 1.41713678035e-38
0.0242272397011 -0.0167727044084 1.007 1.4908560097e-38
0.0261686020451 -0.0168226727433 1.01 1.51858602475e-38
0.0280377879055 -0.0168226727433 1.01 1.52780544761e-38
0.0299069737659 -0.0168226727433 1.01 1.51858602475e-38
0.0317761596263 -0.0168226727433 1.01 1.43546772608e-38
0.0336453454866 -0.0168226727433 1.01 1.43550359932e-38
0.035514531347 -0.0168226727433 1.01 1.39869765438e-38
0.0373837172074 -0.0168226727433 1.01 1.36189170943e-38
0.0391363102863 -0.0167727044084 1.007 1.42643117267e-38
0.0408777992909 -0.0167227360735 1.004 1.33441280706e-38
0.0427358810768 -0.0167227360735 1.004 1.32512163773e-38
0.0444607139698 -0.0166727677387 1.001 1.33419756762e-38
0.0461744427883 -0.0166227994038 0.998 1.27877341076e-38
0.0478770675324 -0.0165728310689 0.995 1.29742749592e-38
0.0494186831974 -0.0164728943991 0.989 1.29742749592e-38
0.0512490047973 -0.0164728943991 0.989 1.32512163773e-38
0.0529719870112 -0.0164395821759 0.987 1.38036642838e-38
0.0544654850204 -0.0163396455061 0.981 1.35267228657e-38
0.0559367748808 -0.0162397088364 0.975 1.38947823152e-38
0.0572674131319 -0.0161064599433 0.967 1.3988052741e-38
0.0590570197923 -0.0161064599433 0.967 1.34363222992e-38
0.0608466264526 -0.0161064599433 0.967 1.20412119689e-38
0.0676904376523 -0.0169226094131 1.016 2.31042237227e-38
0.0697761529638 -0.016972577748 1.019 2.34989933222e-38
0.0716619949358 -0.016972577748 1.019 2.35098533853e-38
-0.00723985652055 -0.0144797130411 0.978 2.13600471423e-38
-0.00542989239041 -0.0144797130411 0.978 2.34938729776e-38
-0.00361992826028 -0.0144797130411 0.978 1.82117680994e-38
-0.00180996413014 -0.0144797130411 0.978 1.73005891873e-38
0.0 -0.0145241293388 0.981 1.6841057178e-38
0.00181551616735 -0.0145241293388 0.981 1.64751445178e-38
0.00366064319981 -0.0146425727992 0.989 1.59219791464e-38
0.00550762091134 -0.0146869890969 0.992 1.52780544761e-38
0.00736570269729 -0.0147314053946 0.995 1.48156484036e-38
0.00923488855766 -0.0147758216923 0.998 1.49089342437e-38
0.0111151784924 -0.0148202379899 1.001 1.44468714894e-38
0.0130065725016 -0.0148646542876 1.004 1.42621242998e-38
0.0148646542876 -0.0148646542876 1.004 1.36135361082e-38
0.0167227360735 -0.0148646542876 1.004 1.44468714894e-38
0.0186363382316 -0.0149090705853 1.007 1.54617254684e-38
0.0204999720547 -0.0149090705853 1.007 1.62918322579e-38
0.0224302303244 -0.0149534868829 1.01 1.54624429332e-38
0.0242994161848 -0.0149534868829 1.01 1.5829067453e-38
0.0261686020451 -0.0149534868829 1.01 1.54606983166e-38
0.0281210684637 -0.0149979031806 1.013 1.50925898217e-38
0.0299958063612 -0.0149979031806 1.013 1.51829903882e-38
0.0318705442588 -0.0149979031806 1.013 1.46316635204e-38
0.0337452821564 -0.0149979031806 1.013 1.45397831827e-38
0.035620020054 -0.0149979031806 1.013 1.45397831827e-38
0.0373837172074 -0.0149534868829 1.01 1.44475889542e-38
0.0392529030677 -0.0149534868829 1.01 1.39869765438e-38
0.0408777992909 -0.0148646542876 1.004 1.38969347096e-38
0.0427358810768 -0.0148646542876 1.004 1.40816818992e-38
0.0445939628628 -0.0148646542876 1.004 1.37114700553e-38
0.0463132437185 -0.0148202379899 1.001 1.29731987619e-38
0.0480214204998 -0.0147758216923 0.998 1.31586634163e-38
0.0495685882021 -0.0146869890969 0.992 1.30657517229e-38
0.0512490047973 -0.0146425727992 0.989 1.33423344086e-38
0.0530793263972 -0.0146425727992 0.989 1.36181996295e-38
0.0546320461367 -0.0145685456365 0.984 1.34338111724e-38
0.0561088880343 -0.0144797130411 0.978 1.36185583619e-38
0.0579188521644 -0.0144797130411 0.978 1.35267228657e-38
0.0597288162946 -0.0144797130411 0.978 1.19565511209e-38
0.0615387804247 -0.0144797130411 0.978 1.82229378495e-38
0.0676904376523 -0.0150423194783 1.016 2.10766093046e-38
0.0695707275871 -0.0150423194783 1.016 2.35098309645e-38
-0.00907758083674 -0.0127086131714 0.981 2.34935899153e-38
-0.00726206466939 -0.0127086131714 0.981 1.71161993289e-38
-0.00544654850204 -0.0127086131714 0.981 2.34949673917e-38
-0.00363103233469 -0.0127086131714 0.981 2.34759321534e-38
-0.00181551616735 -0.0127086131714 0.981 1.70204177762e-38
0.0 -0.0127086131714 0.981 1.71183699402e-38
0.00181551616735 -0.0127086131714 0.981 1.59201924908e-38
0.00366064319981 -0.0128122511993 0.989 1.59201924908e-38
0.00552427702297 -0.0128899797203 0.995 1.56446789959e-38
0.00738791084613 -0.0129288439807 0.998 1.5001113058e-38
0.0092626487437 -0.0129677082412 1.001 1.42628417646e-38
0.0111484907157 -0.0130065725016 1.004 1.44465127569e-38
0.0130065725016 -0.0130065725016 1.004 1.49078426322e-38
0.0149090705853 -0.0130454367621 1.007 1.54599318063e-38
0.0167727044084 -0.0130454367621 1.007 1.59223448853e-38
0.0186918586037 -0.0130843010226 1.01 1.66602504397e-38
0.0206221168733 -0.013123165283 1.013 1.64729921233e-38
0.0224968547709 -0.013123165283 1.013 1.54602905388e-38
0.0243715926685 -0.013123165283 1.013 1.53713249019e-38
0.0262463305661 -0.013123165283 1.013 1.50933072865e-38
0.0281210684637 -0.013123165283 1.013 1.49096362942e-38
0.0299958063612 -0.013123165283 1.013 1.49082013646e-38
0.0318705442588 -0.013123165283 1.013 1.4908560097e-38
0.0337452821564 -0.013123165283 1.013 1.43546772608e-38
0.035620020054 -0.013123165283 1.013 1.46323361437e-38
0.0374947579515 -0.013123165283 1.013 1.4448306419e-38
0.0393694958491 -0.013123165283 1.013 1.44475889542e-38
0.0411220889281 -0.0130843010226 1.01 1.41717237333e-38
0.0428635779327 -0.0130454367621 1.007 1.40784631166e-38
0.0447272117558 -0.0130454367621 1.007 1.37114700553e-38
0.0464520446487 -0.0130065725016 1.004 1.33434106058e-38
0.0481657734673 -0.0129677082412 1.001 1.31579459515e-38
0.0495685882021 -0.0128511154598 0.992 1.32490639828e-38
0.0514044618392 -0.0128511154598 0.992 1.30635993285e-38
0.0532403354763 -0.0128511154598 0.992 1.35263641333e-38
0.0549096479971 -0.0128122511993 0.989 1.36214282212e-38
0.056739969597 -0.0128122511993 0.989 1.33434106058e-38
0.0656158264152 -0.013123165283 1.013 2.06171669784e-38
0.0693653022103 -0.013123165283 1.013 2.35098393723e-38
-0.00726206466939 -0.0108930970041 0.981 1.97971803664e-38
-0.00544654850204 -0.0108930970041 0.981 1.69278648152e-38
-0.00364213640911 -0.0109264092273 0.984 2.34946535008e-38
-0.00182106820456 -0.0109264092273 0.984 2.2096911532e-38
0.0 -0.0109264092273 0.984 1.50864913708e-38
0.00183587363711 -0.0110152418227 0.992 1.5736514492e-38
0.00367174727423 -0.0110152418227 0.992 1.61034977443e-38
0.0055409331346 -0.0110818662692 0.998 1.56439615311e-38
0.00741011899496 -0.0111151784924 1.001 1.49971670015e-38
0.00929040892975 -0.0111484907157 1.004 1.50925898217e-38
0.011181802939 -0.011181802939 1.007 1.56439615311e-38
0.0130454367621 -0.011181802939 1.007 1.6381874092e-38
0.0149534868829 -0.0112151151622 1.01 1.78620040027e-38
0.0168226727433 -0.0112151151622 1.01 1.68460766291e-38
0.0187473789758 -0.0112484273855 1.013 1.65666212815e-38
0.0206221168733 -0.0112484273855 1.013 1.62900385958e-38
0.0224968547709 -0.0112484273855 1.013 1.61992792969e-38
0.0243715926685 -0.0112484273855 1.013 1.57368732244e-38
0.0262463305661 -0.0112484273855 1.013 1.55542784294e-38
0.0281210684637 -0.0112484273855 1.013 1.5461366736e-38
0.0299958063612 -0.0112484273855 1.013 1.5370607437e-38
0.0318705442588 -0.0112484273855 1.013 1.56461139255e-38
0.0337452821564 -0.0112484273855 1.013 1.56450377283e-38
0.035620020054 -0.0112484273855 1.013 1.47230954426e-38
0.0374947579515 -0.0112484273855 1.013 1.46316186789e-38
0.0393694958491 -0.0112484273855 1.013 1.45394244503e-38
0.0411220889281 -0.0112151151622 1.01 1.41695713388e-38
0.0429912747885 -0.0112151151622 1.01 1.38947823152e-38
0.0447272117558 -0.011181802939 1.007 1.39862590789e-38
0.0464520446487 -0.0111484907157 1.004 1.36181996295e-38
0.0481657734673 -0.0111151784924 1.001 1.39855640349e-38
0.0498683982114 -0.0110818662692 0.998 1.36167646999e-38
0.0514044618392 -0.0110152418227 0.992 1.28810045334e-38
0.0532403354763 -0.0110152418227 0.992 1.2695539879e-38
0.0549096479971 -0.0109819295994 0.989 1.35288752602e-38
0.056739969597 -0.0109819295994 0.989 1.15884916714e-38
0.0674905643128 -0.0112484273855 1.013 2.35036442318e-38
0.0693653022103 -0.0112484273855 1.013 2.35098463788e-38
0.00184697771153 -0.00923488855766 0.998 1.49953733395e-38
0.00369395542306 -0.00923488855766 0.998 1.58283527908e-38
0.00555758924622 -0.0092626487437 1.001 1.59205442168e-38
0.0074323271438 -0.00929040892975 1.004 1.52730322224e-38
0.00931816911579 -0.00931816911579 1.007 1.56432440663e-38
0.0112151151622 -0.00934592930184 1.01 1.72087663028e-38
0.013123165283 -0.00937368948788 1.013 1.86867298061e-38
0.0149979031806 -0.00937368948788 1.013 1.81378692236e-38
0.0168726410782 -0.00937368948788 1.013 1.67510125413e-38
0.0187473789758 -0.00937368948788 1.013 1.67510097387e-38
0.0206221168733 -0.00937368948788 1.013 1.70286686216e-38
0.0224968547709 -0.00937368948788 1.013 1.67528034007e-38
0.0243715926685 -0.00937368948788 1.013 1.68432039672e-38
0.0262463305661 -0.00937368948788 1.013 1.71190691881e-38
0.0281210684637 -0.00937368948788 1.013 1.63811566272e-38
0.0299958063612 -0.00937368948788 1.013 1.59230553436e-38
0.0318705442588 -0.00937368948788 1.013 1.61063676035e-38
0.0337452821564 -0.00937368948788 1.013 1.55514085701e-38
0.035620020054 -0.00937368948788 1.013 1.57361557596e-38
0.0374947579515 -0.00937368948788 1.013 1.55514085701e-38
0.0393694958491 -0.00937368948788 1.013 1.50007543256e-38
0.0412442337467 -0.00937368948788 1.013 1.44461540245e-38
0.0429912747885 -0.00934592930184 1.01 1.43546772608e-38
0.0448604606488 -0.00934592930184 1.01 1.43550359932e-38
0.046590845579 -0.00931816911579 1.007 1.39844654169e-38
0.0483101264347 -0.00929040892975 1.004 1.39848241493e-38
0.050018303216 -0.0092626487437 1.001 1.38940648504e-38
0.051559918881 -0.00920712837161 0.995 1.32504989125e-38
0.0534013445554 -0.00920712837161 0.995 1.26980510059e-38
0.0550762091134 -0.00917936818557 0.992 1.25100752247e-38
0.0569120827505 -0.00917936818557 0.992 1.49903510858e-38
0.0656158264152 -0.00937368948788 1.013 2.02437209376e-38
0.0674905643128 -0.00937368948788 1.013 2.35098113463e-38
0.00370505949748 -0.00741011899496 1.001 1.50864913708e-38
0.00555758924622 -0.00741011899496 1.001 1.50904374273e-38
0.0074323271438 -0.0074323271438 1.004 1.59194680195e-38
0.00934592930184 -0.00747674344147 1.01 1.71176342585e-38
0.0112484273855 -0.00749895159031 1.013 1.90529955935e-38
0.013123165283 -0.00749895159031 1.013 1.85923831831e-38
0.0149979031806 -0.00749895159031 1.013 1.75800403309e-38
0.0169226094131 -0.00752115973914 1.016 1.73960106062e-38
0.0188028993479 -0.00752115973914 1.016 1.73960106062e-38
0.0206831892826 -0.00752115973914 1.016 1.73030989128e-38
0.0225634792174 -0.00752115973914 1.016 1.73030989128e-38
0.0243715926685 -0.00749895159031 1.013 1.70257987623e-38
0.0262463305661 -0.00749895159031 1.013 1.72101872195e-38
0.0281210684637 -0.00749895159031 1.013 1.66563043832e-38
0.0299958063612 -0.00749895159031 1.013 1.67495804142e-38
0.0318705442588 -0.00749895159031 1.013 1.68432039672e-38
0.0337452821564 -0.00749895159031 1.013 1.68432039672e-38
0.035620020054 -0.00749895159031 1.013 1.60109447833e-38
0.0374947579515 -0.00749895159031 1.013 1.58265563262e-38
0.0393694958491 -0.00749895159031 1.013 1.55514085701e-38
0.0412442337467 -0.00749895159031 1.013 1.53695396476e-38
0.0431189716443 -0.00749895159031 1.013 1.50000368607e-38
0.0448604606488 -0.00747674344147 1.01 1.43543185284e-38
0.046590845579 -0.00745453529263 1.007 1.44468714894e-38
0.0483101264347 -0.0074323271438 1.004 1.39862590789e-38
0.050018303216 -0.00741011899496 1.001 1.35256466685e-38
0.0518708329647 -0.00741011899496 1.001 1.3342693141e-38
0.0535623536344 -0.00738791084613 0.998 1.09384685502e-38
0.055409331346 -0.00738791084613 0.998 1.62871687366e-38
0.0656158264152 -0.00749895159031 1.013 2.3477822505e-38
0.0674905643128 -0.00749895159031 1.013 2.35097749126e-38
0.0037161635719 -0.00557424535785 1.004 2.33854629232e-38
0.00557424535785 -0.00557424535785 1.004 1.63714708522e-38
0.00745453529263 -0.00559090146948 1.007 1.57361557596e-38
0.00937368948788 -0.00562421369273 1.013 1.91502639238e-38
0.0112484273855 -0.00562421369273 1.013 1.94217893234e-38
0.013123165283 -0.00562421369273 1.013 1.86838739598e-38
0.0150423194783 -0.00564086980436 1.016 1.84994714897e-38
0.0169226094131 -0.00564086980436 1.016 1.84090709232e-38
0.0188028993479 -0.00564086980436 1.016 1.81306945755e-38
0.0206831892826 -0.00564086980436 1.016 1.79477522584e-38
0.0224968547709 -0.00562421369273 1.013 1.77637113232e-38
0.0243715926685 -0.00562421369273 1.013 1.74856937079e-38
0.0262463305661 -0.00562421369273 1.013 1.75786054013e-38
0.0281210684637 -0.00562421369273 1.013 1.7302381448e-38
0.0299958063612 -0.00562421369273 1.013 1.73013164612e-38
0.0318705442588 -0.00562421369273 1.013 1.7116204934e-38
0.0337452821564 -0.00562421369273 1.013 1.68414103052e-38
0.035620020054 -0.00562421369273 1.013 1.65651863519e-38
0.0374947579515 -0.00562421369273 1.013 1.61024257509e-38
0.0393694958491 -0.00562421369273 1.013 1.59187505547e-38
0.0412442337467 -0.00562421369273 1.013 1.55532022321e-38
0.0431189716443 -0.00562421369273 1.013 1.48145722064e-38
0.0449937095418 -0.00562421369273 1.013 1.49971670015e-38
0.0467296465092 -0.0056075575811 1.01 1.46301837493e-38
0.0483101264347 -0.00557424535785 1.004 1.45394244503e-38
0.050018303216 -0.00555758924622 1.001 1.33405407466e-38
0.0518708329647 -0.00555758924622 1.001 1.25043355062e-38
0.0537233627135 -0.00555758924622 1.001 1.97012698943e-38
0.0555758924622 -0.00555758924622 1.001 2.34888801512e-38
0.0656158264152 -0.00562421369273 1.013 2.35000835324e-38
0.0674905643128 -0.00562421369273 1.013 2.35098281619e-38
0.00372726764632 -0.00372726764632 1.007 2.34885410369e-38
0.00559090146948 -0.00372726764632 1.007 2.34899325263e-38
0.00747674344147 -0.00373837172074 1.01 2.08086319927e-38
0.00937368948788 -0.00374947579515 1.013 1.94235661698e-38
0.0112484273855 -0.00374947579515 1.013 1.88682498053e-38
0.013123165283 -0.00374947579515 1.013 1.89608307922e-38
0.0150423194783 -0.00376057986957 1.016 1.89611811168e-38
0.0169226094131 -0.00376057986957 1.016 1.89622404985e-38
0.0188028993479 -0.00376057986957 1.016 1.88696917414e-38
0.0206831892826 -0.00376057986957 1.016 1.89622404985e-38
0.0224968547709 -0.00374947579515 1.013 1.84998302221e-38
0.0243715926685 -0.00374947579515 1.013 1.81306973781e-38
0.0262463305661 -0.00374947579515 1.013 1.85019826166e-38
0.0281210684637 -0.00374947579515 1.013 1.77629938584e-38
0.0299958063612 -0.00374947579515 1.013 1.78559055518e-38
0.0317761596263 -0.00373837172074 1.01 1.77637113232e-38
0.0336453454866 -0.00373837172074 1.01 1.7396728071e-38
0.035514531347 -0.00373837172074 1.01 1.65666212815e-38
0.0373837172074 -0.00373837172074 1.01 1.67506510063e-38
0.0392529030677 -0.00373837172074 1.01 1.67495776116e-38
0.0411220889281 -0.00373837172074 1.01 1.59212616816e-38
0.0431189716443 -0.00374947579515 1.013 1.56446789959e-38
0.0449937095418 -0.00374947579515 1.013 1.4903564468e-38
0.0467296465092 -0.00373837172074 1.01 1.42603306378e-38
0.0484544794021 -0.00372726764632 1.007 1.36092313193e-38
0.0501682082206 -0.0037161635719 1.004 1.58222557412e-38
0.0520262900066 -0.0037161635719 1.004 2.34844912844e-38
0.0540453808716 -0.00372726764632 1.007 2.34903739353e-38
0.0656158264152 -0.00374947579515 1.013 2.35098393723e-38
0.00564086980436 -0.00188028993479 1.016 2.15430090776e-38
0.00752115973914 -0.00188028993479 1.016 2.34921535844e-38
0.00940144967393 -0.00188028993479 1.016 2.34849340947e-38
0.0112484273855 -0.00187473789758 1.013 2.15412364351e-38
0.013123165283 -0.00187473789758 1.013 1.86791964256e-38
0.0150423194783 -0.00188028993479 1.016 1.92377427831e-38
0.0168726410782 -0.00187473789758 1.013 1.93303265726e-38
0.0187473789758 -0.00187473789758 1.013 1.90530292247e-38
0.0206221168733 -0.00187473789758 1.013 1.85023581646e-38
0.0224968547709 -0.00187473789758 1.013 1.81314120403e-38
0.0243715926685 -0.00187473789758 1.013 1.84083534584e-38
0.0261686020451 -0.00186918586037 1.01 1.85959761124e-38
0.0280377879055 -0.00186918586037 1.01 1.83186703567e-38
0.0299069737659 -0.00186918586037 1.01 1.82261173957e-38
0.0317761596263 -0.00186918586037 1.01 1.76725960945e-38
0.0335454088169 -0.00186363382316 1.007 1.76743869539e-38
0.03540904264 -0.00186363382316 1.007 1.65655450843e-38
0.0372726764632 -0.00186363382316 1.007 1.69343248012e-38
0.0391363102863 -0.00186363382316 1.007 1.63825915568e-38
0.0411220889281 -0.00186918586037 1.01 1.6014173375e-38
0.0429912747885 -0.00186918586037 1.01 1.57343620976e-38
0.0449937095418 -0.00187473789758 1.013 1.49003092516e-38
0.0468684474394 -0.00187473789758 1.013 1.71104596103e-38
0.0485988323696 -0.00186918586037 1.01 2.29277063591e-38
0.0504680182299 -0.00186918586037 1.01 2.34906513924e-38
0.0523372040903 -0.00186918586037 1.01 2.34809488019e-38
0.0542063899507 -0.00186918586037 1.01 1.95979101196e-38
0.0622327850758 -0.00188584197199 1.019 2.02436606818e-38
0.0641186270478 -0.00188584197199 1.019 2.19987393642e-38
0.0656158264152 -0.00187473789758 1.013 2.35098323658e-38
0.00562421369273 0.0 1.013 1.27751784734e-38
0.00749895159031 0.0 1.013 1.46154757206e-38
0.00937368948788 0.0 1.013 2.1733173687e-38
0.0112484273855 0.0 1.013 2.34942471243e-38
0.013123165283 0.0 1.013 2.3491714978e-38
0.0150423194783 0.0 1.016 2.34783185646e-38
0.0168726410782 0.0 1.013 1.99688590464e-38
0.0187473789758 0.0 1.013 1.91430374277e-38
0.0206221168733 0.0 1.013 1.89604426326e-38
0.0224968547709 0.0 1.013 1.90529955935e-38
0.0243715926685 0.0 1.013 1.84966016305e-38
0.0261686020451 0.0 1.01 1.85009316427e-38
0.0280377879055 0.0 1.01 1.83176291919e-38
0.0299069737659 0.0 1.01 1.76704408975e-38
0.0316817749937 0.0 1.007 1.76715170947e-38
0.0335454088169 0.0 1.007 1.73030989128e-38
0.03540904264 0.0 1.007 1.71176342585e-38
0.0372726764632 0.0 1.007 1.71133294696e-38
0.0391363102863 0.0 1.007 1.68356705867e-38
0.0409999441095 0.0 1.007 1.81281834486e-38
0.0428635779327 0.0 1.007 2.08932928408e-38
0.0449937095418 0.0 1.013 2.34887736525e-38
0.0468684474394 0.0 1.013 2.34928290102e-38
0.048743185337 0.0 1.013 2.34838270689e-38
0.0506179232346 0.0 1.013 2.13474480679e-38
0.0622327850758 0.0 1.019 1.95907354714e-38
0.0641186270478 0.0 1.019 2.34946815268e-38
0.0658101477175 0.0 1.016 2.3509837971e-38
0.00562421369273 0.00187473789758 1.013 1.49957432822e-38
0.00749895159031 0.00187473789758 1.013 1.31507713033e-38
0.00937368948788 0.00187473789758 1.013 1.29631542546e-38
0.0112484273855 0.00187473789758 1.013 1.40626690816e-38
0.013123165283 0.00187473789758 1.013 1.79457021587e-38
0.0149979031806 0.00187473789758 1.013 2.34884667681e-38
0.0168726410782 0.00187473789758 1.013 2.3490682221e-38
0.0187473789758 0.00187473789758 1.013 2.34942877619e-38
0.0206221168733 0.00187473789758 1.013 2.34880982266e-38
0.0224968547709 0.00187473789758 1.013 2.34811884239e-38
0.0243715926685 0.00187473789758 1.013 2.21847939652e-38
0.0261686020451 0.00186918586037 1.01 2.10787574951e-38
0.0280377879055 0.00186918586037 1.01 2.05245159265e-38
0.0298181411705 0.00186363382316 1.007 2.02479570629e-38
0.0316817749937 0.00186363382316 1.007 2.08011686771e-38
0.0334454721471 0.00185808178595 1.004 2.08933671096e-38
0.035303553933 0.00185808178595 1.004 2.29248533154e-38
0.037161635719 0.00185808178595 1.004 2.34805115967e-38
0.0390197175049 0.00185808178595 1.004 2.34888339083e-38
0.0408777992909 0.00185808178595 1.004 2.3491043756e-38
0.0428635779327 0.00186363382316 1.007 2.34866983295e-38
0.0449937095418 0.00187473789758 1.013 2.34805368201e-38
0.0468684474394 0.00187473789758 1.013 2.08825308686e-38
0.0620495678479 0.00188028993479 1.016 2.03291524998e-38
0.0639298577827 0.00188028993479 1.016 2.3509786123e-38
0.0112484273855 0.00374947579515 1.013 1.36149738404e-38
0.013123165283 0.00374947579515 1.013 1.43471438802e-38
0.0149979031806 0.00374947579515 1.013 1.25814629736e-38
0.0168226727433 0.00373837172074 1.01 1.15727074455e-38
0.0186918586037 0.00373837172074 1.01 1.41617759155e-38
0.0206221168733 0.00374947579515 1.013 1.92391777127e-38
0.0224968547709 0.00374947579515 1.013 2.31139305172e-38
0.0243715926685 0.00374947579515 1.013 2.34859668517e-38
0.0261686020451 0.00373837172074 1.01 2.3491001717e-38
0.0280377879055 0.00373837172074 1.01 2.34902828509e-38
0.0298181411705 0.00372726764632 1.007 2.34913674559e-38
0.0316817749937 0.00372726764632 1.007 2.34928079908e-38
0.0334454721471 0.0037161635719 1.004 2.34891912394e-38
