# .PCD v0.7 - Point Cloud Data file format
VERSION 0.7
FIELDS x y z rgb
SIZE 4 4 4 4
TYPE F F F F
COUNT 1 1 1 1
WIDTH 846
HEIGHT 1
VIEWPOINT 0 0 0 1 0 0 0
POINTS 846
DATA ascii
0.0 -0.095572768516 0.906 2.08965760831e-38
0.00168041659526 -0.0957837459299 0.908 1.99753428544e-38
0.00337933998122 -0.0963111894648 0.913 1.93303545986e-38
0.00506900997183 -0.0963111894648 0.913 1.88718973852e-38
0.006773485395 -0.0965221668787 0.915 1.75793466882e-38
0.00846685674374 -0.0965221668787 0.915 1.71172867365e-38
0.0101602280925 -0.0965221668787 0.915 1.72080642523e-38
0.0118924637017 -0.0968386329996 0.918 1.63797511248e-38
0.0135913870877 -0.0968386329996 0.918 1.70251149287e-38
0.0152903104736 -0.0968386329996 0.918 1.52751846168e-38
0.0169892338596 -0.0968386329996 0.918 1.65651863519e-38
0.0187288721851 -0.0970496104135 0.92 1.53673788454e-38
0.0204314969292 -0.0970496104135 0.92 1.50918765608e-38
0.0221341216733 -0.0970496104135 0.92 1.50933072865e-38
0.0239144749383 -0.0973660765345 0.923 1.52784132085e-38
0.0256226517196 -0.0973660765345 0.923 1.45397831827e-38
0.0273308285009 -0.0973660765345 0.923 1.48156484036e-38
0.0290390052822 -0.0973660765345 0.923 1.45394244503e-38
0.03081380651 -0.0975770539484 0.925 1.45397831827e-38
0.0325256846495 -0.0975770539484 0.925 1.44468714894e-38
0.0342375627889 -0.0975770539484 0.925 1.46312599465e-38
0.0359494409284 -0.0975770539484 0.925 1.47227367102e-38
0.0376613190678 -0.0975770539484 0.925 1.44465127569e-38
0.0393731972073 -0.0975770539484 0.925 1.4816007136e-38
0.0409962427514 -0.0973660765345 0.923 1.40777358427e-38
0.0425656186024 -0.0970496104135 0.92 1.49986019311e-38
0.0442682433465 -0.0970496104135 0.92 1.42621242998e-38
0.0458709314209 -0.0968386329996 0.918 1.4629107552e-38
0.0475698548068 -0.0968386329996 0.918 1.45397831827e-38
0.0491077691137 -0.0965221668787 0.915 1.44461736427e-38
0.0508011404625 -0.0965221668787 0.915 1.43532577454e-38
0.0523797697089 -0.0963111894648 0.913 1.4721660513e-38
0.0540694396995 -0.0963111894648 0.913 1.45376307883e-38
0.0555758924622 -0.0959947233438 0.91 1.39851828817e-38
0.0571341642389 -0.0957837459299 0.908 1.41692168103e-38
0.0586850332993 -0.095572768516 0.906 1.53695396476e-38
0.0601618751969 -0.095256302395 0.903 1.43546772608e-38
0.0613537125177 -0.0945178814462 0.896 1.4353959796e-38
0.0630119209642 -0.0945178814462 0.896 1.45394244503e-38
0.0645257764432 -0.0943069040323 0.894 1.45387504258e-38
0.0661802835314 -0.0943069040323 0.894 1.41699454855e-38
0.0676071570942 -0.0939904379114 0.891 1.20476691522e-38
0.0691006551034 -0.0937794604974 0.889 2.22791700155e-38
0.0707459087963 -0.0937794604974 0.889 2.34953905838e-38
0.0723911624893 -0.0937794604974 0.889 2.35069583027e-38
-0.00501348959974 -0.0935851391951 0.903 1.9694460985e-38
-0.00334232639983 -0.0935851391951 0.903 2.1725605274e-38
-0.00167116319991 -0.0935851391951 0.903 2.02512220883e-38
0.0 -0.0941033293346 0.908 2.01579376495e-38
0.00168041659526 -0.0941033293346 0.908 1.96058344624e-38
0.00337933998122 -0.0946215194741 0.913 1.91459409181e-38
0.00508011404625 -0.0948287955299 0.915 1.70283225009e-38
0.006773485395 -0.0948287955299 0.915 1.86867452204e-38
0.00846685674374 -0.0948287955299 0.915 1.63826055698e-38
0.0101935403157 -0.0951397096136 0.918 1.5736542518e-38
0.0118924637017 -0.0951397096136 0.918 1.64733508557e-38
0.0135913870877 -0.0951397096136 0.918 1.5920911357e-38
0.0153236226969 -0.0953469856695 0.92 1.66570218481e-38
0.017026247441 -0.0953469856695 0.92 1.55514506091e-38
0.0187288721851 -0.0953469856695 0.92 1.64730159454e-38
0.0204981213757 -0.0956578997532 0.923 1.49096362942e-38
0.022206298157 -0.0956578997532 0.923 1.4908560097e-38
0.0239144749383 -0.0956578997532 0.923 1.46309012141e-38
0.0256226517196 -0.0956578997532 0.923 1.40798882371e-38
0.0273308285009 -0.0956578997532 0.923 1.43571883876e-38
0.0291019283706 -0.095865175809 0.925 1.45394244503e-38
0.03081380651 -0.095865175809 0.925 1.41702888037e-38
0.0325256846495 -0.095865175809 0.925 1.4448306419e-38
0.0342375627889 -0.095865175809 0.925 1.41706475361e-38
0.0359494409284 -0.095865175809 0.925 1.44454365597e-38
0.0376613190678 -0.095865175809 0.925 1.44454365597e-38
0.0393731972073 -0.095865175809 0.925 1.3801153157e-38
0.0409962427514 -0.0956578997532 0.923 1.46276726224e-38
0.0425656186024 -0.0953469856695 0.92 1.47187976603e-38
0.0442682433465 -0.0953469856695 0.92 1.41692392311e-38
0.0458709314209 -0.0951397096136 0.918 1.39862590789e-38
0.0475698548068 -0.0951397096136 0.918 1.38947823152e-38
0.0492687781928 -0.0951397096136 0.918 1.40791707723e-38
0.0508011404625 -0.0948287955299 0.915 1.39855416141e-38
0.0524945118112 -0.0948287955299 0.915 1.4261406835e-38
0.0540694396995 -0.0946215194741 0.913 1.44468714894e-38
0.0557591096901 -0.0946215194741 0.913 1.39873352762e-38
0.0572600104156 -0.0943106053904 0.91 1.38940648504e-38
0.0588145808341 -0.0941033293346 0.908 1.35256466685e-38
0.0601618751969 -0.0935851391951 0.903 1.42614096376e-38
0.0613537125177 -0.0928596729998 0.896 1.38007944246e-38
0.0630119209642 -0.0928596729998 0.896 1.40784533075e-38
0.0645257764432 -0.092652396944 0.894 1.38029552268e-38
0.0661802835314 -0.092652396944 0.894 1.37100407308e-38
0.0676071570942 -0.0923414828603 0.891 1.12157687007e-38
0.0691006551034 -0.0921342068045 0.889 2.3478465701e-38
0.0707459087963 -0.0921342068045 0.889 2.34964821953e-38
0.0723911624893 -0.0921342068045 0.889 2.35076967869e-38
-0.00503014571137 -0.0922193380417 0.906 1.87796989527e-38
-0.00335343047424 -0.0922193380417 0.906 2.09876927131e-38
-0.00167671523712 -0.0922193380417 0.906 1.96058779026e-38
0.0 -0.0924229127394 0.908 1.98806389003e-38
0.00168041659526 -0.0924229127394 0.908 1.97891495249e-38
0.00337933998122 -0.0929318494835 0.913 1.83168766946e-38
0.00508011404625 -0.0931354241812 0.915 1.77633623999e-38
0.006773485395 -0.0931354241812 0.915 1.65666212815e-38
0.00849461692979 -0.0934407862277 0.918 1.61021006497e-38
0.0101935403157 -0.0934407862277 0.918 1.6566280766e-38
0.0118924637017 -0.0934407862277 0.918 1.62886190805e-38
0.0136209979528 -0.0936443609254 0.92 1.49064609519e-38
0.0153236226969 -0.0936443609254 0.92 1.56428853338e-38
0.0170817678131 -0.0939497229719 0.923 1.5181914191e-38
0.0187899445944 -0.0939497229719 0.923 1.51822729234e-38
0.0205425376733 -0.0941532976695 0.925 1.48156484036e-38
0.0222544158128 -0.0941532976695 0.925 1.4814213474e-38
0.0239662939522 -0.0941532976695 0.925 1.48152896712e-38
0.0256781720917 -0.0941532976695 0.925 1.41728321604e-38
0.0273900502311 -0.0941532976695 0.925 1.43571883876e-38
0.0291019283706 -0.0941532976695 0.925 1.43553947256e-38
0.03081380651 -0.0941532976695 0.925 1.43546772608e-38
0.0325256846495 -0.0941532976695 0.925 1.38025880866e-38
0.0342375627889 -0.0941532976695 0.925 1.39876940086e-38
0.0359494409284 -0.0941532976695 0.925 1.3986296914e-38
0.0376613190678 -0.0941532976695 0.925 1.42610481026e-38
0.0393731972073 -0.0941532976695 0.925 1.44472302218e-38
0.0409962427514 -0.0939497229719 0.923 1.45369133235e-38
0.0427044195327 -0.0939497229719 0.923 1.39844654169e-38
0.0442682433465 -0.0936443609254 0.92 1.49996781283e-38
0.0459708680906 -0.0936443609254 0.92 1.41702888037e-38
0.0475698548068 -0.0934407862277 0.918 1.30653929905e-38
0.0492687781928 -0.0934407862277 0.918 1.34348873696e-38
0.0508011404625 -0.0931354241812 0.915 1.36178408971e-38
0.0524945118112 -0.0931354241812 0.915 1.38944235828e-38
0.05418788316 -0.0931354241812 0.915 1.38947823152e-38
0.0557591096901 -0.0929318494835 0.913 1.36185583619e-38
0.0572600104156 -0.092626487437 0.91 1.38940648504e-38
0.0588145808341 -0.0924229127394 0.908 1.35256466685e-38
0.0601618751969 -0.0919139759952 0.903 1.38940648504e-38
0.0614906627689 -0.0914050392511 0.898 1.39869765438e-38
0.0630119209642 -0.0912014645534 0.896 1.37114700553e-38
0.0645257764432 -0.0909978898557 0.894 1.40798882371e-38
0.0661802835314 -0.0909978898557 0.894 1.28795696038e-38
0.0676071570942 -0.0906925278092 0.891 1.27834293187e-38
0.0691006551034 -0.0904889531116 0.889 2.29267324566e-38
0.0707459087963 -0.0904889531116 0.889 2.35022499398e-38
-0.00335343047424 -0.0905426228046 0.906 2.10766667578e-38
-0.00167671523712 -0.0905426228046 0.906 1.94218734013e-38
0.0 -0.0907424961441 0.908 1.93278658925e-38
0.0016841179534 -0.0909423694836 0.91 1.91441710781e-38
0.00337933998122 -0.0912421794929 0.913 1.86839033871e-38
0.00508011404625 -0.0914420528324 0.915 1.76697444521e-38
0.00679569354383 -0.0917418628417 0.918 1.64740683206e-38
0.00849461692979 -0.0917418628417 0.918 1.65641199638e-38
0.0101935403157 -0.0917418628417 0.918 1.61034977443e-38
0.0119183732087 -0.0919417361813 0.92 1.58283499882e-38
0.0136654142505 -0.0922415461905 0.923 1.53673788454e-38
0.0153735910318 -0.0922415461905 0.923 1.59209029492e-38
0.0171187813945 -0.0924414195301 0.925 1.50925898217e-38
0.0188306595339 -0.0924414195301 0.925 1.50000368607e-38
0.0205425376733 -0.0924414195301 0.925 1.48156484036e-38
0.0222544158128 -0.0924414195301 0.925 1.41699594985e-38
0.0239662939522 -0.0924414195301 0.925 1.42621242998e-38
0.0256781720917 -0.0924414195301 0.925 1.44472302218e-38
0.0273900502311 -0.0924414195301 0.925 1.41706475361e-38
0.0291963130031 -0.0927412295394 0.928 1.43543185284e-38
0.0309137431798 -0.0927412295394 0.928 1.41706475361e-38
0.0326311733564 -0.0927412295394 0.928 1.39869765438e-38
0.0343486035331 -0.0927412295394 0.928 1.44479476866e-38
0.0360660337097 -0.0927412295394 0.928 1.38015118894e-38
0.0377834638864 -0.0927412295394 0.928 1.39855416141e-38
0.0395008940631 -0.0927412295394 0.928 1.38015118894e-38
0.0410850753467 -0.0924414195301 0.925 1.39862590789e-38
0.0427969534861 -0.0924414195301 0.925 1.36167703051e-38
0.044412596314 -0.0922415461905 0.923 1.37075239988e-38
0.0461207730953 -0.0922415461905 0.923 1.36135361082e-38
0.0478289498766 -0.0922415461905 0.923 1.38022293542e-38
0.0492687781928 -0.0917418628417 0.918 1.38036642838e-38
0.0509677015787 -0.0917418628417 0.918 1.34345286372e-38
0.0524945118112 -0.0914420528324 0.915 1.34345286372e-38
0.05418788316 -0.0914420528324 0.915 1.30664691877e-38
0.0557591096901 -0.0912421794929 0.913 1.31565110219e-38
0.0572600104156 -0.0909423694836 0.91 1.29721225647e-38
0.0588145808341 -0.0907424961441 0.908 1.3248346518e-38
0.0603617485364 -0.0905426228046 0.906 1.36167646999e-38
0.0613537125177 -0.089543256107 0.896 1.41699300713e-38
0.0630119209642 -0.089543256107 0.896 1.33423344086e-38
0.0646701294106 -0.089543256107 0.896 1.41692168103e-38
0.0661802835314 -0.0893433827674 0.894 1.16810446324e-38
0.0676071570942 -0.0890435727582 0.891 1.75703853845e-38
0.0692561121452 -0.0890435727582 0.891 2.34855688829e-38
0.0709050671963 -0.0890435727582 0.891 2.35098351684e-38
-0.00335343047424 -0.0888659075675 0.906 1.97888538509e-38
-0.00167671523712 -0.0888659075675 0.906 2.00661091599e-38
0.0 -0.0890620795488 0.908 1.91448885429e-38
0.0016841179534 -0.0892582515302 0.91 1.81321491233e-38
0.00337933998122 -0.0895525095023 0.913 1.72087803158e-38
0.00508011404625 -0.0897486814837 0.915 1.71165678703e-38
0.00679569354383 -0.0900429394558 0.918 1.73034576452e-38
0.00849461692979 -0.0900429394558 0.918 1.5829067453e-38
0.0102157484646 -0.0902391114372 0.92 1.77637421518e-38
0.0119183732087 -0.0902391114372 0.92 1.52744755598e-38
0.0136654142505 -0.0905333694092 0.923 1.56421860859e-38
0.015406903255 -0.0907295413906 0.925 1.54584968767e-38
0.0171187813945 -0.0907295413906 0.925 1.46312599465e-38
0.0188306595339 -0.0907295413906 0.925 1.49082013646e-38
0.0205425376733 -0.0907295413906 0.925 1.47230954426e-38
0.0222544158128 -0.0907295413906 0.925 1.47227367102e-38
0.0240440224732 -0.0910237993627 0.928 1.44475889542e-38
0.0257614526498 -0.0910237993627 0.928 1.46323361437e-38
0.0274788828265 -0.0910237993627 0.928 1.41702888037e-38
0.0291963130031 -0.0910237993627 0.928 1.40777470531e-38
0.0309803676263 -0.0912199713441 0.93 1.42610481026e-38
0.0326311733564 -0.0910237993627 0.928 1.39862590789e-38
0.0343486035331 -0.0910237993627 0.928 1.42621242998e-38
0.0361437622307 -0.0912199713441 0.93 1.4168853874e-38
0.0378648937655 -0.0912199713441 0.93 1.38947823152e-38
0.0395008940631 -0.0910237993627 0.928 1.35263641333e-38
0.0412183242397 -0.0910237993627 0.928 1.36185583619e-38
0.0427969534861 -0.0907295413906 0.925 1.30654154113e-38
0.0445088316256 -0.0907295413906 0.925 1.39855486206e-38
0.046220709765 -0.0907295413906 0.925 1.38007944246e-38
0.0478289498766 -0.0905333694092 0.923 1.34327349751e-38
0.0492687781928 -0.0900429394558 0.918 1.33405407466e-38
0.0509677015787 -0.0900429394558 0.918 1.35263641333e-38
0.0526666249647 -0.0900429394558 0.918 1.29724812971e-38
0.05418788316 -0.0897486814837 0.915 1.3340899479e-38
0.0558812545087 -0.0897486814837 0.915 1.33419756762e-38
0.0574487796807 -0.0895525095023 0.913 1.33430518734e-38
0.058944128369 -0.0892582515302 0.91 1.33419770775e-38
0.0604949974294 -0.0890620795488 0.908 1.31586634163e-38
0.0613537125177 -0.0878850476605 0.896 1.33430518734e-38
0.0630119209642 -0.0878850476605 0.896 1.36185583619e-38
0.0646701294106 -0.0878850476605 0.896 1.36181996295e-38
0.0661802835314 -0.0876888756792 0.894 9.37403652385e-39
0.0676071570942 -0.0873946177071 0.891 2.34698603271e-38
0.0692561121452 -0.0873946177071 0.891 2.34831698599e-38
0.0709050671963 -0.0873946177071 0.891 2.35097973333e-38
-0.0016841179534 -0.0875741335768 0.91 1.9409937141e-38
0.0 -0.0875741335768 0.91 1.87746500744e-38
0.00168966999061 -0.0878628395117 0.913 1.83176123763e-38
0.0033867426975 -0.0880553101349 0.915 1.7579341083e-38
0.00508011404625 -0.0880553101349 0.915 1.78548363611e-38
0.00679569354383 -0.0883440160698 0.918 1.6749574809e-38
0.00851312372049 -0.0885364866931 0.92 1.57357970272e-38
0.0102157484646 -0.0885364866931 0.92 1.62875330742e-38
0.0119572374691 -0.0888251926279 0.923 1.55510848702e-38
0.0136950251156 -0.0890176632512 0.925 1.57354481039e-38
0.015406903255 -0.0890176632512 0.925 1.5274467152e-38
0.0171187813945 -0.0890176632512 0.925 1.49096362942e-38
0.0188306595339 -0.0890176632512 0.925 1.50936660189e-38
0.0206091621199 -0.089306369186 0.928 1.49085993333e-38
0.0223265922965 -0.089306369186 0.928 1.44475889542e-38
0.0240440224732 -0.089306369186 0.928 1.40777358427e-38
0.0257614526498 -0.089306369186 0.928 1.4353959796e-38
0.0275381045567 -0.0894988398093 0.93 1.43550359932e-38
0.0293536207241 -0.0897875457442 0.933 1.38940648504e-38
0.0310803042961 -0.0897875457442 0.933 1.43532423312e-38
0.0328069878681 -0.0897875457442 0.933 1.38940648504e-38
0.0346076986028 -0.0899800163674 0.935 1.3709337279e-38
0.0362603550121 -0.0897875457442 0.933 1.37093176608e-38
0.0379870385841 -0.0897875457442 0.933 1.38025880866e-38
0.0395860253003 -0.0894988398093 0.93 1.36192758267e-38
0.0412183242397 -0.089306369186 0.928 1.35270815981e-38
0.0429357544164 -0.089306369186 0.928 1.29739162268e-38
0.0445088316256 -0.0890176632512 0.925 1.34338111724e-38
0.046220709765 -0.0890176632512 0.925 1.32479877856e-38
0.0478289498766 -0.0888251926279 0.923 1.3708600196e-38
0.0492687781928 -0.0883440160698 0.918 1.34341699048e-38
0.0509677015787 -0.0883440160698 0.918 1.29742749592e-38
0.0526666249647 -0.0883440160698 0.918 1.30657517229e-38
0.05418788316 -0.0880553101349 0.915 1.29731987619e-38
0.0558812545087 -0.0880553101349 0.915 1.30650342581e-38
0.0574487796807 -0.0878628395117 0.913 1.343345244e-38
0.058944128369 -0.0875741335768 0.91 1.29735855203e-38
0.0604949974294 -0.0873816629536 0.908 1.30657517229e-38
0.0613537125177 -0.0862268392141 0.896 1.36185583619e-38
0.0628712693549 -0.0860343685909 0.894 1.33419756762e-38
0.0645257764432 -0.0860343685909 0.894 1.26051393125e-38
0.0661802835314 -0.0860343685909 0.894 1.28716774908e-38
0.0678347906197 -0.0860343685909 0.894 2.34875068787e-38
0.0 -0.0863619387862 0.915 1.93249483891e-38
0.00169337134875 -0.0863619387862 0.915 1.78559349791e-38
0.0033867426975 -0.0863619387862 0.915 1.6749574809e-38
0.00509677015787 -0.0866450926839 0.918 1.70236463679e-38
0.00681049897639 -0.086833861949 0.92 1.69321794132e-38
0.00851312372049 -0.086833861949 0.92 1.59194680195e-38
0.0102490606878 -0.0871170158466 0.923 1.65619577602e-38
0.0119831469761 -0.0873057851117 0.925 1.50893612301e-38
0.0136950251156 -0.0873057851117 0.925 1.5830861115e-38
0.015406903255 -0.0873057851117 0.925 1.49082013646e-38
0.0171743017665 -0.0875889390094 0.928 1.45401419151e-38
0.0188917319432 -0.0875889390094 0.928 1.45405006475e-38
0.0206091621199 -0.0875889390094 0.928 1.40766596455e-38
0.0223265922965 -0.0875889390094 0.928 1.42621242998e-38
0.0240958414871 -0.0877777082745 0.93 1.41695713388e-38
0.0258169730219 -0.0877777082745 0.93 1.46298250169e-38
0.027626937152 -0.0880608621722 0.933 1.38926369272e-38
0.0293536207241 -0.0880608621722 0.933 1.42621242998e-38
0.0311469287426 -0.0882496314373 0.935 1.36156955091e-38
0.0328773136727 -0.0882496314373 0.935 1.40770183779e-38
0.0346076986028 -0.0882496314373 0.935 1.36178408971e-38
0.036338083533 -0.0882496314373 0.935 1.34338111724e-38
0.0379870385841 -0.0880608621722 0.933 1.27895291709e-38
0.0397137221561 -0.0880608621722 0.933 1.38965759772e-38
0.0413071568351 -0.0877777082745 0.93 1.30661104553e-38
0.0429357544164 -0.0875889390094 0.928 1.28810045334e-38
0.044653184593 -0.0875889390094 0.928 1.27891690372e-38
0.0463706147697 -0.0875889390094 0.928 1.3893706118e-38
0.0479325879045 -0.0873057851117 0.925 1.26976922735e-38
0.0493761175788 -0.086833861949 0.92 1.28810241516e-38
0.0509677015787 -0.0866450926839 0.918 1.30650342581e-38
0.0526666249647 -0.0866450926839 0.918 1.33430518734e-38
0.0543655483507 -0.0866450926839 0.918 1.38036642838e-38
0.0558812545087 -0.0863619387862 0.915 1.33430518734e-38
0.0574487796807 -0.0861731695211 0.913 1.3155793557e-38
0.0591384496713 -0.0861731695211 0.913 1.29717638323e-38
0.0606282463224 -0.0858900156234 0.91 1.33380296197e-38
0.0618330383968 -0.0852293231956 0.903 1.35231355417e-38
0.0628712693549 -0.0843798615026 0.894 1.27859404456e-38
0.0645257764432 -0.0843798615026 0.894 8.54464719917e-39
0.0661802835314 -0.0843798615026 0.894 2.34809670187e-38
0.068745324722 -0.0855124770932 0.906 2.09055766231e-38
0.0 -0.0849461692979 0.918 1.67492160766e-38
0.00169892338596 -0.0849461692979 0.918 1.85002253883e-38
0.00339784677192 -0.0849461692979 0.918 1.71162147431e-38
0.00509677015787 -0.0849461692979 0.918 1.72084131756e-38
0.00681049897639 -0.0851312372049 0.92 1.6563764034e-38
0.00854088390653 -0.0854088390653 0.923 1.58283499882e-38
0.0102712688367 -0.0855939069723 0.925 1.638008043e-38
0.0119831469761 -0.0855939069723 0.925 1.5827273791e-38
0.0137394414132 -0.0858715088327 0.928 1.49078426322e-38
0.0154568715899 -0.0858715088327 0.928 1.50918723569e-38
0.0171743017665 -0.0858715088327 0.928 1.41703154283e-38
0.0188917319432 -0.0858715088327 0.928 1.43532549428e-38
0.0206535784175 -0.0860565767397 0.93 1.50907961597e-38
0.0223747099523 -0.0860565767397 0.93 1.41702888037e-38
0.024173570008 -0.0863341786002 0.933 1.33409303075e-38
0.0259557739521 -0.0865192465071 0.935 1.43525248663e-38
0.0276861588823 -0.0865192465071 0.935 1.44443603625e-38
0.0294165438124 -0.0865192465071 0.935 1.36164059675e-38
0.0311469287426 -0.0865192465071 0.935 1.36167646999e-38
0.0328773136727 -0.0865192465071 0.935 1.3616047235e-38
0.0346076986028 -0.0865192465071 0.935 1.37089589284e-38
0.036338083533 -0.0865192465071 0.935 1.31568697543e-38
0.0380684684631 -0.0865192465071 0.935 1.26047805801e-38
0.0397137221561 -0.0863341786002 0.933 1.34338111724e-38
0.0414404057281 -0.0863341786002 0.933 1.26051393125e-38
0.0430282883699 -0.0860565767397 0.93 1.27902452344e-38
0.0447494199046 -0.0860565767397 0.93 1.34338111724e-38
0.0463706147697 -0.0858715088327 0.928 1.31568851685e-38
0.0479325879045 -0.0855939069723 0.925 1.28810045334e-38
0.0493761175788 -0.0851312372049 0.92 1.32487052504e-38
0.0510787423229 -0.0851312372049 0.92 1.29739162268e-38
0.0526666249647 -0.0849461692979 0.918 1.32487052504e-38
0.0543655483507 -0.0849461692979 0.918 1.30632405961e-38
0.0558812545087 -0.0846685674374 0.915 1.28810045334e-38
0.0575746258575 -0.0846685674374 0.915 1.30653929905e-38
0.0591384496713 -0.0844834995305 0.913 1.27866705221e-38
0.0606282463224 -0.08420589767 0.91 1.33380296197e-38
0.0621754140247 -0.0840208297631 0.908 1.35227768093e-38
0.0637151790106 -0.0838357618561 0.906 9.92899555727e-39
0.0653918942478 -0.0838357618561 0.906 2.0796149226e-38
0.0670686094849 -0.0838357618561 0.906 2.34928696479e-38
0.068745324722 -0.0838357618561 0.906 7.81032196231e-39
0.0 -0.083700662284 0.923 2.21059569136e-38
0.00170817678131 -0.083700662284 0.923 1.61877998599e-38
0.00341635356261 -0.083700662284 0.923 1.7944886603e-38
0.00513563441834 -0.0838820288328 0.925 1.7209828487e-38
0.00684751255778 -0.0838820288328 0.925 1.61964094376e-38
0.00855939069723 -0.0838820288328 0.925 1.58283499882e-38
0.0103045810599 -0.0841540786561 0.928 1.4814213474e-38
0.0120220112366 -0.0841540786561 0.928 1.49078608491e-38
0.0137394414132 -0.0841540786561 0.928 1.47230954426e-38
0.0154901838131 -0.0843354452049 0.93 1.46301837493e-38
0.0172113153479 -0.0843354452049 0.93 1.49074853011e-38
0.0189324468827 -0.0843354452049 0.93 1.43532451338e-38
0.020720202864 -0.0846074950282 0.933 1.41681364092e-38
0.0224950040919 -0.084788861577 0.935 1.41702888037e-38
0.024225389022 -0.084788861577 0.935 1.35260054009e-38
0.0260390545103 -0.0850609114002 0.938 1.35234942741e-38
0.0277749914776 -0.0850609114002 0.938 1.3708600196e-38
0.029510928445 -0.0850609114002 0.938 1.33416169438e-38
0.0312468654123 -0.0850609114002 0.938 1.31579459515e-38
0.0329828023797 -0.0850609114002 0.938 1.35267228657e-38
0.0346076986028 -0.084788861577 0.935 1.28792108713e-38
0.036338083533 -0.084788861577 0.935 1.3155793557e-38
0.0380684684631 -0.084788861577 0.935 1.28810045334e-38
0.0397988533933 -0.084788861577 0.935 1.31572284867e-38
0.0415292383234 -0.084788861577 0.935 1.26044218477e-38
0.0431670893001 -0.0846074950282 0.933 1.25125863515e-38
0.0448937728721 -0.0846074950282 0.933 1.28792108713e-38
0.0464705514394 -0.0843354452049 0.93 1.40763009131e-38
0.0480880449463 -0.0841540786561 0.928 1.3155793557e-38
0.0495371266579 -0.083700662284 0.923 1.34313000455e-38
0.0510787423229 -0.0834286124608 0.92 1.31572284867e-38
0.052781367067 -0.0834286124608 0.92 1.32472703208e-38
0.0543655483507 -0.0832472459119 0.918 1.28799283362e-38
0.0558812545087 -0.0829751960887 0.915 1.2880645801e-38
0.0575746258575 -0.0829751960887 0.915 1.29731987619e-38
0.0591384496713 -0.0827938295399 0.913 1.30650342581e-38
0.0606282463224 -0.0825217797166 0.91 1.30653929905e-38
0.0621754140247 -0.0823404131678 0.908 1.18650743571e-38
0.0637151790106 -0.082159046619 0.906 1.6550500744e-38
0.0653918942478 -0.082159046619 0.906 2.34957381059e-38
0.0670686094849 -0.082159046619 0.906 1.43540186505e-38
0.068745324722 -0.082159046619 0.906 2.15319584379e-38
0.0 -0.0821701506934 0.925 2.34985911495e-38
0.00171187813945 -0.0821701506934 0.925 2.26538001534e-38
0.00342375627889 -0.0821701506934 0.925 1.59165981603e-38
0.00513563441834 -0.0821701506934 0.925 1.55510498377e-38
0.00684751255778 -0.0821701506934 0.925 1.55510498377e-38
0.00858715088327 -0.0824366484794 0.928 1.61967681701e-38
0.0103045810599 -0.0824366484794 0.928 1.53680963102e-38
0.0120479207436 -0.0826143136701 0.93 1.46316186789e-38
0.0137690522784 -0.0826143136701 0.93 1.51847840503e-38
0.0154901838131 -0.0826143136701 0.93 1.41713650009e-38
0.0172113153479 -0.0826143136701 0.93 1.39862590789e-38
0.018993519292 -0.0828808114561 0.933 1.38933473856e-38
0.0207646191617 -0.0830584766468 0.935 1.38940648504e-38
0.0224950040919 -0.0830584766468 0.935 1.33419756762e-38
0.0243031175429 -0.0833249744329 0.938 1.35256466685e-38
0.0260390545103 -0.0833249744329 0.938 1.29721253673e-38
0.0277749914776 -0.0833249744329 0.938 1.39873352762e-38
0.029510928445 -0.0833249744329 0.938 1.23285566268e-38
0.0312468654123 -0.0833249744329 0.938 1.29721225647e-38
0.0329828023797 -0.0833249744329 0.938 1.29728400295e-38
0.034718739347 -0.0833249744329 0.938 1.23292740916e-38
0.0364546763144 -0.0833249744329 0.938 1.29728400295e-38
0.0381906132817 -0.0833249744329 0.938 1.29703289027e-38
0.0399265502491 -0.0833249744329 0.938 1.29731987619e-38
0.0415292383234 -0.0830584766468 0.935 1.24200333906e-38
0.0432596232536 -0.0830584766468 0.935 1.26969748087e-38
0.0449900081837 -0.0830584766468 0.935 1.30632405961e-38
0.0466204564441 -0.0828808114561 0.933 1.29703289027e-38
0.0481916829742 -0.0826143136701 0.93 1.35224180769e-38
0.049805475123 -0.0824366484794 0.928 1.31550760922e-38
0.0512453034392 -0.0819924855027 0.923 1.29721225647e-38
0.0529534802205 -0.0819924855027 0.923 1.27884515724e-38
0.0544839918111 -0.0817259877167 0.92 1.29731987619e-38
0.0560644717366 -0.081548322526 0.918 1.29721225647e-38
0.0575746258575 -0.08128182474 0.915 1.26951811466e-38
0.0592679972062 -0.08128182474 0.915 1.4353260548e-38
0.0608281196619 -0.0811041595493 0.913 1.06690605126e-38
0.0621754140247 -0.0806599965725 0.908 1.60898813271e-38
0.0638558306199 -0.0806599965725 0.908 2.34918354896e-38
0.0655362472152 -0.0806599965725 0.908 1.79506697618e-38
0.0672166638105 -0.0806599965725 0.908 7.43939265361e-39
0.00171743017665 -0.0807192183028 0.928 2.3487841789e-38
0.00343486035331 -0.0807192183028 0.928 2.34903753366e-38
0.00513563441834 -0.0804582725539 0.925 1.57372319569e-38
0.00684751255778 -0.0804582725539 0.925 1.60977580258e-38
0.00858715088327 -0.0807192183028 0.928 1.55503337742e-38
0.0103045810599 -0.0807192183028 0.928 1.51822729234e-38
0.0120479207436 -0.0808931821353 0.93 1.50007543256e-38
0.0137690522784 -0.0808931821353 0.93 1.45405006475e-38
0.015540152148 -0.0811541278841 0.933 1.3893706118e-38
0.01726683572 -0.0811541278841 0.933 1.33405407466e-38
0.0190342342316 -0.0813280917167 0.935 1.38947823152e-38
0.0207646191617 -0.0813280917167 0.935 1.32494227152e-38
0.0225671805756 -0.0815890374655 0.938 1.3155793557e-38
0.0243031175429 -0.0815890374655 0.938 1.33416169438e-38
0.0260390545103 -0.0815890374655 0.938 1.29735574944e-38
0.0277749914776 -0.0815890374655 0.938 1.22331338066e-38
0.029510928445 -0.0815890374655 0.938 1.33398232818e-38
0.0312468654123 -0.0815890374655 0.938 1.24207508554e-38
0.0329828023797 -0.0815890374655 0.938 1.2789886502e-38
0.034718739347 -0.0815890374655 0.938 1.21452443669e-38
0.0364546763144 -0.0815890374655 0.938 1.29728400295e-38
0.0381906132817 -0.0815890374655 0.938 1.3155793557e-38
0.0399265502491 -0.0815890374655 0.938 1.26033456505e-38
0.0416624872164 -0.0815890374655 0.938 1.28799283362e-38
0.0432596232536 -0.0813280917167 0.935 1.30657517229e-38
0.0449900081837 -0.0813280917167 0.935 1.31565110219e-38
0.0466204564441 -0.0811541278841 0.933 1.26962573438e-38
0.0481916829742 -0.0808931821353 0.93 1.2880645801e-38
0.049805475123 -0.0807192183028 0.928 1.278809284e-38
0.0513563441834 -0.0804582725539 0.925 1.33401820142e-38
0.0529534802205 -0.0802843087214 0.923 1.28788521389e-38
0.0544839918111 -0.0800233629726 0.92 1.29731987619e-38
0.0560644717366 -0.07984939914 0.918 1.3155793557e-38
0.0577633951226 -0.07984939914 0.918 1.26926700198e-38
0.0592679972062 -0.0795884533912 0.915 9.73779118441e-39
0.060961368555 -0.0795884533912 0.915 1.92209398132e-38
0.0625177896526 -0.0794144895587 0.913 2.34950136345e-38
0.0642074596432 -0.0794144895587 0.913 1.87772648973e-38
0.0658971296338 -0.0794144895587 0.913 6.52032022722e-39
0.0675867996244 -0.0794144895587 0.913 2.04310465163e-38
0.069276469615 -0.0794144895587 0.913 2.3504480807e-38
0.00343486035331 -0.0790017881261 0.928 2.31996815754e-38
0.00513563441834 -0.0787463944145 0.925 2.34939626607e-38
0.00684751255778 -0.0787463944145 0.925 1.73932220223e-38
0.00858715088327 -0.0790017881261 0.928 1.42452638767e-38
0.0103267892088 -0.0791720506005 0.93 1.45340434642e-38
0.012086785004 -0.0794274443121 0.933 1.45387223998e-38
0.013813468576 -0.0794274443121 0.933 1.35238530065e-38
0.015540152148 -0.0794274443121 0.933 1.32490639828e-38
0.0173038493014 -0.0795977067866 0.935 1.38926341246e-38
0.0190953066409 -0.0798531004982 0.938 1.278809284e-38
0.0208312436082 -0.0798531004982 0.938 1.30632405961e-38
0.0226152982314 -0.0800233629726 0.94 1.32479877856e-38
0.0243549365569 -0.0800233629726 0.94 1.31565110219e-38
0.0260945748824 -0.0800233629726 0.94 1.28799283362e-38
0.0278342132079 -0.0800233629726 0.94 1.2695539879e-38
0.0295738515333 -0.0800233629726 0.94 1.31583046839e-38
0.0313134898588 -0.0800233629726 0.94 1.27884515724e-38
0.0330531281843 -0.0800233629726 0.94 1.2694830822e-38
0.0347927665098 -0.0800233629726 0.94 1.28795696038e-38
0.0364546763144 -0.0798531004982 0.938 1.26948224142e-38
0.0381906132817 -0.0798531004982 0.938 1.28777759417e-38
0.0399265502491 -0.0798531004982 0.938 1.27877341076e-38
0.0416624872164 -0.0798531004982 0.938 1.27877341076e-38
0.0433984241838 -0.0798531004982 0.938 1.25111598297e-38
0.0449900081837 -0.0795977067866 0.935 1.28799283362e-38
0.0467203931138 -0.0795977067866 0.935 1.27884515724e-38
0.0483471400161 -0.0794274443121 0.933 1.26980510059e-38
0.049912814509 -0.0791720506005 0.93 1.29731987619e-38
0.0515229052996 -0.0790017881261 0.928 1.29728400295e-38
0.0530682223228 -0.0787463944145 0.925 1.28802870686e-38
0.0546616570018 -0.0785761319401 0.923 1.2695539879e-38
0.0561866165552 -0.0783207382285 0.92 1.11271617962e-38
0.0577633951226 -0.0781504757541 0.918 1.3235073419e-38
0.0592679972062 -0.0778950820425 0.915 2.17299114642e-38
0.060961368555 -0.0778950820425 0.915 2.34971786407e-38
0.0625177896526 -0.077724819568 0.913 1.42632271217e-38
0.0642074596432 -0.077724819568 0.913 7.53051068496e-39
0.0658971296338 -0.077724819568 0.913 1.94147435947e-38
0.0675867996244 -0.077724819568 0.913 2.3369020087e-38
0.00343486035331 -0.0772843579495 0.928 1.01937400735e-38
0.00513563441834 -0.0770345162751 0.925 1.43342561383e-38
0.00684751255778 -0.0770345162751 0.925 2.34925263298e-38
0.00858715088327 -0.0772843579495 0.928 2.34895878069e-38
0.0103267892088 -0.0774509190657 0.93 1.51786898033e-38
0.012086785004 -0.0777007607401 0.933 1.30427928489e-38
0.013813468576 -0.0777007607401 0.933 1.38883251319e-38
0.0155734643713 -0.0778673218564 0.935 1.32476290532e-38
0.0173038493014 -0.0778673218564 0.935 1.4263200497e-38
0.0190953066409 -0.0781171635308 0.938 1.25125863515e-38
0.0208756599059 -0.0782837246471 0.94 1.3155793557e-38
0.0226874747151 -0.0785335663215 0.943 1.26047805801e-38
0.0244326650778 -0.0785335663215 0.943 1.28799283362e-38
0.0261778554405 -0.0785335663215 0.943 1.30632405961e-38
0.0279230458032 -0.0785335663215 0.943 1.26962573438e-38
0.0295738515333 -0.0782837246471 0.94 1.31586634163e-38
0.0313134898588 -0.0782837246471 0.94 1.25118688867e-38
0.0330531281843 -0.0782837246471 0.94 1.28802870686e-38
0.0347927665098 -0.0782837246471 0.94 1.26951811466e-38
0.0365324048353 -0.0782837246471 0.94 1.2695539879e-38
0.0382720431608 -0.0782837246471 0.94 1.28799283362e-38
0.0399265502491 -0.0781171635308 0.938 1.21441681697e-38
0.0416624872164 -0.0781171635308 0.938 1.34338111724e-38
0.0433984241838 -0.0781171635308 0.938 1.17771849174e-38
0.0449900081837 -0.0778673218564 0.935 1.30650342581e-38
0.0467203931138 -0.0778673218564 0.935 1.26054980449e-38
0.0483471400161 -0.0777007607401 0.933 1.26054980449e-38
0.049912814509 -0.0774509190657 0.93 1.26948224142e-38
0.0515229052996 -0.0772843579495 0.928 1.20491040819e-38
0.0532403354763 -0.0772843579495 0.928 1.07540800931e-38
0.054957765653 -0.0772843579495 0.928 1.2495367196e-38
0.0594623185085 -0.0764515523681 0.918 2.21070737485e-38
0.060961368555 -0.0762017106937 0.915 8.46178001318e-39
0.0626547399037 -0.0762017106937 0.915 9.18679222045e-39
0.00513563441834 -0.0753226381356 0.925 1.31446728524e-38
0.00684751255778 -0.0753226381356 0.925 8.44886564654e-39
0.00858715088327 -0.0755669277728 0.928 1.88569609449e-38
0.010360101432 -0.0759740771681 0.933 2.34943522217e-38
0.012112694511 -0.0761369369263 0.935 2.29321652908e-38
0.0138430794411 -0.0761369369263 0.935 1.53634327889e-38
0.0156234327062 -0.0763812265635 0.938 1.43292072599e-38
0.0173593696735 -0.0763812265635 0.938 1.20358309828e-38
0.0191970939897 -0.0767883759588 0.943 1.33333660984e-38
0.0209422843524 -0.0767883759588 0.943 1.26933902872e-38
0.0226874747151 -0.0767883759588 0.943 1.22316988769e-38
0.0244326650778 -0.0767883759588 0.943 1.28774172093e-38
0.0261778554405 -0.0767883759588 0.943 1.28777759417e-38
0.0279230458032 -0.0767883759588 0.943 1.26033456505e-38
0.0296682361659 -0.0767883759588 0.943 1.26022694532e-38
0.0314134265286 -0.0767883759588 0.943 1.26022694532e-38
0.0331586168913 -0.0767883759588 0.943 1.26944636818e-38
0.034903807254 -0.0767883759588 0.943 1.25097164923e-38
0.0365324048353 -0.0765440863216 0.94 1.25118688867e-38
0.0382720431608 -0.0765440863216 0.94 1.26022694532e-38
0.0399265502491 -0.0763812265635 0.938 1.25115101543e-38
0.0416624872164 -0.0763812265635 0.938 1.29731987619e-38
0.0433984241838 -0.0763812265635 0.938 1.22377973279e-38
0.0449900081837 -0.0761369369263 0.935 1.25118688867e-38
0.0467203931138 -0.0761369369263 0.935 1.18665092868e-38
0.0483471400161 -0.0759740771681 0.933 1.14015920875e-38
0.049912814509 -0.0757297875309 0.93 1.05661043119e-38
0.0516339460438 -0.0757297875309 0.93 1.60837996918e-38
0.0533550775786 -0.0757297875309 0.93 1.98820668235e-38
0.00865192465071 -0.0744065519961 0.935 7.71418167727e-39
0.0103823095809 -0.0744065519961 0.935 5.96930725027e-39
0.0121515587715 -0.0746452895961 0.938 1.82165913687e-38
0.0138874957388 -0.0746452895961 0.938 2.34903332977e-38
0.0156567449294 -0.0748044479961 0.94 2.34964681824e-38
0.0173963832549 -0.0748044479961 0.94 2.0537166849e-38
0.0191970939897 -0.0750431855961 0.943 1.60973992933e-38
0.0210089087989 -0.0752819231961 0.946 1.39697573882e-38
0.0227596511988 -0.0752819231961 0.946 1.09287827752e-38
0.0245103935987 -0.0752819231961 0.946 1.23088263444e-38
0.0262611359986 -0.0752819231961 0.946 1.22263178908e-38
0.0280118783985 -0.0752819231961 0.946 1.17667816776e-38
0.0297626207984 -0.0752819231961 0.946 1.21362760567e-38
0.0315133631984 -0.0752819231961 0.946 1.20469516874e-38
0.0331586168913 -0.0750431855961 0.943 1.18625632303e-38
0.034903807254 -0.0750431855961 0.943 1.19543987264e-38
0.0366489976167 -0.0750431855961 0.943 1.17721626638e-38
0.0382720431608 -0.0748044479961 0.94 1.17700102693e-38
0.0399265502491 -0.0746452895961 0.938 1.05682567063e-38
0.0416624872164 -0.0746452895961 0.938 1.02877279641e-38
0.0433984241838 -0.0746452895961 0.938 1.05610820582e-38
0.0449900081837 -0.0744065519961 0.935 1.32282631084e-38
0.0467203931138 -0.0744065519961 0.935 1.44325221931e-38
0.048450778044 -0.0744065519961 0.935 1.99603349479e-38
0.0500738235881 -0.0742473935961 0.933 2.34863409983e-38
0.0518005071601 -0.0742473935961 0.933 2.34943101827e-38
0.0104378299529 -0.0730648096706 0.94 1.31464665145e-38
0.0121774682784 -0.0730648096706 0.94 8.81620763117e-39
0.0139171066039 -0.0730648096706 0.94 4.68361030406e-39
0.0156567449294 -0.0730648096706 0.94 9.37189954369e-39
0.017451903627 -0.0732979952334 0.943 1.86847343571e-38
0.019258166399 -0.0735311807962 0.946 2.34910171313e-38
0.0210089087989 -0.0735311807962 0.946 2.34964695836e-38
0.0227596511988 -0.0735311807962 0.946 2.34939234243e-38
0.0245103935987 -0.0735311807962 0.946 2.22871181804e-38
0.0262611359986 -0.0735311807962 0.946 2.08068383307e-38
0.0280118783985 -0.0735311807962 0.946 1.82133095277e-38
0.0297626207984 -0.0735311807962 0.946 1.65530497059e-38
0.0315133631984 -0.0735311807962 0.946 1.65505035466e-38
0.0331586168913 -0.0732979952334 0.943 1.54448650453e-38
0.034903807254 -0.0732979952334 0.943 1.6457586248e-38
0.0366489976167 -0.0732979952334 0.943 1.53505352378e-38
0.0382720431608 -0.0730648096706 0.94 1.77476244169e-38
0.0399265502491 -0.0729093526288 0.938 1.99649087861e-38
0.0416624872164 -0.0729093526288 0.938 2.17238732691e-38
0.0433984241838 -0.0729093526288 0.938 2.34930742375e-38
0.0449900081837 -0.072676167066 0.935 2.34928724505e-38
0.0467203931138 -0.072676167066 0.935 2.3496067411e-38
0.048450778044 -0.072676167066 0.935 2.27477291895e-38
0.0501811629741 -0.072676167066 0.935 1.61996702592e-38
0.0122551967994 -0.0717804383963 0.946 1.81203053487e-38
0.0139615229016 -0.0715528048707 0.943 1.44396968412e-38
0.0157067132643 -0.0715528048707 0.943 9.0005960883e-39
0.0175074239991 -0.0717804383963 0.946 5.23462328101e-39
0.019258166399 -0.0717804383963 0.946 2.8469003809e-39
0.0210089087989 -0.0717804383963 0.946 6.97949770801e-39
0.0227596511988 -0.0717804383963 0.946 1.47084476698e-38
0.0245103935987 -0.0717804383963 0.946 1.84971215122e-38
0.0262611359986 -0.0717804383963 0.946 2.22777084612e-38
0.0280118783985 -0.0717804383963 0.946 2.34794648268e-38
0.0297626207984 -0.0717804383963 0.946 2.34820306043e-38
0.0315133631984 -0.0717804383963 0.946 2.348707668e-38
0.0332641055983 -0.0717804383963 0.946 2.34895962147e-38
0.034903807254 -0.0715528048707 0.943 2.34914094949e-38
0.0366489976167 -0.0715528048707 0.943 2.34863858399e-38
0.0382720431608 -0.0713251713451 0.94 2.34842250377e-38
0.0399265502491 -0.0711734156614 0.938 2.34813173434e-38
0.0416624872164 -0.0711734156614 0.938 2.17270149803e-38
0.0398821339514 -0.0654066996803 0.862 1.80410619205e-38
0.0413811839978 -0.0652549439966 0.86 1.19559009184e-38
0.042872831328 -0.0651031883129 0.858 8.99987862348e-39
0.0444607139698 -0.0651031883129 0.858 6.70399121953e-39
0.0501811629741 -0.0709457821358 0.935 7.72064166319e-39
0.0122551967994 -0.0700296959964 0.946 1.57282636467e-38
0.0140059391993 -0.0700296959964 0.946 1.80284558395e-38
0.0157566815992 -0.0700296959964 0.946 1.80270251138e-38
0.0175444375805 -0.0701777503219 0.948 1.5083980244e-38
0.0192988813385 -0.0701777503219 0.948 1.29681765082e-38
0.0210533250966 -0.0701777503219 0.948 1.11203458805e-38
0.0228077688546 -0.0701777503219 0.948 7.4386751888e-39
0.0245622126127 -0.0701777503219 0.948 1.13062099049e-38
0.0263166563707 -0.0701777503219 0.948 7.71418167727e-39
0.0280711001288 -0.0701777503219 0.948 1.01937400735e-38
0.0297626207984 -0.0700296959964 0.946 1.13876015236e-38
0.0315133631984 -0.0700296959964 0.946 1.13876015236e-38
0.0332641055983 -0.0700296959964 0.946 1.1020259539e-38
0.034903807254 -0.069807614508 0.943 1.11120950351e-38
0.0366489976167 -0.069807614508 0.943 1.05610820582e-38
0.0382720431608 -0.0695855330196 0.94 1.09284240428e-38
0.0399265502491 -0.0694374786941 0.938 9.55089160043e-39
0.0382868485934 -0.0638114143223 0.862 7.80601717343e-39
0.0398821339514 -0.0638114143223 0.862 6.42848473106e-39
0.0413811839978 -0.0636633599967 0.86 7.35404516934e-39
0.042872831328 -0.0635153056711 0.858 7.54055519235e-39
0.0444607139698 -0.0635153056711 0.858 6.80373284163e-39
0.0122811063063 -0.0684233065639 0.948 7.08070789089e-39
0.0140059391993 -0.0682789535964 0.946 1.16782196147e-38
0.0157566815992 -0.0682789535964 0.946 1.54523984258e-38
0.0175444375805 -0.0684233065639 0.948 1.72952067999e-38
0.0192988813385 -0.0684233065639 0.948 1.77511795111e-38
0.0210533250966 -0.0684233065639 0.948 1.90397224945e-38
0.0228077688546 -0.0684233065639 0.948 1.60009002759e-38
0.0245622126127 -0.0684233065639 0.948 1.90476412321e-38
0.0263166563707 -0.0684233065639 0.948 9.82998541297e-39
0.0280711001288 -0.0684233065639 0.948 1.08365885466e-38
0.0298255438868 -0.0684233065639 0.948 9.45907712375e-39
0.0315799876449 -0.0684233065639 0.948 7.89785266959e-39
0.0332641055983 -0.0682789535964 0.946 7.25827903099e-39
0.0321648022309 -0.0627213643502 0.869 7.99363422222e-39
0.0337730423424 -0.0627213643502 0.869 7.53841400829e-39
0.0380684684631 -0.0674850122756 0.935 7.63346828702e-39
0.0367766944725 -0.0623604819316 0.864 7.90430985291e-39
0.0382868485934 -0.0622161289642 0.862 9.19255716233e-39
0.0398821339514 -0.0622161289642 0.862 1.12100738237e-38
0.0414774193095 -0.0622161289642 0.862 1.50751002156e-38
0.042872831328 -0.0619274230293 0.858 1.62807115533e-38
0.0444607139698 -0.0619274230293 0.858 1.72952067999e-38
0.0462632753836 -0.0622161289642 0.862 1.91355180601e-38
0.0127918937296 -0.0607614952154 0.864 5.78563625795e-39
0.0143908804458 -0.0607614952154 0.864 6.89304319795e-39
0.015989867162 -0.0607614952154 0.864 9.18678941785e-39
0.0175888538782 -0.0607614952154 0.864 1.42510652523e-38
0.0192544650409 -0.0609724726294 0.867 1.42574607785e-38
0.0208590037943 -0.0609724726294 0.867 1.59133695686e-38
0.0224635425477 -0.0609724726294 0.867 2.09729650662e-38
0.0240680813011 -0.0609724726294 0.867 1.92230347544e-38
0.0256726200545 -0.0609724726294 0.867 1.88539495545e-38
0.0272771588079 -0.0609724726294 0.867 1.95932465983e-38
0.0288816975613 -0.0609724726294 0.867 1.7108331038e-38
0.0332641055983 -0.0665282111965 0.946 1.74781603274e-38
0.0321648022309 -0.0611131242387 0.869 1.62814290181e-38
0.0336953138215 -0.0609724726294 0.867 1.70204486048e-38
0.0351777077563 -0.0607614952154 0.864 1.67424001609e-38
0.0367766944725 -0.0607614952154 0.864 1.72041139919e-38
0.0383756811887 -0.0607614952154 0.864 1.86777614959e-38
0.0398821339514 -0.0606208436061 0.862 1.95946815279e-38
0.0414774193095 -0.0606208436061 0.862 2.02346601417e-38
0.0429727679978 -0.0604801919968 0.86 2.07885780104e-38
0.0445643519977 -0.0604801919968 0.86 2.19856330197e-38
0.0462632753836 -0.0606208436061 0.862 1.89500393928e-38
0.0479696014859 -0.0607614952154 0.864 1.74774428626e-38
0.0495685882021 -0.0607614952154 0.864 1.51726277861e-38
0.0127918937296 -0.0591625084992 0.864 1.70150367901e-38
0.0143908804458 -0.0591625084992 0.864 1.18614870331e-38
0.015989867162 -0.0591625084992 0.864 1.24996831953e-38
0.0175888538782 -0.0591625084992 0.864 7.25502661726e-39
0.0192544650409 -0.059367933876 0.867 6.52032022722e-39
0.0208590037943 -0.059367933876 0.867 7.07136543403e-39
0.0224635425477 -0.059367933876 0.867 1.68346756648e-38
0.0240680813011 -0.059367933876 0.867 1.47177144565e-38
0.0256726200545 -0.059367933876 0.867 1.5547821246e-38
0.0272771588079 -0.059367933876 0.867 1.75725069504e-38
0.0288816975613 -0.059367933876 0.867 1.80291733043e-38
0.0305565621193 -0.0595048841271 0.869 1.83032448632e-38
0.0320907750681 -0.059367933876 0.867 1.89496806604e-38
0.0336953138215 -0.059367933876 0.867 1.88557095853e-38
0.0351777077563 -0.0591625084992 0.864 1.82099744374e-38
0.0367766944725 -0.0591625084992 0.864 1.83104195113e-38
0.0383756811887 -0.0591625084992 0.864 1.68360293191e-38
0.0399746679049 -0.0591625084992 0.864 1.62814290181e-38
0.0415736546211 -0.0591625084992 0.864 1.7477801595e-38
0.0430727046675 -0.0590255582481 0.862 1.41581031122e-38
0.0446679900256 -0.0590255582481 0.862 1.45229704038e-38
0.0463706147697 -0.0591625084992 0.864 1.18568683533e-38
0.0479696014859 -0.0591625084992 0.864 9.19474038534e-39
0.0495685882021 -0.0591625084992 0.864 9.65925681327e-39
0.0114001830692 -0.0586295129272 0.88 1.70168304522e-38
0.0128955317575 -0.0580298929086 0.871 1.82078220429e-38
0.0143908804458 -0.057563521783 0.864 1.82989400743e-38
0.015989867162 -0.057563521783 0.864 1.86702617466e-38
0.017690641227 -0.0578966440156 0.869 1.5910140977e-38
0.0192988813385 -0.0578966440156 0.869 1.41598855639e-38
0.0209071214501 -0.0578966440156 0.869 1.21258742182e-38
0.0224635425477 -0.0577633951226 0.867 1.80281965993e-38
0.0240680813011 -0.0577633951226 0.867 6.06114274643e-39
0.0256726200545 -0.0577633951226 0.867 6.97949770801e-39
0.0272771588079 -0.0577633951226 0.867 7.16320093019e-39
0.0289483220078 -0.0578966440156 0.869 9.27538511196e-39
0.0305565621193 -0.0578966440156 0.869 1.08413137251e-38
0.0320907750681 -0.0577633951226 0.867 1.13033442495e-38
0.0336953138215 -0.0577633951226 0.867 1.03792397603e-38
0.0351777077563 -0.057563521783 0.864 9.27538511196e-39
0.0367766944725 -0.057563521783 0.864 9.18680483213e-39
0.0383756811887 -0.057563521783 0.864 9.92935428968e-39
0.0399746679049 -0.057563521783 0.864 9.19399489455e-39
0.0415736546211 -0.057563521783 0.864 8.45752426975e-39
0.0430727046675 -0.05743027289 0.862 9.00741760922e-39
0.0446679900256 -0.05743027289 0.862 1.05744084066e-38
0.0463706147697 -0.057563521783 0.864 1.2777712021e-38
0.0479696014859 -0.057563521783 0.864 1.53502605833e-38
0.0499701855602 -0.0580298929086 0.871 1.78469498533e-38
0.0517005704903 -0.0581631418016 0.873 1.84930353259e-38
0.00816149469725 -0.0571304628807 0.882 7.80603819291e-39
0.00977158548786 -0.0570009153459 0.88 4.86730511845e-39
0.0114001830692 -0.0570009153459 0.88 1.06648089731e-38
0.0129991697854 -0.056871367811 0.878 1.36121053825e-38
0.0145740976737 -0.0566770465087 0.875 1.73866835636e-38
0.0161564282782 -0.0565474989738 0.873 1.83907755705e-38
0.0177313561665 -0.0564179514389 0.871 1.96797011083e-38
0.0193432976362 -0.0564179514389 0.871 1.79290869628e-38
0.0209071214501 -0.056288403904 0.869 1.88460069948e-38
0.0225153615616 -0.056288403904 0.869 2.14314040627e-38
0.0241236016732 -0.056288403904 0.869 1.61824188738e-38
0.0256726200545 -0.0561588563692 0.867 1.7019341579e-38
0.0272771588079 -0.0561588563692 0.867 1.38854552726e-38
0.0289483220078 -0.056288403904 0.869 1.47091090827e-38
0.0305565621193 -0.056288403904 0.869 1.516901664e-38
0.0320907750681 -0.0561588563692 0.867 1.27726897673e-38
0.0336953138215 -0.0561588563692 0.867 1.57204275857e-38
0.0352998525749 -0.0561588563692 0.867 1.4988572838e-38
0.0369043913283 -0.0561588563692 0.867 1.57236365592e-38
0.0385089300817 -0.0561588563692 0.867 1.59998450982e-38
0.0401134688351 -0.0561588563692 0.867 1.65558593093e-38
0.0417180075885 -0.0561588563692 0.867 1.70171891846e-38
0.0433225463419 -0.0561588563692 0.867 1.89539854492e-38
0.0449270850953 -0.0561588563692 0.867 1.82153554235e-38
0.0466389632348 -0.056288403904 0.869 2.02386314216e-38
0.0482472033463 -0.056288403904 0.869 2.1983489033e-38
0.0499701855602 -0.0564179514389 0.871 2.29969949629e-38
0.0517005704903 -0.0565474989738 0.873 2.06970858324e-38
0.0536215753646 -0.056871367811 0.878 1.90436685509e-38
0.0553723177646 -0.0570009153459 0.88 1.21352152738e-38
0.00491355292998 -0.0556869332064 0.885 1.77511949254e-38
0.00655140390664 -0.0556869332064 0.885 1.94059910845e-38
0.00816149469725 -0.0554981639413 0.882 1.52633464474e-38
0.00977158548786 -0.0553723177646 0.88 1.08451981244e-38
0.0114001830692 -0.0553723177646 0.88 6.70399121953e-39
0.0129991697854 -0.0552464715878 0.878 4.59288743888e-39
0.0145740976737 -0.0550577023227 0.875 1.04761395492e-38
0.0161564282782 -0.054931856146 0.873 1.3884395891e-38
0.0177313561665 -0.0548060099692 0.871 1.55463863164e-38
0.0193432976362 -0.0548060099692 0.871 1.69242774912e-38
0.0209552391059 -0.0548060099692 0.871 1.931344513e-38
0.0225153615616 -0.0546801637925 0.869 2.17061930864e-38
0.0241236016732 -0.0546801637925 0.869 1.89439801782e-38
0.0257318417847 -0.0546801637925 0.869 1.95871481474e-38
0.0273400818963 -0.0546801637925 0.869 2.03254194407e-38
0.0289483220078 -0.0546801637925 0.869 2.01385198567e-38
0.0305565621193 -0.0546801637925 0.869 2.04143850776e-38
0.0321648022309 -0.0546801637925 0.869 2.06916852281e-38
0.0337730423424 -0.0546801637925 0.869 2.0139258341e-38
0.035381282454 -0.0546801637925 0.869 2.04143850776e-38
0.0369895225655 -0.0546801637925 0.869 2.05065793062e-38
0.0385977626771 -0.0546801637925 0.869 2.12452093319e-38
0.0402060027886 -0.0546801637925 0.869 2.19846002627e-38
0.0418142429001 -0.0546801637925 0.869 2.08771498824e-38
0.0434224830117 -0.0546801637925 0.869 2.23504638775e-38
0.0450307231232 -0.0546801637925 0.869 2.18902522384e-38
0.0468536420069 -0.054931856146 0.873 2.06002084643e-38
0.0484692848347 -0.054931856146 0.873 1.94996538738e-38
0.0500849276625 -0.054931856146 0.873 1.63657633636e-38
0.0518190139508 -0.0550577023227 0.875 1.22234844654e-38
0.0536215753646 -0.0552464715878 0.878 1.37975854511e-38
0.0553723177646 -0.0553723177646 0.88 1.88669171705e-38
0.0570009153459 -0.0553723177646 0.88 1.75718903791e-38
0.0586295129272 -0.0553723177646 0.88 1.10324970784e-38
0.0602581105085 -0.0553723177646 0.88 2.09881411286e-38
0.00491355292998 -0.0540490822297 0.885 9.56345844506e-39
0.00655140390664 -0.0540490822297 0.885 1.6836756593e-38
0.00818925488329 -0.0540490822297 0.885 1.80277383747e-38
0.00982710585995 -0.0540490822297 0.885 1.96843730374e-38
