# .PCD v0.7 - Point Cloud Data file format
VERSION 0.7
FIELDS x y z rgb
SIZE 4 4 4 4
TYPE F F F F
COUNT 1 1 1 1
WIDTH 845
HEIGHT 1
VIEWPOINT 0 0 0 1 0 0 0
POINTS 845
DATA ascii
-0.00167116319991 -0.101940955195 0.903 2.08047405869e-38
0.0 -0.102505412311 0.908 2.01604557829e-38
0.00168041659526 -0.102505412311 0.908 2.02512192857e-38
0.00337933998122 -0.103069869427 0.913 2.02515696103e-38
0.00506900997183 -0.103069869427 0.913 1.96984014363e-38
0.00675867996244 -0.103069869427 0.913 1.86849669726e-38
0.00846685674374 -0.103295652274 0.915 1.79470389974e-38
0.0101602280925 -0.103295652274 0.915 1.7853394425e-38
0.0118535994412 -0.103295652274 0.915 1.75793284713e-38
0.01354697079 -0.103295652274 0.915 1.75782466689e-38
0.0152903104736 -0.103634326543 0.918 1.748748737e-38
0.0169892338596 -0.103634326543 0.918 1.6750659414e-38
0.0186881572455 -0.103634326543 0.918 1.66570568805e-38
0.0203870806315 -0.103634326543 0.918 1.6657763135e-38
0.0220860040175 -0.103634326543 0.918 1.64730005311e-38
0.0237849274034 -0.103634326543 0.918 1.60130971777e-38
0.0255393711615 -0.10386010939 0.92 1.59201854844e-38
0.0272419959056 -0.10386010939 0.92 1.68399753756e-38
0.0289446206497 -0.10386010939 0.92 1.60102273185e-38
0.0307471820635 -0.10419878366 0.923 1.59180330899e-38
0.0324553588448 -0.10419878366 0.923 1.61960507052e-38
0.0341635356261 -0.10419878366 0.923 1.66570218481e-38
0.0358717124074 -0.10419878366 0.923 1.57369124608e-38
0.0375798891887 -0.10419878366 0.923 1.54620884047e-38
0.0391603691142 -0.10386010939 0.92 1.53673886545e-38
0.040774161263 -0.103634326543 0.918 1.56439615311e-38
0.0423342837187 -0.103295652274 0.915 1.58276325234e-38
0.0440276550675 -0.103295652274 0.915 1.56432440663e-38
0.0456210897465 -0.103069869427 0.913 1.57361557596e-38
0.0471553026952 -0.102731195157 0.91 1.56443342765e-38
0.0488394206486 -0.102731195157 0.91 1.56453964607e-38
0.0504124978578 -0.102505412311 0.908 1.57375906893e-38
0.0519781723508 -0.102279629464 0.906 1.55546371618e-38
0.0534772223972 -0.101940955195 0.903 1.54595730739e-38
0.0551483855971 -0.101940955195 0.903 1.51829903882e-38
0.0566937026203 -0.101715172348 0.901 1.56461139255e-38
0.0581668431598 -0.101376498078 0.898 1.49096362942e-38
0.0593623818388 -0.100586258116 0.891 1.47242150801e-38
0.0608743866387 -0.100360475269 0.889 1.48149337414e-38
0.0623789887223 -0.100134692423 0.887 1.34323804466e-38
0.0638761880897 -0.0999089095762 0.885 1.5916624785e-38
0.0655140390664 -0.0999089095762 0.885 2.34788160256e-38
-0.0131916404086 -0.0989373030646 0.891 2.3497245903e-38
-0.0115426853575 -0.0989373030646 0.891 2.13684619396e-38
-0.00992704252972 -0.0992704252972 0.894 2.34917570169e-38
-0.00829104223213 -0.0994925067855 0.896 1.98788242188e-38
-0.0066328337857 -0.0994925067855 0.896 2.13546647549e-38
-0.00498572941369 -0.0997145882739 0.898 2.03437652402e-38
-0.00333492368355 -0.100047710506 0.901 2.09863054276e-38
-0.00167116319991 -0.100269791995 0.903 2.16330593196e-38
0.0 -0.100824995716 0.908 2.00672007714e-38
0.00168041659526 -0.100824995716 0.908 1.96955413862e-38
0.00337933998122 -0.101380199437 0.913 1.96051282079e-38
0.00506900997183 -0.101380199437 0.913 1.92377876246e-38
0.006773485395 -0.101602280925 0.915 1.7393164569e-38
0.00846685674374 -0.101602280925 0.915 1.80367487238e-38
0.0101602280925 -0.101602280925 0.915 1.78555468194e-38
0.0118924637017 -0.101935403157 0.918 1.6933258413e-38
0.0135913870877 -0.101935403157 0.918 1.73935092885e-38
0.0152903104736 -0.101935403157 0.918 1.7116918195e-38
0.0169892338596 -0.101935403157 0.918 1.62889623986e-38
0.0187288721851 -0.102157484646 0.92 1.59201854844e-38
0.0204314969292 -0.102157484646 0.92 1.59209141596e-38
0.0221341216733 -0.102157484646 0.92 1.58279996636e-38
0.0238367464174 -0.102157484646 0.92 1.65662681543e-38
0.0255393711615 -0.102157484646 0.92 1.61034977443e-38
0.0272419959056 -0.102157484646 0.92 1.59209029492e-38
0.0290390052822 -0.102490606878 0.923 1.59201924908e-38
0.0307471820635 -0.102490606878 0.923 1.54606492712e-38
0.0325256846495 -0.102712688367 0.925 1.60138146425e-38
0.0342375627889 -0.102712688367 0.925 1.56432440663e-38
0.0359494409284 -0.102712688367 0.925 1.50000368607e-38
0.0375798891887 -0.102490606878 0.923 1.52773370113e-38
0.03928806597 -0.102490606878 0.923 1.50940443695e-38
0.0408629938583 -0.102157484646 0.92 1.51847840503e-38
0.0423342837187 -0.101602280925 0.915 1.54617352775e-38
0.0440276550675 -0.101602280925 0.915 1.49078426322e-38
0.0457210264162 -0.101602280925 0.915 1.50922324906e-38
0.0473107597371 -0.101380199437 0.913 1.50003955932e-38
0.0490004297277 -0.101380199437 0.913 1.50000368607e-38
0.050523538602 -0.101047077204 0.91 1.51844295218e-38
0.0520929144531 -0.100824995716 0.908 1.46326948761e-38
0.0537733310484 -0.100824995716 0.908 1.51837232673e-38
0.055331602825 -0.100602914227 0.906 1.52748258844e-38
0.056819548797 -0.100269791995 0.903 1.46323361437e-38
0.0581668431598 -0.0997145882739 0.898 1.45405006475e-38
0.0593623818388 -0.0989373030646 0.891 1.44479476866e-38
0.0608743866387 -0.0987152215763 0.889 1.50936660189e-38
0.0623789887223 -0.0984931400879 0.887 1.41706475361e-38
0.0638761880897 -0.0982710585995 0.885 1.37979245653e-38
0.0655140390664 -0.0982710585995 0.885 2.2002620961e-38
0.067151890043 -0.0982710585995 0.885 2.35025988631e-38
-0.0131916404086 -0.0972883480135 0.891 2.35026128761e-38
-0.0115426853575 -0.0972883480135 0.891 1.99847960139e-38
-0.00992704252972 -0.0976159182089 0.894 2.34953541501e-38
-0.00829104223213 -0.0978342983391 0.896 1.82196910409e-38
-0.0066328337857 -0.0978342983391 0.896 2.26461056236e-38
-0.00498572941369 -0.0980526784693 0.898 2.04352476091e-38
-0.00333492368355 -0.0983802486646 0.901 2.11738818388e-38
-0.00167116319991 -0.0985986287949 0.903 2.13586010023e-38
0.0 -0.0991445791204 0.908 1.90530264221e-38
0.0016841179534 -0.0993629592506 0.91 1.93281895924e-38
0.00337933998122 -0.099690529446 0.913 1.95139919597e-38
0.00508011404625 -0.0999089095762 0.915 1.83151530975e-38
0.00679569354383 -0.100236479772 0.918 1.78548784e-38
0.00849461692979 -0.100236479772 0.918 1.68407250702e-38
0.0101935403157 -0.100236479772 0.918 1.71161993289e-38
0.0118924637017 -0.100236479772 0.918 1.60102273185e-38
0.0136209979528 -0.100454859902 0.92 1.75757733771e-38
0.0153236226969 -0.100454859902 0.92 1.61946339925e-38
0.017026247441 -0.100454859902 0.92 1.61034977443e-38
0.0187288721851 -0.100454859902 0.92 1.58283527908e-38
0.0204314969292 -0.100454859902 0.92 1.55528434997e-38
0.0221341216733 -0.100454859902 0.92 1.49978858676e-38
0.0239144749383 -0.100782430097 0.923 1.69325283365e-38
0.0256226517196 -0.100782430097 0.923 1.51794030642e-38
0.0273308285009 -0.100782430097 0.923 1.51804792614e-38
0.0291019283706 -0.101000810227 0.925 1.53677445843e-38
0.03081380651 -0.101000810227 0.925 1.49096362942e-38
0.0325256846495 -0.101000810227 0.925 1.51858602475e-38
0.0342375627889 -0.101000810227 0.925 1.49989606635e-38
0.0359494409284 -0.101000810227 0.925 1.49053315053e-38
0.0375798891887 -0.100782430097 0.923 1.50907961597e-38
0.03928806597 -0.100782430097 0.923 1.44483666748e-38
0.0408629938583 -0.100454859902 0.92 1.49078426322e-38
0.042473084649 -0.100236479772 0.918 1.5368813775e-38
0.0440276550675 -0.0999089095762 0.915 1.4353959796e-38
0.0457210264162 -0.0999089095762 0.915 1.48163658684e-38
0.0473107597371 -0.099690529446 0.913 1.44490238838e-38
0.0490004297277 -0.099690529446 0.913 1.500290672e-38
0.050523538602 -0.0993629592506 0.91 1.45397831827e-38
0.0522076565554 -0.0993629592506 0.91 1.42639179619e-38
0.0537733310484 -0.0991445791204 0.908 1.45394244503e-38
0.0554537476436 -0.0991445791204 0.908 1.52748258844e-38
0.056819548797 -0.0985986287949 0.903 1.51844253179e-38
0.0581668431598 -0.0980526784693 0.898 1.48163658684e-38
0.0593623818388 -0.0972883480135 0.891 1.41713650009e-38
0.0608743866387 -0.0970699678833 0.889 1.43550359932e-38
0.0623789887223 -0.0968515877531 0.887 1.44454365597e-38
0.0640205410571 -0.0968515877531 0.887 1.21380697188e-38
0.0656620933919 -0.0968515877531 0.887 2.15420029453e-38
0.0673036457267 -0.0968515877531 0.887 2.3496147285e-38
-0.0131620295435 -0.0954247141904 0.889 2.35019290425e-38
-0.0115167758506 -0.0954247141904 0.889 2.08138490269e-38
-0.00989373030646 -0.0956393929625 0.891 2.34932297816e-38
-0.00824477525538 -0.0956393929625 0.891 1.95118788016e-38
-0.00659582020431 -0.0956393929625 0.891 2.13550276912e-38
-0.00498572941369 -0.0963907686647 0.898 2.09895298154e-38
-0.00334232639983 -0.096927465595 0.903 2.00675567012e-38
-0.00168041659526 -0.0974641625252 0.908 1.99753554661e-38
0.0 -0.0976788412972 0.91 1.88686575831e-38
0.00168966999061 -0.0980008594554 0.913 1.86838977819e-38
0.0033867426975 -0.0982155382274 0.915 1.91455485545e-38
0.00509677015787 -0.0985375563856 0.918 1.68403537262e-38
0.00679569354383 -0.0985375563856 0.918 1.75793466882e-38
0.00849461692979 -0.0985375563856 0.918 1.71183517233e-38
0.0101935403157 -0.0985375563856 0.918 1.63811580285e-38
0.0119183732087 -0.0987522351576 0.92 1.68414229169e-38
0.0136654142505 -0.0990742533158 0.923 1.58269248677e-38
0.0153735910318 -0.0990742533158 0.923 1.6196059113e-38
0.0170817678131 -0.0990742533158 0.923 1.5643252474e-38
0.0187899445944 -0.0990742533158 0.923 1.50000368607e-38
0.0204981213757 -0.0990742533158 0.923 1.51855015151e-38
0.022206298157 -0.0990742533158 0.923 1.4816007136e-38
0.0239144749383 -0.0990742533158 0.923 1.51811967262e-38
0.0256781720917 -0.0992889320879 0.925 1.56414504042e-38
0.0273900502311 -0.0992889320879 0.925 1.49978844663e-38
0.0291019283706 -0.0992889320879 0.925 1.47230954426e-38
0.03081380651 -0.0992889320879 0.925 1.44468714894e-38
0.0325256846495 -0.0992889320879 0.925 1.48156484036e-38
0.0342375627889 -0.0992889320879 0.925 1.50922310893e-38
0.0359494409284 -0.0992889320879 0.925 1.46309012141e-38
0.0376613190678 -0.0992889320879 0.925 1.41706475361e-38
0.0393731972073 -0.0992889320879 0.925 1.46312599465e-38
0.0409962427514 -0.0990742533158 0.923 1.4908560097e-38
0.042473084649 -0.0985375563856 0.918 1.48145722064e-38
0.0441720080349 -0.0985375563856 0.918 1.49064343272e-38
0.0457210264162 -0.0982155382274 0.915 1.45397831827e-38
0.047414397765 -0.0982155382274 0.915 1.39866206139e-38
0.0490004297277 -0.0980008594554 0.913 1.43547192997e-38
0.0506900997183 -0.0980008594554 0.913 1.46301837493e-38
0.0522076565554 -0.0976788412972 0.91 1.44465127569e-38
0.0538917745088 -0.0976788412972 0.91 1.49986019311e-38
0.0554537476436 -0.0974641625252 0.908 1.45376307883e-38
0.0570083180621 -0.0972494837531 0.906 1.44465127569e-38
0.058490711997 -0.096927465595 0.903 1.39855416141e-38
0.0593623818388 -0.0956393929625 0.891 1.43546772608e-38
0.0608743866387 -0.0954247141904 0.889 1.44461568271e-38
0.0625196403316 -0.0954247141904 0.889 1.49986145428e-38
0.0640205410571 -0.0952100354183 0.887 1.14927101188e-38
0.0656620933919 -0.0952100354183 0.887 2.07097045251e-38
0.0673036457267 -0.0952100354183 0.887 2.34978736847e-38
-0.014690690455 -0.0930410395486 0.882 2.3497607438e-38
-0.0130583915156 -0.0930410395486 0.882 2.34979703743e-38
-0.0114908663436 -0.0935684830835 0.887 2.17365283956e-38
-0.00987152215763 -0.0937794604974 0.889 2.34914543364e-38
-0.00822626846469 -0.0937794604974 0.889 1.8684616648e-38
-0.00658101477175 -0.0937794604974 0.889 2.17226947771e-38
-0.00500238552532 -0.0950453249811 0.901 1.98831430207e-38
-0.00336083319052 -0.0957837459299 0.908 2.01601054583e-38
-0.0016841179534 -0.0959947233438 0.91 1.85023581646e-38
0.0 -0.0963111894648 0.913 1.89626482763e-38
0.00169337134875 -0.0965221668787 0.915 1.81335980659e-38
0.00339784677192 -0.0968386329996 0.918 1.74871720778e-38
0.00509677015787 -0.0968386329996 0.918 1.79491997997e-38
0.00681049897639 -0.0970496104135 0.92 1.63826027672e-38
0.00851312372049 -0.0970496104135 0.92 1.62886036662e-38
0.0102157484646 -0.0970496104135 0.92 1.63804517741e-38
0.0119572374691 -0.0973660765345 0.923 1.61957059858e-38
0.0136654142505 -0.0973660765345 0.923 1.62868100042e-38
0.0153735910318 -0.0973660765345 0.923 1.55524889712e-38
0.0171187813945 -0.0975770539484 0.925 1.51855015151e-38
0.0188306595339 -0.0975770539484 0.925 1.54617254684e-38
0.0205425376733 -0.0975770539484 0.925 1.45401419151e-38
0.0222544158128 -0.0975770539484 0.925 1.50922310893e-38
0.0239662939522 -0.0975770539484 0.925 1.44461540245e-38
0.0256781720917 -0.0975770539484 0.925 1.47205955262e-38
0.0273900502311 -0.0975770539484 0.925 1.47227367102e-38
0.0291963130031 -0.0978935200693 0.928 1.37093176608e-38
0.0309137431798 -0.0978935200693 0.928 1.48149309388e-38
0.0326311733564 -0.0978935200693 0.928 1.42624942426e-38
0.0342375627889 -0.0975770539484 0.925 1.4168853874e-38
0.0359494409284 -0.0975770539484 0.925 1.43546772608e-38
0.0376613190678 -0.0975770539484 0.925 1.48156484036e-38
0.0393731972073 -0.0975770539484 0.925 1.36196345591e-38
0.0409962427514 -0.0973660765345 0.923 1.40791707723e-38
0.042473084649 -0.0968386329996 0.918 1.49082013646e-38
0.0441720080349 -0.0968386329996 0.918 1.34338111724e-38
0.0458709314209 -0.0968386329996 0.918 1.44468770945e-38
0.047414397765 -0.0965221668787 0.915 1.39876940086e-38
0.0491077691137 -0.0965221668787 0.915 1.40788190464e-38
0.0506900997183 -0.0963111894648 0.913 1.43539639999e-38
0.0523797697089 -0.0963111894648 0.913 1.48149309388e-38
0.0538917745088 -0.0959947233438 0.91 1.41695713388e-38
0.0554537476436 -0.0957837459299 0.908 1.39855416141e-38
0.0570083180621 -0.095572768516 0.906 1.45401573294e-38
0.058490711997 -0.095256302395 0.903 1.40792142126e-38
0.0593623818388 -0.0939904379114 0.891 1.42642766943e-38
0.0608743866387 -0.0937794604974 0.889 1.41695713388e-38
0.0623789887223 -0.0935684830835 0.887 1.48138827675e-38
0.0640205410571 -0.0935684830835 0.887 1.21412983104e-38
0.0655140390664 -0.0933575056696 0.885 2.07104822457e-38
0.067151890043 -0.0933575056696 0.885 2.34986191755e-38
-0.014690690455 -0.0914087406092 0.882 2.34972613173e-38
-0.0130583915156 -0.0914087406092 0.882 2.3497621451e-38
-0.0114649568366 -0.0917196546929 0.885 2.30283434109e-38
-0.00984931400879 -0.0919269307487 0.887 2.34913352261e-38
-0.00820776167399 -0.0919269307487 0.887 2.00711888668e-38
-0.00656620933919 -0.0919269307487 0.887 2.09836934073e-38
-0.00506900997183 -0.0946215194741 0.913 2.07129233076e-38
-0.00337933998122 -0.0946215194741 0.913 1.91463234726e-38
-0.00168966999061 -0.0946215194741 0.913 1.9330351796e-38
0.0 -0.0948287955299 0.915 1.93307049232e-38
0.00169892338596 -0.0951397096136 0.918 1.81353679059e-38
0.00339784677192 -0.0951397096136 0.918 1.74889657398e-38
0.00509677015787 -0.0951397096136 0.918 1.61999967617e-38
0.00681049897639 -0.0953469856695 0.92 1.64726502065e-38
0.00851312372049 -0.0953469856695 0.92 1.62886218831e-38
0.0102490606878 -0.0956578997532 0.923 1.54595870869e-38
0.0119572374691 -0.0956578997532 0.923 1.64737095882e-38
0.0136950251156 -0.095865175809 0.925 1.56421692703e-38
0.015406903255 -0.095865175809 0.925 1.51847840503e-38
0.0171187813945 -0.095865175809 0.925 1.49089314411e-38
0.0188306595339 -0.095865175809 0.925 1.49996809309e-38
0.0205425376733 -0.095865175809 0.925 1.45394258516e-38
0.0222544158128 -0.095865175809 0.925 1.46312599465e-38
0.0239662939522 -0.095865175809 0.925 1.53691865204e-38
0.0256781720917 -0.095865175809 0.925 1.42621242998e-38
0.0273900502311 -0.095865175809 0.925 1.44472302218e-38
0.0291963130031 -0.0961760898927 0.928 1.43539611973e-38
0.0309137431798 -0.0961760898927 0.928 1.48145722064e-38
0.0326311733564 -0.0961760898927 0.928 1.4353959796e-38
0.0343486035331 -0.0961760898927 0.928 1.4353959796e-38
0.0359494409284 -0.095865175809 0.925 1.43525248663e-38
0.0376613190678 -0.095865175809 0.925 1.41702888037e-38
0.0393731972073 -0.095865175809 0.925 1.36192758267e-38
0.0409962427514 -0.0956578997532 0.923 1.38025880866e-38
0.042473084649 -0.0951397096136 0.918 1.42610481026e-38
0.0441720080349 -0.0951397096136 0.918 1.34330937075e-38
0.0458709314209 -0.0951397096136 0.918 1.37114700553e-38
0.0475698548068 -0.0951397096136 0.918 1.36192758267e-38
0.0491077691137 -0.0948287955299 0.915 1.37114700553e-38
0.0508011404625 -0.0948287955299 0.915 1.36185583619e-38
0.0523797697089 -0.0946215194741 0.913 1.39848241493e-38
0.0538917745088 -0.0943106053904 0.91 1.40791707723e-38
0.0555758924622 -0.0943106053904 0.91 1.40791707723e-38
0.0570083180621 -0.0938960532788 0.906 1.33416169438e-38
0.0586850332993 -0.0938960532788 0.906 1.39876940086e-38
0.0593623818388 -0.0923414828603 0.891 1.29753511564e-38
0.0608743866387 -0.0921342068045 0.889 1.46337920928e-38
0.0623789887223 -0.0919269307487 0.887 1.35252935413e-38
0.0640205410571 -0.0919269307487 0.887 1.13076041969e-38
0.0655140390664 -0.0917196546929 0.885 2.33869679178e-38
0.067151890043 -0.0917196546929 0.885 2.3498640195e-38
0.0687897410197 -0.0917196546929 0.885 2.35073240416e-38
0.0704275919963 -0.0917196546929 0.885 2.35051562328e-38
-0.0146573782318 -0.0895728669721 0.88 2.34968675524e-38
-0.0130287806505 -0.0895728669721 0.88 2.34936529737e-38
-0.0114260925761 -0.0897764416697 0.882 2.34994081065e-38
-0.00982710585995 -0.0900818037162 0.885 2.34745462692e-38
-0.00818925488329 -0.0900818037162 0.885 2.34921577883e-38
-0.00655140390664 -0.0900818037162 0.885 2.01540420398e-38
-0.00508011404625 -0.0931354241812 0.915 1.95129353807e-38
-0.00337933998122 -0.0929318494835 0.913 1.98828123142e-38
-0.00168966999061 -0.0929318494835 0.913 1.9330004274e-38
0.0 -0.0931354241812 0.915 1.74850196834e-38
0.00169892338596 -0.0934407862277 0.918 1.80403066206e-38
0.00339784677192 -0.0934407862277 0.918 1.71162203483e-38
0.00509677015787 -0.0934407862277 0.918 1.64730005311e-38
0.00681049897639 -0.0936443609254 0.92 1.62893281375e-38
0.00854088390653 -0.0939497229719 0.923 1.65651989636e-38
0.0102712688367 -0.0941532976695 0.925 1.52748384961e-38
0.0119831469761 -0.0941532976695 0.925 1.6104942483e-38
0.0136950251156 -0.0941532976695 0.925 1.47220626857e-38
0.015406903255 -0.0941532976695 0.925 1.52737496872e-38
0.0171187813945 -0.0941532976695 0.925 1.46316186789e-38
0.0188917319432 -0.094458659716 0.928 1.48156484036e-38
0.0206091621199 -0.094458659716 0.928 1.41717237333e-38
0.0223265922965 -0.094458659716 0.928 1.4539075527e-38
0.0240440224732 -0.094458659716 0.928 1.41692420337e-38
0.0257614526498 -0.094458659716 0.928 1.43546772608e-38
0.0274788828265 -0.094458659716 0.928 1.45376307883e-38
0.0291963130031 -0.094458659716 0.928 1.46284026989e-38
0.0309137431798 -0.094458659716 0.928 1.43521661339e-38
0.0326311733564 -0.094458659716 0.928 1.42610481026e-38
0.0343486035331 -0.094458659716 0.928 1.41684951416e-38
0.0360660337097 -0.094458659716 0.928 1.46298250169e-38
0.0377834638864 -0.094458659716 0.928 1.42628417646e-38
0.0393731972073 -0.0941532976695 0.925 1.40795617346e-38
0.0410850753467 -0.0941532976695 0.925 1.38025880866e-38
0.0425656186024 -0.0936443609254 0.92 1.41695713388e-38
0.0442682433465 -0.0936443609254 0.92 1.35256466685e-38
0.0458709314209 -0.0934407862277 0.918 1.38976521744e-38
0.0475698548068 -0.0934407862277 0.918 1.34356048344e-38
0.0492687781928 -0.0934407862277 0.918 1.32522925745e-38
0.0508011404625 -0.0931354241812 0.915 1.36196345591e-38
0.0524945118112 -0.0931354241812 0.915 1.41717237333e-38
0.0540694396995 -0.0929318494835 0.913 1.34345286372e-38
0.0555758924622 -0.092626487437 0.91 1.36181996295e-38
0.0571341642389 -0.0924229127394 0.908 1.30661482904e-38
0.0586850332993 -0.0922193380417 0.906 1.35263641333e-38
0.0593623818388 -0.0906925278092 0.891 1.31597396135e-38
0.0608743866387 -0.0904889531116 0.889 1.31586872384e-38
0.0625196403316 -0.0904889531116 0.889 1.33412806322e-38
0.0640205410571 -0.0902853784139 0.887 1.42567433137e-38
0.0656620933919 -0.0902853784139 0.887 2.34802845864e-38
0.067151890043 -0.0900818037162 0.885 2.35051576341e-38
0.0687897410197 -0.0900818037162 0.885 2.35073324493e-38
-0.0146573782318 -0.0879442693908 0.88 2.34961655019e-38
-0.0130287806505 -0.0879442693908 0.88 2.35001213674e-38
-0.0114001830692 -0.0879442693908 0.88 2.35015731127e-38
-0.0097937936367 -0.0881441427303 0.882 1.21323860522e-38
-0.00816149469725 -0.0881441427303 0.882 2.35000120662e-38
-0.00655140390664 -0.0884439527396 0.885 1.93267672745e-38
-0.00508011404625 -0.0914420528324 0.915 1.96065561311e-38
-0.0033867426975 -0.0914420528324 0.915 1.9790967009e-38
-0.00169337134875 -0.0914420528324 0.915 1.84995191339e-38
0.0 -0.0914420528324 0.915 1.82239916259e-38
0.00169892338596 -0.0917418628417 0.918 1.71172755261e-38
0.00339784677192 -0.0917418628417 0.918 1.7576824351e-38
0.00510787423229 -0.0919417361813 0.92 1.62868296224e-38
0.00683270712523 -0.0922415461905 0.923 1.5921620414e-38
0.00855939069723 -0.0924414195301 0.925 1.58287087206e-38
0.0102712688367 -0.0924414195301 0.925 1.6103857878e-38
0.0119831469761 -0.0924414195301 0.925 1.55524861686e-38
0.0137394414132 -0.0927412295394 0.928 1.52759020816e-38
0.0154568715899 -0.0927412295394 0.928 1.55506911053e-38
0.0171743017665 -0.0927412295394 0.928 1.50007543256e-38
0.0188917319432 -0.0927412295394 0.928 1.46309012141e-38
0.0206091621199 -0.0927412295394 0.928 1.44479476866e-38
0.0223265922965 -0.0927412295394 0.928 1.44479476866e-38
0.0240440224732 -0.0927412295394 0.928 1.46301837493e-38
0.0257614526498 -0.0927412295394 0.928 1.42624830322e-38
0.0274788828265 -0.0927412295394 0.928 1.44465127569e-38
0.0291963130031 -0.0927412295394 0.928 1.43543185284e-38
0.0309803676263 -0.0929411028789 0.93 1.43543185284e-38
0.0327014991611 -0.0929411028789 0.93 1.4168853874e-38
0.0343486035331 -0.0927412295394 0.928 1.40773771103e-38
0.0360660337097 -0.0927412295394 0.928 1.40766596455e-38
0.0378648937655 -0.0929411028789 0.93 1.38929900544e-38
0.0395008940631 -0.0927412295394 0.928 1.41717237333e-38
0.0410850753467 -0.0924414195301 0.925 1.38036642838e-38
0.0427969534861 -0.0924414195301 0.925 1.33423344086e-38
0.044412596314 -0.0922415461905 0.923 1.3708600196e-38
0.0461207730953 -0.0922415461905 0.923 1.36164059675e-38
0.0475698548068 -0.0917418628417 0.918 1.37089589284e-38
0.0492687781928 -0.0917418628417 0.918 1.33423344086e-38
0.0509677015787 -0.0917418628417 0.918 1.32508576449e-38
0.0524945118112 -0.0914420528324 0.915 1.30653929905e-38
0.05418788316 -0.0914420528324 0.915 1.31583046839e-38
0.0557591096901 -0.0912421794929 0.913 1.31583046839e-38
0.0571341642389 -0.0907424961441 0.908 1.30675453849e-38
0.0588145808341 -0.0907424961441 0.908 1.32504989125e-38
0.0601618751969 -0.0902428127953 0.903 1.33430532747e-38
0.0610113368898 -0.0890435727582 0.891 1.35256480698e-38
0.0625196403316 -0.0888436994186 0.889 1.20487453494e-38
0.0641648940246 -0.0888436994186 0.889 1.80363983992e-38
0.0656620933919 -0.0886438260791 0.887 2.34892248706e-38
0.0673036457267 -0.0886438260791 0.887 2.35065785508e-38
-0.0146573782318 -0.0863156718095 0.88 2.34943452152e-38
-0.0130287806505 -0.0863156718095 0.88 2.34961669032e-38
-0.0114001830692 -0.0863156718095 0.88 2.35058750989e-38
-0.0097937936367 -0.0865118437908 0.882 5.6938007618e-39
-0.00816149469725 -0.0865118437908 0.882 2.34935576854e-38
-0.00651439032524 -0.0863156718095 0.88 2.11786658717e-38
-0.00488579274393 -0.0863156718095 0.88 2.07045995947e-38
-0.0033867426975 -0.0897486814837 0.915 1.89590763666e-38
-0.00169337134875 -0.0897486814837 0.915 1.84973513252e-38
0.0 -0.0897486814837 0.915 1.7669373108e-38
0.00169892338596 -0.0900429394558 0.918 1.72998703212e-38
0.00339784677192 -0.0900429394558 0.918 1.70229289031e-38
0.00510787423229 -0.0902391114372 0.92 1.62875358768e-38
0.00683270712523 -0.0905333694092 0.923 1.62886036662e-38
0.00855939069723 -0.0907295413906 0.925 1.5736514492e-38
0.0102712688367 -0.0907295413906 0.925 1.59183918223e-38
0.0120220112366 -0.0910237993627 0.928 1.52748258844e-38
0.0137394414132 -0.0910237993627 0.928 1.49049727729e-38
0.0154568715899 -0.0910237993627 0.928 1.52730322224e-38
0.0171743017665 -0.0910237993627 0.928 1.56436027987e-38
0.0188917319432 -0.0910237993627 0.928 1.45397831827e-38
0.0206091621199 -0.0910237993627 0.928 1.46316186789e-38
0.0223265922965 -0.0910237993627 0.928 1.45387223998e-38
0.0240958414871 -0.0912199713441 0.93 1.44458036999e-38
0.0258169730219 -0.0912199713441 0.93 1.40774121427e-38
0.0275381045567 -0.0912199713441 0.93 1.41702888037e-38
0.0292592360915 -0.0912199713441 0.93 1.40773771103e-38
0.0309803676263 -0.0912199713441 0.93 1.39862590789e-38
0.0327014991611 -0.0912199713441 0.93 1.38004356922e-38
0.0344226306959 -0.0912199713441 0.93 1.35249292037e-38
0.0361437622307 -0.0912199713441 0.93 1.3799359495e-38
0.0379870385841 -0.0915142293162 0.933 1.33387779131e-38
0.0395860253003 -0.0912199713441 0.93 1.41684951416e-38
0.0412183242397 -0.0910237993627 0.928 1.33419756762e-38
0.0429357544164 -0.0910237993627 0.928 1.35256466685e-38
0.0445088316256 -0.0907295413906 0.925 1.3801153157e-38
0.046220709765 -0.0907295413906 0.925 1.3248346518e-38
0.0478289498766 -0.0905333694092 0.923 1.33416169438e-38
0.0492687781928 -0.0900429394558 0.918 1.3340899479e-38
0.0509677015787 -0.0900429394558 0.918 1.35260054009e-38
0.0524945118112 -0.0897486814837 0.915 1.36185583619e-38
0.05418788316 -0.0897486814837 0.915 1.31579459515e-38
0.0557591096901 -0.0895525095023 0.913 1.31565110219e-38
0.0572600104156 -0.0892582515302 0.91 1.32490639828e-38
0.0588145808341 -0.0890620795488 0.908 1.343345244e-38
0.0603617485364 -0.0888659075675 0.906 1.34341699048e-38
0.0610113368898 -0.0873946177071 0.891 1.28802870686e-38
0.0626602919409 -0.0873946177071 0.891 1.0939186015e-38
0.0641648940246 -0.0871984457257 0.889 2.3477808492e-38
0.0658101477175 -0.0871984457257 0.889 2.32980134912e-38
0.0674554014104 -0.0871984457257 0.889 2.35091205062e-38
-0.0146573782318 -0.0846870742281 0.88 2.3499039565e-38
-0.0130287806505 -0.0846870742281 0.88 2.34951005151e-38
-0.0114001830692 -0.0846870742281 0.88 2.3505870895e-38
-0.0097937936367 -0.0848795448514 0.882 1.16893501284e-38
-0.00816149469725 -0.0848795448514 0.882 1.82914627457e-38
-0.00651439032524 -0.0846870742281 0.88 2.34972192783e-38
-0.00488579274393 -0.0846870742281 0.88 1.73009787483e-38
-0.00339784677192 -0.0883440160698 0.918 1.90505251043e-38
-0.00169892338596 -0.0883440160698 0.918 1.95136388325e-38
0.0 -0.0883440160698 0.918 1.73917254355e-38
0.0017026247441 -0.0885364866931 0.92 1.71162175457e-38
0.00340524948819 -0.0885364866931 0.92 1.75775460197e-38
0.00510787423229 -0.0885364866931 0.92 1.62890002337e-38
0.00684751255778 -0.0890176632512 0.925 1.61038606806e-38
0.00855939069723 -0.0890176632512 0.925 1.55499834496e-38
0.0103045810599 -0.089306369186 0.928 1.58276339247e-38
0.0120220112366 -0.089306369186 0.928 1.527411963e-38
0.0137394414132 -0.089306369186 0.928 1.51822729234e-38
0.0154901838131 -0.0894988398093 0.93 1.49074838998e-38
0.0172113153479 -0.0894988398093 0.93 1.45397831827e-38
0.0189324468827 -0.0894988398093 0.93 1.4908560097e-38
0.0206535784175 -0.0894988398093 0.93 1.42628417646e-38
0.0223747099523 -0.0894988398093 0.93 1.42621242998e-38
0.0395860253003 -0.0894988398093 0.93 1.35245704713e-38
0.0413071568351 -0.0894988398093 0.93 1.36164059675e-38
0.0429357544164 -0.089306369186 0.928 1.29724812971e-38
0.0445088316256 -0.0890176632512 0.925 1.36178408971e-38
0.046220709765 -0.0890176632512 0.925 1.31565110219e-38
0.0478289498766 -0.0888251926279 0.923 1.32505073202e-38
0.0492687781928 -0.0883440160698 0.918 1.30661104553e-38
0.0509677015787 -0.0883440160698 0.918 1.31586634163e-38
0.0524945118112 -0.0880553101349 0.915 1.29742749592e-38
0.05418788316 -0.0880553101349 0.915 1.36164059675e-38
0.0557591096901 -0.0878628395117 0.913 1.29714191129e-38
0.0572600104156 -0.0875741335768 0.91 1.38004356922e-38
0.0588145808341 -0.0873816629536 0.908 1.36164059675e-38
0.0603617485364 -0.0871891923303 0.906 1.33416169438e-38
0.0620384637735 -0.0871891923303 0.906 1.19590622477e-38
0.0626602919409 -0.085745662656 0.891 1.84005145948e-38
0.064309246992 -0.085745662656 0.891 2.34888997693e-38
0.0659582020431 -0.085745662656 0.891 2.34795096683e-38
-0.0114260925761 -0.0832472459119 0.882 2.35015450867e-38
-0.0097937936367 -0.0832472459119 0.882 1.98990827907e-38
-0.00816149469725 -0.0832472459119 0.882 1.08365885466e-38
-0.00679569354383 -0.0866450926839 0.918 2.34841872026e-38
-0.00509677015787 -0.0866450926839 0.918 2.34947039476e-38
-0.00339784677192 -0.0866450926839 0.918 1.69321696041e-38
-0.00169892338596 -0.0866450926839 0.918 1.84055116251e-38
0.0 -0.0866450926839 0.918 1.75768397652e-38
0.0017026247441 -0.086833861949 0.92 1.70261715077e-38
0.00340524948819 -0.086833861949 0.92 1.60127440505e-38
0.00512453034392 -0.0871170158466 0.923 1.62886050675e-38
0.00684751255778 -0.0873057851117 0.925 1.61967681701e-38
0.00858715088327 -0.0875889390094 0.928 1.54595730739e-38
0.0103045810599 -0.0875889390094 0.928 1.54577794119e-38
0.0120220112366 -0.0875889390094 0.928 1.49049727729e-38
0.0137690522784 -0.0877777082745 0.93 1.46298250169e-38
0.0154901838131 -0.0877777082745 0.93 1.46319774113e-38
0.0172113153479 -0.0877777082745 0.93 1.45405006475e-38
0.0430282883699 -0.0877777082745 0.93 1.2789886502e-38
0.044653184593 -0.0875889390094 0.928 1.35245704713e-38
0.0463706147697 -0.0875889390094 0.928 1.28831569278e-38
0.0479325879045 -0.0873057851117 0.925 1.32504989125e-38
0.0493761175788 -0.086833861949 0.92 1.29739162268e-38
0.0509677015787 -0.0866450926839 0.918 1.30668279201e-38
0.0526666249647 -0.0866450926839 0.918 1.26969748087e-38
0.05418788316 -0.0863619387862 0.915 1.31586634163e-38
0.0557591096901 -0.0861731695211 0.913 1.25115101543e-38
0.0574487796807 -0.0861731695211 0.913 1.32479877856e-38
0.058944128369 -0.0858900156234 0.91 1.29681765082e-38
0.0604949974294 -0.0857012463583 0.908 1.22349274686e-38
0.0620384637735 -0.0855124770932 0.906 1.1576653502e-38
0.0637151790106 -0.0855124770932 0.906 2.34931779336e-38
0.0653918942478 -0.0855124770932 0.906 1.16821250335e-38
-0.00341635356261 -0.0854088390653 0.923 2.21052534618e-38
-0.0017026247441 -0.0851312372049 0.92 1.68371055163e-38
0.0 -0.0851312372049 0.92 1.71187230674e-38
0.00170817678131 -0.0854088390653 0.923 1.65641423845e-38
0.00341635356261 -0.0854088390653 0.923 1.61967681701e-38
0.00513563441834 -0.0855939069723 0.925 1.59187505547e-38
0.00684751255778 -0.0855939069723 0.925 1.60105860509e-38
0.00858715088327 -0.0858715088327 0.928 1.55514085701e-38
0.0463706147697 -0.0858715088327 0.928 1.29742749592e-38
0.0479325879045 -0.0855939069723 0.925 1.31575872191e-38
0.0493761175788 -0.0851312372049 0.92 1.2789886502e-38
0.0509677015787 -0.0849461692979 0.918 1.31579459515e-38
0.0526666249647 -0.0849461692979 0.918 1.343345244e-38
0.05418788316 -0.0846685674374 0.915 1.35242117389e-38
0.0558812545087 -0.0846685674374 0.915 1.29721225647e-38
0.0574487796807 -0.0844834995305 0.913 1.33401820142e-38
0.0591384496713 -0.0844834995305 0.913 1.22316988769e-38
0.0604949974294 -0.0840208297631 0.908 9.74066104366e-39
0.0621754140247 -0.0840208297631 0.908 2.34828083249e-38
0.0638558306199 -0.0840208297631 0.908 2.25654679034e-38
-0.00341635356261 -0.083700662284 0.923 2.34993394429e-38
-0.00170817678131 -0.083700662284 0.923 2.16414432883e-38
0.0 -0.0838820288328 0.925 1.54538333554e-38
0.00171187813945 -0.0838820288328 0.925 1.65641423845e-38
0.0495371266579 -0.083700662284 0.923 1.29739162268e-38
0.0510787423229 -0.0834286124608 0.92 1.27902452344e-38
0.0526666249647 -0.0832472459119 0.918 1.32479877856e-38
0.05418788316 -0.0829751960887 0.915 1.30635993285e-38
0.0558812545087 -0.0829751960887 0.915 1.34302238483e-38
0.0575746258575 -0.0829751960887 0.915 1.19579860505e-38
0.0591384496713 -0.0827938295399 0.913 1.07515689662e-38
0.0606282463224 -0.0825217797166 0.91 2.29285107044e-38
0.0621754140247 -0.0823404131678 0.908 2.34949814047e-38
0.0638558306199 -0.0823404131678 0.908 5.14278778485e-39
0.0496444660439 -0.0821701506934 0.925 1.30653929905e-38
0.0512453034392 -0.0819924855027 0.923 1.30661104553e-38
0.052781367067 -0.0817259877167 0.92 1.33419756762e-38
0.0543655483507 -0.081548322526 0.918 1.31565110219e-38
0.0560644717366 -0.081548322526 0.918 1.14019508199e-38
0.0575746258575 -0.08128182474 0.915 1.2222013102e-38
0.0591384496713 -0.0811041595493 0.913 2.34859290166e-38
0.0606282463224 -0.0808376617632 0.91 2.34953933864e-38
0.0621754140247 -0.0806599965725 0.908 8.18447986267e-39
0.0638558306199 -0.0806599965725 0.908 7.98968816575e-39
0.0512453034392 -0.0802843087214 0.923 1.29728400295e-38
0.052781367067 -0.0800233629726 0.92 1.26948224142e-38
0.0543655483507 -0.07984939914 0.918 1.07562324875e-38
0.0560644717366 -0.07984939914 0.918 1.73788194766e-38
0.0577633951226 -0.07984939914 0.918 2.34935408699e-38
0.0592679972062 -0.0795884533912 0.915 2.34856964011e-38
0.060961368555 -0.0795884533912 0.915 6.15620683425e-39
0.0628601652804 -0.07984939914 0.918 1.11315296435e-38
0.0645590886664 -0.07984939914 0.918 1.01148385622e-38
0.0662580120524 -0.07984939914 0.918 2.35073744883e-38
0.0512453034392 -0.0785761319401 0.923 1.07583848819e-38
0.052781367067 -0.0783207382285 0.92 1.46151380077e-38
0.0543655483507 -0.0781504757541 0.918 2.03480434044e-38
0.0560644717366 -0.0781504757541 0.918 2.3497527564e-38
0.0577633951226 -0.0781504757541 0.918 1.74918748355e-38
0.0592679972062 -0.0778950820425 0.915 7.90179872606e-39
0.060961368555 -0.0778950820425 0.915 1.03996524751e-38
0.0626547399037 -0.0778950820425 0.915 1.37151750884e-38
0.052781367067 -0.0766181134844 0.92 2.33016862945e-38
0.0543655483507 -0.0764515523681 0.918 2.16442949306e-38
0.0560644717366 -0.0764515523681 0.918 8.92310988841e-39
0.0577633951226 -0.0764515523681 0.918 8.44886564654e-39
0.0592679972062 -0.0762017106937 0.915 1.08578700664e-38
0.060961368555 -0.0762017106937 0.915 1.79528347679e-38
0.0626547399037 -0.0762017106937 0.915 1.28800278283e-38
0.052781367067 -0.0749154887403 0.92 1.02116766939e-38
0.0543655483507 -0.0747526289822 0.918 6.70399121953e-39
0.0533162133182 -0.0710882844242 0.873 7.72357458088e-39
0.0548060099692 -0.0709254246661 0.871 1.50905144987e-38
0.0564179514389 -0.0709254246661 0.871 1.9330004274e-38
0.0580298929086 -0.0709254246661 0.871 1.74811170671e-38
0.0596418343783 -0.0709254246661 0.871 1.15831555269e-38
0.0515821270299 -0.0693134831964 0.871 1.22270998154e-38
0.0531940684996 -0.0693134831964 0.871 1.73900004371e-38
0.0548060099692 -0.0693134831964 0.871 2.15365827229e-38
0.0564179514389 -0.0693134831964 0.871 1.72945369792e-38
0.0580298929086 -0.0693134831964 0.871 1.27874580518e-38
0.0596418343783 -0.0693134831964 0.871 1.47174384007e-38
0.0467463026208 -0.0677015417267 0.871 6.61435436067e-39
0.0483582440905 -0.0677015417267 0.871 1.36986369639e-38
0.0498554434579 -0.0675460846849 0.869 1.85841827845e-38
0.0514636835694 -0.0675460846849 0.869 2.07961155949e-38
0.0531940684996 -0.0677015417267 0.871 2.25452695874e-38
0.0546801637925 -0.0675460846849 0.869 1.55424402599e-38
0.056288403904 -0.0675460846849 0.869 1.3250234067e-38
0.0578966440156 -0.0675460846849 0.869 1.3345669499e-38
0.0596418343783 -0.0677015417267 0.871 2.29153314923e-38
0.0367766944725 -0.065558455364 0.864 4.49993931174e-39
0.0383756811887 -0.065558455364 0.864 6.61502558263e-39
0.0399746679049 -0.065558455364 0.864 8.09198295364e-39
0.0415736546211 -0.065558455364 0.864 7.90897897939e-39
0.0434224830117 -0.0659378445733 0.869 1.14949045522e-38
0.0450307231232 -0.0659378445733 0.869 1.5352015009e-38
0.0466389632348 -0.0659378445733 0.869 1.71090751275e-38
0.0483582440905 -0.066089600257 0.871 2.12523853813e-38
0.0498554434579 -0.0659378445733 0.869 2.3459709321e-38
0.0514636835694 -0.0659378445733 0.869 1.96869318084e-38
0.0531940684996 -0.066089600257 0.871 1.40716373918e-38
0.0546801637925 -0.0659378445733 0.869 1.26974134151e-38
0.056288403904 -0.0659378445733 0.869 1.20567313494e-38
0.0578966440156 -0.0659378445733 0.869 2.03370488166e-38
0.0595048841271 -0.0659378445733 0.869 2.34820768471e-38
0.00643296044618 -0.0643296044618 0.869 1.73823787747e-38
0.00804120055772 -0.0643296044618 0.869 1.94070644791e-38
0.00964944066926 -0.0643296044618 0.869 1.91294476351e-38
0.0112576807808 -0.0643296044618 0.869 1.82074633105e-38
0.0288816975613 -0.0641815501362 0.867 6.80161968354e-39
0.0303807476077 -0.0639594686478 0.864 6.89699766222e-39
0.0319057071611 -0.0638114143223 0.862 6.61753951208e-39
0.0335009925192 -0.0638114143223 0.862 8.8237522221e-39
0.0350962778772 -0.0638114143223 0.862 1.140347263e-38
0.0366915632353 -0.0638114143223 0.862 1.20416099377e-38
0.0382868485934 -0.0638114143223 0.862 1.39701651661e-38
0.0398821339514 -0.0638114143223 0.862 1.52576781951e-38
0.0414774193095 -0.0638114143223 0.862 1.77543842807e-38
0.0433225463419 -0.0641815501362 0.867 2.04252059043e-38
0.0449270850953 -0.0641815501362 0.867 2.12506659881e-38
0.0465316238487 -0.0641815501362 0.867 2.16143449786e-38
0.0483582440905 -0.0644776587873 0.871 2.18938087339e-38
0.0499701855602 -0.0644776587873 0.871 1.57200492351e-38
0.0515821270299 -0.0644776587873 0.871 1.25018664183e-38
0.0531940684996 -0.0644776587873 0.871 9.75112874319e-39
0.0548060099692 -0.0644776587873 0.871 1.25166066768e-38
0.0564179514389 -0.0644776587873 0.871 2.08016184939e-38
0.0580298929086 -0.0644776587873 0.871 2.06974964128e-38
0.0596418343783 -0.0644776587873 0.871 2.34950865021e-38
0.00322388293937 -0.0628657173177 0.871 8.72688606445e-39
0.00482472033463 -0.0627213643502 0.869 5.51015359155e-39
0.00643296044618 -0.0627213643502 0.869 1.12140577153e-38
0.00804120055772 -0.0627213643502 0.869 1.37925631974e-38
0.00964944066926 -0.0627213643502 0.869 1.71962106686e-38
0.0112576807808 -0.0627213643502 0.869 1.95893005418e-38
0.0128659208924 -0.0627213643502 0.869 1.82989638964e-38
0.0144408487806 -0.0625770113828 0.867 1.96779074463e-38
0.016045387534 -0.0625770113828 0.867 1.94928015243e-38
0.017690641227 -0.0627213643502 0.869 1.90357876484e-38
0.0192988813385 -0.0627213643502 0.869 1.87599112171e-38
0.0209071214501 -0.0627213643502 0.869 1.72873146869e-38
0.0224635425477 -0.0625770113828 0.867 1.7292695673e-38
0.0240680813011 -0.0625770113828 0.867 1.57286223791e-38
0.0256726200545 -0.0625770113828 0.867 1.59130108362e-38
0.0272771588079 -0.0625770113828 0.867 1.55456702529e-38
0.0288816975613 -0.0625770113828 0.867 1.63754169087e-38
0.0303807476077 -0.0623604819316 0.864 1.53591476182e-38
0.0319057071611 -0.0622161289642 0.862 1.80306558781e-38
0.0335009925192 -0.0622161289642 0.862 1.69239201601e-38
0.0350962778772 -0.0622161289642 0.862 1.91326341879e-38
0.0366915632353 -0.0622161289642 0.862 1.99595123857e-38
0.0382868485934 -0.0622161289642 0.862 1.9774421878e-38
0.0398821339514 -0.0622161289642 0.862 2.10586684803e-38
0.0414774193095 -0.0622161289642 0.862 2.1978545252e-38
0.0433225463419 -0.0625770113828 0.867 2.17940881313e-38
0.0449270850953 -0.0625770113828 0.867 2.02350665183e-38
0.0465316238487 -0.0625770113828 0.867 1.51707934864e-38
0.0483582440905 -0.0628657173177 0.871 1.28681504226e-38
0.0499701855602 -0.0628657173177 0.871 1.08527777478e-38
0.0515821270299 -0.0628657173177 0.871 9.01785307889e-39
0.0531940684996 -0.0628657173177 0.871 1.21420914453e-38
0.054931856146 -0.0630100702851 0.873 2.09831160723e-38
0.0565474989738 -0.0630100702851 0.873 2.20854236872e-38
0.00161564282782 -0.0613944274573 0.873 1.82132366602e-38
0.00322388293937 -0.061253775848 0.871 1.77536668159e-38
0.00482472033463 -0.0611131242387 0.869 1.0016884997e-38
0.00643296044618 -0.0611131242387 0.869 7.16496936885e-39
0.00804120055772 -0.0611131242387 0.869 5.23680790531e-39
0.00964944066926 -0.0611131242387 0.869 1.0758103221e-38
0.0112576807808 -0.0611131242387 0.869 1.38862077699e-38
0.0128659208924 -0.0611131242387 0.869 1.66491297351e-38
0.0144408487806 -0.0609724726294 0.867 1.9317022645e-38
0.016045387534 -0.0609724726294 0.867 2.04172549368e-38
0.017690641227 -0.0611131242387 0.869 1.84779475453e-38
0.0192988813385 -0.0611131242387 0.869 2.07825047829e-38
0.0209071214501 -0.0611131242387 0.869 1.95810496964e-38
0.0224635425477 -0.0609724726294 0.867 1.92126399224e-38
0.0240680813011 -0.0609724726294 0.867 2.05011983201e-38
0.0256726200545 -0.0609724726294 0.867 1.99530888335e-38
0.0272771588079 -0.0609724726294 0.867 1.97686667452e-38
0.0288816975613 -0.0609724726294 0.867 2.12448674151e-38
0.0303807476077 -0.0607614952154 0.864 2.00423795717e-38
0.0319057071611 -0.0606208436061 0.862 2.08674641075e-38
0.0335009925192 -0.0606208436061 0.862 2.17008611457e-38
0.0351777077563 -0.0607614952154 0.864 2.00427383041e-38
0.0366915632353 -0.0606208436061 0.862 2.07813683298e-38
0.0382868485934 -0.0606208436061 0.862 2.11544892693e-38
0.0398821339514 -0.0606208436061 0.862 1.95896592742e-38
0.0414774193095 -0.0606208436061 0.862 1.69199727023e-38
0.0433225463419 -0.0609724726294 0.867 1.60887897156e-38
0.0449270850953 -0.0609724726294 0.867 1.24096707884e-38
0.0466389632348 -0.0611131242387 0.869 9.56529834994e-39
0.0484692848347 -0.0613944274573 0.873 9.4813871966e-39
0.0500849276625 -0.0613944274573 0.873 8.73915022861e-39
0.054931856146 -0.0613944274573 0.873 2.34669063899e-38
0.00161564282782 -0.0597787846294 0.873 1.11243045486e-38
0.00323128565565 -0.0597787846294 0.873 1.83075734741e-38
0.00483582440905 -0.0596418343783 0.871 1.79377539938e-38
0.00644776587873 -0.0596418343783 0.871 1.3698914421e-38
0.00805970734842 -0.0596418343783 0.871 6.70401223901e-39
0.00964944066926 -0.0595048841271 0.869 6.15984320376e-39
0.0112576807808 -0.0595048841271 0.869 5.05095228869e-39
0.0128659208924 -0.0595048841271 0.869 8.72874558752e-39
0.0144741610039 -0.0595048841271 0.869 1.21301804084e-38
0.0160824011154 -0.0595048841271 0.869 1.5724340011e-38
0.017690641227 -0.0595048841271 0.869 1.48999505192e-38
0.0192988813385 -0.0595048841271 0.869 1.71075897511e-38
0.0209071214501 -0.0595048841271 0.869 1.88531816429e-38
0.0225153615616 -0.0595048841271 0.869 2.0416537472e-38
0.0240680813011 -0.059367933876 0.867 1.93102067293e-38
0.0256726200545 -0.059367933876 0.867 2.01403135187e-38
0.0272771588079 -0.059367933876 0.867 1.98640895655e-38
0.0288816975613 -0.059367933876 0.867 2.0047043093e-38
0.0303807476077 -0.0591625084992 0.864 1.96797291343e-38
0.0319797343239 -0.0591625084992 0.864 2.05126875662e-38
0.0335787210401 -0.0591625084992 0.864 1.84844047286e-38
0.0351777077563 -0.0591625084992 0.864 1.70161157899e-38
0.0366915632353 -0.0590255582481 0.862 1.5083980244e-38
0.0382868485934 -0.0590255582481 0.862 1.5077881793e-38
0.0399746679049 -0.0591625084992 0.864 1.24993132525e-38
0.0415736546211 -0.0591625084992 0.864 8.91631639346e-39
0.0433225463419 -0.059367933876 0.867 8.55439322999e-39
0.0449270850953 -0.059367933876 0.867 8.55759239438e-39
0.0466389632348 -0.0595048841271 0.869 8.46508427496e-39
0.0487468866951 -0.0601211602573 0.878 1.00259079578e-38
0.0503717829183 -0.0601211602573 0.878 1.63783568328e-38
0.00323128565565 -0.0581631418016 0.873 8.72440296358e-39
0.00483582440905 -0.0580298929086 0.871 1.41631828191e-38
0.00644776587873 -0.0580298929086 0.871 1.94121035484e-38
0.00805970734842 -0.0580298929086 0.871 1.64636650808e-38
0.0096716488181 -0.0580298929086 0.871 1.09420558743e-38
0.0112835902878 -0.0580298929086 0.871 7.53053730963e-39
0.0128659208924 -0.0578966440156 0.869 6.71265825054e-39
0.0144741610039 -0.0578966440156 0.869 6.2552576162e-39
0.0160824011154 -0.0578966440156 0.869 5.97652533866e-39
0.017690641227 -0.0578966440156 0.869 6.43570422075e-39
0.0192988813385 -0.0578966440156 0.869 8.91275849666e-39
0.0209071214501 -0.0578966440156 0.869 1.38790387269e-38
0.0225153615616 -0.0578966440156 0.869 1.36960557722e-38
0.0241236016732 -0.0578966440156 0.869 1.28648881997e-38
0.0257318417847 -0.0578966440156 0.869 1.38786701854e-38
0.0272771588079 -0.0577633951226 0.867 1.44292936014e-38
0.0288816975613 -0.0577633951226 0.867 1.21280672503e-38
0.0303807476077 -0.057563521783 0.864 1.30460214405e-38
0.0319797343239 -0.057563521783 0.864 1.21273077466e-38
0.0335787210401 -0.057563521783 0.864 1.0934913456e-38
0.0351777077563 -0.057563521783 0.864 8.54716112861e-39
0.0366915632353 -0.05743027289 0.862 8.09516950635e-39
0.0382868485934 -0.05743027289 0.862 7.45198612291e-39
0.0399746679049 -0.057563521783 0.864 8.37390178389e-39
0.0415736546211 -0.057563521783 0.864 8.37466128766e-39
0.0434224830117 -0.0578966440156 0.869 7.54240911022e-39
0.0450307231232 -0.0578966440156 0.869 1.01177504604e-38
0.0466389632348 -0.0578966440156 0.869 1.54560572161e-38
0.00327570195332 -0.0573247841831 0.885 1.13947761717e-38
0.00488579274393 -0.0570009153459 0.88 7.4386751888e-39
0.00646257131129 -0.0565474989738 0.873 1.24175572962e-38
0.00807821413911 -0.0565474989738 0.873 1.64658174752e-38
0.00969385696694 -0.0565474989738 0.873 1.91355180601e-38
0.0112835902878 -0.0564179514389 0.871 1.489708066e-38
0.0128955317575 -0.0564179514389 0.871 1.09381098178e-38
0.0145074732272 -0.0564179514389 0.871 7.34686631731e-39
0.0161194146968 -0.0564179514389 0.871 6.71008967045e-39
0.0177313561665 -0.0564179514389 0.871 6.62224507232e-39
0.0192988813385 -0.056288403904 0.869 6.62255896317e-39
0.0209071214501 -0.056288403904 0.869 6.43820273591e-39
0.0225153615616 -0.056288403904 0.869 7.17357194012e-39
0.0241236016732 -0.056288403904 0.869 6.62296393843e-39
0.0257318417847 -0.056288403904 0.869 6.99175346438e-39
0.0273400818963 -0.056288403904 0.869 6.90168360428e-39
0.0289483220078 -0.056288403904 0.869 7.0835315073e-39
0.0304862363147 -0.0561588563692 0.867 7.17608306697e-39
0.0320907750681 -0.0561588563692 0.867 7.63745217856e-39
0.0335787210401 -0.0559645350669 0.864 7.8225637057e-39
0.0351777077563 -0.0559645350669 0.864 7.54705581592e-39
0.0367766944725 -0.0559645350669 0.864 7.73070158487e-39
0.0383756811887 -0.0559645350669 0.864 7.45307773441e-39
0.0399746679049 -0.0559645350669 0.864 6.80408036365e-39
0.0418142429001 -0.056288403904 0.869 1.30543773833e-38
0.0434224830117 -0.056288403904 0.869 1.67381584304e-38
0.0450307231232 -0.056288403904 0.869 1.84926850013e-38
0.0466389632348 -0.056288403904 0.869 2.27260637139e-38
0.00327570195332 -0.0556869332064 0.885 1.96930078385e-38
0.00488579274393 -0.0553723177646 0.88 1.43446453651e-38
0.00649958489268 -0.0552464715878 0.878 7.80601717343e-39
0.00809672092981 -0.0550577023227 0.875 7.80601717343e-39
0.00971606511577 -0.0550577023227 0.875 1.32426362268e-38
0.0113094997948 -0.054931856146 0.873 1.64654587428e-38
0.0128955317575 -0.0548060099692 0.871 1.885967526e-38
0.0145074732272 -0.0548060099692 0.871 1.62774829616e-38
0.0161194146968 -0.0548060099692 0.871 1.37007080831e-38
0.0177313561665 -0.0548060099692 0.871 1.14851767383e-38
0.0193432976362 -0.0548060099692 0.871 7.98971619171e-39
0.0209071214501 -0.0546801637925 0.869 7.81610512107e-39
0.0225153615616 -0.0546801637925 0.869 7.45087209063e-39
0.0241236016732 -0.0546801637925 0.869 6.43892300332e-39
0.0257318417847 -0.0546801637925 0.869 6.99030732436e-39
0.0273400818963 -0.0546801637925 0.869 7.63383682852e-39
0.0289483220078 -0.0546801637925 0.869 7.08177708162e-39
0.0305565621193 -0.0546801637925 0.869 8.09624149967e-39
0.0321648022309 -0.0546801637925 0.869 7.63456270113e-39
0.0338507708634 -0.0548060099692 0.871 7.26361377425e-39
0.035462712333 -0.0548060099692 0.871 1.07584689599e-38
0.0370746538027 -0.0548060099692 0.871 1.37918835677e-38
0.0386865952724 -0.0548060099692 0.871 1.52633618617e-38
0.0402985367421 -0.0548060099692 0.871 1.7113716228e-38
0.0420067135234 -0.054931856146 0.873 2.02400411279e-38
0.0435224196815 -0.0548060099692 0.871 2.24422993736e-38
0.0451343611511 -0.0548060099692 0.871 2.06038336235e-38
0.0467463026208 -0.0548060099692 0.871 1.64611833812e-38
0.00327570195332 -0.0540490822297 0.885 8.45426204692e-39
0.00489689681835 -0.0538658650018 0.882 1.64662364634e-38
0.0065291957578 -0.0538658650018 0.882 1.71147700044e-38
0.00814298790655 -0.0537437201832 0.88 1.2129460141e-38
0.00977158548786 -0.0537437201832 0.88 7.71418167727e-39
0.0113742735622 -0.0536215753646 0.878 7.25500419648e-39
0.0129547534877 -0.0534383581368 0.875 1.24961463179e-38
0.0145407854504 -0.0533162133182 0.873 1.51704473657e-38
0.0161564282782 -0.0533162133182 0.873 1.66537932564e-38
0.0177720711061 -0.0533162133182 0.873 1.74817476515e-38
