# .PCD v0.7 - Point Cloud Data file format
VERSION 0.7
FIELDS x y z rgb
SIZE 4 4 4 4
TYPE F F F F
COUNT 1 1 1 1
WIDTH 849
HEIGHT 1
VIEWPOINT 0 0 0 1 0 0 0
POINTS 849
DATA ascii
-0.0142724369853 -0.121315714375 0.964 1.60278976921e-38
-0.0125272466226 -0.121693252905 0.967 1.80536834158e-38
-0.0107376399622 -0.121693252905 0.967 1.63012672004e-38
-0.0089757934879 -0.122070791436 0.97 1.67626054835e-38
-0.00720284293916 -0.122448329966 0.973 1.5935348935e-38
-0.00540213220437 -0.122448329966 0.973 1.50123402613e-38
-0.00360882418586 -0.122700022319 0.975 1.59364055141e-38
-0.00180441209293 -0.122700022319 0.975 1.49212166247e-38
0.0 -0.123077560849 0.978 1.49223110388e-38
0.00180996413014 -0.123077560849 0.978 1.44598881508e-38
0.00361992826028 -0.123077560849 0.978 1.49204991599e-38
0.00542989239041 -0.123077560849 0.978 1.44595196093e-38
0.00723985652055 -0.123077560849 0.978 1.49201852691e-38
0.00904982065069 -0.123077560849 0.978 1.39985344535e-38
0.0108597847808 -0.123077560849 0.978 1.48286384404e-38
0.012669748911 -0.123077560849 0.978 1.40921818286e-38
0.0144797130411 -0.123077560849 0.978 1.37219727873e-38
0.0162896771712 -0.123077560849 0.978 1.38127236784e-38
0.0180441209293 -0.122700022319 0.975 1.41804089812e-38
0.0198485330222 -0.122700022319 0.975 1.38127012576e-38
0.0216085288175 -0.122448329966 0.973 1.36283071953e-38
0.0234092395523 -0.122448329966 0.973 1.31691311158e-38
0.0251322217661 -0.122070791436 0.97 1.32598974213e-38
0.0269273804637 -0.122070791436 0.97 1.31684066445e-38
0.0287225391613 -0.122070791436 0.97 1.42754646612e-38
0.0305176978589 -0.122070791436 0.97 1.28000361068e-38
0.0322129198867 -0.121693252905 0.967 1.27081711834e-38
0.0340025265471 -0.121693252905 0.967 1.33524335666e-38
0.0357921332074 -0.121693252905 0.967 1.24308261913e-38
0.0374651470864 -0.121315714375 0.964 1.31698401728e-38
0.0391677718305 -0.121064022022 0.962 1.12333816211e-38
0.0408204282397 -0.120686483491 0.959 1.00305168284e-38
0.0424619805745 -0.120308944961 0.956 1.78635902726e-38
0.0441386958117 -0.120057252608 0.954 2.35098141489e-38
0.0459042436441 -0.120057252608 0.954 1.41843928727e-38
0.0476697914766 -0.120057252608 0.954 9.18368974565e-40
0.0494353393091 -0.120057252608 0.954 1.52844542062e-38
-0.0247176696545 -0.118291704775 0.954 4.40822853115e-39
-0.0229521218221 -0.118291704775 0.954 2.75506488474e-39
-0.0211865739896 -0.118291704775 0.954 1.914899715e-38
-0.019522813506 -0.118911682264 0.959 2.35029982332e-38
-0.0178035326502 -0.119283668757 0.962 1.88867105113e-38
-0.0160564916085 -0.119531659752 0.964 1.84235393298e-38
-0.0142724369853 -0.119531659752 0.964 1.74097629493e-38
-0.0125272466226 -0.119903646245 0.967 1.65789274846e-38
-0.0107709521855 -0.120275632738 0.97 1.63005637486e-38
-0.0089757934879 -0.120275632738 0.97 1.67618726044e-38
-0.00720284293916 -0.120647619231 0.973 1.57505821273e-38
-0.00541323627879 -0.120895610226 0.975 1.54747211103e-38
-0.00360882418586 -0.120895610226 0.975 1.4737881944e-38
-0.00180996413014 -0.121267596719 0.978 1.47382378738e-38
0.0 -0.121267596719 0.978 1.45516732002e-38
0.00180996413014 -0.121267596719 0.978 1.48264972563e-38
0.00361992826028 -0.121267596719 0.978 1.41807775227e-38
0.00542989239041 -0.121267596719 0.978 1.46421186083e-38
0.00723985652055 -0.121267596719 0.978 1.37212118822e-38
0.00904982065069 -0.121267596719 0.978 1.36293889977e-38
0.0108597847808 -0.121267596719 0.978 1.37226608248e-38
0.012669748911 -0.121267596719 0.978 1.31687541665e-38
0.0144797130411 -0.121267596719 0.978 1.33528175224e-38
0.0162896771712 -0.121267596719 0.978 1.32598862109e-38
0.0180996413014 -0.121267596719 0.978 1.31673346512e-38
0.0198485330222 -0.120895610226 0.975 1.28903736149e-38
0.0216529451152 -0.120895610226 0.975 1.40910285599e-38
0.0234092395523 -0.120647619231 0.973 1.32627546688e-38
0.0252099502871 -0.120647619231 0.973 1.31684458809e-38
0.0269273804637 -0.120275632738 0.97 1.30755047602e-38
0.0287225391613 -0.120275632738 0.97 1.33535027574e-38
0.0305176978589 -0.120275632738 0.97 1.30765851613e-38
0.0322129198867 -0.119903646245 0.967 1.21560862131e-38
0.0340025265471 -0.119903646245 0.967 1.14170624225e-38
0.0357921332074 -0.119903646245 0.967 1.19669543607e-38
0.0374651470864 -0.119531659752 0.964 8.83450298392e-39
0.0391677718305 -0.119283668757 0.962 1.45355036172e-38
0.0409481250955 -0.119283668757 0.962 2.34979815847e-38
0.0425952294675 -0.118911682264 0.959 2.35001031506e-38
0.0443700306954 -0.118911682264 0.959 5.79464800838e-39
0.0461448319232 -0.118911682264 0.959 2.47962705989e-39
0.047919633151 -0.118911682264 0.959 8.93220851934e-39
-0.0229521218221 -0.116526156943 0.954 4.41244503823e-39
-0.0211865739896 -0.116526156943 0.954 5.14926318505e-39
-0.019522813506 -0.117136881036 0.959 1.2881476771e-38
-0.0178035326502 -0.117503315492 0.962 2.21992988056e-38
-0.0160564916085 -0.117747605129 0.964 2.18337883181e-38
-0.0142724369853 -0.117747605129 0.964 1.93491880499e-38
-0.0125272466226 -0.118114039585 0.967 1.60268439157e-38
-0.0107709521855 -0.11848047404 0.97 1.53775312527e-38
-0.00900355367395 -0.118846908496 0.973 1.52885151691e-38
-0.00721764837172 -0.119091198133 0.975 1.52892410417e-38
-0.00542989239041 -0.119457632589 0.978 1.5105610687e-38
-0.00361992826028 -0.119457632589 0.978 1.36301106664e-38
-0.00180996413014 -0.119457632589 0.978 1.45502690991e-38
0.0 -0.119457632589 0.978 1.54728517782e-38
0.00180996413014 -0.119457632589 0.978 1.41811152356e-38
0.00363103233469 -0.119824067045 0.981 1.36279568707e-38
0.00544654850204 -0.119824067045 0.981 1.37205084304e-38
0.00726206466939 -0.119824067045 0.981 1.34460697313e-38
0.00904982065069 -0.119457632589 0.978 1.29829377863e-38
0.0108597847808 -0.119457632589 0.978 1.37208461433e-38
0.012669748911 -0.119457632589 0.978 1.30762320341e-38
0.0144797130411 -0.119457632589 0.978 1.31673738875e-38
0.0162896771712 -0.119457632589 0.978 1.27989374888e-38
0.0180996413014 -0.119457632589 0.978 1.28918267614e-38
0.0199096054315 -0.119457632589 0.978 1.34453508652e-38
0.0216529451152 -0.119091198133 0.975 1.29850509444e-38
0.0234573572081 -0.119091198133 0.975 1.27081361509e-38
0.0252099502871 -0.118846908496 0.973 1.3999222491e-38
0.0270106610218 -0.118846908496 0.973 1.20620478758e-38
0.0287225391613 -0.11848047404 0.97 1.24311611017e-38
0.0305176978589 -0.11848047404 0.97 1.2337924307e-38
0.0323128565565 -0.11848047404 0.97 9.66496850581e-39
0.0340025265471 -0.118114039585 0.967 1.19676816346e-38
0.0357921332074 -0.118114039585 0.967 1.46385733232e-38
0.0374651470864 -0.117747605129 0.964 2.34965606681e-38
0.0392492017096 -0.117747605129 0.964 2.35047050147e-38
0.0409481250955 -0.117503315492 0.962 1.57492621042e-38
0.0427284783606 -0.117503315492 0.962 3.58159556055e-39
0.0445088316256 -0.117503315492 0.962 3.31757831818e-39
0.0462891848906 -0.117503315492 0.962 7.91481959139e-39
-0.0213642391803 -0.115722962227 0.962 4.22766141493e-39
-0.0195838859153 -0.115722962227 0.962 6.25426129299e-39
-0.0178035326502 -0.115722962227 0.962 7.99650408148e-39
-0.0160564916085 -0.115963550506 0.964 1.46198477718e-38
-0.014316853283 -0.116324432924 0.967 1.85100288724e-38
-0.0125661108831 -0.116685315343 0.97 2.34996561364e-38
-0.0107709521855 -0.116685315343 0.97 2.2665925589e-38
-0.00902206046465 -0.11728678604 0.975 1.79617400196e-38
-0.00723985652055 -0.117647668459 0.978 1.67547175744e-38
-0.00542989239041 -0.117647668459 0.978 1.36204431083e-38
-0.00361992826028 -0.117647668459 0.978 1.35339465593e-38
-0.00180996413014 -0.117647668459 0.978 1.53785415889e-38
0.0 -0.117647668459 0.978 1.39038206903e-38
0.00181551616735 -0.118008550878 0.981 1.36294086159e-38
0.00363103233469 -0.118008550878 0.981 1.36279989097e-38
0.00544654850204 -0.118008550878 0.981 1.40900266315e-38
0.00726206466939 -0.118008550878 0.981 1.30791018934e-38
0.00907758083674 -0.118008550878 0.981 1.2985814652e-38
0.0108930970041 -0.118008550878 0.981 1.3259839968e-38
0.0127086131714 -0.118008550878 0.981 1.2799290616e-38
0.0145241293388 -0.118008550878 0.981 1.29826295006e-38
0.0162896771712 -0.117647668459 0.978 1.27985745525e-38
0.0180996413014 -0.117647668459 0.978 1.24305277148e-38
0.0199096054315 -0.117647668459 0.978 1.04937062267e-38
0.0217195695617 -0.117647668459 0.978 1.21539057927e-38
0.0234573572081 -0.11728678604 0.975 1.16911297775e-38
0.025261769301 -0.11728678604 0.975 1.0675517696e-38
0.0270661813939 -0.11728678604 0.975 1.04882593796e-38
0.0288113717566 -0.117046197761 0.973 1.30661216657e-38
0.0306120824914 -0.117046197761 0.973 1.50959165043e-38
0.0323128565565 -0.116685315343 0.97 2.33052189679e-38
0.034108015254 -0.116685315343 0.97 2.29429819136e-38
0.0357921332074 -0.116324432924 0.967 2.27611326093e-38
0.0375817398678 -0.116324432924 0.967 1.27093272546e-38
0.0393713465282 -0.116324432924 0.967 2.29592103511e-39
0.0410332563327 -0.115963550506 0.964 3.77972795302e-39
0.0428173109559 -0.115963550506 0.964 2.57685335124e-39
0.0446013655791 -0.115963550506 0.964 1.19620568225e-38
0.0463854202022 -0.115963550506 0.964 2.0805191805e-38
-0.0178960666037 -0.114534826264 0.967 1.65306695681e-39
-0.0161064599433 -0.114534826264 0.967 4.59394401792e-39
-0.014316853283 -0.114534826264 0.967 5.78563625795e-39
-0.0125661108831 -0.114890156645 0.97 8.08226214619e-39
-0.0107709521855 -0.114890156645 0.97 1.40778465453e-38
-0.00902206046465 -0.115482373947 0.975 1.98911640531e-38
-0.00723985652055 -0.115837704329 0.978 2.3495640015e-38
-0.00542989239041 -0.115837704329 0.978 2.34964920044e-38
-0.00361992826028 -0.115837704329 0.978 2.1835558158e-38
-0.00181551616735 -0.11619303471 0.981 1.85120369331e-38
0.0 -0.11619303471 0.981 1.70302156551e-38
0.00181551616735 -0.11619303471 0.981 1.66639666833e-38
0.00363103233469 -0.11619303471 0.981 1.41728713967e-38
0.00544654850204 -0.11619303471 0.981 1.32533715743e-38
0.00726206466939 -0.11619303471 0.981 1.21495491558e-38
0.00907758083674 -0.11619303471 0.981 1.08591886883e-38
0.0108930970041 -0.11619303471 0.981 1.27938451702e-38
0.0127086131714 -0.11619303471 0.981 1.05812075067e-38
0.0145241293388 -0.11619303471 0.981 1.31594481434e-38
0.0163396455061 -0.11619303471 0.981 1.24246969118e-38
0.0180996413014 -0.115837704329 0.978 1.39009494297e-38
0.0199096054315 -0.115837704329 0.978 1.50995318543e-38
0.0217195695617 -0.115837704329 0.978 1.5372161477e-38
0.0235295336918 -0.115837704329 0.978 1.80465522079e-38
0.0253394978219 -0.115837704329 0.978 2.14645153442e-38
0.0271494619521 -0.115837704329 0.978 2.3500837431e-38
0.0288705934869 -0.115482373947 0.975 2.31323688024e-38
0.0306120824914 -0.115245487027 0.973 2.19316802262e-38
0.0323128565565 -0.114890156645 0.97 1.62129924037e-38
0.034108015254 -0.114890156645 0.97 7.26296637436e-39
0.0357921332074 -0.114534826264 0.967 1.19389648252e-39
0.0355607983237 -0.10837576632 0.915 4.24207236834e-39
0.0372541696725 -0.10837576632 0.915 3.96013532121e-39
0.0411609531886 -0.114534826264 0.967 6.71702469655e-39
0.0429505598489 -0.114534826264 0.967 1.58323156629e-38
0.042473084649 -0.108731096701 0.918 2.14455838019e-38
0.0441720080349 -0.108731096701 0.918 2.20883916374e-38
-0.0180996413014 -0.114027740199 0.978 1.12265601002e-38
-0.0162896771712 -0.114027740199 0.978 7.35696127145e-39
-0.0144352967434 -0.113677961855 0.975 4.31846695672e-39
-0.0126049751435 -0.113444776292 0.973 2.94164777526e-39
-0.0108042644087 -0.113444776292 0.973 2.38774251829e-39
-0.00902206046465 -0.113677961855 0.975 4.86728129637e-39
-0.00723985652055 -0.114027740199 0.978 6.06114274643e-39
-0.00542989239041 -0.114027740199 0.978 1.02934858995e-38
-0.00361992826028 -0.114027740199 0.978 1.20581957063e-38
-0.00181551616735 -0.114377518543 0.981 1.74018820468e-38
0.0 -0.114377518543 0.981 1.94351955458e-38
0.00181551616735 -0.114377518543 0.981 2.14660203387e-38
0.00363103233469 -0.114377518543 0.981 2.34968815654e-38
0.00544654850204 -0.114377518543 0.981 2.29458097339e-38
0.00726206466939 -0.114377518543 0.981 2.35018505698e-38
0.00907758083674 -0.114377518543 0.981 2.3501466614e-38
0.0108930970041 -0.114377518543 0.981 2.18419831115e-38
0.0127086131714 -0.114377518543 0.981 2.26713682323e-38
0.0145241293388 -0.114377518543 0.981 2.2395491801e-38
0.0163396455061 -0.114377518543 0.981 2.2303314388e-38
0.0181551616735 -0.114377518543 0.981 1.99055287636e-38
0.0199096054315 -0.114027740199 0.978 2.07341908144e-38
0.0217195695617 -0.114027740199 0.978 1.84256889217e-38
0.0235295336918 -0.114027740199 0.978 1.53796990615e-38
0.0253394978219 -0.114027740199 0.978 9.93738513117e-39
0.0271494619521 -0.114027740199 0.978 4.13265478035e-39
0.0288705934869 -0.113677961855 0.975 2.75506488474e-40
0.0306120824914 -0.113444776292 0.973 0.0
0.0324127932262 -0.113444776292 0.973 5.51073232782e-40
0.0321740556262 -0.106682394971 0.915 4.60263907489e-39
0.033867426975 -0.106682394971 0.915 3.77282795938e-39
0.0355607983237 -0.106682394971 0.915 8.09493408821e-39
0.0372541696725 -0.106682394971 0.915 1.3523268665e-38
0.039075237877 -0.107032173315 0.918 1.90506259978e-38
0.040774161263 -0.107032173315 0.918 1.92306886466e-38
0.042473084649 -0.107032173315 0.918 2.25414622594e-38
0.0441720080349 -0.107032173315 0.918 1.87761872988e-38
0.0458709314209 -0.107032173315 0.918 1.02138921468e-38
-0.0206091621199 -0.106480670953 0.928 8.09919543684e-39
-0.0188306595339 -0.106136444646 0.925 1.24234007108e-38
-0.0171187813945 -0.106136444646 0.925 1.56501720859e-38
-0.0153236226969 -0.105562734134 0.92 1.51826877078e-38
-0.01354697079 -0.104989023622 0.915 1.13144915788e-38
-0.0118535994412 -0.104989023622 0.915 1.05754313544e-38
-0.0101602280925 -0.104989023622 0.915 5.14282141601e-39
-0.00904982065069 -0.112217776069 0.978 4.14018956219e-39
-0.00723985652055 -0.112217776069 0.978 3.68427570552e-39
-0.00542989239041 -0.112217776069 0.978 1.84139446393e-39
-0.00363103233469 -0.112562002376 0.981 9.20203274254e-40
-0.00181551616735 -0.112562002376 0.981 9.18425026503e-41
0.0 -0.112562002376 0.981 0.0
0.00181551616735 -0.112562002376 0.981 2.80259692865e-44
0.00363103233469 -0.112562002376 0.981 0.0
0.00544654850204 -0.112562002376 0.981 2.80259692865e-45
0.00726206466939 -0.112562002376 0.981 1.83701820882e-40
0.00907758083674 -0.112562002376 0.981 7.00649232162e-45
0.0108930970041 -0.112562002376 0.981 9.18761338135e-41
0.0127086131714 -0.112562002376 0.981 2.75516297563e-40
0.0145241293388 -0.112562002376 0.981 2.52233723578e-44
0.0163396455061 -0.112562002376 0.981 1.83670992316e-40
0.0180996413014 -0.112217776069 0.978 9.1835496158e-41
0.0199096054315 -0.112217776069 0.978 0.0
0.0217195695617 -0.112217776069 0.978 9.18382987549e-40
0.0235295336918 -0.112217776069 0.978 1.6541739826e-39
0.0253394978219 -0.112217776069 0.978 3.96260020521e-39
0.0271494619521 -0.112217776069 0.978 3.59348697932e-39
0.0289594260822 -0.112217776069 0.978 4.6054654939e-39
0.0306750055798 -0.111873549762 0.975 4.60476204207e-39
0.0305806209472 -0.105333249929 0.918 4.8734624239e-39
0.0321740556262 -0.104989023622 0.915 1.2604517136e-38
0.033867426975 -0.104989023622 0.915 1.44469051205e-38
0.0356773911051 -0.105333249929 0.918 1.73892913801e-38
0.0373763144911 -0.105333249929 0.918 2.06068057775e-38
0.039075237877 -0.105333249929 0.918 2.1804627297e-38
0.040774161263 -0.105333249929 0.918 2.17159573341e-38
0.042473084649 -0.105333249929 0.918 1.94197378224e-38
0.0441720080349 -0.105333249929 0.918 1.12294705971e-38
0.0459708680906 -0.105562734134 0.92 1.49177848448e-38
-0.0206091621199 -0.104763240776 0.928 7.91230145805e-39
-0.0188306595339 -0.104424566506 0.925 6.34679463578e-39
-0.0170817678131 -0.10419878366 0.923 1.00385266504e-38
-0.0153236226969 -0.10386010939 0.92 1.3711858215e-38
-0.01354697079 -0.103295652274 0.915 1.67481580963e-38
-0.0118535994412 -0.103295652274 0.915 1.64672524048e-38
-0.0101380199437 -0.103069869427 0.913 1.52734329937e-38
-0.00844834995305 -0.103069869427 0.913 1.08552426318e-38
-0.00675867996244 -0.103069869427 0.913 9.28046481889e-39
-0.00508011404625 -0.103295652274 0.915 6.52184764254e-39
-0.0033867426975 -0.103295652274 0.915 4.31919563192e-39
-0.00181551616735 -0.110746486208 0.981 3.77175876865e-39
0.0 -0.110746486208 0.981 5.3350963809e-39
0.00181551616735 -0.110746486208 0.981 3.40768040814e-39
0.00363103233469 -0.110746486208 0.981 4.69730799655e-39
0.00544654850204 -0.110746486208 0.981 4.05305542238e-39
0.00726206466939 -0.110746486208 0.981 3.68392117701e-39
0.00907758083674 -0.110746486208 0.981 5.25048177573e-39
0.0108930970041 -0.110746486208 0.981 4.23601175248e-39
0.0127086131714 -0.110746486208 0.981 4.32821298754e-39
0.0145241293388 -0.110746486208 0.981 4.23601175248e-39
0.0163396455061 -0.110746486208 0.981 4.42072110696e-39
0.0180996413014 -0.110407811938 0.978 5.06538706417e-39
0.0199096054315 -0.110407811938 0.978 5.06500450969e-39
0.0217195695617 -0.110407811938 0.978 4.60401655128e-39
0.0235295336918 -0.110407811938 0.978 3.40626369539e-39
0.0253394978219 -0.110407811938 0.978 5.06181515438e-39
0.0254005702312 -0.103295652274 0.915 9.37485628345e-39
0.02709394158 -0.103295652274 0.915 1.36097035569e-38
0.0287873129287 -0.103295652274 0.915 1.4995056646e-38
0.0304806842775 -0.103295652274 0.915 1.79470319909e-38
0.0322795443332 -0.103634326543 0.918 1.84941773841e-38
0.0339784677192 -0.103634326543 0.918 2.05156443059e-38
0.0356773911051 -0.103634326543 0.918 2.05124213195e-38
0.0373763144911 -0.103634326543 0.918 2.0237276366e-38
0.039075237877 -0.103634326543 0.918 2.10699741563e-38
0.040774161263 -0.103634326543 0.918 1.78513261084e-38
0.0425656186024 -0.10386010939 0.92 1.06745395896e-38
0.0442682433465 -0.10386010939 0.92 8.84255624619e-39
0.0459708680906 -0.10386010939 0.92 2.04498701586e-38
-0.0223265922965 -0.103045810599 0.928 1.44480920203e-38
-0.0205425376733 -0.102712688367 0.925 1.56484302719e-38
-0.0188306595339 -0.102712688367 0.925 8.91888917744e-39
-0.0170817678131 -0.102490606878 0.923 8.18955116182e-39
-0.0153236226969 -0.102157484646 0.92 6.06475529387e-39
-0.01354697079 -0.101602280925 0.915 1.03943359487e-38
-0.0118535994412 -0.101602280925 0.915 1.47259723084e-38
-0.0101380199437 -0.101380199437 0.913 1.60102847717e-38
-0.00844834995305 -0.101380199437 0.913 1.76669909006e-38
-0.00675867996244 -0.101380199437 0.913 1.70236687887e-38
-0.00508011404625 -0.101602280925 0.915 1.57315076526e-38
-0.0033867426975 -0.101602280925 0.915 1.35253495932e-38
-0.00169337134875 -0.101602280925 0.915 1.21431606361e-38
0.0 -0.101602280925 0.915 1.0757765508e-38
0.00181551616735 -0.108930970041 0.981 9.37407295761e-39
0.00363103233469 -0.108930970041 0.981 9.1907578951e-39
0.00544654850204 -0.108930970041 0.981 8.27098622077e-39
0.00728427281823 -0.109264092273 0.984 7.35154945678e-39
0.00910534102278 -0.109264092273 0.984 7.72357458088e-39
0.0108930970041 -0.108930970041 0.981 6.98528507066e-39
0.0127086131714 -0.108930970041 0.981 7.35228794107e-39
0.0134433327621 -0.100824995716 0.908 9.00749748323e-39
0.0151237493574 -0.100824995716 0.908 1.07545439229e-38
0.016841179534 -0.101047077204 0.91 1.14920963501e-38
0.0185252974874 -0.101047077204 0.91 1.19509010855e-38
0.0202094154408 -0.101047077204 0.91 1.43490412384e-38
0.0219657098779 -0.101380199437 0.913 1.50007543256e-38
0.0236553798685 -0.101380199437 0.913 1.67517734463e-38
0.0254005702312 -0.101602280925 0.915 1.73892913801e-38
0.02709394158 -0.101602280925 0.915 1.99642445706e-38
0.0287873129287 -0.101602280925 0.915 1.95907957273e-38
0.0304806842775 -0.101602280925 0.915 2.00524745258e-38
0.0322795443332 -0.101935403157 0.918 1.96843786426e-38
0.0339784677192 -0.101935403157 0.918 2.06024113055e-38
0.035755119626 -0.102157484646 0.92 2.01454366659e-38
0.0374577443701 -0.102157484646 0.92 1.96920297322e-38
0.0391603691142 -0.102157484646 0.92 1.51798612888e-38
0.0408629938583 -0.102157484646 0.92 8.83244727907e-39
0.0425656186024 -0.102157484646 0.92 9.4003571129e-39
0.0442682433465 -0.102157484646 0.92 7.64258933873e-39
0.0459708680906 -0.102157484646 0.92 2.35052220939e-38
-0.0223265922965 -0.101328380423 0.928 7.45063667249e-39
-0.0205425376733 -0.101000810227 0.925 1.6756152504e-38
-0.0188306595339 -0.101000810227 0.925 1.41696498116e-38
-0.0170817678131 -0.100782430097 0.923 1.53695999034e-38
-0.0153236226969 -0.100454859902 0.92 8.09120943689e-39
-0.0135913870877 -0.100236479772 0.918 3.03061201087e-39
-0.0118924637017 -0.100236479772 0.918 3.95038508649e-39
-0.0101602280925 -0.0999089095762 0.915 9.839361501e-39
-0.00846685674374 -0.0999089095762 0.915 1.34366810316e-38
-0.006773485395 -0.0999089095762 0.915 1.47267290096e-38
-0.00508011404625 -0.0999089095762 0.915 1.61910788983e-38
-0.0033867426975 -0.0999089095762 0.915 1.83072175443e-38
-0.00169337134875 -0.0999089095762 0.915 1.67413814169e-38
0.0 -0.0999089095762 0.915 1.83079111871e-38
0.00169337134875 -0.0999089095762 0.915 1.60970629817e-38
0.0033867426975 -0.0999089095762 0.915 1.73892507424e-38
0.00508011404625 -0.0999089095762 0.915 1.74836295953e-38
0.00728427281823 -0.107443024069 0.984 1.67474728613e-38
0.00910534102278 -0.107443024069 0.984 1.74857651741e-38
0.0100824995716 -0.0991445791204 0.908 1.70247856235e-38
0.0117629161668 -0.0991445791204 0.908 1.65609530292e-38
0.0134433327621 -0.0991445791204 0.908 1.82186793035e-38
0.0151237493574 -0.0991445791204 0.908 1.83998083404e-38
0.016841179534 -0.0993629592506 0.91 1.89529849221e-38
0.0185252974874 -0.0993629592506 0.91 1.92299417545e-38
0.0202094154408 -0.0993629592506 0.91 1.8764267854e-38
0.0219657098779 -0.099690529446 0.913 1.95929369113e-38
0.0236553798685 -0.099690529446 0.913 1.91330783995e-38
0.0254005702312 -0.0999089095762 0.915 1.96844136751e-38
0.02709394158 -0.0999089095762 0.915 1.90368988781e-38
0.0287873129287 -0.0999089095762 0.915 2.00496663237e-38
0.0304806842775 -0.0999089095762 0.915 1.95929088853e-38
0.0322795443332 -0.100236479772 0.918 2.08833071879e-38
0.0339784677192 -0.100236479772 0.918 1.90401737126e-38
0.035755119626 -0.100454859902 0.92 1.56393666734e-38
0.0374577443701 -0.100454859902 0.92 1.0579415246e-38
0.0391603691142 -0.100454859902 0.92 8.18996174227e-39
0.0408629938583 -0.100454859902 0.92 7.74195681413e-39
0.0425656186024 -0.100454859902 0.92 8.47656791588e-39
0.0442682433465 -0.100454859902 0.92 1.61094882952e-38
0.0459708680906 -0.100454859902 0.92 2.35098856151e-38
-0.0223265922965 -0.099610950246 0.928 2.02049021676e-39
-0.0205425376733 -0.0992889320879 0.925 1.32535018951e-38
-0.0188306595339 -0.0992889320879 0.925 1.47253445267e-38
-0.0170817678131 -0.0990742533158 0.923 1.78541959677e-38
-0.0153236226969 -0.0987522351576 0.92 1.56422841768e-38
-0.0135913870877 -0.0985375563856 0.918 1.37094101465e-38
-0.0118924637017 -0.0985375563856 0.918 9.74784970479e-39
-0.0101602280925 -0.0982155382274 0.915 4.68368877677e-39
-0.00846685674374 -0.0982155382274 0.915 1.5612833087e-39
-0.006773485395 -0.0982155382274 0.915 6.34138001852e-39
-0.00508011404625 -0.0982155382274 0.915 1.02974908105e-38
-0.0033867426975 -0.0982155382274 0.915 1.22343207064e-38
-0.00169337134875 -0.0982155382274 0.915 1.43543563634e-38
0.0 -0.0982155382274 0.915 1.59205484207e-38
0.00169337134875 -0.0982155382274 0.915 1.70204458022e-38
0.0033867426975 -0.0982155382274 0.915 1.77533277016e-38
0.00506900997183 -0.0980008594554 0.913 1.84906012705e-38
0.00675867996244 -0.0980008594554 0.913 1.7567514124e-38
0.008420589767 -0.0976788412972 0.91 1.83039819462e-38
0.0100824995716 -0.0974641625252 0.908 1.77505335125e-38
0.0117629161668 -0.0974641625252 0.908 1.85769745052e-38
0.0134433327621 -0.0974641625252 0.908 1.86698735869e-38
0.0151237493574 -0.0974641625252 0.908 1.92227152583e-38
0.016841179534 -0.0976788412972 0.91 1.86706400971e-38
0.0185252974874 -0.0976788412972 0.91 1.80285623382e-38
0.0202760398873 -0.0980008594554 0.913 1.91319629659e-38
0.0219657098779 -0.0980008594554 0.913 1.88542578401e-38
0.0236553798685 -0.0980008594554 0.913 1.94993063518e-38
0.0254005702312 -0.0982155382274 0.915 1.93145549584e-38
0.02709394158 -0.0982155382274 0.915 1.92234971829e-38
0.0287873129287 -0.0982155382274 0.915 2.0701121572e-38
0.0304806842775 -0.0982155382274 0.915 1.683818872e-38
0.0322795443332 -0.0985375563856 0.918 1.5183388357e-38
0.0339784677192 -0.0985375563856 0.918 9.00782818967e-39
0.035755119626 -0.0987522351576 0.92 7.54281969067e-39
0.0374577443701 -0.0987522351576 0.92 7.37209529486e-39
0.0391603691142 -0.0987522351576 0.92 7.74048965464e-39
0.0408629938583 -0.0987522351576 0.92 7.09371614454e-39
0.0425656186024 -0.0987522351576 0.92 1.48280891314e-38
0.0442682433465 -0.0987522351576 0.92 2.04336627406e-38
-0.0223265922965 -0.0978935200693 0.928 6.53829468262e-39
-0.0206091621199 -0.0978935200693 0.928 8.36791123295e-39
-0.0188306595339 -0.0975770539484 0.925 1.06817450663e-38
-0.0171187813945 -0.0975770539484 0.925 1.5738420258e-38
-0.0153735910318 -0.0973660765345 0.923 1.67463882563e-38
-0.0135913870877 -0.0968386329996 0.918 1.53587972936e-38
-0.0118924637017 -0.0968386329996 0.918 1.67431232309e-38
-0.0101602280925 -0.0965221668787 0.915 1.33369576264e-38
-0.00846685674374 -0.0965221668787 0.915 9.56202351543e-39
-0.006773485395 -0.0965221668787 0.915 5.7856825008e-39
-0.00508011404625 -0.0965221668787 0.915 1.74489824908e-39
-0.0033867426975 -0.0965221668787 0.915 2.39526608974e-39
-0.00169337134875 -0.0965221668787 0.915 3.31402322398e-39
0.0 -0.0965221668787 0.915 6.0626253202e-39
0.00169337134875 -0.0965221668787 0.915 9.74215342653e-39
0.0033867426975 -0.0965221668787 0.915 1.33387877222e-38
0.00506900997183 -0.0963111894648 0.913 1.34363222992e-38
0.00675867996244 -0.0963111894648 0.913 1.55532050347e-38
0.008420589767 -0.0959947233438 0.91 1.50001153335e-38
0.0101047077204 -0.0959947233438 0.91 1.78541777508e-38
0.0117629161668 -0.0957837459299 0.908 1.76636922441e-38
0.0134433327621 -0.0957837459299 0.908 1.88593823886e-38
0.0151570615806 -0.0959947233438 0.91 1.81225404197e-38
0.016841179534 -0.0959947233438 0.91 1.90459288454e-38
0.0185252974874 -0.0959947233438 0.91 1.84941927984e-38
0.0202760398873 -0.0963111894648 0.913 1.82161639727e-38
0.0219657098779 -0.0963111894648 0.913 1.76658614541e-38
0.0236553798685 -0.0963111894648 0.913 1.63794414379e-38
0.0254005702312 -0.0965221668787 0.915 1.45377106623e-38
0.02709394158 -0.0965221668787 0.915 1.22328577508e-38
0.0287873129287 -0.0965221668787 0.915 1.1768267054e-38
0.0304806842775 -0.0965221668787 0.915 8.45682081792e-39
0.0322795443332 -0.0968386329996 0.918 4.97067330097e-39
0.0340524948819 -0.0970496104135 0.92 6.81816061062e-39
0.035755119626 -0.0970496104135 0.92 7.55502359899e-39
0.0374577443701 -0.0970496104135 0.92 8.20218667007e-39
0.03928806597 -0.0973660765345 0.923 4.97170745923e-39
0.0408629938583 -0.0970496104135 0.92 1.61144278723e-38
0.0425656186024 -0.0970496104135 0.92 2.26477395376e-38
0.0442682433465 -0.0970496104135 0.92 1.40742311952e-38
-0.0240440224732 -0.0961760898927 0.928 2.35098856151e-38
-0.0223265922965 -0.0961760898927 0.928 1.2721554985e-38
-0.0206091621199 -0.0961760898927 0.928 1.08485990758e-38
-0.0188917319432 -0.0961760898927 0.928 5.15687643961e-39
-0.0171187813945 -0.095865175809 0.925 1.01260699694e-38
-0.0153735910318 -0.0956578997532 0.923 1.44494779045e-38
-0.0136209979528 -0.0953469856695 0.92 1.6007431728e-38
-0.0119183732087 -0.0953469856695 0.92 1.83994201807e-38
-0.0101935403157 -0.0951397096136 0.918 1.75707132884e-38
-0.00849461692979 -0.0951397096136 0.918 1.71119618023e-38
-0.00679569354383 -0.0951397096136 0.918 1.63772876421e-38
-0.00509677015787 -0.0951397096136 0.918 1.3159037563e-38
-0.0033867426975 -0.0948287955299 0.915 9.00852463501e-39
-0.00169337134875 -0.0948287955299 0.915 5.41837134474e-39
0.0 -0.0948287955299 0.915 4.60228594768e-39
0.00169337134875 -0.0948287955299 0.915 4.23455019818e-39
0.0033867426975 -0.0948287955299 0.915 3.68248764868e-39
0.00506900997183 -0.0946215194741 0.913 2.48426255521e-39
0.00675867996244 -0.0946215194741 0.913 5.24440574558e-39
0.008420589767 -0.0943106053904 0.91 5.42229778303e-39
0.0101047077204 -0.0943106053904 0.91 6.89131679824e-39
0.0117888256738 -0.0943106053904 0.91 1.0938852506e-38
0.0134729436272 -0.0943106053904 0.91 1.06597572921e-38
0.0151570615806 -0.0943106053904 0.91 9.92299239465e-39
0.016841179534 -0.0943106053904 0.91 9.27759636093e-39
0.0185252974874 -0.0943106053904 0.91 1.04775436502e-38
0.0202760398873 -0.0946215194741 0.913 9.18860409936e-39
0.0219657098779 -0.0946215194741 0.913 8.54543052501e-39
0.0236553798685 -0.0946215194741 0.913 7.63462295696e-39
0.0254005702312 -0.0948287955299 0.915 5.42768857823e-39
0.02709394158 -0.0948287955299 0.915 5.5267183407e-39
0.0287873129287 -0.0948287955299 0.915 5.89659667555e-39
0.0305806209472 -0.0951397096136 0.918 5.80692058033e-39
0.0322795443332 -0.0951397096136 0.918 7.18840748696e-39
0.0340524948819 -0.0953469856695 0.92 6.08061098599e-39
0.035755119626 -0.0953469856695 0.92 4.97463897562e-39
0.0375798891887 -0.0956578997532 0.923 9.94094022538e-39
0.03928806597 -0.0956578997532 0.923 1.76795325219e-38
0.0409962427514 -0.0956578997532 0.923 2.19064988928e-38
0.0427044195327 -0.0956578997532 0.923 1.98799985069e-38
-0.0243031175429 -0.0954765332043 0.938 2.35098856151e-38
-0.0223747099523 -0.0946622344137 0.93 1.95447546649e-38
-0.0206535784175 -0.0946622344137 0.93 1.28818971605e-38
-0.0189324468827 -0.0946622344137 0.93 7.91087914011e-39
-0.0171743017665 -0.094458659716 0.928 3.95939263302e-39
-0.015406903255 -0.0941532976695 0.925 6.44258039231e-39
-0.0136654142505 -0.0939497229719 0.923 1.18662458426e-38
-0.0119572374691 -0.0939497229719 0.923 1.56436854753e-38
-0.0102490606878 -0.0939497229719 0.923 1.6097829492e-38
-0.00849461692979 -0.0934407862277 0.918 1.73849935977e-38
-0.00679569354383 -0.0934407862277 0.918 1.70150564083e-38
-0.00509677015787 -0.0934407862277 0.918 1.7568570703e-38
-0.0033867426975 -0.0931354241812 0.915 1.87700776375e-38
-0.00169337134875 -0.0931354241812 0.915 1.56432959143e-38
0.0 -0.0931354241812 0.915 1.09445670011e-38
0.00169337134875 -0.0931354241812 0.915 1.07537998334e-38
0.0033867426975 -0.0931354241812 0.915 7.35160691001e-39
0.00508011404625 -0.0931354241812 0.915 3.49341465079e-39
0.00675867996244 -0.0929318494835 0.913 3.95943467198e-39
0.00844834995305 -0.0929318494835 0.913 5.06613115366e-39
0.0101047077204 -0.092626487437 0.91 4.32856611475e-39
0.0117888256738 -0.092626487437 0.91 4.79020707824e-39
0.0134729436272 -0.092626487437 0.91 4.23601175248e-39
0.0151570615806 -0.092626487437 0.91 4.69841922623e-39
0.0168966999061 -0.0929318494835 0.913 5.15832958612e-39
0.0185863698967 -0.0929318494835 0.913 4.60515160304e-39
0.0202760398873 -0.0929318494835 0.913 4.883867065e-39
0.0219657098779 -0.0929318494835 0.913 5.62000838466e-39
0.0236553798685 -0.0929318494835 0.913 5.34484801691e-39
0.0254005702312 -0.0931354241812 0.915 5.80617228695e-39
0.02709394158 -0.0931354241812 0.915 6.35720207948e-39
0.0287873129287 -0.0931354241812 0.915 5.80259897586e-39
0.0305806209472 -0.0934407862277 0.918 5.80574909481e-39
0.0323498701378 -0.0936443609254 0.92 3.77535169791e-39
0.0340524948819 -0.0936443609254 0.92 1.10397600084e-38
0.035755119626 -0.0936443609254 0.92 1.45403268865e-38
0.0375798891887 -0.0939497229719 0.923 2.00658667352e-38
0.03928806597 -0.0939497229719 0.923 2.1260008445e-38
0.0410850753467 -0.0941532976695 0.925 2.01562070459e-38
0.0427969534861 -0.0941532976695 0.925 9.47531116646e-39
-0.0225671805756 -0.093740596237 0.938 2.35098856151e-38
-0.020720202864 -0.0932409128882 0.933 1.15878961196e-38
-0.018993519292 -0.0932409128882 0.933 1.61072251982e-38
-0.01726683572 -0.0932409128882 0.933 1.0674512965e-38
-0.0154568715899 -0.0927412295394 0.928 5.70425164574e-39
-0.0136950251156 -0.0924414195301 0.925 3.04034543e-39
-0.0119572374691 -0.0922415461905 0.923 5.79178095172e-39
-0.0102490606878 -0.0922415461905 0.923 1.13148475086e-38
-0.00854088390653 -0.0922415461905 0.923 1.45397831827e-38
-0.00679569354383 -0.0917418628417 0.918 1.72998703212e-38
-0.00509677015787 -0.0917418628417 0.918 1.72026874701e-38
-0.00339784677192 -0.0917418628417 0.918 1.67402547729e-38
-0.00169892338596 -0.0917418628417 0.918 1.79348420956e-38
0.0 -0.0917418628417 0.918 1.81218173497e-38
0.00169337134875 -0.0914420528324 0.915 1.82179183984e-38
0.0033867426975 -0.0914420528324 0.915 1.69314549419e-38
0.00508011404625 -0.0914420528324 0.915 1.38951732775e-38
0.006773485395 -0.0914420528324 0.915 1.10346494729e-38
0.00844834995305 -0.0912421794929 0.913 1.01963352783e-38
0.0101380199437 -0.0912421794929 0.913 6.42857441416e-39
0.0118276899343 -0.0912421794929 0.913 6.16095163085e-39
0.0135173599249 -0.0912421794929 0.913 4.14237698909e-39
0.0152070299155 -0.0912421794929 0.913 5.06468361234e-39
0.0168966999061 -0.0912421794929 0.913 5.06286893083e-39
0.0186270848362 -0.0914420528324 0.915 5.06538706417e-39
0.020320456185 -0.0914420528324 0.915 5.15828614586e-39
0.0220138275337 -0.0914420528324 0.915 5.06574019138e-39
0.0237071988825 -0.0914420528324 0.915 4.7012736712e-39
0.0254005702312 -0.0914420528324 0.915 3.68676861549e-39
0.02709394158 -0.0914420528324 0.915 3.96085418732e-39
0.0288816975613 -0.0917418628417 0.918 7.0854470823e-39
0.0305806209472 -0.0917418628417 0.918 1.12223534022e-38
0.0323498701378 -0.0919417361813 0.92 1.66596324671e-38
0.0341635356261 -0.0922415461905 0.923 1.86832279613e-38
0.0358717124074 -0.0922415461905 0.923 2.10713516327e-38
0.0375798891887 -0.0922415461905 0.923 1.84963423903e-38
0.0393731972073 -0.0924414195301 0.925 1.53675315869e-38
0.0410850753467 -0.0924414195301 0.925 1.07689212451e-38
0.0427969534861 -0.0924414195301 0.925 8.47410723577e-39
-0.0243031175429 -0.0920046592696 0.938 2.35098856151e-38
-0.0225671805756 -0.0920046592696 0.938 2.35098856151e-38
-0.0208312436082 -0.0920046592696 0.938 3.94896697245e-39
-0.0190342342316 -0.0917104012975 0.935 1.60132092816e-38
-0.0173038493014 -0.0917104012975 0.935 1.69329753507e-38
-0.0154568715899 -0.0910237993627 0.928 1.48164289269e-38
-0.0137394414132 -0.0910237993627 0.928 6.1594480376e-39
-0.0119831469761 -0.0907295413906 0.925 4.87634909874e-39
-0.0102712688367 -0.0907295413906 0.925 2.76196347708e-39
-0.00854088390653 -0.0905333694092 0.923 4.78487653888e-39
-0.00681049897639 -0.0902391114372 0.92 9.2880276267e-39
-0.00510787423229 -0.0902391114372 0.92 1.35260796697e-38
-0.00339784677192 -0.0900429394558 0.918 1.47242122775e-38
-0.00169892338596 -0.0900429394558 0.918 1.74799876206e-38
0.0 -0.0900429394558 0.918 1.70147116889e-38
0.00169892338596 -0.0900429394558 0.918 1.77525906186e-38
0.00339784677192 -0.0900429394558 0.918 1.6643748749e-38
0.00509677015787 -0.0900429394558 0.918 1.83966063734e-38
0.006773485395 -0.0897486814837 0.915 1.85813227343e-38
0.00846685674374 -0.0897486814837 0.915 1.76608392004e-38
0.0101602280925 -0.0897486814837 0.915 1.7205250445e-38
0.0118535994412 -0.0897486814837 0.915 1.4352203969e-38
0.01354697079 -0.0897486814837 0.915 1.35214105433e-38
0.0152403421387 -0.0897486814837 0.915 1.2226769109e-38
0.0169337134875 -0.0897486814837 0.915 1.26884661244e-38
0.0186270848362 -0.0897486814837 0.915 1.15806906429e-38
0.020320456185 -0.0897486814837 0.915 1.15825095283e-38
0.0220138275337 -0.0897486814837 0.915 1.23182584844e-38
0.0237071988825 -0.0897486814837 0.915 1.24133253748e-38
0.0254005702312 -0.0897486814837 0.915 1.41718596592e-38
0.02709394158 -0.0897486814837 0.915 1.58305724476e-38
0.0288816975613 -0.0900429394558 0.918 1.73035277102e-38
0.0305806209472 -0.0900429394558 0.918 1.97895432897e-38
0.0323498701378 -0.0902391114372 0.92 1.91455779818e-38
0.0341635356261 -0.0905333694092 0.923 1.54624429332e-38
0.0358717124074 -0.0905333694092 0.923 1.33391408494e-38
0.0375798891887 -0.0905333694092 0.923 9.47168320474e-39
0.0393731972073 -0.0907295413906 0.925 8.47338556706e-39
0.0410850753467 -0.0907295413906 0.925 9.2199609551e-39
0.0427969534861 -0.0907295413906 0.925 3.86794109264e-39
-0.0243031175429 -0.0902687223023 0.938 2.35098856151e-38
-0.0225671805756 -0.0902687223023 0.938 2.35098856151e-38
-0.0208312436082 -0.0902687223023 0.938 3.67347589826e-40
-0.0190342342316 -0.0899800163674 0.935 1.44530540182e-38
-0.0173038493014 -0.0899800163674 0.935 1.59253170393e-38
-0.015540152148 -0.0897875457442 0.933 1.84988787405e-38
-0.013813468576 -0.0897875457442 0.933 1.4444794765e-38
-0.0120479207436 -0.0894988398093 0.93 1.24197559335e-38
-0.0103045810599 -0.089306369186 0.928 8.92063239273e-39
-0.00855939069723 -0.0890176632512 0.925 4.40959339585e-39
-0.00683270712523 -0.0888251926279 0.923 3.31478132645e-39
-0.00510787423229 -0.0885364866931 0.92 1.37753664627e-39
-0.00340524948819 -0.0885364866931 0.92 4.96204270373e-39
-0.0017026247441 -0.0885364866931 0.92 1.12147849892e-38
0.0 -0.0885364866931 0.92 1.3251308863e-38
0.00169892338596 -0.0883440160698 0.918 1.4264674663e-38
0.00339784677192 -0.0883440160698 0.918 1.75764922432e-38
0.00509677015787 -0.0883440160698 0.918 1.82172177492e-38
0.00679569354383 -0.0883440160698 0.918 1.93203381171e-38
0.00849461692979 -0.0883440160698 0.918 1.8121095681e-38
0.0101602280925 -0.0880553101349 0.915 1.85784388621e-38
0.0118535994412 -0.0880553101349 0.915 1.91301454818e-38
0.01354697079 -0.0880553101349 0.915 2.07922227877e-38
0.0152403421387 -0.0880553101349 0.915 1.9041269528e-38
0.0169337134875 -0.0880553101349 0.915 2.05192890832e-38
0.0186270848362 -0.0880553101349 0.915 1.86749560964e-38
0.020320456185 -0.0880553101349 0.915 2.07917757735e-38
0.0220138275337 -0.0880553101349 0.915 2.0335937587e-38
0.0237071988825 -0.0880553101349 0.915 1.90469980361e-38
0.0254838507894 -0.0883440160698 0.918 1.78527456238e-38
0.0271827741753 -0.0883440160698 0.918 1.67492749312e-38
0.0288816975613 -0.0883440160698 0.918 1.50911759116e-38
0.0306472453938 -0.0885364866931 0.92 1.14938858082e-38
0.0324553588448 -0.0888251926279 0.923 8.64051282971e-39
0.0342375627889 -0.0890176632512 0.925 6.90248234441e-39
0.0359494409284 -0.0890176632512 0.925 5.7114977601e-39
0.0376613190678 -0.0890176632512 0.925 8.20111747934e-39
0.0393731972073 -0.0890176632512 0.925 9.12308919226e-39
0.0410850753467 -0.0890176632512 0.925 8.84935114245e-39
-0.0243031175429 -0.0885327853349 0.938 2.35098856151e-38
-0.0225671805756 -0.0885327853349 0.938 2.35098856151e-38
-0.0208312436082 -0.0885327853349 0.938 5.70815005807e-39
-0.0190342342316 -0.0882496314373 0.935 4.59800918477e-39
-0.0173038493014 -0.0882496314373 0.935 9.75828937835e-39
-0.0155734643713 -0.0882496314373 0.935 1.53706957188e-38
-0.0138430794411 -0.0882496314373 0.935 1.62868492405e-38
-0.0120479207436 -0.0877777082745 0.93 1.72977739787e-38
-0.0103267892088 -0.0877777082745 0.93 1.57304160411e-38
-0.00858715088327 -0.0875889390094 0.928 1.4261810409e-38
-0.00684751255778 -0.0873057851117 0.925 9.01028186328e-39
-0.00513563441834 -0.0873057851117 0.925 8.26811776282e-39
-0.00341635356261 -0.0871170158466 0.923 4.5057266744e-39
-0.00170817678131 -0.0871170158466 0.923 3.7750013733e-39
0.0 -0.0871170158466 0.923 2.02116143872e-39
0.0017026247441 -0.086833861949 0.92 3.03133788347e-39
0.00340524948819 -0.086833861949 0.92 8.08698592332e-39
0.00510787423229 -0.086833861949 0.92 1.01091717112e-38
0.00679569354383 -0.0866450926839 0.918 1.36989858873e-38
0.00849461692979 -0.0866450926839 0.918 1.41699300713e-38
0.0101935403157 -0.0866450926839 0.918 1.51841198348e-38
0.0118924637017 -0.0866450926839 0.918 1.59235023578e-38
0.01354697079 -0.0863619387862 0.915 1.51848527139e-38
0.0152403421387 -0.0863619387862 0.915 1.49064315246e-38
0.0169337134875 -0.0863619387862 0.915 1.53695999034e-38
0.0186270848362 -0.0863619387862 0.915 1.49089944995e-38
0.020320456185 -0.0863619387862 0.915 1.31540307236e-38
0.0220138275337 -0.0863619387862 0.915 1.2408654847e-38
0.0237071988825 -0.0863619387862 0.915 1.07491012796e-38
0.0254838507894 -0.0866450926839 0.918 9.37626038451e-39
0.0271827741753 -0.0866450926839 0.918 5.79429768376e-39
0.0288816975613 -0.0866450926839 0.918 5.06357238266e-39
0.0307471820635 -0.0871170158466 0.923 6.35682933409e-39
0.0325256846495 -0.0873057851117 0.925 7.09765379322e-39
0.0342375627889 -0.0873057851117 0.925 7.09728805432e-39
0.0359494409284 -0.0873057851117 0.925 7.74230433615e-39
0.0376613190678 -0.0873057851117 0.925 8.38621499349e-39
0.0395008940631 -0.0875889390094 0.928 9.03124388701e-39
0.0412183242397 -0.0875889390094 0.928 9.86206393742e-39
-0.0208756599059 -0.0869819162745 0.94 1.54877770081e-38
-0.0190953066409 -0.0867968483676 0.938 9.45917521464e-39
-0.0173593696735 -0.0867968483676 0.938 4.13331899582e-39
-0.0156234327062 -0.0867968483676 0.938 8.46908778467e-39
-0.0138430794411 -0.0865192465071 0.935 1.18755560696e-38
-0.012086785004 -0.0863341786002 0.933 1.54639451251e-38
-0.0103267892088 -0.0860565767397 0.93 1.76640061349e-38
-0.00858715088327 -0.0858715088327 0.928 1.68299308682e-38
-0.00686972070662 -0.0858715088327 0.928 1.80324733622e-38
-0.00515229052996 -0.0858715088327 0.928 1.59173688744e-38
-0.00342375627889 -0.0855939069723 0.925 1.37093176608e-38
-0.00170817678131 -0.0854088390653 0.923 9.83401694866e-39
0.0 -0.0854088390653 0.923 9.74105761113e-39
0.00170817678131 -0.0854088390653 0.923 7.16680927373e-39
0.00341635356261 -0.0854088390653 0.923 3.85823429818e-39
0.00512453034392 -0.0854088390653 0.923 3.58591856631e-39
0.00683270712523 -0.0854088390653 0.923 3.58741094918e-39
0.00851312372049 -0.0851312372049 0.92 3.31406806553e-39
0.0102157484646 -0.0851312372049 0.92 3.49550819069e-39
0.0119183732087 -0.0851312372049 0.92 2.75584260539e-39
0.0135913870877 -0.0849461692979 0.918 5.98049101331e-39
0.0152903104736 -0.0849461692979 0.918 4.59721885243e-39
0.0169892338596 -0.0849461692979 0.918 3.39791896304e-39
0.0186881572455 -0.0849461692979 0.918 3.49841448371e-39
0.0203870806315 -0.0849461692979 0.918 5.06284791135e-39
0.0220860040175 -0.0849461692979 0.918 5.15545692426e-39
0.0237849274034 -0.0849461692979 0.918 5.3402013112e-39
0.0254838507894 -0.0849461692979 0.918 5.80295210308e-39
0.0271827741753 -0.0849461692979 0.918 6.35679710422e-39
0.0289446206497 -0.0851312372049 0.92 6.26571270404e-39
0.0307471820635 -0.0854088390653 0.923 7.09691390763e-39
0.0325256846495 -0.0855939069723 0.925 6.82104728545e-39
0.0343486035331 -0.0858715088327 0.928 7.09763837894e-39
0.0360660337097 -0.0858715088327 0.928 7.18768441696e-39
0.0377834638864 -0.0858715088327 0.928 8.47807010783e-39
0.0395008940631 -0.0858715088327 0.928 8.57097059082e-39
0.0412183242397 -0.0858715088327 0.928 8.66355017646e-39
-0.0226874747151 -0.0855143277723 0.943 2.35098856151e-38
-0.0208756599059 -0.085242277949 0.94 1.93599906598e-38
-0.0191360215804 -0.085242277949 0.94 1.39856943557e-38
-0.0173963832549 -0.085242277949 0.94 9.47027349848e-39
-0.0156234327062 -0.0850609114002 0.938 5.60922539298e-39
-0.0138874957388 -0.0850609114002 0.938 1.75140447785e-39
-0.012112694511 -0.084788861577 0.935 8.18533325344e-39
-0.010360101432 -0.0846074950282 0.933 1.29718268907e-38
-0.00860565767397 -0.0843354452049 0.93 1.49093406202e-38
-0.00686972070662 -0.0841540786561 0.928 1.62868674574e-38
-0.00515229052996 -0.0841540786561 0.928 1.79399091909e-38
-0.00343486035331 -0.0841540786561 0.928 1.72002309939e-38
-0.00171187813945 -0.0838820288328 0.925 1.95042991782e-38
0.0 -0.0838820288328 0.925 1.75736027658e-38
0.00171187813945 -0.0838820288328 0.925 1.60113399495e-38
0.00342375627889 -0.0838820288328 0.925 1.45401419151e-38
0.00513563441834 -0.0838820288328 0.925 1.17714872379e-38
0.00684751255778 -0.0838820288328 0.925 1.13981000517e-38
0.00854088390653 -0.083700662284 0.923 1.12140577153e-38
0.0102490606878 -0.083700662284 0.923 9.65217885473e-39
0.0119572374691 -0.083700662284 0.923 1.05748063753e-38
0.0136654142505 -0.083700662284 0.923 8.36315522596e-39
0.0153735910318 -0.083700662284 0.923 1.02045538938e-38
0.017026247441 -0.0834286124608 0.92 1.11246730901e-38
0.0187288721851 -0.0834286124608 0.92 1.22292283878e-38
0.0204314969292 -0.0834286124608 0.92 1.12187114275e-38
0.0221341216733 -0.0834286124608 0.92 1.25047937308e-38
0.0239144749383 -0.083700662284 0.923 1.49050694625e-38
0.0256781720917 -0.0838820288328 0.925 1.14148890086e-38
0.0273900502311 -0.0838820288328 0.925 6.63376935089e-39
0.0291963130031 -0.0841540786561 0.928 6.26645118833e-39
0.0309137431798 -0.0841540786561 0.928 6.45154169599e-39
0.0326311733564 -0.0841540786561 0.928 6.72811737519e-39
0.0343486035331 -0.0841540786561 0.928 7.00433432199e-39
0.0360660337097 -0.0841540786561 0.928 7.55681445843e-39
0.0377834638864 -0.0841540786561 0.928 9.12343951687e-39
0.0395008940631 -0.0841540786561 0.928 9.21560992336e-39
0.0412183242397 -0.0841540786561 0.928 8.84865329581e-39
-0.0226874747151 -0.0837691374096 0.943 2.35098856151e-38
-0.0208756599059 -0.0835026396236 0.94 2.35098856151e-38
-0.0191360215804 -0.0835026396236 0.94 5.14281861341e-39
-0.0173963832549 -0.0835026396236 0.94 1.776842389e-38
-0.0156234327062 -0.0833249744329 0.938 1.20513153308e-38
-0.0138874957388 -0.0833249744329 0.938 5.33580263532e-39
-0.012112694511 -0.0830584766468 0.935 4.14669999485e-39
-0.010360101432 -0.0828808114561 0.933 2.21345882438e-39
-0.00860565767397 -0.0826143136701 0.93 4.41677785308e-39
-0.00686972070662 -0.0824366484794 0.928 1.05773217061e-38
-0.00515229052996 -0.0824366484794 0.928 1.2050611879e-38
-0.00343486035331 -0.0824366484794 0.928 1.46320166477e-38
-0.00171187813945 -0.0821701506934 0.925 1.66574100077e-38
0.0 -0.0821701506934 0.925 1.7480398201e-38
0.00171187813945 -0.0821701506934 0.925 1.86752840003e-38
0.00342375627889 -0.0821701506934 0.925 1.83984070419e-38
0.00513563441834 -0.0821701506934 0.925 1.97812854379e-38
0.00684751255778 -0.0821701506934 0.925 1.81236152156e-38
0.00855939069723 -0.0821701506934 0.925 1.84919815494e-38
0.0102490606878 -0.0819924855027 0.923 1.81246661895e-38
0.0119572374691 -0.0819924855027 0.923 1.88622312284e-38
0.0136654142505 -0.0819924855027 0.923 1.79434825019e-38
0.0153735910318 -0.0819924855027 0.923 1.96026703304e-38
0.017026247441 -0.0817259877167 0.92 1.96015731137e-38
0.0187288721851 -0.0817259877167 0.92 1.82211820225e-38
0.0204314969292 -0.0817259877167 0.92 1.69365374514e-38
0.0221341216733 -0.0817259877167 0.92 1.43593407821e-38
0.0239662939522 -0.0821701506934 0.925 1.1773238861e-38
0.0256781720917 -0.0821701506934 0.925 8.46006482386e-39
0.0274788828265 -0.0824366484794 0.928 6.91072898587e-39
0.0291963130031 -0.0824366484794 0.928 6.72633071965e-39
0.0309803676263 -0.0826143136701 0.93 6.72633071965e-39
0.0327014991611 -0.0826143136701 0.93 6.63343444056e-39
0.0345336714401 -0.0828808114561 0.933 7.83377689601e-39
0.0362603550121 -0.0828808114561 0.933 7.64866256627e-39
0.0379870385841 -0.0828808114561 0.933 7.73980161709e-39
0.0397988533933 -0.0830584766468 0.935 9.95285406492e-39
0.0415292383234 -0.0830584766468 0.935 7.00544274907e-39
-0.0209422843524 -0.0820239470469 0.943 2.35098856151e-38
-0.0191970939897 -0.0820239470469 0.943 7.34756836784e-40
-0.0173963832549 -0.0817630012981 0.94 1.03904697662e-38
-0.0156234327062 -0.0815890374655 0.938 1.56502169274e-38
-0.0138874957388 -0.0815890374655 0.938 1.45441398197e-38
-0.012112694511 -0.0813280917167 0.935 7.44945257529e-39
-0.010360101432 -0.0811541278841 0.933 4.69303683883e-39
-0.00860565767397 -0.0808931821353 0.93 2.85627226503e-39
-0.00686972070662 -0.0807192183028 0.928 3.96085418732e-39
-0.00515229052996 -0.0807192183028 0.928 2.11692897837e-39
-0.00343486035331 -0.0807192183028 0.928 3.21823466485e-39
-0.00171743017665 -0.0807192183028 0.928 6.24701657993e-39
0.0 -0.0807192183028 0.928 1.07545411203e-38
0.00171743017665 -0.0807192183028 0.928 1.21363811541e-38
0.00342375627889 -0.0804582725539 0.925 1.3891640604e-38
0.00513563441834 -0.0804582725539 0.925 1.389343847e-38
0.00686972070662 -0.0807192183028 0.928 1.50032780641e-38
0.00855939069723 -0.0804582725539 0.925 1.53720759978e-38
0.0102712688367 -0.0804582725539 0.925 1.38015118894e-38
0.0119831469761 -0.0804582725539 0.925 1.53684550426e-38
0.0136950251156 -0.0804582725539 0.925 1.36185891905e-38
0.0153735910318 -0.0802843087214 0.923 1.26955707076e-38
0.0170817678131 -0.0802843087214 0.923 1.14891844519e-38
0.0187899445944 -0.0802843087214 0.923 1.03896486053e-38
