# .PCD v0.7 - Point Cloud Data file format
VERSION 0.7
FIELDS x y z rgb
SIZE 4 4 4 4
TYPE F F F F
COUNT 1 1 1 1
WIDTH 848
HEIGHT 1
VIEWPOINT 0 0 0 1 0 0 0
POINTS 848
DATA ascii
0.00904982065069 -0.117647668459 0.978 1.33545593364e-38
0.0108597847808 -0.117647668459 0.978 1.29836468433e-38
0.012669748911 -0.117647668459 0.978 1.37218732951e-38
0.0144797130411 -0.117647668459 0.978 1.30762054095e-38
0.0162896771712 -0.117647668459 0.978 1.27992780043e-38
0.0180996413014 -0.117647668459 0.978 1.33538558846e-38
0.0198485330222 -0.11728678604 0.975 1.26145168018e-38
0.0216529451152 -0.11728678604 0.975 1.22453783526e-38
0.0234573572081 -0.11728678604 0.975 1.28910756654e-38
0.025261769301 -0.11728678604 0.975 1.23393690458e-38
0.0270106610218 -0.117046197761 0.973 1.15089077278e-38
0.0288113717566 -0.117046197761 0.973 1.26148419031e-38
0.0305176978589 -0.116685315343 0.97 1.01255809162e-38
0.0323128565565 -0.116685315343 0.97 1.10453708074e-38
0.0340025265471 -0.116324432924 0.967 1.38969501239e-38
0.0356810924633 -0.115963550506 0.964 2.33959068007e-38
0.0374651470864 -0.115963550506 0.964 2.09151040514e-38
0.0391677718305 -0.115722962227 0.962 1.74163168223e-38
0.0406927313839 -0.115001197389 0.956 5.43306255784e-39
0.0424619805745 -0.115001197389 0.956 1.65383346707e-39
0.0442312297651 -0.115001197389 0.956 3.87407177343e-39
0.0460004789557 -0.115001197389 0.956 1.32562708608e-38
-0.0240440224732 -0.109915531306 0.928 2.57144854306e-39
-0.0223265922965 -0.109915531306 0.928 1.53760654946e-38
-0.0206091621199 -0.109915531306 0.928 1.50044075107e-38
-0.0196856732641 -0.114534826264 0.967 7.44735483149e-39
-0.0178960666037 -0.114534826264 0.967 1.01019045774e-39
-0.0161064599433 -0.114534826264 0.967 0.0
-0.014316853283 -0.114534826264 0.967 1.51064290453e-38
-0.0125661108831 -0.114890156645 0.97 2.30362074978e-38
-0.0107709521855 -0.114890156645 0.97 2.349578575e-38
-0.00900355367395 -0.115245487027 0.973 1.77799874049e-38
-0.00721764837172 -0.115482373947 0.975 1.79535382197e-38
-0.00541323627879 -0.115482373947 0.975 1.56486853082e-38
-0.00361992826028 -0.115837704329 0.978 1.32580827397e-38
-0.00180996413014 -0.115837704329 0.978 1.3072620888e-38
0.0 -0.115837704329 0.978 1.33506314968e-38
0.00180996413014 -0.115837704329 0.978 1.29839971679e-38
0.00361992826028 -0.115837704329 0.978 1.27992135446e-38
0.00542989239041 -0.115837704329 0.978 1.33527390497e-38
0.00723985652055 -0.115837704329 0.978 1.24315268406e-38
0.00904982065069 -0.115837704329 0.978 1.26141076227e-38
0.0108597847808 -0.115837704329 0.978 1.27070641576e-38
0.012669748911 -0.115837704329 0.978 1.26145336174e-38
0.0144797130411 -0.115837704329 0.978 1.28907421564e-38
0.0162896771712 -0.115837704329 0.978 1.24305305174e-38
0.0180996413014 -0.115837704329 0.978 1.22453783526e-38
0.0199096054315 -0.115837704329 0.978 1.14141757477e-38
0.0217195695617 -0.115837704329 0.978 1.20584311244e-38
0.0234573572081 -0.115482373947 0.975 8.83270932188e-39
0.025261769301 -0.115482373947 0.975 1.09499479872e-38
0.0270661813939 -0.115482373947 0.975 1.42682774014e-38
0.0288113717566 -0.115245487027 0.973 1.62036989923e-38
0.0306120824914 -0.115245487027 0.973 2.23813667125e-38
0.0323128565565 -0.114890156645 0.97 2.11931034498e-38
0.0340025265471 -0.114534826264 0.967 2.11044783284e-38
0.0357921332074 -0.114534826264 0.967 1.27088746352e-38
0.0354830698028 -0.108138879399 0.913 3.95075783189e-39
0.0371727397934 -0.108138879399 0.913 8.26893612112e-40
0.038862409784 -0.108138879399 0.913 3.77896424535e-39
0.0405520797746 -0.108138879399 0.913 6.16851724126e-39
0.0422417497652 -0.108138879399 0.913 1.43609410649e-38
0.0440276550675 -0.10837576632 0.915 2.1633591813e-38
-0.0257614526498 -0.108198101129 0.928 2.35098856151e-38
-0.0240440224732 -0.108198101129 0.928 5.51953528477e-39
-0.0223265922965 -0.108198101129 0.928 7.72644023624e-39
-0.0206091621199 -0.108198101129 0.928 1.38081372285e-38
-0.0198485330222 -0.113677961855 0.975 1.6200843146e-38
-0.0180071073479 -0.113444776292 0.973 9.93267396574e-39
-0.0161564282782 -0.113094997948 0.97 5.60198067992e-39
-0.0143612695806 -0.113094997948 0.97 0.0
-0.0125661108831 -0.113094997948 0.97 1.74492207115e-39
-0.0107709521855 -0.113094997948 0.97 1.01207198119e-38
-0.0089757934879 -0.113094997948 0.97 1.79540048521e-38
-0.00721764837172 -0.113677961855 0.975 2.27470285403e-38
-0.00541323627879 -0.113677961855 0.975 2.34922194454e-38
-0.00361992826028 -0.114027740199 0.978 2.21135253266e-38
-0.00180996413014 -0.114027740199 0.978 2.03607587867e-38
0.0 -0.114027740199 0.978 1.86964912512e-38
0.00180996413014 -0.114027740199 0.978 1.74018820468e-38
0.00363103233469 -0.114377518543 0.981 1.64785034302e-38
0.00544654850204 -0.114377518543 0.981 1.60160679305e-38
0.00723985652055 -0.114027740199 0.978 1.52810350379e-38
0.00904982065069 -0.114027740199 0.978 1.46370991572e-38
0.0108597847808 -0.114027740199 0.978 1.38062594886e-38
0.012669748911 -0.114027740199 0.978 1.57419207015e-38
0.0144797130411 -0.114027740199 0.978 1.37151330495e-38
0.0162896771712 -0.114027740199 0.978 1.43572682616e-38
0.0180996413014 -0.114027740199 0.978 1.6107219593e-38
0.0199096054315 -0.114027740199 0.978 1.86872328723e-38
0.0216529451152 -0.113677961855 0.975 1.96116904887e-38
0.0234573572081 -0.113677961855 0.975 2.34005815323e-38
0.0252099502871 -0.113444776292 0.973 2.35033625708e-38
0.0270106610218 -0.113444776292 0.973 2.18427468192e-38
0.0288113717566 -0.113444776292 0.973 1.7966854759e-38
0.0306120824914 -0.113444776292 0.973 1.26105875609e-38
0.0323128565565 -0.113094997948 0.97 6.15585510833e-39
0.0321037298216 -0.106449209408 0.913 1.26116861789e-44
0.0337933998122 -0.106449209408 0.913 2.49258626809e-39
0.0354830698028 -0.106449209408 0.913 5.3444920871e-39
0.0371727397934 -0.106449209408 0.913 3.22292481081e-39
0.038862409784 -0.106449209408 0.913 1.22332655286e-38
0.0405520797746 -0.106449209408 0.913 1.78585862358e-38
0.0423342837187 -0.106682394971 0.915 2.18138982877e-38
0.0440276550675 -0.106682394971 0.915 2.18096593598e-38
-0.0256781720917 -0.106136444646 0.925 2.35098856151e-38
-0.0239662939522 -0.106136444646 0.925 9.21239534469e-39
-0.0222544158128 -0.106136444646 0.925 8.19107577455e-39
-0.0205425376733 -0.106136444646 0.925 8.01168154514e-39
-0.0188306595339 -0.106136444646 0.925 1.32581275813e-38
-0.0171187813945 -0.106136444646 0.925 1.66606708293e-38
-0.0152903104736 -0.105333249929 0.918 1.3251266824e-38
-0.0135913870877 -0.105333249929 0.918 8.09268640547e-39
-0.0126049751435 -0.111644065557 0.973 4.13266318814e-39
-0.0107709521855 -0.11129983925 0.97 3.78350585368e-44
-0.0089757934879 -0.11129983925 0.97 3.85710905552e-39
-0.00721764837172 -0.111873549762 0.975 9.64778998794e-39
-0.00541323627879 -0.111873549762 0.975 1.59130626843e-38
-0.00361992826028 -0.112217776069 0.978 1.19602141151e-38
-0.00180996413014 -0.112217776069 0.978 1.6384137189e-38
0.0 -0.112562002376 0.981 1.84092068492e-38
0.00181551616735 -0.112562002376 0.981 2.02527635166e-38
0.00363103233469 -0.112562002376 0.981 2.17289249501e-38
0.00544654850204 -0.112562002376 0.981 2.25615624846e-38
0.00726206466939 -0.112562002376 0.981 2.34918144702e-38
0.00907758083674 -0.112562002376 0.981 2.29375518821e-38
0.0108930970041 -0.112562002376 0.981 2.33063722366e-38
0.0127086131714 -0.112562002376 0.981 2.27542522338e-38
0.0144797130411 -0.112217776069 0.978 2.24805352035e-38
0.0162896771712 -0.112217776069 0.978 2.16514821905e-38
0.0180996413014 -0.112217776069 0.978 1.9069669644e-38
0.0199096054315 -0.112217776069 0.978 1.85124727369e-38
0.0216529451152 -0.111873549762 0.975 1.56512693026e-38
0.0234573572081 -0.111873549762 0.975 9.74939813959e-39
0.0252099502871 -0.111644065557 0.973 3.85710765422e-39
0.0270106610218 -0.111644065557 0.973 0.0
0.0269458872544 -0.104415313111 0.91 5.88545355016e-44
0.0286300052078 -0.104415313111 0.91 4.60515720823e-39
0.0303141231612 -0.104415313111 0.91 4.88138676672e-39
0.0321037298216 -0.104759539418 0.913 4.14701108311e-39
0.0337933998122 -0.104759539418 0.913 4.05163030184e-39
0.0355607983237 -0.104989023622 0.915 9.65434946605e-39
0.0372541696725 -0.104989023622 0.915 1.69354808724e-38
0.0389475410212 -0.104989023622 0.915 2.0340585694e-38
0.04064091237 -0.104989023622 0.915 2.16219316084e-38
0.0423342837187 -0.104989023622 0.915 2.24513741825e-38
0.0441720080349 -0.105333249929 0.918 2.06190251001e-38
0.0458709314209 -0.105333249929 0.918 1.251698783e-38
-0.0256781720917 -0.104424566506 0.925 2.35098856151e-38
-0.0239662939522 -0.104424566506 0.925 1.07832355089e-38
-0.0222544158128 -0.104424566506 0.925 1.34232397767e-38
-0.0205425376733 -0.104424566506 0.925 7.36453949354e-39
-0.0187899445944 -0.10419878366 0.923 7.55107614122e-39
-0.017026247441 -0.10386010939 0.92 1.0863619594e-38
-0.0152903104736 -0.103634326543 0.918 1.41754301677e-38
-0.01354697079 -0.103295652274 0.915 1.47224130103e-38
-0.0118276899343 -0.103069869427 0.913 1.35278425032e-38
-0.0100824995716 -0.102505412311 0.908 9.28974842122e-39
-0.00840208297631 -0.102505412311 0.908 6.33847092291e-39
-0.00723985652055 -0.110407811938 0.978 1.46936793853e-39
-0.00542989239041 -0.110407811938 0.978 1.03126472547e-38
-0.00363103233469 -0.110746486208 0.981 5.05097751206e-39
-0.00181551616735 -0.110746486208 0.981 6.15303009063e-39
0.0 -0.110746486208 0.981 6.97951452359e-39
0.00181551616735 -0.110746486208 0.981 8.44886564654e-39
0.00363103233469 -0.110746486208 0.981 8.0815236619e-39
0.00544654850204 -0.110746486208 0.981 8.35703015038e-39
0.00726206466939 -0.110746486208 0.981 7.98968816575e-39
0.00907758083674 -0.110746486208 0.981 7.16316870032e-39
0.0108930970041 -0.110746486208 0.981 7.16316870032e-39
0.0127086131714 -0.110746486208 0.981 6.88766361315e-39
0.0145241293388 -0.110746486208 0.981 4.68365514561e-39
0.0162896771712 -0.110407811938 0.978 2.29588740395e-39
0.0180996413014 -0.110407811938 0.978 6.42848473106e-40
0.0199096054315 -0.110407811938 0.978 9.18593182319e-41
0.0201205828455 -0.102279629464 0.906 4.32749412142e-39
0.0217972980826 -0.102279629464 0.906 3.95726966585e-39
0.0234740133197 -0.102279629464 0.906 4.32964231197e-39
0.0252062489289 -0.102505412311 0.908 4.70052958172e-39
0.0268866655242 -0.102505412311 0.908 5.16045255329e-39
0.0286300052078 -0.102731195157 0.91 3.22077101507e-39
0.0303141231612 -0.102731195157 0.91 9.38350790017e-39
0.0321037298216 -0.103069869427 0.913 1.18669619062e-38
0.033867426975 -0.103295652274 0.915 1.73928688951e-38
0.0356773911051 -0.103634326543 0.918 1.94154204218e-38
0.0373763144911 -0.103634326543 0.918 2.13461406564e-38
0.039075237877 -0.103634326543 0.918 1.95908587857e-38
0.040774161263 -0.103634326543 0.918 2.26342884736e-38
0.042473084649 -0.103634326543 0.918 1.84012754998e-38
0.0441720080349 -0.103634326543 0.918 1.13173908653e-38
0.0458709314209 -0.103634326543 0.918 1.56636091368e-38
-0.0239662939522 -0.102712688367 0.925 1.45658305186e-38
-0.0222544158128 -0.102712688367 0.925 1.70295948799e-38
-0.0205425376733 -0.102712688367 0.925 9.65968000541e-39
-0.0187288721851 -0.102157484646 0.92 7.73218836254e-39
-0.017026247441 -0.102157484646 0.92 3.95974295764e-39
-0.0152903104736 -0.101935403157 0.918 9.02182996393e-39
-0.01354697079 -0.101602280925 0.915 1.29772148833e-38
-0.0118276899343 -0.101380199437 0.913 1.62898031777e-38
-0.0100824995716 -0.100824995716 0.908 1.58259341496e-38
-0.00840208297631 -0.100824995716 0.908 1.38948201502e-38
-0.0067364718136 -0.101047077204 0.91 1.17757906255e-38
-0.00544654850204 -0.108930970041 0.981 1.30701041559e-38
-0.00363103233469 -0.108930970041 0.981 6.15477190462e-39
-0.00181551616735 -0.108930970041 0.981 6.3445847881e-39
0.0 -0.108930970041 0.981 3.58163059301e-39
0.00181551616735 -0.108930970041 0.981 4.13548400195e-39
0.00363103233469 -0.108930970041 0.981 3.12820404112e-39
0.00544654850204 -0.108930970041 0.981 2.85300443701e-39
0.00726206466939 -0.108930970041 0.981 3.59094082001e-39
0.00907758083674 -0.108930970041 0.981 3.68319110051e-39
0.0108930970041 -0.108930970041 0.981 3.68249045128e-39
0.0127086131714 -0.108930970041 0.981 3.68392397961e-39
0.013413721897 -0.100602914227 0.906 3.59383730393e-39
0.0150904371341 -0.100602914227 0.906 3.40838385997e-39
0.0167671523712 -0.100602914227 0.906 5.06574019138e-39
0.0184438676083 -0.100602914227 0.906 4.42076174461e-39
0.0201205828455 -0.100602914227 0.906 4.51221328499e-39
0.0217972980826 -0.100602914227 0.906 4.04977358138e-39
0.0234740133197 -0.100602914227 0.906 5.97729184892e-39
0.0252062489289 -0.100824995716 0.908 1.04794003707e-38
0.0268866655242 -0.100824995716 0.908 1.37912557859e-38
0.0286300052078 -0.101047077204 0.91 1.44455556701e-38
0.0303141231612 -0.101047077204 0.91 1.80378431379e-38
0.0321740556262 -0.101602280925 0.915 2.0246225058e-38
0.0339784677192 -0.101935403157 0.918 2.10669977984e-38
0.0356773911051 -0.101935403157 0.918 2.07900451699e-38
0.0373763144911 -0.101935403157 0.918 1.98720867758e-38
0.0391603691142 -0.102157484646 0.92 2.17163525003e-38
0.0408629938583 -0.102157484646 0.92 1.83119469266e-38
0.0425656186024 -0.102157484646 0.92 1.25184101479e-38
0.0442682433465 -0.102157484646 0.92 8.38013335816e-39
0.0459708680906 -0.102157484646 0.92 2.34047770199e-38
-0.0240440224732 -0.101328380423 0.928 2.09276863103e-38
-0.0223265922965 -0.101328380423 0.928 1.4445278213e-38
-0.0205425376733 -0.101000810227 0.925 1.60190050521e-38
-0.0187288721851 -0.100454859902 0.92 1.33424296969e-38
-0.017026247441 -0.100454859902 0.92 6.6187053924e-39
-0.0152903104736 -0.100236479772 0.918 5.61498613097e-39
-0.01354697079 -0.0999089095762 0.915 5.33121338285e-39
-0.0118276899343 -0.099690529446 0.913 1.19641643754e-38
-0.0101047077204 -0.0993629592506 0.91 1.33470343637e-38
-0.008420589767 -0.0993629592506 0.91 1.4541634298e-38
-0.0067364718136 -0.0993629592506 0.91 1.61002733565e-38
-0.0050523538602 -0.0993629592506 0.91 1.87751181081e-38
-0.00336083319052 -0.0991445791204 0.908 1.54567606679e-38
-0.00168041659526 -0.0991445791204 0.908 1.49064553467e-38
0.0 -0.0993629592506 0.91 1.49071742128e-38
0.00181551616735 -0.107115453873 0.981 1.40778045063e-38
0.00363103233469 -0.107115453873 0.981 1.30629561325e-38
0.00544654850204 -0.107115453873 0.981 1.17676084437e-38
0.00726206466939 -0.107115453873 0.981 1.06626986176e-38
0.00907758083674 -0.107115453873 0.981 1.08438276545e-38
0.0108930970041 -0.107115453873 0.981 1.0200272927e-38
0.0117629161668 -0.0991445791204 0.908 1.02063966013e-38
0.013413721897 -0.0989261989902 0.906 1.09417503912e-38
0.0150904371341 -0.0989261989902 0.906 9.37269267862e-39
0.0167671523712 -0.0989261989902 0.906 1.07523929297e-38
0.0184438676083 -0.0989261989902 0.906 1.28674679902e-38
0.0201205828455 -0.0989261989902 0.906 1.46231268102e-38
0.0217972980826 -0.0989261989902 0.906 1.555184017e-38
0.0234740133197 -0.0989261989902 0.906 1.71198525139e-38
0.0252062489289 -0.0991445791204 0.908 1.8404483072e-38
0.0269458872544 -0.0993629592506 0.91 1.87693167324e-38
0.0287243898404 -0.099690529446 0.913 2.12542659239e-38
0.030414059831 -0.099690529446 0.913 1.85835367859e-38
0.0321740556262 -0.0999089095762 0.915 1.98706224189e-38
0.0339784677192 -0.100236479772 0.918 1.94997267414e-38
0.0356773911051 -0.100236479772 0.918 2.17145504304e-38
0.0373763144911 -0.100236479772 0.918 1.72063042214e-38
0.0391603691142 -0.100454859902 0.92 1.50908676259e-38
0.0408629938583 -0.100454859902 0.92 9.47813758546e-39
0.0425656186024 -0.100454859902 0.92 1.01365320637e-38
0.0442682433465 -0.100454859902 0.92 4.60229855937e-39
0.0459708680906 -0.100454859902 0.92 2.35080919531e-38
-0.0240440224732 -0.099610950246 0.928 2.35098856151e-38
-0.0223265922965 -0.099610950246 0.928 4.77554108851e-39
-0.0206091621199 -0.099610950246 0.928 1.52788938538e-38
-0.0187899445944 -0.0990742533158 0.923 1.70241186055e-38
-0.017026247441 -0.0987522351576 0.92 1.42650852435e-38
-0.0152903104736 -0.0985375563856 0.918 1.03967826158e-38
-0.01354697079 -0.0982155382274 0.915 6.71125414947e-39
-0.0118276899343 -0.0980008594554 0.913 2.38780837931e-39
-0.0101380199437 -0.0980008594554 0.913 4.22734472148e-39
-0.00844834995305 -0.0980008594554 0.913 7.54025391318e-39
-0.0067364718136 -0.0976788412972 0.91 1.19605672423e-38
-0.0050523538602 -0.0976788412972 0.91 1.40834755612e-38
-0.00336083319052 -0.0974641625252 0.908 1.47238171114e-38
-0.00168041659526 -0.0974641625252 0.908 1.59152332956e-38
0.0 -0.0976788412972 0.91 1.7107312294e-38
0.00168966999061 -0.0980008594554 0.913 1.86770664519e-38
0.00337933998122 -0.0980008594554 0.913 1.77529745744e-38
0.0050523538602 -0.0976788412972 0.91 1.895111559e-38
0.0067364718136 -0.0976788412972 0.91 1.86771183e-38
0.008420589767 -0.0976788412972 0.91 1.88589718082e-38
0.0101047077204 -0.0976788412972 0.91 1.73874963167e-38
0.0117629161668 -0.0974641625252 0.908 1.76647474218e-38
0.0134433327621 -0.0974641625252 0.908 1.80321048207e-38
0.0151237493574 -0.0974641625252 0.908 1.75700476716e-38
0.0167671523712 -0.0972494837531 0.906 1.85852729947e-38
0.0184438676083 -0.0972494837531 0.906 1.95079565672e-38
0.0201205828455 -0.0972494837531 0.906 1.92266977486e-38
0.0218454157384 -0.0974641625252 0.908 1.87657616382e-38
0.0235258323337 -0.0974641625252 0.908 1.89479080178e-38
0.0252062489289 -0.0974641625252 0.908 1.92237634296e-38
0.0269458872544 -0.0976788412972 0.91 1.89493723747e-38
0.0287243898404 -0.0980008594554 0.913 1.89486479034e-38
0.030414059831 -0.0980008594554 0.913 1.93167858255e-38
0.0321740556262 -0.0982155382274 0.915 1.86789385867e-38
0.0339784677192 -0.0985375563856 0.918 1.7579341083e-38
0.0356773911051 -0.0985375563856 0.918 1.29717638323e-38
0.0373763144911 -0.0985375563856 0.918 1.04844030062e-38
0.0391603691142 -0.0987522351576 0.92 8.10462827098e-39
0.0408629938583 -0.0987522351576 0.92 9.03269282962e-39
0.0425656186024 -0.0987522351576 0.92 6.7267441027e-39
0.0442682433465 -0.0987522351576 0.92 1.78626542052e-38
0.0459708680906 -0.0987522351576 0.92 2.35098856151e-38
-0.0240958414871 -0.0981044974833 0.93 2.35098856151e-38
-0.0223747099523 -0.0981044974833 0.93 7.34768047172e-40
-0.0206091621199 -0.0978935200693 0.928 1.15064890866e-38
-0.0188306595339 -0.0975770539484 0.925 1.5464005381e-38
-0.017026247441 -0.0970496104135 0.92 1.56425896599e-38
-0.0153236226969 -0.0970496104135 0.92 1.62854549486e-38
-0.01354697079 -0.0965221668787 0.915 1.40795645372e-38
-0.0118535994412 -0.0965221668787 0.915 9.56313194252e-39
-0.0101380199437 -0.0963111894648 0.913 9.55992577163e-39
-0.00844834995305 -0.0963111894648 0.913 2.75511393019e-39
-0.00675867996244 -0.0963111894648 0.913 2.48247029447e-39
-0.00506900997183 -0.0963111894648 0.913 6.26145415801e-39
-0.0033682359068 -0.0959947233438 0.91 5.79965765039e-39
-0.0016841179534 -0.0959947233438 0.91 8.9149066872e-39
0.0 -0.0959947233438 0.91 1.18608284228e-38
0.0016841179534 -0.0959947233438 0.91 1.28802870686e-38
0.0033682359068 -0.0959947233438 0.91 1.41714224541e-38
0.0050523538602 -0.0959947233438 0.91 1.51844855737e-38
0.0067364718136 -0.0959947233438 0.91 1.49975607664e-38
0.008420589767 -0.0959947233438 0.91 1.78505385787e-38
0.0101047077204 -0.0959947233438 0.91 1.66535045889e-38
0.0117888256738 -0.0959947233438 0.91 1.73903479591e-38
0.0134433327621 -0.0957837459299 0.908 1.79453364198e-38
0.0151237493574 -0.0957837459299 0.908 1.67446030021e-38
0.0168041659526 -0.0957837459299 0.908 1.79435399552e-38
0.0184845825479 -0.0957837459299 0.908 1.78491582997e-38
0.0201649991431 -0.0957837459299 0.908 1.81257648075e-38
0.0218454157384 -0.0957837459299 0.908 1.68371909955e-38
0.0235258323337 -0.0957837459299 0.908 1.69297579695e-38
0.0252062489289 -0.0957837459299 0.908 1.6101792364e-38
0.0269458872544 -0.0959947233438 0.91 1.60142476438e-38
0.0287243898404 -0.0963111894648 0.913 1.35267859242e-38
0.030414059831 -0.0963111894648 0.913 1.26870396025e-38
0.0321740556262 -0.0965221668787 0.915 9.65108444063e-39
0.0339784677192 -0.0968386329996 0.918 6.34571423467e-39
0.0356773911051 -0.0968386329996 0.918 7.37102330154e-39
0.0373763144911 -0.0968386329996 0.918 7.46536011545e-39
0.0391603691142 -0.0970496104135 0.92 8.1107295245e-39
0.0408629938583 -0.0970496104135 0.92 5.16153015181e-39
0.0425656186024 -0.0970496104135 0.92 1.76879038789e-38
0.0442682433465 -0.0970496104135 0.92 1.73069020369e-38
-0.0240440224732 -0.0961760898927 0.928 2.35098856151e-38
-0.0223265922965 -0.0961760898927 0.928 1.03168651631e-38
-0.0206091621199 -0.0961760898927 0.928 8.09102726809e-39
-0.0188306595339 -0.095865175809 0.925 8.37902493107e-39
-0.0170817678131 -0.0956578997532 0.923 1.56469645137e-38
-0.0153236226969 -0.0953469856695 0.92 1.55496751639e-38
-0.0135913870877 -0.0951397096136 0.918 1.56397618396e-38
-0.0118535994412 -0.0948287955299 0.915 1.66531332448e-38
-0.0101380199437 -0.0946215194741 0.913 1.628759333e-38
-0.00844834995305 -0.0946215194741 0.913 1.40813792187e-38
-0.00675867996244 -0.0946215194741 0.913 1.03975421196e-38
-0.00506900997183 -0.0946215194741 0.913 1.10400949187e-38
-0.0033682359068 -0.0943106053904 0.91 5.79750385465e-39
-0.0016841179534 -0.0943106053904 0.91 3.12251196676e-39
0.0 -0.0943106053904 0.91 3.3108156518e-39
0.0016841179534 -0.0943106053904 0.91 2.66574051543e-39
0.0033682359068 -0.0943106053904 0.91 3.39794979161e-39
0.0050523538602 -0.0943106053904 0.91 3.85715950226e-39
0.0067364718136 -0.0943106053904 0.91 7.16824700596e-39
0.008420589767 -0.0943106053904 0.91 7.44414025281e-39
0.0101047077204 -0.0943106053904 0.91 7.53595893338e-39
0.0117888256738 -0.0943106053904 0.91 8.36138258341e-39
0.0134433327621 -0.0941033293346 0.908 9.37838335168e-39
0.0151237493574 -0.0941033293346 0.908 8.82341450917e-39
0.0168041659526 -0.0941033293346 0.908 9.19115306127e-39
0.0184845825479 -0.0941033293346 0.908 1.0387172511e-38
0.0201649991431 -0.0941033293346 0.908 8.73307419847e-39
0.0218454157384 -0.0941033293346 0.908 8.54796407263e-39
0.0235258323337 -0.0941033293346 0.908 8.18492267299e-39
0.0252062489289 -0.0941033293346 0.908 5.51592133603e-39
0.0269458872544 -0.0943106053904 0.91 6.53403053139e-39
0.0287243898404 -0.0946215194741 0.913 5.06538706417e-39
0.0304806842775 -0.0948287955299 0.915 5.61930493284e-39
0.0321740556262 -0.0948287955299 0.915 5.98804681463e-39
0.0339784677192 -0.0951397096136 0.918 6.81676071345e-39
0.0356773911051 -0.0951397096136 0.918 6.17103817719e-39
0.0374577443701 -0.0953469856695 0.92 5.80619891162e-39
0.0391603691142 -0.0953469856695 0.92 9.94601712972e-39
0.0408629938583 -0.0953469856695 0.92 1.64846761499e-38
0.0427044195327 -0.0956578997532 0.923 2.03481863368e-38
0.044412596314 -0.0956578997532 0.923 1.26084772054e-38
-0.0224950040919 -0.0951711711578 0.935 1.20765387032e-38
-0.0206091621199 -0.094458659716 0.928 1.40649966383e-38
-0.0188917319432 -0.094458659716 0.928 5.79680320542e-39
-0.0170817678131 -0.0939497229719 0.923 7.63825231998e-39
-0.0153236226969 -0.0936443609254 0.92 1.23326344053e-38
-0.0135913870877 -0.0934407862277 0.918 1.45391329802e-38
-0.0118924637017 -0.0934407862277 0.918 1.74796653219e-38
-0.0101602280925 -0.0931354241812 0.915 1.54528524465e-38
-0.00846685674374 -0.0931354241812 0.915 1.59134158115e-38
-0.00675867996244 -0.0929318494835 0.913 1.60970685869e-38
-0.00506900997183 -0.0929318494835 0.913 1.72985026539e-38
-0.00337933998122 -0.0929318494835 0.913 1.53675049622e-38
-0.00168966999061 -0.0929318494835 0.913 1.44468798971e-38
0.0 -0.0929318494835 0.913 1.2604822619e-38
0.00168966999061 -0.0929318494835 0.913 1.24175629014e-38
0.00337933998122 -0.0929318494835 0.913 1.13026646198e-38
0.00506900997183 -0.0929318494835 0.913 9.36799692746e-39
0.0067364718136 -0.092626487437 0.91 7.07426331925e-39
0.008420589767 -0.092626487437 0.91 6.98961928682e-39
0.0101047077204 -0.092626487437 0.91 4.2291467913e-39
0.0117888256738 -0.092626487437 0.91 5.42548293444e-39
0.0134729436272 -0.092626487437 0.91 4.32564861135e-39
0.0151237493574 -0.0924229127394 0.908 4.51075173069e-39
0.0168041659526 -0.0924229127394 0.908 4.60440891485e-39
0.0184845825479 -0.0924229127394 0.908 4.23920671298e-39
0.0201649991431 -0.0924229127394 0.908 5.16002375596e-39
0.0218454157384 -0.0924229127394 0.908 4.69841922623e-39
0.0235258323337 -0.0924229127394 0.908 5.34267740559e-39
0.0252062489289 -0.0924229127394 0.908 5.71185368991e-39
0.0269458872544 -0.092626487437 0.91 5.52745962759e-39
0.0287873129287 -0.0931354241812 0.915 5.06538706417e-39
0.0305806209472 -0.0934407862277 0.918 6.44654606697e-39
0.0322795443332 -0.0934407862277 0.918 6.07772571245e-39
0.0340524948819 -0.0936443609254 0.92 5.42735506919e-39
0.035755119626 -0.0936443609254 0.92 1.09522629323e-38
0.0374577443701 -0.0936443609254 0.92 1.39877794878e-38
0.0391603691142 -0.0936443609254 0.92 2.12705153809e-38
0.0409962427514 -0.0939497229719 0.923 1.82284029135e-38
0.0427044195327 -0.0939497229719 0.923 1.08603587725e-38
0.044412596314 -0.0939497229719 0.923 1.3821848934e-38
-0.024225389022 -0.0934407862277 0.935 2.35098856151e-38
-0.0224950040919 -0.0934407862277 0.935 1.76086492404e-38
-0.0207646191617 -0.0934407862277 0.935 1.59189453352e-38
-0.0188917319432 -0.0927412295394 0.928 1.19610030461e-38
-0.0171187813945 -0.0924414195301 0.925 7.82080647742e-39
-0.0153735910318 -0.0922415461905 0.923 4.14596991835e-39
-0.0136209979528 -0.0919417361813 0.92 9.39100344565e-39
-0.0118924637017 -0.0917418628417 0.918 1.2606244937e-38
-0.0101935403157 -0.0917418628417 0.918 1.53709661694e-38
-0.00846685674374 -0.0914420528324 0.915 1.55496905782e-38
-0.006773485395 -0.0914420528324 0.915 1.72971111645e-38
-0.00508011404625 -0.0914420528324 0.915 1.77555529636e-38
-0.0033867426975 -0.0914420528324 0.915 1.58226691242e-38
-0.00169337134875 -0.0914420528324 0.915 1.76590217163e-38
0.0 -0.0914420528324 0.915 1.75703979962e-38
0.00168966999061 -0.0912421794929 0.913 1.74785933286e-38
0.00337933998122 -0.0912421794929 0.913 1.81224997821e-38
0.00508011404625 -0.0914420528324 0.915 1.82172149466e-38
0.00675867996244 -0.0912421794929 0.913 1.61013817836e-38
0.00844834995305 -0.0912421794929 0.913 1.61031964651e-38
0.0101380199437 -0.0912421794929 0.913 1.55521330414e-38
0.0118276899343 -0.0912421794929 0.913 1.4630567705e-38
0.0134729436272 -0.0909423694836 0.91 1.45376560117e-38
0.0151570615806 -0.0909423694836 0.91 1.24165063223e-38
0.016841179534 -0.0909423694836 0.91 1.07574151834e-38
0.0185252974874 -0.0909423694836 0.91 1.14891844519e-38
0.0202094154408 -0.0909423694836 0.91 1.09406994173e-38
0.0218935333942 -0.0909423694836 0.91 1.16778720927e-38
0.0235776513476 -0.0909423694836 0.91 1.02052559443e-38
0.025261769301 -0.0909423694836 0.91 9.83757064156e-39
0.0270347198498 -0.0912421794929 0.913 1.20448889761e-38
0.0287873129287 -0.0914420528324 0.915 1.15885995714e-38
0.0305806209472 -0.0917418628417 0.918 1.21378132811e-38
0.0323498701378 -0.0919417361813 0.92 1.56365738856e-38
0.0340524948819 -0.0919417361813 0.92 1.68429138984e-38
0.035755119626 -0.0919417361813 0.92 1.9608058323e-38
0.0374577443701 -0.0919417361813 0.92 1.92375255818e-38
0.0391603691142 -0.0919417361813 0.92 1.60088778681e-38
0.0409962427514 -0.0922415461905 0.923 1.03097003241e-38
0.0427044195327 -0.0922415461905 0.923 8.38767654779e-39
-0.024225389022 -0.0917104012975 0.935 2.35098856151e-38
-0.0224950040919 -0.0917104012975 0.935 2.33254943554e-38
-0.0207646191617 -0.0917104012975 0.935 1.19610198617e-38
-0.0188917319432 -0.0910237993627 0.928 1.62908905853e-38
-0.0171187813945 -0.0907295413906 0.925 1.35246937856e-38
-0.0153735910318 -0.0905333694092 0.923 4.04076183095e-39
-0.0136654142505 -0.0905333694092 0.923 4.87951182937e-39
-0.0119183732087 -0.0902391114372 0.92 4.23709355489e-39
-0.0101935403157 -0.0900429394558 0.918 6.43931676819e-39
-0.00849461692979 -0.0900429394558 0.918 1.05773217061e-38
-0.006773485395 -0.0897486814837 0.915 1.33452168796e-38
-0.00508011404625 -0.0897486814837 0.915 1.56461139255e-38
-0.0033867426975 -0.0897486814837 0.915 1.69337208415e-38
-0.00169337134875 -0.0897486814837 0.915 1.66484795326e-38
0.0 -0.0897486814837 0.915 1.81225208015e-38
0.00169337134875 -0.0897486814837 0.915 1.82165142973e-38
0.0033867426975 -0.0897486814837 0.915 1.67399745133e-38
0.00508011404625 -0.0897486814837 0.915 1.78426492683e-38
0.006773485395 -0.0897486814837 0.915 1.96851171269e-38
0.00844834995305 -0.0895525095023 0.913 1.8485500544e-38
0.0101380199437 -0.0895525095023 0.913 1.8853994396e-38
0.0118276899343 -0.0895525095023 0.913 1.83944231504e-38
0.0134729436272 -0.0892582515302 0.91 1.90404693866e-38
0.0151570615806 -0.0892582515302 0.91 1.89497226993e-38
0.016841179534 -0.0892582515302 0.91 1.95028908733e-38
0.0185252974874 -0.0892582515302 0.91 1.91359468574e-38
0.0202094154408 -0.0892582515302 0.91 1.95965760834e-38
0.0218935333942 -0.0892582515302 0.91 1.94114421355e-38
0.0235776513476 -0.0892582515302 0.91 1.85860198868e-38
0.0253450498591 -0.0895525095023 0.913 1.868073365e-38
0.0270347198498 -0.0895525095023 0.913 1.88626039738e-38
0.0288816975613 -0.0900429394558 0.918 2.06117831897e-38
0.0305806209472 -0.0900429394558 0.918 1.95972431015e-38
0.0323498701378 -0.0902391114372 0.92 2.16230302264e-38
0.0340524948819 -0.0902391114372 0.92 1.92328564553e-38
0.035755119626 -0.0902391114372 0.92 1.61957031832e-38
0.0374577443701 -0.0902391114372 0.92 1.19648426039e-38
0.0393731972073 -0.0907295413906 0.925 9.39281812716e-39
0.0410850753467 -0.0907295413906 0.925 8.38697589856e-39
0.0427969534861 -0.0907295413906 0.925 6.35755520669e-39
-0.024225389022 -0.0899800163674 0.935 2.35098856151e-38
-0.0224950040919 -0.0899800163674 0.935 2.35098856151e-38
-0.0207646191617 -0.0899800163674 0.935 1.56122725676e-39
-0.0189324468827 -0.0894988398093 0.93 1.61086110824e-38
-0.0171743017665 -0.089306369186 0.928 1.72070511135e-38
-0.0154568715899 -0.089306369186 0.928 1.50930774736e-38
-0.0137394414132 -0.089306369186 0.928 9.75115676916e-39
-0.0119831469761 -0.0890176632512 0.925 5.88223476759e-39
-0.0102490606878 -0.0888251926279 0.923 3.95829681762e-39
-0.00851312372049 -0.0885364866931 0.92 4.05270229517e-39
-0.00679569354383 -0.0883440160698 0.918 1.37867309932e-39
-0.00509677015787 -0.0883440160698 0.918 5.88474309184e-39
-0.00339784677192 -0.0883440160698 0.918 1.34407223764e-38
-0.00169892338596 -0.0883440160698 0.918 1.15877742066e-38
0.0 -0.0883440160698 0.918 1.3250877263e-38
0.00169892338596 -0.0883440160698 0.918 1.55560720914e-38
0.00339784677192 -0.0883440160698 0.918 1.62872402028e-38
0.00508011404625 -0.0880553101349 0.915 1.79420293554e-38
0.006773485395 -0.0880553101349 0.915 1.83987139263e-38
0.00846685674374 -0.0880553101349 0.915 1.87639441541e-38
0.0101602280925 -0.0880553101349 0.915 1.87657616382e-38
0.0118535994412 -0.0880553101349 0.915 1.86731526253e-38
0.0135173599249 -0.0878628395117 0.913 1.88553340373e-38
0.0152070299155 -0.0878628395117 0.913 1.91312595141e-38
0.0168966999061 -0.0878628395117 0.913 1.92242342659e-38
0.0185863698967 -0.0878628395117 0.913 1.92231048193e-38
0.0202760398873 -0.0878628395117 0.913 1.90376597831e-38
0.0219657098779 -0.0878628395117 0.913 2.03290852375e-38
0.0236553798685 -0.0878628395117 0.913 1.88568011968e-38
0.0253450498591 -0.0878628395117 0.913 2.10705753134e-38
0.02709394158 -0.0880553101349 0.915 2.01504687287e-38
0.0288816975613 -0.0883440160698 0.918 1.86763952299e-38
0.0305806209472 -0.0883440160698 0.918 1.84052019381e-38
0.0323498701378 -0.0885364866931 0.92 1.40749332458e-38
0.0340524948819 -0.0885364866931 0.92 1.02045763146e-38
0.035755119626 -0.0885364866931 0.92 6.90031733828e-39
0.0376613190678 -0.0890176632512 0.925 7.92308304844e-39
0.0393731972073 -0.0890176632512 0.925 8.38515561185e-39
0.0410850753467 -0.0890176632512 0.925 9.49186610652e-39
0.0427969534861 -0.0890176632512 0.925 2.66796297479e-39
-0.024225389022 -0.0882496314373 0.935 2.35098856151e-38
-0.0224950040919 -0.0882496314373 0.935 2.35098856151e-38
-0.0207646191617 -0.0882496314373 0.935 0.0
-0.018993519292 -0.0880608621722 0.933 1.14078488851e-38
-0.01726683572 -0.0880608621722 0.933 1.61097012926e-38
-0.0154901838131 -0.0877777082745 0.93 1.54599556284e-38
-0.0137690522784 -0.0877777082745 0.93 1.56422211184e-38
-0.0120220112366 -0.0875889390094 0.928 1.41696119765e-38
-0.0102712688367 -0.0873057851117 0.925 1.00212416339e-38
-0.00854088390653 -0.0871170158466 0.923 8.54976474116e-39
-0.00681049897639 -0.086833861949 0.92 3.3979567981e-39
-0.00510787423229 -0.086833861949 0.92 2.85806452576e-39
-0.00340524948819 -0.086833861949 0.92 1.05924459204e-38
-0.00169892338596 -0.0866450926839 0.918 3.48981471503e-39
0.0 -0.0866450926839 0.918 1.74919603147e-39
0.00169892338596 -0.0866450926839 0.918 4.32529828673e-39
0.00339784677192 -0.0866450926839 0.918 5.78566848782e-39
0.00509677015787 -0.0866450926839 0.918 9.64995779666e-39
0.00679569354383 -0.0866450926839 0.918 1.24125672723e-38
0.00849461692979 -0.0866450926839 0.918 1.32433999344e-38
0.0101602280925 -0.0863619387862 0.915 1.18619144291e-38
0.0118535994412 -0.0863619387862 0.915 1.49993278037e-38
0.01354697079 -0.0863619387862 0.915 1.43554479749e-38
0.0152070299155 -0.0861731695211 0.913 1.59219791464e-38
0.0168966999061 -0.0861731695211 0.913 1.57361557596e-38
0.0186270848362 -0.0863619387862 0.915 1.56432440663e-38
0.0202760398873 -0.0861731695211 0.913 1.59198575805e-38
0.0219657098779 -0.0861731695211 0.913 1.52734329937e-38
0.0236553798685 -0.0861731695211 0.913 1.51844827711e-38
0.0254005702312 -0.0863619387862 0.915 1.34331231348e-38
0.0271827741753 -0.0866450926839 0.918 1.24139895903e-38
0.0288816975613 -0.0866450926839 0.918 9.18899506163e-39
0.0306472453938 -0.086833861949 0.92 6.0648155497e-39
0.0324553588448 -0.0871170158466 0.923 5.05781444727e-39
0.0342375627889 -0.0873057851117 0.925 6.62914226336e-39
0.0359494409284 -0.0873057851117 0.925 1.31645656854e-38
0.0376613190678 -0.0873057851117 0.925 1.1970650986e-38
0.0393731972073 -0.0873057851117 0.925 9.76881172851e-39
0.0410850753467 -0.0873057851117 0.925 9.58442046879e-39
0.0427969534861 -0.0873057851117 0.925 5.06285351655e-39
-0.0225671805756 -0.0867968483676 0.938 2.35098856151e-38
-0.0208312436082 -0.0867968483676 0.938 8.38611269871e-39
-0.0190342342316 -0.0865192465071 0.935 5.05576014372e-39
-0.01726683572 -0.0863341786002 0.933 8.74458026016e-39
-0.015540152148 -0.0863341786002 0.933 1.37155408273e-38
-0.013813468576 -0.0863341786002 0.933 1.54625410241e-38
-0.0120479207436 -0.0860565767397 0.93 1.72974208515e-38
-0.0103045810599 -0.0858715088327 0.928 1.73907333162e-38
-0.00855939069723 -0.0855939069723 0.925 1.52733909548e-38
-0.00683270712523 -0.0854088390653 0.923 1.44494414707e-38
-0.00512453034392 -0.0854088390653 0.923 8.91808763472e-39
-0.00341635356261 -0.0854088390653 0.923 1.61079230448e-38
-0.0017026247441 -0.0851312372049 0.92 4.13265337905e-39
0.0 -0.0851312372049 0.92 2.94309531658e-39
0.0017026247441 -0.0851312372049 0.92 4.32926396138e-39
0.00340524948819 -0.0851312372049 0.92 3.96085698992e-39
0.00510787423229 -0.0851312372049 0.92 3.6860329338e-39
0.00681049897639 -0.0851312372049 0.92 3.40873698718e-39
0.00849461692979 -0.0849461692979 0.918 4.1444649238e-39
0.0101935403157 -0.0849461692979 0.918 4.42041142e-39
0.0118924637017 -0.0849461692979 0.918 3.77539233557e-39
0.01354697079 -0.0846685674374 0.915 4.32493254783e-39
0.0152403421387 -0.0846685674374 0.915 3.4037021218e-39
0.0169337134875 -0.0846685674374 0.915 5.70425164574e-39
0.0186270848362 -0.0846685674374 0.915 5.51988560939e-39
0.020320456185 -0.0846685674374 0.915 5.89192614777e-39
0.0220138275337 -0.0846685674374 0.915 4.69660454472e-39
0.0237071988825 -0.0846685674374 0.915 3.95757795151e-39
0.0254838507894 -0.0849461692979 0.918 4.32964511457e-39
0.0271827741753 -0.0849461692979 0.918 4.6054654939e-39
0.0288816975613 -0.0849461692979 0.918 5.24655954132e-39
0.0306472453938 -0.0851312372049 0.92 1.26031256466e-38
0.0325256846495 -0.0855939069723 0.925 1.41715219463e-38
0.0342375627889 -0.0855939069723 0.925 1.70323778586e-38
0.0358717124074 -0.0854088390653 0.923 1.6294077138e-38
0.0375798891887 -0.0854088390653 0.923 9.6664384679e-39
0.0393731972073 -0.0855939069723 0.925 9.95177086121e-39
0.0412183242397 -0.0858715088327 0.928 8.84685262728e-39
0.0429357544164 -0.0858715088327 0.928 7.09191547601e-39
-0.0208756599059 -0.085242277949 0.94 1.53033829458e-38
-0.0190953066409 -0.0850609114002 0.938 1.04772956204e-38
-0.0173038493014 -0.084788861577 0.935 6.81244051028e-39
-0.0155734643713 -0.084788861577 0.935 5.06146202717e-39
-0.0138430794411 -0.084788861577 0.935 1.08617782878e-38
-0.012086785004 -0.0846074950282 0.933 1.43579689109e-38
-0.0103267892088 -0.0843354452049 0.93 1.70229681394e-38
-0.00858715088327 -0.0841540786561 0.928 1.7387765366e-38
-0.00683270712523 -0.083700662284 0.923 1.73859899209e-38
-0.00512453034392 -0.083700662284 0.923 1.78441514603e-38
-0.00342375627889 -0.0838820288328 0.925 2.05224938528e-38
-0.00170817678131 -0.083700662284 0.923 1.49064763662e-38
0.0 -0.083700662284 0.923 1.38041141006e-38
0.00171187813945 -0.0838820288328 0.925 1.14069996982e-38
0.00341635356261 -0.083700662284 0.923 1.2598033328e-38
0.00512453034392 -0.083700662284 0.923 1.02971601041e-38
0.00683270712523 -0.083700662284 0.923 1.04765164984e-38
0.00854088390653 -0.083700662284 0.923 9.83684617026e-39
0.0102157484646 -0.0834286124608 0.92 7.3533585331e-39
0.0119183732087 -0.0834286124608 0.92 7.26296637436e-39
0.0135913870877 -0.0832472459119 0.918 6.33956533701e-39
0.0152903104736 -0.0832472459119 0.918 8.18277448244e-39
0.0169892338596 -0.0832472459119 0.918 7.4477079587e-39
0.0186881572455 -0.0832472459119 0.918 7.44663876797e-39
0.0203870806315 -0.0832472459119 0.918 6.98386275272e-39
0.0221341216733 -0.0834286124608 0.92 1.02053372196e-38
0.0239144749383 -0.083700662284 0.923 1.18608732643e-38
0.0256226517196 -0.083700662284 0.923 1.2504020214e-38
0.0273308285009 -0.083700662284 0.923 1.5735899322e-38
0.0290390052822 -0.083700662284 0.923 1.76740604514e-38
0.03081380651 -0.0838820288328 0.925 2.01594566571e-38
0.0325256846495 -0.0838820288328 0.925 1.70287302787e-38
0.0342375627889 -0.0838820288328 0.925 1.31594033019e-38
0.0358717124074 -0.083700662284 0.923 9.29411907113e-39
0.0375798891887 -0.083700662284 0.923 8.29296278459e-39
0.0393731972073 -0.0838820288328 0.925 7.7394358782e-39
0.0410850753467 -0.0838820288328 0.925 9.7684586013e-39
-0.0208756599059 -0.0835026396236 0.94 2.04670570843e-38
-0.0190953066409 -0.0833249744329 0.938 1.32495488321e-38
-0.0173038493014 -0.0830584766468 0.935 1.11301451606e-38
-0.0155734643713 -0.0830584766468 0.935 5.97729184892e-39
-0.0138430794411 -0.0830584766468 0.935 4.23774235608e-39
-0.012086785004 -0.0828808114561 0.933 5.70499573523e-39
-0.0103267892088 -0.0826143136701 0.93 1.15928987551e-38
-0.00858715088327 -0.0824366484794 0.928 1.40789031243e-38
-0.00684751255778 -0.0821701506934 0.925 1.67485294404e-38
-0.00513563441834 -0.0821701506934 0.925 1.72949307441e-38
-0.00342375627889 -0.0821701506934 0.925 2.02441287155e-38
-0.00171187813945 -0.0821701506934 0.925 1.74799876206e-38
0.0 -0.0821701506934 0.925 1.78448002615e-38
0.00171187813945 -0.0821701506934 0.925 1.8305812042e-38
0.00342375627889 -0.0821701506934 0.925 1.79366974148e-38
0.00513563441834 -0.0821701506934 0.925 1.8030284534e-38
0.00683270712523 -0.0819924855027 0.923 1.84905592315e-38
0.00854088390653 -0.0819924855027 0.923 1.85866981152e-38
0.0102157484646 -0.0817259877167 0.92 1.72080642523e-38
0.0119183732087 -0.0817259877167 0.92 1.71155140939e-38
0.0135913870877 -0.081548322526 0.918 1.71173161637e-38
0.0152903104736 -0.081548322526 0.918 1.73927820145e-38
0.0169892338596 -0.081548322526 0.918 1.84084053064e-38
0.0187288721851 -0.0817259877167 0.92 1.77627009871e-38
0.0204314969292 -0.0817259877167 0.92 1.79445881264e-38
0.0221341216733 -0.0817259877167 0.92 1.88654528136e-38
0.0239662939522 -0.0821701506934 0.925 1.96923520309e-38
0.0256226517196 -0.0819924855027 0.923 2.07043739857e-38
0.0273308285009 -0.0819924855027 0.923 1.941720988e-38
0.0291019283706 -0.0821701506934 0.925 1.65662835686e-38
0.03081380651 -0.0821701506934 0.925 1.18654975493e-38
0.0325256846495 -0.0821701506934 0.925 6.9842467085e-39
0.0344226306959 -0.0826143136701 0.93 6.99901639432e-39
0.0361437622307 -0.0826143136701 0.93 8.29115791217e-39
0.0378648937655 -0.0826143136701 0.93 8.0163716911e-39
0.0399265502491 -0.0833249744329 0.938 9.76880892592e-39
0.0416624872164 -0.0833249744329 0.938 8.01888421925e-39
-0.0209422843524 -0.0820239470469 0.943 2.35098856151e-38
-0.0191360215804 -0.0817630012981 0.94 8.27393034885e-39
-0.0173593696735 -0.0815890374655 0.938 1.62883696494e-38
-0.0156234327062 -0.0815890374655 0.938 1.29717750427e-38
-0.0138430794411 -0.0813280917167 0.935 7.08282805547e-39
-0.012112694511 -0.0813280917167 0.935 3.31261632032e-39
-0.0103267892088 -0.0808931821353 0.93 3.68207987083e-39
-0.00858715088327 -0.0807192183028 0.928 3.21427739799e-39
-0.00684751255778 -0.0804582725539 0.925 7.35229494756e-39
-0.00513563441834 -0.0804582725539 0.925 1.01095668774e-38
-0.00342375627889 -0.0804582725539 0.925 1.63851237031e-38
-0.00171187813945 -0.0804582725539 0.925 1.40792142126e-38
0.0 -0.0804582725539 0.925 1.70258365974e-38
0.00171187813945 -0.0804582725539 0.925 1.70179458857e-38
0.00342375627889 -0.0804582725539 0.925 1.82143478899e-38
0.00513563441834 -0.0804582725539 0.925 1.78455611665e-38
0.00684751255778 -0.0804582725539 0.925 1.94085680724e-38
0.00854088390653 -0.0802843087214 0.923 1.85788074036e-38
0.0102157484646 -0.0800233629726 0.92 1.85798864034e-38
0.0119183732087 -0.0800233629726 0.92 1.93185430538e-38
0.0135913870877 -0.07984939914 0.918 1.98727327744e-38
0.0152903104736 -0.07984939914 0.918 2.00579045574e-38
0.017026247441 -0.0800233629726 0.92 1.95028908733e-38
0.0187288721851 -0.0800233629726 0.92 1.94117770458e-38
0.0204314969292 -0.0800233629726 0.92 1.95968899743e-38
0.0221341216733 -0.0800233629726 0.92 1.70215009799e-38
0.0239662939522 -0.0804582725539 0.925 1.5458578152e-38
0.0256781720917 -0.0804582725539 0.925 1.35245704713e-38
0.0273900502311 -0.0804582725539 0.925 9.92722571731e-39
0.0291019283706 -0.0804582725539 0.925 5.41981187956e-39
0.0309137431798 -0.0807192183028 0.928 5.34378863527e-39
0.0327014991611 -0.0808931821353 0.93 6.81921999225e-39
0.0345336714401 -0.0811541278841 0.933 6.81999070641e-39
0.0362603550121 -0.0811541278841 0.933 8.38552415335e-39
0.0380684684631 -0.0813280917167 0.935 9.40000818958e-39
0.0399265502491 -0.0815890374655 0.938 8.01853389463e-39
0.0416624872164 -0.0815890374655 0.938 5.25408171148e-39
0.0433984241838 -0.0815890374655 0.938 2.35012760374e-38
-0.0210089087989 -0.0805341503958 0.946 2.35098856151e-38
-0.0191360215804 -0.0800233629726 0.94 2.38783220139e-39
-0.0173963832549 -0.0800233629726 0.94 1.53706536799e-38
-0.0156234327062 -0.0798531004982 0.938 1.70276344633e-38
-0.0138874957388 -0.0798531004982 0.938 1.46316817373e-38
-0.012112694511 -0.0795977067866 0.935 1.19608629163e-38
-0.010360101432 -0.0794274443121 0.933 7.71960330103e-39
-0.00858715088327 -0.0790017881261 0.928 5.60596877535e-39
-0.00686972070662 -0.0790017881261 0.928 3.40768040814e-39
-0.00515229052996 -0.0790017881261 0.928 2.486374312e-39
-0.00343486035331 -0.0790017881261 0.928 8.1996951614e-39
-0.00171743017665 -0.0790017881261 0.928 4.51002725939e-39
0.0 -0.0790017881261 0.928 5.87788513716e-39
0.00171743017665 -0.0790017881261 0.928 9.46449594491e-39
0.00342375627889 -0.0787463944145 0.925 1.19494409325e-38
0.00513563441834 -0.0787463944145 0.925 1.28760467394e-38
0.00684751255778 -0.0787463944145 0.925 1.3616422783e-38
0.00854088390653 -0.0785761319401 0.923 1.44465491907e-38
0.0102157484646 -0.0783207382285 0.92 1.31558257869e-38
0.0119183732087 -0.0783207382285 0.92 1.48146254557e-38
0.0136209979528 -0.0783207382285 0.92 1.26023030844e-38
0.0153236226969 -0.0783207382285 0.92 1.42611041545e-38
0.017026247441 -0.0783207382285 0.92 1.17682516397e-38
0.0187899445944 -0.0785761319401 0.923 1.167540861e-38
0.0204981213757 -0.0785761319401 0.923 8.91169210853e-39
0.022206298157 -0.0785761319401 0.923 8.09235850163e-39
0.0240440224732 -0.0790017881261 0.928 5.8876101485e-39
0.0257614526498 -0.0790017881261 0.928 4.5147594443e-39
0.0274788828265 -0.0790017881261 0.928 5.62182026358e-39
0.0292592360915 -0.0791720506005 0.93 7.83270350138e-39
0.0310803042961 -0.0794274443121 0.933 6.72598039504e-39
0.0328069878681 -0.0794274443121 0.933 6.91359604253e-39
0.0346076986028 -0.0795977067866 0.935 7.28094082976e-39
0.036338083533 -0.0795977067866 0.935 7.92525365976e-39
0.0380684684631 -0.0795977067866 0.935 7.64971914532e-39
0.0399265502491 -0.0798531004982 0.938 1.10548660058e-38
0.0416624872164 -0.0798531004982 0.938 2.38777194555e-39
0.0433984241838 -0.0798531004982 0.938 2.35088094179e-38
-0.0210533250966 -0.0789499691122 0.948 2.35098856151e-38
-0.0191970939897 -0.0785335663215 0.943 1.46936793853e-39
-0.0173963832549 -0.0782837246471 0.94 7.7218159513e-39
-0.0156567449294 -0.0782837246471 0.94 1.27979285539e-38
-0.0138874957388 -0.0781171635308 0.938 1.6016783994e-38
-0.012112694511 -0.0778673218564 0.935 1.66564136845e-38
-0.010360101432 -0.0777007607401 0.933 1.70232876355e-38
-0.00860565767397 -0.0774509190657 0.93 1.34327461855e-38
-0.00686972070662 -0.0772843579495 0.928 1.08516609129e-38
-0.00515229052996 -0.0772843579495 0.928 7.5326630794e-39
-0.00343486035331 -0.0772843579495 0.928 4.6947926658e-39
-0.00171743017665 -0.0772843579495 0.928 3.8718184855e-39
0.0 -0.0772843579495 0.928 3.86939984435e-39
0.00171743017665 -0.0772843579495 0.928 3.86936200929e-39
0.00343486035331 -0.0772843579495 0.928 3.87041718703e-39
0.00513563441834 -0.0770345162751 0.925 3.59207727306e-39
0.00684751255778 -0.0770345162751 0.925 3.40873698718e-39
0.00854088390653 -0.0768679551588 0.923 3.31402322398e-39
0.0102157484646 -0.0766181134844 0.92 4.23631022905e-39
0.0119183732087 -0.0766181134844 0.92 3.59383730393e-39
0.0136654142505 -0.0768679551588 0.923 4.05445672084e-39
0.0153735910318 -0.0768679551588 0.923 4.33105201822e-39
0.0170817678131 -0.0768679551588 0.923 4.88387267019e-39
0.0187899445944 -0.0768679551588 0.923 4.97747520371e-39
0.0205425376733 -0.0770345162751 0.925 5.52923647404e-39
0.0222544158128 -0.0770345162751 0.925 5.34628995303e-39
0.0240440224732 -0.0772843579495 0.928 6.44941312362e-39
0.0258169730219 -0.0774509190657 0.93 6.26572531573e-39
0.0275381045567 -0.0774509190657 0.93 6.26537499111e-39
0.0293536207241 -0.0777007607401 0.933 6.26647360911e-39
0.0310803042961 -0.0777007607401 0.933 7.18840748696e-39
0.0328773136727 -0.0778673218564 0.935 7.09693772971e-39
0.0346076986028 -0.0778673218564 0.935 7.64901289089e-39
0.036338083533 -0.0778673218564 0.935 5.25302793504e-39
0.0381906132817 -0.0781171635308 0.938 1.22508630347e-38
0.0399265502491 -0.0781171635308 0.938 1.30762894874e-38
0.0416624872164 -0.0781171635308 0.938 4.96889785581e-39
-0.0210533250966 -0.0771955253541 0.948 2.35098856151e-38
-0.019258166399 -0.077032665596 0.946 1.14282097518e-38
-0.0175074239991 -0.077032665596 0.946 7.07611863842e-39
-0.0157067132643 -0.0767883759588 0.943 3.86759216933e-39
-0.0138874957388 -0.0763812265635 0.938 6.71447433334e-39
-0.0121515587715 -0.0763812265635 0.938 1.19605672423e-38
-0.0103823095809 -0.0761369369263 0.935 1.50032654524e-38
-0.00863341786002 -0.0759740771681 0.933 1.71173161637e-38
-0.00688452613918 -0.0757297875309 0.93 1.80364516486e-38
-0.00515229052996 -0.0755669277728 0.928 1.61957087884e-38
-0.00343486035331 -0.0755669277728 0.928 1.46338467434e-38
-0.00171743017665 -0.0755669277728 0.928 9.9362682963e-39
0.0 -0.0755669277728 0.928 9.92693004333e-39
0.00171743017665 -0.0755669277728 0.928 5.14968917978e-39
0.00343486035331 -0.0755669277728 0.928 4.32999543918e-39
0.00513563441834 -0.0753226381356 0.925 3.86936200929e-39
0.00684751255778 -0.0753226381356 0.925 4.88311176513e-39
0.00855939069723 -0.0753226381356 0.925 5.34267740559e-39
0.0102490606878 -0.0751597783775 0.923 5.34519553893e-39
0.0119572374691 -0.0751597783775 0.923 5.34484521431e-39
0.0136654142505 -0.0751597783775 0.923 5.34342569897e-39
0.0153735910318 -0.0751597783775 0.923 5.52924207923e-39
0.0170817678131 -0.0751597783775 0.923 5.89550086015e-39
