# .PCD v0.7 - Point Cloud Data file format
VERSION 0.7
FIELDS x y z rgb
SIZE 4 4 4 4
TYPE F F F F
COUNT 1 1 1 1
WIDTH 859
HEIGHT 1
VIEWPOINT 0 0 0 1 0 0 0
POINTS 859
DATA ascii
0.0319464221007 -0.140209296997 0.959 1.67633089353e-38
0.0337212233285 -0.140209296997 0.959 1.60261250496e-38
0.0354960245563 -0.140209296997 0.959 1.61186864183e-38
0.0372708257841 -0.140209296997 0.959 1.63952480845e-38
0.0390456270119 -0.140209296997 0.959 1.51970580235e-38
0.0408204282397 -0.140209296997 0.959 1.60264879859e-38
0.0425952294675 -0.140209296997 0.959 1.63059363269e-38
0.0443700306954 -0.140209296997 0.959 1.48290434156e-38
0.0461448319232 -0.140209296997 0.959 1.51049072352e-38
0.0477697281463 -0.139770686058 0.956 1.40900266315e-38
0.049538977337 -0.139770686058 0.956 1.41818621277e-38
0.0513082265276 -0.139770686058 0.956 1.41818565225e-38
0.0530774757182 -0.139770686058 0.956 1.70398061418e-38
-0.00707699676242 -0.138001436867 0.956 1.82391480701e-38
-0.00530774757182 -0.138001436867 0.956 2.01770513606e-38
-0.00354960245563 -0.13843449577 0.959 1.80573576203e-38
-0.00177480122781 -0.13843449577 0.959 1.95317295957e-38
0.0 -0.138867554672 0.962 1.82402452868e-38
0.00178035326502 -0.138867554672 0.962 1.93448145974e-38
0.00356070653005 -0.138867554672 0.962 1.86068964313e-38
0.00534105979507 -0.138867554672 0.962 1.8976417435e-38
0.00712141306009 -0.138867554672 0.962 1.77796370803e-38
0.00890176632512 -0.138867554672 0.962 1.81491454724e-38
0.0106821195901 -0.138867554672 0.962 1.80573380022e-38
0.0124883823621 -0.139156260607 0.964 1.73186757466e-38
0.0142724369853 -0.139156260607 0.964 1.71342802829e-38
0.0160564916085 -0.139156260607 0.964 1.70395693223e-38
0.0178405462316 -0.139156260607 0.964 1.80532924535e-38
0.0196246008548 -0.139156260607 0.964 1.7501605452e-38
0.0213642391803 -0.138867554672 0.962 1.67648013181e-38
0.0231445924453 -0.138867554672 0.962 1.87912680729e-38
0.0248472171894 -0.13843449577 0.959 1.68551570431e-38
0.0266220184172 -0.13843449577 0.959 1.71313964107e-38
0.028396819645 -0.13843449577 0.959 1.62104938885e-38
0.0301716208728 -0.13843449577 0.959 1.76859168377e-38
0.0320463587704 -0.138867554672 0.962 1.64892668037e-38
0.0338267120354 -0.138867554672 0.962 1.64874731417e-38
0.0356070653005 -0.138867554672 0.962 1.6211289826e-38
0.0373874185655 -0.138867554672 0.962 1.60268439157e-38
0.0391677718305 -0.138867554672 0.962 1.5750608752e-38
0.0408204282397 -0.13843449577 0.959 1.57509618792e-38
0.0425952294675 -0.13843449577 0.959 1.55658629638e-38
0.0443700306954 -0.13843449577 0.959 1.61186429781e-38
0.0460004789557 -0.138001436867 0.956 1.51971056677e-38
0.0477697281463 -0.138001436867 0.956 1.63956278364e-38
0.049538977337 -0.138001436867 0.956 1.39978338043e-38
0.0513082265276 -0.138001436867 0.956 1.39042130539e-38
0.0530774757182 -0.138001436867 0.956 1.40885678798e-38
0.0548467249088 -0.138001436867 0.956 1.3906016525e-38
-0.0141243826597 -0.1359471831 0.954 2.31411030957e-38
-0.0123588348273 -0.1359471831 0.954 2.35037283097e-38
-0.0105932869948 -0.1359471831 0.954 2.22025035752e-38
-0.00882773916233 -0.1359471831 0.954 1.88834160586e-38
-0.00706219132986 -0.1359471831 0.954 1.999090007e-38
-0.00530774757182 -0.136232187677 0.956 1.90686158675e-38
-0.00354960245563 -0.136659694542 0.959 1.92544364517e-38
-0.00178035326502 -0.137087201407 0.962 1.93458865908e-38
0.0 -0.137087201407 0.962 1.90693039051e-38
0.00178035326502 -0.137087201407 0.962 1.89767677597e-38
0.00356070653005 -0.137087201407 0.962 1.94377136791e-38
0.00534105979507 -0.137087201407 0.962 1.81469874727e-38
0.00712141306009 -0.137087201407 0.962 1.87012150283e-38
0.00890176632512 -0.137087201407 0.962 1.70406497234e-38
0.010704327739 -0.137372205984 0.964 1.84235393298e-38
0.0124883823621 -0.137372205984 0.964 1.75005516755e-38
0.0142724369853 -0.137372205984 0.964 1.8791287691e-38
0.0160564916085 -0.137372205984 0.964 1.71317635509e-38
0.0178405462316 -0.137372205984 0.964 1.79607843341e-38
0.0196246008548 -0.137372205984 0.964 1.7316861065e-38
0.021408655478 -0.137372205984 0.964 1.74080001159e-38
0.0231927101011 -0.137372205984 0.964 1.70395511055e-38
0.0249249457103 -0.137087201407 0.962 1.74072714407e-38
0.0267052989754 -0.137087201407 0.962 1.64856738744e-38
0.0284856522404 -0.137087201407 0.962 1.63952901235e-38
0.0302660055054 -0.137087201407 0.962 1.66722077195e-38
0.0320463587704 -0.137087201407 0.962 1.59360748076e-38
0.0338970378401 -0.137372205984 0.964 1.68580269024e-38
0.0356070653005 -0.137087201407 0.962 1.59360776102e-38
0.0373874185655 -0.137087201407 0.962 1.56591179753e-38
0.0391677718305 -0.137087201407 0.962 1.55669167402e-38
0.0408204282397 -0.136659694542 0.959 1.59364027115e-38
0.0425952294675 -0.136659694542 0.959 1.56587844662e-38
0.0443700306954 -0.136659694542 0.959 1.55658629638e-38
0.0460004789557 -0.136232187677 0.956 1.55651497028e-38
0.0477697281463 -0.136232187677 0.956 1.48282979249e-38
0.049538977337 -0.136232187677 0.956 1.50140960882e-38
0.0513082265276 -0.136232187677 0.956 1.49204403054e-38
0.0530774757182 -0.136232187677 0.956 1.51045358911e-38
0.0548467249088 -0.136232187677 0.956 1.22471762185e-38
-0.0194210261571 -0.134181635267 0.954 2.35098856151e-38
-0.0176554783247 -0.134181635267 0.954 2.35098856151e-38
-0.0158899304922 -0.134181635267 0.954 2.35098856151e-38
-0.0141243826597 -0.134181635267 0.954 2.35030052397e-38
-0.0123588348273 -0.134181635267 0.954 2.22979810461e-38
-0.0105932869948 -0.134181635267 0.954 1.86997128364e-38
-0.00882773916233 -0.134181635267 0.954 1.95299415388e-38
-0.00706219132986 -0.134181635267 0.954 1.95299415388e-38
-0.00530774757182 -0.134462938486 0.956 1.97143229895e-38
-0.00354960245563 -0.134884893314 0.959 1.86090446219e-38
-0.00178035326502 -0.135306848142 0.962 1.96213916779e-38
0.0 -0.135306848142 0.962 1.9251517547e-38
0.00178035326502 -0.135306848142 0.962 1.85154420883e-38
0.00356070653005 -0.135306848142 0.962 1.92536909609e-38
0.00535216386949 -0.13558815136 0.964 1.79622304741e-38
0.00713621849265 -0.13558815136 0.964 1.81469356247e-38
0.00892027311581 -0.13558815136 0.964 1.93448328143e-38
0.010704327739 -0.13558815136 0.964 1.79622332767e-38
0.0124883823621 -0.13558815136 0.964 1.79615298249e-38
0.014316853283 -0.136010106188 0.967 1.75001579107e-38
0.0161064599433 -0.136010106188 0.967 1.88834609001e-38
0.0178960666037 -0.136010106188 0.967 1.70388322393e-38
0.0196856732641 -0.136010106188 0.967 1.70381063667e-38
0.0214752799245 -0.136010106188 0.967 1.71320592249e-38
0.0232648865848 -0.136010106188 0.967 1.72235934419e-38
0.0249767647243 -0.13558815136 0.964 1.65790003522e-38
0.0267608193474 -0.13558815136 0.964 1.70395511055e-38
0.0285448739706 -0.13558815136 0.964 1.7039182564e-38
0.0303289285938 -0.13558815136 0.964 1.67640179923e-38
0.0321129832169 -0.13558815136 0.964 1.63959809636e-38
0.0338970378401 -0.13558815136 0.964 1.63966970272e-38
0.0356810924633 -0.13558815136 0.964 1.56605641153e-38
0.0374651470864 -0.13558815136 0.964 1.57509646818e-38
0.0392492017096 -0.13558815136 0.964 1.57509618792e-38
0.0409481250955 -0.135306848142 0.962 1.6029737597e-38
0.0425952294675 -0.134884893314 0.959 1.49226613634e-38
0.0443700306954 -0.134884893314 0.959 1.48290041793e-38
0.0460004789557 -0.134462938486 0.956 1.56559104031e-38
0.0477697281463 -0.134462938486 0.956 1.50126933885e-38
0.049538977337 -0.134462938486 0.956 1.53818248312e-38
0.0513082265276 -0.134462938486 0.956 1.44584686354e-38
0.052966434974 -0.134181635267 0.954 1.45502859147e-38
0.0547319828065 -0.134181635267 0.954 1.45520837807e-38
0.0564975306389 -0.134181635267 0.954 1.17858491459e-38
-0.0194210261571 -0.132416087435 0.954 2.35098856151e-38
-0.0176554783247 -0.132416087435 0.954 2.35098856151e-38
-0.0158899304922 -0.132416087435 0.954 2.17545561003e-38
-0.0141243826597 -0.132416087435 0.954 2.35037395201e-38
-0.0123588348273 -0.132416087435 0.954 1.90686004532e-38
-0.0105932869948 -0.132416087435 0.954 1.97153767659e-38
-0.00884624595303 -0.132693689295 0.956 1.99011903436e-38
-0.00707699676242 -0.132693689295 0.956 1.96231937478e-38
-0.00532440368344 -0.133110092086 0.959 1.93462341128e-38
-0.00354960245563 -0.133110092086 0.959 1.89778271413e-38
-0.00178035326502 -0.133526494877 0.962 1.99912503946e-38
0.0 -0.133804096737 0.964 1.87001612519e-38
0.00178405462316 -0.133804096737 0.964 1.88845595181e-38
0.00356810924633 -0.133804096737 0.964 1.97139460402e-38
0.00535216386949 -0.133804096737 0.964 1.86068838196e-38
0.00713621849265 -0.133804096737 0.964 1.82387949429e-38
0.00892027311581 -0.133804096737 0.964 1.7961511608e-38
0.010704327739 -0.133804096737 0.964 1.72242996963e-38
0.0125272466226 -0.134220499528 0.967 1.85143350625e-38
0.014316853283 -0.134220499528 0.967 1.69469995458e-38
0.0161064599433 -0.134220499528 0.967 1.75005264522e-38
0.0178960666037 -0.134220499528 0.967 1.78700348442e-38
0.0196856732641 -0.134220499528 0.967 1.7132815926e-38
0.0214752799245 -0.134220499528 0.967 1.61208570296e-38
0.0232648865848 -0.134220499528 0.967 1.64903444022e-38
0.0250544932452 -0.134220499528 0.967 1.63038007481e-38
0.0268440999056 -0.134220499528 0.967 1.8148397179e-38
0.028633706566 -0.134220499528 0.967 1.65789274846e-38
0.0303289285938 -0.133804096737 0.964 1.6394532021e-38
0.0321129832169 -0.133804096737 0.964 1.61193898702e-38
0.0338970378401 -0.133804096737 0.964 1.59367936738e-38
0.0356810924633 -0.133804096737 0.964 1.5751665331e-38
0.0374651470864 -0.133804096737 0.964 1.56587690519e-38
0.0392492017096 -0.133804096737 0.964 1.60275473675e-38
0.0409481250955 -0.133526494877 0.962 1.50130647326e-38
0.0425952294675 -0.133110092086 0.959 1.60275697883e-38
0.0443700306954 -0.133110092086 0.959 1.53811031625e-38
0.0460004789557 -0.132693689295 0.956 1.5195285381e-38
0.0477697281463 -0.132693689295 0.956 1.51963615782e-38
0.049538977337 -0.132693689295 0.956 1.51041855665e-38
0.0512008871415 -0.132416087435 0.954 1.47342721992e-38
0.052966434974 -0.132416087435 0.954 1.45484866475e-38
0.0543877564995 -0.131583281854 0.948 1.43666205276e-38
0.0561422002575 -0.131583281854 0.948 1.3354266465e-38
-0.0194210261571 -0.130650539602 0.954 2.35098856151e-38
-0.0176554783247 -0.130650539602 0.954 2.35098856151e-38
-0.0158899304922 -0.130650539602 0.954 2.3505537386e-38
-0.0141243826597 -0.130650539602 0.954 2.23912486693e-38
-0.0123588348273 -0.130650539602 0.954 1.98990968037e-38
-0.0105932869948 -0.130650539602 0.954 1.99004896944e-38
-0.00884624595303 -0.130924440105 0.956 2.01781527812e-38
-0.00707699676242 -0.130924440105 0.956 1.9990552548e-38
-0.00532440368344 -0.131335290858 0.959 1.90689269558e-38
-0.00356070653005 -0.131746141612 0.962 1.97146705115e-38
-0.00178405462316 -0.132020042114 0.964 1.93458711765e-38
0.0 -0.132020042114 0.964 1.94366318767e-38
0.00178405462316 -0.132020042114 0.964 1.8146627339e-38
0.00356810924633 -0.132020042114 0.964 1.94359312275e-38
0.00535216386949 -0.132020042114 0.964 1.8052628238e-38
0.00713621849265 -0.132020042114 0.964 1.78693131755e-38
0.00892027311581 -0.132020042114 0.964 1.78693313924e-38
0.0107376399622 -0.132430892868 0.967 1.84228807196e-38
0.0125272466226 -0.132430892868 0.967 1.74072770459e-38
0.014316853283 -0.132430892868 0.967 1.75923689548e-38
0.0161064599433 -0.132430892868 0.967 1.68544507887e-38
0.0178960666037 -0.132430892868 0.967 1.7592722082e-38
0.0196856732641 -0.132430892868 0.967 1.67629586107e-38
0.0214752799245 -0.132430892868 0.967 1.71335642194e-38
0.0232648865848 -0.132430892868 0.967 1.74129999488e-38
0.0250544932452 -0.132430892868 0.967 1.5935390974e-38
0.0268440999056 -0.132430892868 0.967 1.55658825819e-38
0.028633706566 -0.132430892868 0.967 1.62116023156e-38
0.0304233132263 -0.132430892868 0.967 1.63966872181e-38
0.0322129198867 -0.132430892868 0.967 1.57513150064e-38
0.0340025265471 -0.132430892868 0.967 1.56587690519e-38
0.0357921332074 -0.132430892868 0.967 1.55651440976e-38
0.0375817398678 -0.132430892868 0.967 1.57498786755e-38
0.0393713465282 -0.132430892868 0.967 1.54733142067e-38
0.0409481250955 -0.131746141612 0.962 1.60275445649e-38
0.0425952294675 -0.131335290858 0.959 1.51967091002e-38
0.0443700306954 -0.131335290858 0.959 1.51956357056e-38
0.0460004789557 -0.130924440105 0.956 1.5010540994e-38
0.0477697281463 -0.130924440105 0.956 1.5473301595e-38
0.049538977337 -0.130924440105 0.956 1.45517516729e-38
0.0512008871415 -0.130650539602 0.954 1.5010540994e-38
0.0527998738577 -0.130239688849 0.951 1.42740577575e-38
0.0543877564995 -0.129828838096 0.948 1.42765534701e-38
0.0560237567971 -0.129554937593 0.946 1.38152249962e-38
0.057774499197 -0.129554937593 0.946 1.2431937421e-38
-0.0193599537478 -0.128479693054 0.951 2.35098856151e-38
-0.0175999579526 -0.128479693054 0.951 2.24957336867e-38
-0.0158399621573 -0.128479693054 0.951 2.3506584156e-38
-0.0141243826597 -0.12888499177 0.954 1.92569770058e-38
-0.0123588348273 -0.12888499177 0.954 1.97143510155e-38
-0.0105932869948 -0.12888499177 0.954 2.0360408462e-38
-0.00884624595303 -0.129155190914 0.956 1.9161161822e-38
-0.00707699676242 -0.129155190914 0.956 1.94370102273e-38
-0.00532440368344 -0.12956048963 0.959 2.05440584349e-38
-0.00356070653005 -0.129965788347 0.962 1.85160908895e-38
-0.00178405462316 -0.130235987491 0.964 1.94384171309e-38
0.0 -0.130235987491 0.964 1.89763627844e-38
0.00178405462316 -0.130235987491 0.964 1.82380914911e-38
0.00356810924633 -0.130235987491 0.964 1.87001458376e-38
0.00536881998112 -0.130641286207 0.967 1.81462461858e-38
0.00715842664149 -0.130641286207 0.967 1.79629311233e-38
0.00894803330186 -0.130641286207 0.967 1.68544563939e-38
0.0107376399622 -0.130641286207 0.967 1.79608109587e-38
0.0125272466226 -0.130641286207 0.967 1.69477058002e-38
0.0143612695806 -0.131046584923 0.97 1.75916290692e-38
0.0161564282782 -0.131046584923 0.97 1.66700301017e-38
0.0179515869758 -0.131046584923 0.97 1.6577478542e-38
0.0197467456734 -0.131046584923 0.97 1.66693420642e-38
0.021541904371 -0.131046584923 0.97 1.59325014966e-38
0.0233370630686 -0.131046584923 0.97 1.72264661037e-38
0.0251322217661 -0.131046584923 0.97 1.57502584274e-38
0.0269273804637 -0.131046584923 0.97 1.75927192794e-38
0.0287225391613 -0.131046584923 0.97 1.63041356584e-38
0.0304233132263 -0.130641286207 0.967 1.52889257496e-38
0.0322129198867 -0.130641286207 0.967 1.51052547572e-38
0.0340025265471 -0.130641286207 0.967 1.62105135067e-38
0.0357921332074 -0.130641286207 0.967 1.51960112536e-38
0.0375817398678 -0.130641286207 0.967 1.53807500353e-38
0.0393713465282 -0.130641286207 0.967 1.51052449481e-38
0.0411609531886 -0.130641286207 0.967 1.59324594576e-38
0.0427284783606 -0.129965788347 0.962 1.57484185225e-38
0.0443700306954 -0.12956048963 0.959 1.43658203862e-38
0.0460004789557 -0.129155190914 0.956 1.52863922019e-38
0.0477697281463 -0.129155190914 0.956 1.48260740642e-38
0.049538977337 -0.129155190914 0.956 1.45481335203e-38
0.0512008871415 -0.12888499177 0.954 1.42737046303e-38
0.0527998738577 -0.128479693054 0.951 1.39070674988e-38
0.0543877564995 -0.128074394338 0.948 1.38158808039e-38
0.0560237567971 -0.127804195193 0.946 1.45534934869e-38
0.0575912819691 -0.127398896477 0.943 1.19706117497e-38
0.0593364723318 -0.127398896477 0.943 1.35339914009e-38
-0.0193599537478 -0.126719697259 0.951 2.35098856151e-38
-0.0175999579526 -0.126719697259 0.951 2.0928407979e-38
-0.0158399621573 -0.126719697259 0.951 2.35098421749e-38
-0.0141243826597 -0.127119443938 0.954 1.95313764685e-38
-0.0123588348273 -0.127119443938 0.954 1.98065340336e-38
-0.0105932869948 -0.127119443938 0.954 2.02674911635e-38
-0.00884624595303 -0.127385941724 0.956 2.06362722816e-38
-0.00707699676242 -0.127385941724 0.956 1.9252616165e-38
-0.00532440368344 -0.127785688403 0.959 1.93448145974e-38
-0.00356070653005 -0.128185435082 0.962 1.90696542297e-38
-0.00178405462316 -0.128451932868 0.964 1.82402845232e-38
0.0 -0.128851679547 0.967 1.87008675063e-38
0.00178960666037 -0.128851679547 0.967 1.73179750973e-38
0.00357921332074 -0.128851679547 0.967 1.75919793938e-38
0.00536881998112 -0.128851679547 0.967 1.82391480701e-38
0.00715842664149 -0.128851679547 0.967 1.63030216261e-38
0.00894803330186 -0.128851679547 0.967 1.73147086706e-38
0.0107376399622 -0.128851679547 0.967 1.63934600277e-38
0.0125661108831 -0.129251426226 0.97 1.66700427134e-38
0.0143612695806 -0.129251426226 0.97 1.6392015289e-38
0.0161564282782 -0.129251426226 0.97 1.71306369069e-38
0.0179515869758 -0.129251426226 0.97 1.58406141524e-38
0.0197467456734 -0.129251426226 0.97 1.66718447832e-38
0.021541904371 -0.129251426226 0.97 1.59353461324e-38
0.0233370630686 -0.129251426226 0.97 1.63009140732e-38
0.0251322217661 -0.129251426226 0.97 1.66682672682e-38
0.0269273804637 -0.129251426226 0.97 1.53792856784e-38
0.0287225391613 -0.129251426226 0.97 1.52874824121e-38
0.0305176978589 -0.129251426226 0.97 1.66707854016e-38
0.0323128565565 -0.129251426226 0.97 1.52889201444e-38
0.034108015254 -0.129251426226 0.97 1.52896488196e-38
0.0359031739516 -0.129251426226 0.97 1.50123584781e-38
0.0375817398678 -0.128851679547 0.967 1.55661754533e-38
0.0393713465282 -0.128851679547 0.967 1.47360840781e-38
0.0411609531886 -0.128851679547 0.967 1.47335813591e-38
0.0427284783606 -0.128185435082 0.962 1.54732763716e-38
0.0443700306954 -0.127785688403 0.959 1.50144492154e-38
0.0460004789557 -0.127385941724 0.956 1.48261469317e-38
0.0477697281463 -0.127385941724 0.956 1.44584658328e-38
0.049538977337 -0.127385941724 0.956 1.49190740394e-38
0.0512008871415 -0.127119443938 0.954 1.37212693354e-38
0.0527998738577 -0.126719697259 0.951 1.51059638143e-38
0.0543877564995 -0.126319950579 0.948 1.35400646284e-38
0.0560237567971 -0.126053452793 0.946 1.33550077519e-38
0.0574080647412 -0.125253959435 0.94 1.18773413239e-38
0.0591477030667 -0.125253959435 0.94 1.42719516059e-38
0.0608873413922 -0.125253959435 0.94 2.34990661897e-38
-0.0193599537478 -0.124959701463 0.951 2.35098856151e-38
-0.0175999579526 -0.124959701463 0.951 2.35098856151e-38
-0.0158399621573 -0.124959701463 0.951 2.35004969154e-38
-0.0141243826597 -0.125353896105 0.954 2.08206649426e-38
-0.0123588348273 -0.125353896105 0.954 2.00813286625e-38
-0.0105932869948 -0.125353896105 0.954 1.90685780325e-38
-0.00884624595303 -0.125616692533 0.956 1.89749530782e-38
-0.00709920491126 -0.126010887175 0.959 2.00823418013e-38
-0.00532440368344 -0.126010887175 0.959 1.91607708597e-38
-0.00356070653005 -0.126405081817 0.962 1.84238896545e-38
-0.00178405462316 -0.126667878245 0.964 1.79629339259e-38
0.0 -0.127062072886 0.967 1.92536124882e-38
0.00178960666037 -0.127062072886 0.967 1.70402965962e-38
0.00357921332074 -0.127062072886 0.967 1.68541032667e-38
0.00536881998112 -0.127062072886 0.967 1.80529771613e-38
0.00715842664149 -0.127062072886 0.967 1.7131355773e-38
0.00894803330186 -0.127062072886 0.967 1.68547885016e-38
0.0107376399622 -0.127062072886 0.967 1.7038511342e-38
0.0125661108831 -0.127456267528 0.97 1.73157652496e-38
0.0143612695806 -0.127456267528 0.97 1.60232509864e-38
0.0161564282782 -0.127456267528 0.97 1.59310553565e-38
0.0179515869758 -0.127456267528 0.97 1.59321273499e-38
0.0197467456734 -0.127456267528 0.97 1.51048918209e-38
0.021541904371 -0.127456267528 0.97 1.56584341416e-38
0.0233370630686 -0.127456267528 0.97 1.58413806626e-38
0.0251322217661 -0.127456267528 0.97 1.51931371904e-38
0.0269273804637 -0.127456267528 0.97 1.54733142067e-38
0.0287225391613 -0.127456267528 0.97 1.58424302352e-38
0.0305176978589 -0.127456267528 0.97 1.52885417938e-38
0.0323128565565 -0.127456267528 0.97 1.56573173067e-38
0.034108015254 -0.127456267528 0.97 1.55665538039e-38
0.0359031739516 -0.127456267528 0.97 1.47371812948e-38
0.0375817398678 -0.127062072886 0.967 1.48279447976e-38
0.0393713465282 -0.127062072886 0.967 1.5842490491e-38
0.0411609531886 -0.127062072886 0.967 1.43680456481e-38
0.0427284783606 -0.126405081817 0.962 1.50140960882e-38
0.0443700306954 -0.126010887175 0.959 1.40921846312e-38
0.0461448319232 -0.126010887175 0.959 1.44598461118e-38
0.0477697281463 -0.125616692533 0.956 1.46428192575e-38
0.049538977337 -0.125616692533 0.956 1.39045465629e-38
0.0512008871415 -0.125353896105 0.954 1.36297715522e-38
0.0527998738577 -0.124959701463 0.951 1.34453662795e-38
0.0543877564995 -0.124565506821 0.948 1.30776543521e-38
0.0560237567971 -0.124302710394 0.946 1.36308281313e-38
0.0574080647412 -0.12351432111 0.94 1.00341503953e-38
0.0588330876248 -0.12285733004 0.935 1.81415630464e-38
0.060563472555 -0.12285733004 0.935 2.34972374952e-38
0.0622938574851 -0.12285733004 0.935 2.35098856151e-38
-0.0176554783247 -0.123588348273 0.954 2.35098856151e-38
-0.0158899304922 -0.123588348273 0.954 1.33615490132e-38
-0.0141243826597 -0.123588348273 0.954 2.35062478443e-38
-0.0123847443342 -0.123847443342 0.956 1.97139880792e-38
-0.0106154951436 -0.123847443342 0.956 1.97150418556e-38
-0.00887400613907 -0.124236085947 0.959 1.97150236387e-38
-0.00709920491126 -0.124236085947 0.959 1.93465844374e-38
-0.00532440368344 -0.124236085947 0.959 1.8792362487e-38
-0.00356070653005 -0.124624728552 0.962 1.96217321935e-38
-0.00178405462316 -0.124883823621 0.964 1.75005516755e-38
0.0 -0.125272466226 0.967 1.76842198653e-38
0.00178960666037 -0.125272466226 0.967 1.74072742433e-38
0.00357921332074 -0.125272466226 0.967 1.75016082546e-38
0.00536881998112 -0.125272466226 0.967 1.71342494544e-38
0.00715842664149 -0.125272466226 0.967 1.55651469002e-38
0.0089757934879 -0.125661108831 0.97 1.63927341551e-38
0.0107709521855 -0.125661108831 0.97 1.67618922225e-38
0.0125661108831 -0.125661108831 0.97 1.55651440976e-38
0.0143612695806 -0.125661108831 0.97 1.57491808289e-38
0.0161564282782 -0.125661108831 0.97 1.52878719731e-38
0.0179515869758 -0.125661108831 0.97 1.57466612942e-38
0.0197467456734 -0.125661108831 0.97 1.52885389912e-38
0.021541904371 -0.125661108831 0.97 1.51059610117e-38
0.0233370630686 -0.125661108831 0.97 1.48286482495e-38
0.0251322217661 -0.125661108831 0.97 1.58431785285e-38
0.0269273804637 -0.125661108831 0.97 1.48297650843e-38
0.0287225391613 -0.125661108831 0.97 1.51048651963e-38
0.0305176978589 -0.125661108831 0.97 1.54732623586e-38
0.0323128565565 -0.125661108831 0.97 1.44587797237e-38
0.034108015254 -0.125661108831 0.97 1.40914363378e-38
0.0359031739516 -0.125661108831 0.97 1.45527900351e-38
0.0375817398678 -0.125272466226 0.967 1.43680274313e-38
0.0393713465282 -0.125272466226 0.967 1.41825753886e-38
0.0411609531886 -0.125272466226 0.967 1.48279476002e-38
0.0427284783606 -0.124624728552 0.962 1.51977670806e-38
0.0445088316256 -0.124624728552 0.962 1.4274778025e-38
0.0461448319232 -0.124236085947 0.959 1.35379150366e-38
0.047919633151 -0.124236085947 0.959 1.3721957373e-38
0.049538977337 -0.123847443342 0.956 1.34453662795e-38
0.0512008871415 -0.123588348273 0.954 1.37223231119e-38
0.0527998738577 -0.123199705668 0.951 1.33528147198e-38
0.0543877564995 -0.122811063063 0.948 1.38145005249e-38
0.0560237567971 -0.122551967994 0.946 1.27088746352e-38
0.0574080647412 -0.121774682784 0.94 7.82144266692e-39
0.0588330876248 -0.12112694511 0.935 2.35012213867e-38
0.0604339250201 -0.12086785004 0.933 2.03626365266e-38
0.0621606085921 -0.12086785004 0.933 2.35098856151e-38
0.0638872921641 -0.12086785004 0.933 2.35098856151e-38
-0.0176924919061 -0.122078194152 0.956 2.35098856151e-38
-0.0159232427154 -0.122078194152 0.956 5.51012976948e-40
-0.0141539935248 -0.122078194152 0.956 2.35098211554e-38
-0.0123847443342 -0.122078194152 0.956 2.10057932854e-38
-0.0106154951436 -0.122078194152 0.956 2.06326597342e-38
-0.00887400613907 -0.122461284719 0.959 1.96231937478e-38
-0.00709920491126 -0.122461284719 0.959 1.84239050687e-38
-0.00534105979507 -0.122844375287 0.962 1.89760124598e-38
-0.00356810924633 -0.123099768998 0.964 1.79615270223e-38
-0.00178405462316 -0.123099768998 0.964 1.8145542734e-38
0.0 -0.123482859566 0.967 1.67626110886e-38
0.00178960666037 -0.123482859566 0.967 1.65778737082e-38
0.00357921332074 -0.123482859566 0.967 1.63949243846e-38
0.00536881998112 -0.123482859566 0.967 1.5382570322e-38
0.00718063479032 -0.123865950133 0.97 1.49205131729e-38
0.0089757934879 -0.123865950133 0.97 1.67636648651e-38
0.0107709521855 -0.123865950133 0.97 1.51041463302e-38
0.0125661108831 -0.123865950133 0.97 1.48275790587e-38
0.0143612695806 -0.123865950133 0.97 1.4827594473e-38
0.0161564282782 -0.123865950133 0.97 1.5105610687e-38
0.0179515869758 -0.123865950133 0.97 1.58417141717e-38
0.0197467456734 -0.123865950133 0.97 1.48272259315e-38
0.021541904371 -0.123865950133 0.97 1.50138200324e-38
0.0234092395523 -0.124249040701 0.973 1.5567286683e-38
0.0252099502871 -0.124249040701 0.973 1.45534906843e-38
0.0269273804637 -0.123865950133 0.97 1.5566939161e-38
0.0287225391613 -0.123865950133 0.97 1.44595224119e-38
0.0305176978589 -0.123865950133 0.97 1.445737282e-38
0.0323128565565 -0.123865950133 0.97 1.45509753536e-38
0.034108015254 -0.123865950133 0.97 1.38155753208e-38
0.0359031739516 -0.123865950133 0.97 1.49211815923e-38
0.0376983326492 -0.123865950133 0.97 1.36300952522e-38
0.0393713465282 -0.123482859566 0.967 1.41818565225e-38
0.0411609531886 -0.123482859566 0.967 1.3906030538e-38
0.0428173109559 -0.123099768998 0.964 1.35361367888e-38
0.0445088316256 -0.122844375287 0.962 1.37205084304e-38
0.0461448319232 -0.122461284719 0.959 1.3720858755e-38
0.047919633151 -0.122461284719 0.959 1.270814596e-38
0.049538977337 -0.122078194152 0.956 1.40899565666e-38
0.0512008871415 -0.12182280044 0.954 1.31691311158e-38
0.0527998738577 -0.121439709873 0.951 1.27992780043e-38
0.0543877564995 -0.121056619305 0.948 1.42722542864e-38
0.0560237567971 -0.120801225594 0.946 1.03104065785e-38
0.0575912819691 -0.120418135026 0.943 2.05391188578e-38
0.0588330876248 -0.11939656018 0.935 2.33996216429e-38
0.0604339250201 -0.119141166468 0.933 2.34958193812e-38
0.0621606085921 -0.119141166468 0.933 2.35098856151e-38
0.0638872921641 -0.119141166468 0.933 2.35098856151e-38
-0.0159232427154 -0.120308944961 0.956 4.69873311708e-39
-0.0141539935248 -0.120308944961 0.956 9.75076580689e-39
-0.0123847443342 -0.120308944961 0.956 2.35098127476e-38
-0.0106488073669 -0.120686483491 0.959 1.99912377829e-38
-0.00887400613907 -0.120686483491 0.959 1.90635361606e-38
-0.00709920491126 -0.120686483491 0.959 1.89764048234e-38
-0.00534105979507 -0.121064022022 0.962 1.83306402482e-38
-0.00356810924633 -0.121315714375 0.964 1.7592722082e-38
-0.00178960666037 -0.121693252905 0.967 1.75923591457e-38
0.0 -0.121693252905 0.967 1.70398860158e-38
0.00178960666037 -0.121693252905 0.967 1.61179255133e-38
0.00359031739516 -0.122070791436 0.97 1.68551416288e-38
0.00538547609274 -0.122070791436 0.97 1.53804025133e-38
0.00718063479032 -0.122070791436 0.97 1.68566017818e-38
0.0089757934879 -0.122070791436 0.97 1.44602384754e-38
0.0107709521855 -0.122070791436 0.97 1.51052183235e-38
0.0125661108831 -0.122070791436 0.97 1.52889103353e-38
0.0143612695806 -0.122070791436 0.97 1.41832788404e-38
0.0162063966131 -0.122448329966 0.973 1.41822096497e-38
0.0180071073479 -0.122448329966 0.973 1.51030771394e-38
0.0198078180827 -0.122448329966 0.973 1.45488369721e-38
0.0216085288175 -0.122448329966 0.973 1.41818621277e-38
0.0234092395523 -0.122448329966 0.973 1.42736822096e-38
0.0252099502871 -0.122448329966 0.973 1.40896636952e-38
0.0270106610218 -0.122448329966 0.973 1.40900322367e-38
0.0288113717566 -0.122448329966 0.973 1.44580734693e-38
0.0305176978589 -0.122070791436 0.97 1.36293889977e-38
0.0323128565565 -0.122070791436 0.97 1.45516732002e-38
0.034108015254 -0.122070791436 0.97 1.39063234093e-38
0.0359031739516 -0.122070791436 0.97 1.39974652628e-38
0.0376983326492 -0.122070791436 0.97 1.25209282813e-38
0.0393713465282 -0.121693252905 0.967 1.39052500147e-38
0.0411609531886 -0.121693252905 0.967 1.35357612408e-38
0.0428173109559 -0.121315714375 0.964 1.39045213395e-38
0.0445088316256 -0.121064022022 0.962 1.3536114368e-38
0.0461448319232 -0.120686483491 0.959 1.31691311158e-38
0.047919633151 -0.120686483491 0.959 1.30762110147e-38
0.049538977337 -0.120308944961 0.956 1.37208559524e-38
0.0513082265276 -0.120308944961 0.956 1.27989220745e-38
0.052966434974 -0.120057252608 0.954 1.21553519327e-38
0.054559869653 -0.119679714077 0.951 8.19021958118e-39
0.0560237567971 -0.119050483194 0.946 2.03520497167e-38
0.0575912819691 -0.118672944664 0.943 2.35011835517e-38
0.0588330876248 -0.11766617525 0.935 1.53706985214e-38
0.0604339250201 -0.117414482896 0.933 2.35088094179e-38
0.0621606085921 -0.117414482896 0.933 2.35098856151e-38
0.0638872921641 -0.117414482896 0.933 2.35098856151e-38
-0.0159232427154 -0.118539695771 0.956 1.49345906173e-38
-0.0141539935248 -0.118539695771 0.956 4.95917144317e-39
-0.0123847443342 -0.118539695771 0.956 1.50894747352e-38
-0.0106488073669 -0.118911682264 0.959 2.3509809945e-38
-0.00887400613907 -0.118911682264 0.959 2.06348625754e-38
-0.00712141306009 -0.119283668757 0.962 1.82355187071e-38
-0.00534105979507 -0.119283668757 0.962 1.66729419999e-38
-0.00356810924633 -0.119531659752 0.964 1.71317439327e-38
-0.00178960666037 -0.119903646245 0.967 1.79618381105e-38
0.0 -0.119903646245 0.967 1.60246705018e-38
0.00179515869758 -0.120275632738 0.97 1.74079426626e-38
0.00359031739516 -0.120275632738 0.97 1.58398980888e-38
0.00538547609274 -0.120275632738 0.97 1.51044994574e-38
0.00718063479032 -0.120275632738 0.97 1.50133576039e-38
0.0089757934879 -0.120275632738 0.97 1.4737534422e-38
0.0107709521855 -0.120275632738 0.97 1.44623642452e-38
0.0126049751435 -0.120647619231 0.973 1.43687266792e-38
0.0144056858783 -0.120647619231 0.973 1.44601964365e-38
0.0162063966131 -0.120647619231 0.973 1.41829131015e-38
0.0180071073479 -0.120647619231 0.973 1.49183271473e-38
0.0198078180827 -0.120647619231 0.973 1.46420765693e-38
0.0216085288175 -0.120647619231 0.973 1.41810956174e-38
0.0234092395523 -0.120647619231 0.973 1.42736639927e-38
0.0252099502871 -0.120647619231 0.973 1.47360868807e-38
0.0270106610218 -0.120647619231 0.973 1.38130571874e-38
0.0288113717566 -0.120647619231 0.973 1.41811152356e-38
0.0306120824914 -0.120647619231 0.973 1.43676350677e-38
0.0323128565565 -0.120275632738 0.97 1.3536114368e-38
0.034108015254 -0.120275632738 0.97 1.3352083242e-38
0.0359031739516 -0.120275632738 0.97 1.39981533003e-38
0.0376983326492 -0.120275632738 0.97 1.41836319676e-38
0.0394934913468 -0.120275632738 0.97 1.30776389378e-38
0.0411609531886 -0.119903646245 0.967 1.30762054095e-38
0.0429505598489 -0.119903646245 0.967 1.29825300084e-38
0.0446013655791 -0.119531659752 0.964 1.35371961705e-38
0.0462891848906 -0.119283668757 0.962 1.34446866497e-38
0.047919633151 -0.118911682264 0.959 1.25230372355e-38
0.049538977337 -0.118539695771 0.956 1.32606036757e-38
0.0513082265276 -0.118539695771 0.956 1.13252591562e-38
0.052966434974 -0.118291704775 0.954 1.10457785853e-38
0.0547319828065 -0.118291704775 0.954 2.17429379347e-38
0.0561422002575 -0.117547731789 0.948 2.35023059918e-38
0.0575912819691 -0.116927754301 0.943 1.70301974382e-38
0.0593364723318 -0.116927754301 0.943 1.48117177614e-38
0.0610816626945 -0.116927754301 0.943 2.35098856151e-38
0.0628268530572 -0.116927754301 0.943 2.35098856151e-38
-0.0142428261202 -0.117503315492 0.962 3.39798062017e-39
-0.0124624728552 -0.117503315492 0.962 8.92715823968e-39
-0.0106821195901 -0.117503315492 0.962 1.18647212299e-38
-0.00890176632512 -0.117503315492 0.962 2.34928962726e-38
-0.00712141306009 -0.117503315492 0.962 2.34940285217e-38
-0.00535216386949 -0.117747605129 0.964 1.89723788929e-38
-0.00356810924633 -0.117747605129 0.964 1.64835256839e-38
-0.00178960666037 -0.118114039585 0.967 1.52882040808e-38
0.0 -0.118114039585 0.967 1.60235438578e-38
0.00179515869758 -0.11848047404 0.97 1.5932109133e-38
0.00359031739516 -0.11848047404 0.97 1.51037960055e-38
0.00538547609274 -0.11848047404 0.97 1.52882040808e-38
0.00718063479032 -0.11848047404 0.97 1.50130465157e-38
0.00900355367395 -0.118846908496 0.973 1.44620587621e-38
0.0108042644087 -0.118846908496 0.973 1.36304806092e-38
0.0126049751435 -0.118846908496 0.973 1.39056199575e-38
0.0144056858783 -0.118846908496 0.973 1.41835717118e-38
0.0162063966131 -0.118846908496 0.973 1.39985190392e-38
0.0180441209293 -0.119091198133 0.975 1.39960163201e-38
0.0198485330222 -0.119091198133 0.975 1.36275939344e-38
0.0216529451152 -0.119091198133 0.975 1.37186937489e-38
0.0234092395523 -0.118846908496 0.973 1.36282553473e-38
0.0252099502871 -0.118846908496 0.973 1.38127040602e-38
0.0270106610218 -0.118846908496 0.973 1.24287130332e-38
0.0288113717566 -0.118846908496 0.973 1.35343221073e-38
0.0306120824914 -0.118846908496 0.973 1.30733411554e-38
0.0324127932262 -0.118846908496 0.973 1.37190580865e-38
0.034213503961 -0.118846908496 0.973 1.36290134497e-38
0.0359031739516 -0.11848047404 0.97 1.26148671264e-38
0.0376983326492 -0.11848047404 0.97 1.36290386731e-38
0.0394934913468 -0.11848047404 0.97 1.31687415548e-38
0.0412886500444 -0.11848047404 0.97 1.30765585367e-38
0.0429505598489 -0.118114039585 0.967 1.36304483794e-38
0.0447401665093 -0.118114039585 0.967 1.27077956354e-38
0.0462891848906 -0.117503315492 0.962 1.17836967514e-38
0.047919633151 -0.117136881036 0.959 1.21528492137e-38
0.0496944343788 -0.117136881036 0.959 1.02174220176e-38
0.0513082265276 -0.11677044658 0.956 1.45391007504e-38
0.052966434974 -0.116526156943 0.954 2.34994361325e-38
0.0547319828065 -0.116526156943 0.954 2.34922292545e-38
0.0561422002575 -0.115793288031 0.948 1.38983752444e-38
0.0575912819691 -0.115182563938 0.943 1.32451599653e-38
0.0593364723318 -0.115182563938 0.943 1.06742887572e-38
0.0610816626945 -0.115182563938 0.943 2.35098856151e-38
-0.0142724369853 -0.115963550506 0.964 2.11226825968e-39
-0.0124883823621 -0.115963550506 0.964 7.18482997198e-39
-0.010704327739 -0.115963550506 0.964 1.06835457349e-38
-0.00892027311581 -0.115963550506 0.964 8.27134215058e-39
-0.00713621849265 -0.115963550506 0.964 1.76694333639e-38
-0.00536881998112 -0.116324432924 0.967 2.34957703357e-38
-0.00357921332074 -0.116324432924 0.967 2.26659382007e-38
-0.00178960666037 -0.116324432924 0.967 1.82298070146e-38
0.0 -0.116685315343 0.97 1.53753382207e-38
0.00179515869758 -0.116685315343 0.97 1.5290327048e-38
0.00359031739516 -0.116685315343 0.97 1.56595131414e-38
0.00538547609274 -0.116685315343 0.97 1.44588161575e-38
0.00720284293916 -0.117046197761 0.973 1.5566216091e-38
0.00900355367395 -0.117046197761 0.973 1.31659417605e-38
0.0108042644087 -0.117046197761 0.973 1.42726284331e-38
0.0126308846505 -0.11728678604 0.975 1.42729759551e-38
0.0144352967434 -0.11728678604 0.975 1.35371933679e-38
0.0162397088364 -0.11728678604 0.975 1.30758817095e-38
0.0180441209293 -0.11728678604 0.975 1.38130571874e-38
0.0199096054315 -0.117647668459 0.978 1.35360961512e-38
0.0217195695617 -0.117647668459 0.978 1.38116068435e-38
0.0234573572081 -0.11728678604 0.975 1.38134075121e-38
0.025261769301 -0.11728678604 0.975 1.22457539005e-38
0.0270661813939 -0.11728678604 0.975 1.37194336344e-38
0.0288705934869 -0.11728678604 0.975 1.32577324151e-38
0.0306750055798 -0.11728678604 0.975 1.26130846748e-38
0.0324794176727 -0.11728678604 0.975 1.37204902135e-38
0.034213503961 -0.117046197761 0.973 1.2522668694e-38
0.0360142146958 -0.117046197761 0.973 1.2523767312e-38
0.0376983326492 -0.116685315343 0.97 1.26145280122e-38
0.0394934913468 -0.116685315343 0.97 1.24301199369e-38
0.0412886500444 -0.116685315343 0.97 1.27999786536e-38
0.0429505598489 -0.116324432924 0.967 1.18776944511e-38
0.0447401665093 -0.116324432924 0.967 1.04932956463e-38
0.0463854202022 -0.115963550506 0.964 1.09495892548e-38
0.0480695381556 -0.115722962227 0.962 1.56462610618e-38
0.0496944343788 -0.115362079808 0.959 2.34918873377e-38
0.0513082265276 -0.115001197389 0.956 2.3502537206e-38
0.0530774757182 -0.115001197389 0.956 1.32606415107e-38
0.0547319828065 -0.11476060911 0.954 1.08500059794e-38
0.0561422002575 -0.114038844273 0.948 9.38313235218e-39
0.0578966440156 -0.114038844273 0.948 7.09588395326e-39
-0.0153236226969 -0.108967983622 0.92 2.35098856151e-38
-0.0136209979528 -0.108967983622 0.92 2.75589024954e-39
-0.0119183732087 -0.108967983622 0.92 8.47305345933e-39
-0.0102157484646 -0.108967983622 0.92 5.52814486254e-39
-0.00894803330186 -0.114534826264 0.967 9.01828047492e-39
-0.00715842664149 -0.114534826264 0.967 1.45401867567e-38
-0.00536881998112 -0.114534826264 0.967 7.53051068496e-39
-0.00357921332074 -0.114534826264 0.967 1.46276992471e-38
-0.00179515869758 -0.114890156645 0.97 2.31220033976e-38
0.0 -0.114890156645 0.97 2.16547079795e-38
0.00179515869758 -0.114890156645 0.97 1.78742933903e-38
0.00359031739516 -0.114890156645 0.97 1.65742541543e-38
0.00540213220437 -0.115245487027 0.973 1.36218808406e-38
0.00720284293916 -0.115245487027 0.973 1.20620632901e-38
0.00902206046465 -0.115482373947 0.975 1.4733877033e-38
0.0108264725576 -0.115482373947 0.975 1.38127040602e-38
0.0126308846505 -0.115482373947 0.975 1.27989276797e-38
0.0144797130411 -0.115837704329 0.978 1.41807621084e-38
0.0162896771712 -0.115837704329 0.978 1.27078012406e-38
0.0180996413014 -0.115837704329 0.978 1.30758242563e-38
0.0199096054315 -0.115837704329 0.978 1.28935839897e-38
0.0217195695617 -0.115837704329 0.978 1.29836020017e-38
0.0235295336918 -0.115837704329 0.978 1.29829251746e-38
0.0253394978219 -0.115837704329 0.978 1.24294010708e-38
0.0271494619521 -0.115837704329 0.978 1.29818083397e-38
0.0289594260822 -0.115837704329 0.978 1.36293918003e-38
0.0307693902124 -0.115837704329 0.978 1.22474831029e-38
0.0324794176727 -0.115482373947 0.975 1.24293744461e-38
0.0342838297657 -0.115482373947 0.975 1.19684033033e-38
0.0360142146958 -0.115245487027 0.973 1.21531364798e-38
0.0378149254306 -0.115245487027 0.973 1.19684131124e-38
0.0396156361654 -0.115245487027 0.973 1.01252221838e-38
0.0412886500444 -0.114890156645 0.97 1.09528178465e-38
0.0430838087419 -0.114890156645 0.97 1.53731269717e-38
0.0447401665093 -0.114534826264 0.967 2.0628729092e-38
0.0463854202022 -0.114179495882 0.964 2.35040239837e-38
0.0481694748254 -0.114179495882 0.964 2.35004506726e-38
0.0498498914207 -0.113942608962 0.962 1.13210202284e-38
0.0514692356066 -0.11358727858 0.959 2.6632994535e-39
0.0532440368344 -0.11358727858 0.959 6.07885515902e-39
0.0550188380623 -0.11358727858 0.959 5.80294930048e-39
-0.0153236226969 -0.107265358878 0.92 2.35098856151e-38
-0.0136209979528 -0.107265358878 0.92 8.1081707535e-39
-0.0119183732087 -0.107265358878 0.92 8.93326509838e-39
-0.0102157484646 -0.107265358878 0.92 8.4751736239e-39
-0.00849461692979 -0.107032173315 0.918 5.89298272681e-39
-0.00679569354383 -0.107032173315 0.918 8.09741298519e-39
-0.00536881998112 -0.112745219603 0.967 1.54639787563e-38
-0.00357921332074 -0.112745219603 0.967 1.28817402151e-38
-0.00179515869758 -0.113094997948 0.97 7.89789190594e-39
0.0 -0.113094997948 0.97 5.69382738647e-39
0.00179515869758 -0.113094997948 0.97 1.45503840056e-38
0.00359031739516 -0.113094997948 0.97 2.21156412873e-38
0.00540213220437 -0.113444776292 0.973 2.1196245161e-38
0.00720284293916 -0.113444776292 0.973 2.08275172921e-38
0.00902206046465 -0.113677961855 0.975 1.75021953986e-38
0.0108264725576 -0.113677961855 0.975 1.67547147718e-38
0.012669748911 -0.114027740199 0.978 1.57409636147e-38
0.0144797130411 -0.114027740199 0.978 1.362150249e-38
0.0162896771712 -0.114027740199 0.978 1.2240671391e-38
0.0180996413014 -0.114027740199 0.978 1.06715716395e-38
0.0199096054315 -0.114027740199 0.978 1.03031534576e-38
0.0217195695617 -0.114027740199 0.978 1.22385147927e-38
0.0235295336918 -0.114027740199 0.978 1.08552426318e-38
0.0253394978219 -0.114027740199 0.978 1.07644833329e-38
0.0271494619521 -0.114027740199 0.978 1.06708541747e-38
0.0289594260822 -0.114027740199 0.978 1.16839144917e-38
0.0306750055798 -0.113677961855 0.975 1.22399497223e-38
0.0324127932262 -0.113444776292 0.973 1.28868045077e-38
0.034213503961 -0.113444776292 0.973 1.42672222236e-38
0.0360142146958 -0.113444776292 0.973 1.63859364562e-38
0.0376983326492 -0.113094997948 0.97 1.91510682692e-38
0.0394934913468 -0.113094997948 0.97 2.32169862101e-38
0.0412886500444 -0.113094997948 0.97 2.21174952052e-38
0.0430838087419 -0.113094997948 0.97 2.27618108378e-38
0.0447401665093 -0.112745219603 0.967 1.88863153451e-38
0.0463854202022 -0.112395441259 0.964 5.32902035076e-39
0.0481694748254 -0.112395441259 0.964 1.83670992316e-40
0.0499535294486 -0.112395441259 0.964 4.70416314863e-39
0.055305693318 -0.112395441259 0.964 1.04991334557e-38
-0.0136209979528 -0.105562734134 0.92 1.01361088716e-38
-0.0119183732087 -0.105562734134 0.92 9.85634103449e-39
-0.0102157484646 -0.105562734134 0.92 7.3720560585e-39
-0.00849461692979 -0.105333249929 0.918 7.5557480703e-39
-0.00679569354383 -0.105333249929 0.918 5.98806503151e-39
-0.00536881998112 -0.110955612943 0.967 5.61246239243e-39
-0.00357921332074 -0.110955612943 0.967 1.16915837982e-38
-0.00179515869758 -0.11129983925 0.97 1.60128015038e-38
0.0 -0.11129983925 0.97 1.48131821183e-38
0.00179515869758 -0.11129983925 0.97 6.7040248507e-39
0.00359031739516 -0.11129983925 0.97 1.65303893084e-39
0.00540213220437 -0.111644065557 0.973 6.86636247519e-44
0.00721764837172 -0.111873549762 0.975 9.66218552706e-39
0.00902206046465 -0.111873549762 0.975 1.6483990915e-38
0.0108597847808 -0.112217776069 0.978 1.95288275066e-38
0.012669748911 -0.112217776069 0.978 2.1281976601e-38
0.0144797130411 -0.112217776069 0.978 2.34969137953e-38
0.0162896771712 -0.112217776069 0.978 2.34979311379e-38
0.0180996413014 -0.112217776069 0.978 2.34960800227e-38
0.0199096054315 -0.112217776069 0.978 2.34985897482e-38
0.0217195695617 -0.112217776069 0.978 2.22050076956e-38
0.0235295336918 -0.112217776069 0.978 2.2850374302e-38
0.0253394978219 -0.112217776069 0.978 2.294258955e-38
0.0271494619521 -0.112217776069 0.978 2.2390134637e-38
0.0289594260822 -0.112217776069 0.978 2.3499696774e-38
0.0306750055798 -0.111873549762 0.975 2.34993156208e-38
0.0324127932262 -0.111644065557 0.973 2.28546917026e-38
0.034213503961 -0.111644065557 0.973 2.22093250961e-38
0.0360142146958 -0.111644065557 0.973 2.04558312823e-38
0.0376983326492 -0.11129983925 0.97 1.48271684783e-38
0.0394934913468 -0.11129983925 0.97 8.00057064962e-39
0.0412886500444 -0.11129983925 0.97 4.22450709209e-39
0.0430838087419 -0.11129983925 0.97 3.50324616081e-44
0.0447401665093 -0.110955612943 0.967 6.0255833966e-44
0.0465297731697 -0.110955612943 0.967 5.43237732289e-39
0.04831937983 -0.110955612943 0.967 6.53764868403e-39
-0.0136209979528 -0.10386010939 0.92 2.04663508298e-38
-0.0119183732087 -0.10386010939 0.92 7.08906243234e-39
-0.0102157484646 -0.10386010939 0.92 7.55539774568e-39
-0.00849461692979 -0.103634326543 0.918 8.01742266495e-39
-0.00679569354383 -0.103634326543 0.918 6.54266813513e-39
-0.00510787423229 -0.10386010939 0.92 5.80259897586e-39
-0.00359031739516 -0.109504680552 0.97 2.3037795169e-39
-0.00179515869758 -0.109504680552 0.97 8.1921253471e-39
0.0 -0.109504680552 0.97 1.4174281103e-38
0.00179515869758 -0.109504680552 0.97 1.72091166274e-38
0.00359031739516 -0.109504680552 0.97 1.51815554586e-38
0.00540213220437 -0.109843354822 0.973 9.28869464477e-39
0.00721764837172 -0.110069137669 0.975 3.39800023835e-39
0.00904982065069 -0.110407811938 0.978 3.92363570011e-44
0.0108597847808 -0.110407811938 0.978 0.0
0.012669748911 -0.110407811938 0.978 0.0
0.0144797130411 -0.110407811938 0.978 5.1435613016e-39
0.0162896771712 -0.110407811938 0.978 1.52677983726e-38
0.0180996413014 -0.110407811938 0.978 1.34345286372e-38
0.0199096054315 -0.110407811938 0.978 1.70247828209e-38
0.0217195695617 -0.110407811938 0.978 1.73017830936e-38
0.0235295336918 -0.110407811938 0.978 1.72063644772e-38
0.0253394978219 -0.110407811938 0.978 1.76640986206e-38
0.0271494619521 -0.110407811938 0.978 1.480853261e-38
0.0289594260822 -0.110407811938 0.978 1.20390932056e-38
0.0306750055798 -0.110069137669 0.975 1.05610820582e-38
0.0324794176727 -0.110069137669 0.975 1.07448245167e-38
0.034213503961 -0.109843354822 0.973 9.18360426644e-39
0.0360142146958 -0.109843354822 0.973 8.17336055936e-39
0.0376983326492 -0.109504680552 0.97 8.54079783229e-39
0.0394934913468 -0.109504680552 0.97 8.17345024246e-39
0.0412886500444 -0.109504680552 0.97 9.37666816236e-39
0.0430838087419 -0.109504680552 0.97 1.02052251158e-38
0.041917880928 -0.102279629464 0.906 1.05762525153e-38
0.0435945961652 -0.102279629464 0.906 1.23240388406e-38
0.04831937983 -0.109166006283 0.967 1.37062306003e-38
-0.0136209979528 -0.102157484646 0.92 2.35098856151e-38
-0.0119183732087 -0.102157484646 0.92 5.33402999277e-39
-0.0102157484646 -0.102157484646 0.92 7.64905212725e-39
-0.00851312372049 -0.102157484646 0.92 7.55679904415e-39
-0.00681049897639 -0.102157484646 0.92 6.81888087803e-39
-0.00510787423229 -0.102157484646 0.92 6.63413508979e-39
-0.00339784677192 -0.101935403157 0.918 5.25264958445e-39
-0.00169892338596 -0.101935403157 0.918 4.51618176224e-39
0.0 -0.108042644087 0.973 2.57469535161e-39
0.00180071073479 -0.108042644087 0.973 1.11362309999e-38
0.00360142146958 -0.108042644087 0.973 1.57386710904e-38
0.00541323627879 -0.108264725576 0.975 1.70255465286e-38
0.00723985652055 -0.108597847808 0.978 1.33387779131e-38
0.00904982065069 -0.108597847808 0.978 1.04854217502e-38
0.0108930970041 -0.108930970041 0.981 3.58161798132e-39
0.012669748911 -0.108597847808 0.978 4.05520641552e-39
0.0144797130411 -0.108597847808 0.978 3.59172414585e-39
0.0162896771712 -0.108597847808 0.978 3.31043029472e-39
0.0180996413014 -0.108597847808 0.978 7.53453661544e-39
0.0199096054315 -0.108597847808 0.978 1.3063630157e-38
0.0217195695617 -0.108597847808 0.978 1.38036642838e-38
0.0235295336918 -0.108597847808 0.978 1.61964094376e-38
0.0253394978219 -0.108597847808 0.978 1.89557987294e-38
0.0271494619521 -0.108597847808 0.978 1.74796919466e-38
0.0289594260822 -0.108597847808 0.978 1.83984014367e-38
0.0307693902124 -0.108597847808 0.978 1.96876534771e-38
0.0325793543425 -0.108597847808 0.978 1.90473455581e-38
0.0342838297657 -0.108264725576 0.975 1.8033218853e-38
0.0360882418586 -0.108264725576 0.975 1.91362943794e-38
0.0352887485005 -0.100824995716 0.908 1.93235022491e-38
0.0369691650957 -0.100824995716 0.908 1.84044578487e-38
0.038649581691 -0.100824995716 0.908 1.85895945992e-38
0.0403299982863 -0.100824995716 0.908 1.84977675108e-38
0.041917880928 -0.100602914227 0.906 1.73003383549e-38
0.0435945961652 -0.100602914227 0.906 1.92335571046e-38
0.0454711847418 -0.101047077204 0.91 1.97859125254e-38
-0.0136654142505 -0.100782430097 0.923 2.35098856151e-38
-0.0119183732087 -0.100454859902 0.92 3.67532981613e-39
-0.0102157484646 -0.100454859902 0.92 8.29442153629e-39
-0.00851312372049 -0.100454859902 0.92 7.27950730143e-39
-0.00681049897639 -0.100454859902 0.92 7.27986042864e-39
-0.00510787423229 -0.100454859902 0.92 6.72739010129e-39
-0.00339784677192 -0.100236479772 0.918 6.53944514866e-39
-0.00169892338596 -0.100236479772 0.918 5.8032996251e-39
0.0 -0.100454859902 0.92 4.88316641577e-39
0.00180071073479 -0.106241933353 0.973 2.8566646286e-39
0.00360142146958 -0.106241933353 0.973 3.12570132206e-39
0.00541323627879 -0.106460313483 0.975 1.21460543174e-38
0.00723985652055 -0.106787883678 0.978 1.59234995552e-38
0.00907758083674 -0.107115453873 0.981 1.80390118208e-38
0.0108930970041 -0.107115453873 0.981 1.4540507654e-38
0.012669748911 -0.106787883678 0.978 8.55221981607e-39
0.0144797130411 -0.106787883678 0.978 3.94898939322e-39
0.0162896771712 -0.106787883678 0.978 4.23706833152e-39
0.0180996413014 -0.106787883678 0.978 3.86865855746e-39
0.0199096054315 -0.106787883678 0.978 3.86790045499e-39
0.0217195695617 -0.106787883678 0.978 3.31618823011e-39
0.0235295336918 -0.106787883678 0.978 6.06840567637e-39
0.0235258323337 -0.0991445791204 0.908 9.74216884081e-39
0.0251507285568 -0.0989261989902 0.906 1.15857311135e-38
0.026827443794 -0.0989261989902 0.906 1.40759463845e-38
0.0285041590311 -0.0989261989902 0.906 1.48192847731e-38
0.0301808742682 -0.0989261989902 0.906 1.41735622369e-38
0.03192791531 -0.0991445791204 0.908 1.67532504149e-38
0.0336083319052 -0.0991445791204 0.908 1.66553192704e-38
0.0352887485005 -0.0991445791204 0.908 1.76683921991e-38
0.0369691650957 -0.0991445791204 0.908 1.76705249754e-38
0.038649581691 -0.0991445791204 0.908 1.57351258053e-38
0.0403299982863 -0.0991445791204 0.908 1.61975500946e-38
