# .PCD v0.7 - Point Cloud Data file format
VERSION 0.7
FIELDS x y z rgb
SIZE 4 4 4 4
TYPE F F F F
COUNT 1 1 1 1
WIDTH 845
HEIGHT 1
VIEWPOINT 0 0 0 1 0 0 0
POINTS 845
DATA ascii
0.0578892412993 -0.0885364866931 0.92 1.31572284867e-38
0.0594623185085 -0.0883440160698 0.918 1.26969748087e-38
0.060961368555 -0.0880553101349 0.915 1.343345244e-38
0.0623123642758 -0.0875741335768 0.91 1.31558103726e-38
0.0638558306199 -0.0873816629536 0.908 1.3706806534e-38
0.0653918942478 -0.0871891923303 0.906 1.35238530065e-38
0.0670686094849 -0.0871891923303 0.906 1.14033857495e-38
0.068745324722 -0.0871891923303 0.906 1.69207406139e-38
0.0704220399591 -0.0871891923303 0.906 2.34899493419e-38
0.0 -0.086833861949 0.92 2.35018575762e-38
0.0017026247441 -0.086833861949 0.92 1.84145359872e-38
0.00340524948819 -0.086833861949 0.92 1.8211409367e-38
0.00510787423229 -0.086833861949 0.92 1.70233156614e-38
0.00683270712523 -0.0871170158466 0.923 1.73934994794e-38
0.00854088390653 -0.0871170158466 0.923 1.71179929909e-38
0.0102712688367 -0.0873057851117 0.925 1.55510498377e-38
0.0119831469761 -0.0873057851117 0.925 1.55510498377e-38
0.0137394414132 -0.0875889390094 0.928 1.52748258844e-38
0.0154901838131 -0.0877777082745 0.93 1.55514085701e-38
0.0172113153479 -0.0877777082745 0.93 1.44461540245e-38
0.0189324468827 -0.0877777082745 0.93 1.44468714894e-38
0.0206535784175 -0.0877777082745 0.93 1.42624830322e-38
0.0223747099523 -0.0877777082745 0.93 1.39851856843e-38
0.024173570008 -0.0880608621722 0.933 1.41702888037e-38
0.0259557739521 -0.0882496314373 0.935 1.39855416141e-38
0.0276861588823 -0.0882496314373 0.935 1.38940648504e-38
0.0294165438124 -0.0882496314373 0.935 1.33412806322e-38
0.0311469287426 -0.0882496314373 0.935 1.35260054009e-38
0.0328773136727 -0.0882496314373 0.935 1.343345244e-38
0.0346076986028 -0.0882496314373 0.935 1.29746336916e-38
0.036338083533 -0.0882496314373 0.935 1.28802870686e-38
0.0380684684631 -0.0882496314373 0.935 1.31550760922e-38
0.0397988533933 -0.0882496314373 0.935 1.41702888037e-38
0.0414404057281 -0.0880608621722 0.933 1.26962573438e-38
0.0431670893001 -0.0880608621722 0.933 1.28810045334e-38
0.0448937728721 -0.0880608621722 0.933 1.28810045334e-38
0.0464705514394 -0.0877777082745 0.93 1.26980510059e-38
0.0481916829742 -0.0877777082745 0.93 1.27909626993e-38
0.049805475123 -0.0875889390094 0.928 1.28827981954e-38
0.0513563441834 -0.0873057851117 0.925 1.33434106058e-38
0.0530682223228 -0.0873057851117 0.925 1.3435246102e-38
0.0546616570018 -0.0871170158466 0.923 1.29742749592e-38
0.0563698337831 -0.0871170158466 0.923 1.33430518734e-38
0.0578892412993 -0.086833861949 0.92 1.26973335411e-38
0.0594623185085 -0.0866450926839 0.918 1.29731987619e-38
0.060961368555 -0.0863619387862 0.915 1.29739162268e-38
0.0625177896526 -0.0861731695211 0.913 1.27895277696e-38
0.0639964822292 -0.0858900156234 0.91 1.29703289027e-38
0.0655362472152 -0.0857012463583 0.908 1.25093577599e-38
0.0672166638105 -0.0857012463583 0.908 1.18611283007e-38
0.0688970804057 -0.0857012463583 0.908 2.34889165849e-38
0.070577497001 -0.0857012463583 0.908 1.68440041086e-38
0.0 -0.0851312372049 0.92 1.70136144722e-38
0.0017026247441 -0.0851312372049 0.92 2.34964990109e-38
0.00340524948819 -0.0851312372049 0.92 1.83190585163e-38
0.00512453034392 -0.0854088390653 0.923 1.78415562555e-38
0.00683270712523 -0.0854088390653 0.923 1.64722942767e-38
0.00855939069723 -0.0855939069723 0.925 1.60091511213e-38
0.0102712688367 -0.0855939069723 0.925 1.61038606806e-38
0.0120220112366 -0.0858715088327 0.928 1.52751846168e-38
0.0137394414132 -0.0858715088327 0.928 1.55506911053e-38
0.015540152148 -0.0863341786002 0.933 1.50904374273e-38
0.01726683572 -0.0863341786002 0.933 1.43543185284e-38
0.018993519292 -0.0863341786002 0.933 1.46294662844e-38
0.020720202864 -0.0863341786002 0.933 1.46298250169e-38
0.022446886436 -0.0863341786002 0.933 1.40773771103e-38
0.024225389022 -0.0865192465071 0.935 1.41702888037e-38
0.0259557739521 -0.0865192465071 0.935 1.3708600196e-38
0.0276861588823 -0.0865192465071 0.935 1.35245704713e-38
0.029510928445 -0.0867968483676 0.938 1.35260054009e-38
0.0312468654123 -0.0867968483676 0.938 1.32504989125e-38
0.0329828023797 -0.0867968483676 0.938 1.25126087723e-38
0.034718739347 -0.0867968483676 0.938 1.27877341076e-38
0.0364546763144 -0.0867968483676 0.938 1.25104339571e-38
0.0380684684631 -0.0865192465071 0.935 1.29703289027e-38
0.0397988533933 -0.0865192465071 0.935 1.3521700612e-38
0.0415292383234 -0.0865192465071 0.935 1.30628818637e-38
0.0432596232536 -0.0865192465071 0.935 1.28799283362e-38
0.0449900081837 -0.0865192465071 0.935 1.29721225647e-38
0.0467203931138 -0.0865192465071 0.935 1.29735574944e-38
0.0483471400161 -0.0863341786002 0.933 1.24200333906e-38
0.049805475123 -0.0858715088327 0.928 1.38033055514e-38
0.0515229052996 -0.0858715088327 0.928 1.26966160762e-38
0.0530682223228 -0.0855939069723 0.925 1.3155793557e-38
0.0547801004623 -0.0855939069723 0.925 1.27884515724e-38
0.0563698337831 -0.0854088390653 0.923 1.28777759417e-38
0.0578892412993 -0.0851312372049 0.92 1.26962573438e-38
0.0594623185085 -0.0849461692979 0.918 1.32479877856e-38
0.060961368555 -0.0846685674374 0.915 1.30632405961e-38
0.0625177896526 -0.0844834995305 0.913 1.27884515724e-38
0.0642074596432 -0.0844834995305 0.913 1.1960138445e-38
0.0658971296338 -0.0844834995305 0.913 1.01980448624e-38
0.067364718136 -0.08420589767 0.91 2.34849621207e-38
0.0690488360894 -0.08420589767 0.91 2.28420744112e-38
0.0707329540428 -0.08420589767 0.91 8.54428846676e-39
0.00170817678131 -0.083700662284 0.923 1.79316078988e-38
0.00341635356261 -0.083700662284 0.923 2.34986373924e-38
0.00513563441834 -0.0838820288328 0.925 1.83180047399e-38
0.00684751255778 -0.0838820288328 0.925 1.6830648333e-38
0.00855939069723 -0.0838820288328 0.925 1.62868464379e-38
0.0103045810599 -0.0841540786561 0.928 1.51826316558e-38
0.0120479207436 -0.0843354452049 0.93 1.50907961597e-38
0.0137690522784 -0.0843354452049 0.93 1.49074838998e-38
0.015540152148 -0.0846074950282 0.933 1.47230954426e-38
0.01726683572 -0.0846074950282 0.933 1.47230954426e-38
0.0190342342316 -0.084788861577 0.935 1.41677776768e-38
0.0207646191617 -0.084788861577 0.935 1.38915537235e-38
0.0224950040919 -0.084788861577 0.935 1.38025880866e-38
0.0243031175429 -0.0850609114002 0.938 1.33419756762e-38
0.0260390545103 -0.0850609114002 0.938 1.29728400295e-38
0.0277749914776 -0.0850609114002 0.938 1.34330937075e-38
0.029510928445 -0.0850609114002 0.938 1.28810045334e-38
0.0312468654123 -0.0850609114002 0.938 1.3435246102e-38
0.0329828023797 -0.0850609114002 0.938 1.26054980449e-38
0.034718739347 -0.0850609114002 0.938 1.33434106058e-38
0.0364546763144 -0.0850609114002 0.938 1.33416169438e-38
0.0381906132817 -0.0850609114002 0.938 1.28788521389e-38
0.0399265502491 -0.0850609114002 0.938 1.31550760922e-38
0.0416624872164 -0.0850609114002 0.938 1.31550760922e-38
0.0433984241838 -0.0850609114002 0.938 1.28792108713e-38
0.0451343611511 -0.0850609114002 0.938 1.29710463675e-38
0.0467203931138 -0.084788861577 0.935 1.29703289027e-38
0.048450778044 -0.084788861577 0.935 1.31579459515e-38
0.049912814509 -0.0843354452049 0.93 1.25136625487e-38
0.0515229052996 -0.0841540786561 0.928 1.27906039668e-38
0.0532403354763 -0.0841540786561 0.928 1.27884515724e-38
0.0547801004623 -0.0838820288328 0.925 1.24189641998e-38
0.0563698337831 -0.083700662284 0.923 1.34302238483e-38
0.0580780105644 -0.083700662284 0.923 1.36156885026e-38
0.0595918660434 -0.0834286124608 0.92 1.33401848168e-38
0.0611612418945 -0.0832472459119 0.918 1.33398232818e-38
0.0626547399037 -0.0829751960887 0.915 1.17753912554e-38
0.0642074596432 -0.0827938295399 0.913 1.13951349041e-38
0.0658971296338 -0.0827938295399 0.913 2.34830871833e-38
0.0675867996244 -0.0827938295399 0.913 2.34918074637e-38
0.069276469615 -0.0827938295399 0.913 7.35293814356e-39
0.0709661396056 -0.0827938295399 0.913 2.34573621461e-38
0.00342375627889 -0.0821701506934 0.925 1.23059564852e-38
0.00513563441834 -0.0821701506934 0.925 2.34975527874e-38
0.00684751255778 -0.0821701506934 0.925 2.13573090051e-38
0.00858715088327 -0.0824366484794 0.928 1.40694849973e-38
0.0103267892088 -0.0826143136701 0.93 1.50000368607e-38
0.0120479207436 -0.0826143136701 0.93 1.50922465036e-38
0.013813468576 -0.0828808114561 0.933 1.42614124402e-38
0.0155734643713 -0.0830584766468 0.935 1.44465127569e-38
0.0173038493014 -0.0830584766468 0.935 1.41677776768e-38
0.0190342342316 -0.0830584766468 0.935 1.38908362587e-38
0.0207646191617 -0.0830584766468 0.935 1.38025880866e-38
0.0225671805756 -0.0833249744329 0.938 1.26969748087e-38
0.0243031175429 -0.0833249744329 0.938 1.37107525905e-38
0.0260390545103 -0.0833249744329 0.938 1.23271216972e-38
0.0277749914776 -0.0833249744329 0.938 1.29721225647e-38
0.0295738515333 -0.0835026396236 0.94 1.22356449334e-38
0.0313134898588 -0.0835026396236 0.94 1.26926700198e-38
0.0330531281843 -0.0835026396236 0.94 1.27859404456e-38
0.0347927665098 -0.0835026396236 0.94 1.25107926895e-38
0.0365324048353 -0.0835026396236 0.94 1.23264042324e-38
0.0382720431608 -0.0835026396236 0.94 1.32476290532e-38
0.0400116814863 -0.0835026396236 0.94 1.2693746217e-38
0.0416624872164 -0.0833249744329 0.938 1.28781346741e-38
0.0433984241838 -0.0833249744329 0.938 1.25122276191e-38
0.0451343611511 -0.0833249744329 0.938 1.27877341076e-38
0.0468702981185 -0.0833249744329 0.938 1.2880645801e-38
0.048450778044 -0.0830584766468 0.935 1.27884515724e-38
0.0500738235881 -0.0828808114561 0.933 1.20516152087e-38
0.0516339460438 -0.0826143136701 0.93 1.26047805801e-38
0.0532403354763 -0.0824366484794 0.928 1.28799283362e-38
0.0547801004623 -0.0821701506934 0.925 1.34313000455e-38
0.0564919786017 -0.0821701506934 0.925 1.29739162268e-38
0.0580780105644 -0.0819924855027 0.923 1.25104339571e-38
0.0595918660434 -0.0817259877167 0.92 1.2601193256e-38
0.0611612418945 -0.081548322526 0.918 1.00183199266e-38
0.0626547399037 -0.08128182474 0.915 1.43356784562e-38
0.0643481112525 -0.08128182474 0.915 2.34885088071e-38
0.0623604819316 -0.0767513623774 0.864 2.34864054581e-38
0.0639594686478 -0.0767513623774 0.864 7.16567982717e-39
0.0694282252987 -0.08128182474 0.915 1.91335099994e-38
0.0713547822102 -0.081548322526 0.918 2.34764296143e-38
0.0730537055962 -0.081548322526 0.918 2.35076995895e-38
0.00343486035331 -0.0807192183028 0.928 1.32429655319e-38
0.00513563441834 -0.0804582725539 0.925 1.06529175543e-38
0.00684751255778 -0.0804582725539 0.925 2.34881837058e-38
0.00858715088327 -0.0807192183028 0.928 2.34929214959e-38
0.0103267892088 -0.0808931821353 0.93 1.58247780784e-38
0.012086785004 -0.0811541278841 0.933 1.452148783e-38
0.013813468576 -0.0811541278841 0.933 1.41681364092e-38
0.0155734643713 -0.0813280917167 0.935 1.30628818637e-38
0.0173038493014 -0.0813280917167 0.935 1.37990007626e-38
0.0190953066409 -0.0815890374655 0.938 1.35245704713e-38
0.0208312436082 -0.0815890374655 0.938 1.28802870686e-38
0.0225671805756 -0.0815890374655 0.938 1.3155793557e-38
0.0243031175429 -0.0815890374655 0.938 1.24193159257e-38
0.0260945748824 -0.0817630012981 0.94 1.34327349751e-38
0.0278342132079 -0.0817630012981 0.94 1.27873753752e-38
0.0295738515333 -0.0817630012981 0.94 1.26033456505e-38
0.0314134265286 -0.0820239470469 0.943 1.27877341076e-38
0.0331586168913 -0.0820239470469 0.943 1.2695539879e-38
0.034903807254 -0.0820239470469 0.943 1.26022694532e-38
0.0365324048353 -0.0817630012981 0.94 1.26933874846e-38
0.0382720431608 -0.0817630012981 0.94 1.37078827312e-38
0.0400116814863 -0.0817630012981 0.94 1.25104339571e-38
0.0417513198118 -0.0817630012981 0.94 1.32454766588e-38
0.0433984241838 -0.0815890374655 0.938 1.31554348246e-38
0.0451343611511 -0.0815890374655 0.938 1.28777759417e-38
0.0468702981185 -0.0815890374655 0.938 1.30610882016e-38
0.048450778044 -0.0813280917167 0.935 1.25100752247e-38
0.0500738235881 -0.0811541278841 0.933 1.26948224142e-38
0.0516339460438 -0.0808931821353 0.93 1.29717638323e-38
0.0532403354763 -0.0807192183028 0.928 1.2695539879e-38
0.0547801004623 -0.0804582725539 0.925 1.29717638323e-38
0.0564919786017 -0.0804582725539 0.925 1.25104339571e-38
0.0580780105644 -0.0802843087214 0.923 1.13115502533e-38
0.0595918660434 -0.0800233629726 0.92 1.09323700993e-38
0.0611612418945 -0.07984939914 0.918 1.94103435175e-38
0.059367933876 -0.07541332141 0.867 2.34925501518e-38
0.0609724726294 -0.07541332141 0.867 2.00744300701e-38
0.0623604819316 -0.0751523756612 0.864 7.71741026893e-39
0.0639594686478 -0.0751523756612 0.864 1.83073170365e-38
0.0657860888896 -0.07541332141 0.867 1.82129437888e-38
0.0713547822102 -0.07984939914 0.918 2.35004885076e-38
0.00688452613918 -0.0791720506005 0.93 7.89785266959e-39
0.00860565767397 -0.0791720506005 0.93 1.88550635867e-38
0.0103267892088 -0.0791720506005 0.93 2.3494715158e-38
0.012086785004 -0.0794274443121 0.933 2.21941868688e-38
0.0138430794411 -0.0795977067866 0.935 1.61049326739e-38
0.0155734643713 -0.0795977067866 0.935 1.25832566357e-38
0.0173038493014 -0.0795977067866 0.935 1.36110249814e-38
0.0190953066409 -0.0798531004982 0.938 1.31572284867e-38
0.0208312436082 -0.0798531004982 0.938 1.26054980449e-38
0.0226152982314 -0.0800233629726 0.94 1.29728400295e-38
0.0243549365569 -0.0800233629726 0.94 1.29739162268e-38
0.0260945748824 -0.0800233629726 0.94 1.26047805801e-38
0.0278342132079 -0.0800233629726 0.94 1.26047819814e-38
0.0295738515333 -0.0800233629726 0.94 1.27906039668e-38
0.0314134265286 -0.0802787566842 0.943 1.26058567773e-38
0.0331586168913 -0.0802787566842 0.943 1.20519739411e-38
0.034903807254 -0.0802787566842 0.943 1.24193159257e-38
0.0366489976167 -0.0802787566842 0.943 1.23260455e-38
0.0383941879794 -0.0802787566842 0.943 1.2233492539e-38
0.0401393783421 -0.0802787566842 0.943 1.28770584769e-38
0.0417513198118 -0.0800233629726 0.94 1.2510090639e-38
0.0434909581373 -0.0800233629726 0.94 1.2880645801e-38
0.0451343611511 -0.0798531004982 0.938 1.25118688867e-38
0.0468702981185 -0.0798531004982 0.938 1.28802870686e-38
0.0486062350858 -0.0798531004982 0.938 1.28795696038e-38
0.0500738235881 -0.0794274443121 0.933 1.2880645801e-38
0.0516339460438 -0.0791720506005 0.93 1.26029869181e-38
0.0532403354763 -0.0790017881261 0.928 1.30643181946e-38
0.0547801004623 -0.0787463944145 0.925 1.11285967258e-38
0.0563698337831 -0.0785761319401 0.923 1.084304573e-38
0.0580780105644 -0.0785761319401 0.923 1.70050203087e-38
0.0595918660434 -0.0783207382285 0.92 2.34882089292e-38
0.057563521783 -0.073553388945 0.864 2.34906976353e-38
0.0591625084992 -0.073553388945 0.864 1.38951732775e-38
0.0607614952154 -0.073553388945 0.864 1.08365885466e-38
0.0625770113828 -0.0738087826566 0.867 2.05189051274e-38
0.0641815501362 -0.0738087826566 0.867 2.05184735275e-38
0.0657860888896 -0.0738087826566 0.867 1.83033387502e-38
0.067390627643 -0.0738087826566 0.867 2.35062618573e-38
0.010360101432 -0.0777007607401 0.933 5.32645877716e-39
0.012086785004 -0.0777007607401 0.933 1.8405314042e-38
0.0138430794411 -0.0778673218564 0.935 2.34950444631e-38
0.0156234327062 -0.0781171635308 0.938 2.3487104706e-38
0.0173593696735 -0.0781171635308 0.938 1.53666908078e-38
0.0191360215804 -0.0782837246471 0.94 1.32336384893e-38
0.0208756599059 -0.0782837246471 0.94 1.20340373208e-38
0.0226152982314 -0.0782837246471 0.94 1.28763410121e-38
0.0244326650778 -0.0785335663215 0.943 1.20494628143e-38
0.0261778554405 -0.0785335663215 0.943 1.23267629648e-38
0.0279230458032 -0.0785335663215 0.943 1.26022694532e-38
0.0296682361659 -0.0785335663215 0.943 1.25118688867e-38
0.0314134265286 -0.0785335663215 0.943 1.20487453494e-38
0.0331586168913 -0.0785335663215 0.943 1.23267629648e-38
0.034903807254 -0.0785335663215 0.943 1.23264042324e-38
0.0366489976167 -0.0785335663215 0.943 1.28795696038e-38
0.0383941879794 -0.0785335663215 0.943 1.18661883894e-38
0.0401393783421 -0.0785335663215 0.943 1.23246105703e-38
0.0418845687048 -0.0785335663215 0.943 1.26944636818e-38
0.0434909581373 -0.0782837246471 0.94 1.22345687362e-38
0.0452305964628 -0.0782837246471 0.94 1.22342100038e-38
0.0469702347883 -0.0782837246471 0.94 1.31572284867e-38
0.0486062350858 -0.0781171635308 0.938 1.16810446324e-38
0.0500738235881 -0.0777007607401 0.933 1.11239332045e-38
0.0516339460438 -0.0774509190657 0.93 9.91966851469e-39
0.0532403354763 -0.0772843579495 0.928 1.27708750858e-38
0.051345240109 -0.0722042439032 0.867 1.82121520552e-38
0.0529497788624 -0.0722042439032 0.867 2.34860243049e-38
0.0545543176158 -0.0722042439032 0.867 2.34907256612e-38
0.0561588563692 -0.0722042439032 0.867 1.81311682144e-38
0.057563521783 -0.0719544022288 0.864 1.01019045774e-38
0.0591625084992 -0.0719544022288 0.864 1.709801608e-38
0.0607614952154 -0.0719544022288 0.864 2.13438999801e-38
0.0625770113828 -0.0722042439032 0.867 2.03322858032e-38
0.0641815501362 -0.0722042439032 0.867 1.27794832622e-38
0.0659378445733 -0.0723708050195 0.869 2.34717548826e-38
0.0121515587715 -0.0763812265635 0.938 5.05095228869e-39
0.0138874957388 -0.0763812265635 0.938 3.85709083864e-39
0.0156567449294 -0.0765440863216 0.94 1.75662221268e-38
0.0173963832549 -0.0765440863216 0.94 2.34878291773e-38
0.0191970939897 -0.0767883759588 0.943 2.33963650253e-38
0.0209422843524 -0.0767883759588 0.943 2.16428487906e-38
0.0226874747151 -0.0767883759588 0.943 1.66563043832e-38
0.0244326650778 -0.0767883759588 0.943 1.46169106502e-38
0.0261778554405 -0.0767883759588 0.943 1.22177083131e-38
0.0279230458032 -0.0767883759588 0.943 1.18492901312e-38
0.0296682361659 -0.0767883759588 0.943 1.13908301153e-38
0.0315133631984 -0.077032665596 0.946 1.29638717194e-38
0.0332641055983 -0.077032665596 0.946 1.14912751892e-38
0.0350148479982 -0.077032665596 0.946 1.1586339277e-38
0.0367655903981 -0.077032665596 0.946 1.17710864665e-38
0.038516332798 -0.077032665596 0.946 1.19536812616e-38
0.0402670751979 -0.077032665596 0.946 1.18622044979e-38
0.0418845687048 -0.0767883759588 0.943 1.19543987264e-38
0.0434909581373 -0.0765440863216 0.94 1.01044157042e-38
0.0452305964628 -0.0765440863216 0.94 1.03774110659e-38
0.0469702347883 -0.0765440863216 0.94 1.23988681785e-38
0.0486062350858 -0.0763812265635 0.938 1.47087461464e-38
0.0500738235881 -0.0759740771681 0.933 1.93209813131e-38
0.0516339460438 -0.0757297875309 0.93 2.34831068015e-38
0.0533550775786 -0.0757297875309 0.93 2.33909756314e-38
0.051345240109 -0.0705997051498 0.867 2.22885853399e-38
0.0529497788624 -0.0705997051498 0.867 1.50886563769e-38
0.0545543176158 -0.0705997051498 0.867 1.30406404544e-38
0.0561588563692 -0.0705997051498 0.867 2.06777465123e-38
0.0577633951226 -0.0705997051498 0.867 2.01425051495e-38
0.059367933876 -0.0705997051498 0.867 2.18020096715e-38
0.0609724726294 -0.0705997051498 0.867 1.93159786776e-38
0.0625770113828 -0.0705997051498 0.867 1.13998404644e-38
0.0641815501362 -0.0705997051498 0.867 1.96023354201e-38
0.0659378445733 -0.0707625649079 0.869 2.34889558213e-38
0.0123588348273 -0.075918556796 0.954 1.51715599967e-38
0.0140059391993 -0.0752819231961 0.946 8.44886564654e-39
0.0157067132643 -0.0750431855961 0.943 3.94892633479e-39
0.017451903627 -0.0750431855961 0.943 1.92854541932e-39
0.019258166399 -0.0752819231961 0.946 7.4386751888e-39
0.0210089087989 -0.0752819231961 0.946 1.71130926502e-38
0.0227596511988 -0.0752819231961 0.946 2.17332045156e-38
0.0245103935987 -0.0752819231961 0.946 2.34932325842e-38
0.0262611359986 -0.0752819231961 0.946 2.34943003736e-38
0.0279230458032 -0.0750431855961 0.943 2.34892613043e-38
0.0296682361659 -0.0750431855961 0.943 2.10884811052e-38
0.0315133631984 -0.0752819231961 0.946 2.05267117612e-38
0.0332641055983 -0.0752819231961 0.946 1.89555002529e-38
0.0350148479982 -0.0752819231961 0.946 1.79406070375e-38
0.0367655903981 -0.0752819231961 0.946 1.71072898732e-38
0.038516332798 -0.0752819231961 0.946 1.82121800812e-38
0.0402670751979 -0.0752819231961 0.946 1.92266753278e-38
0.0383756811887 -0.0687564287964 0.864 2.03384529177e-38
0.0398821339514 -0.0685972703964 0.862 2.25575365541e-38
0.0414774193095 -0.0685972703964 0.862 2.34884443473e-38
0.0430727046675 -0.0685972703964 0.862 2.34928472271e-38
0.0446679900256 -0.0685972703964 0.862 2.34885116097e-38
0.0463706147697 -0.0687564287964 0.864 2.30203728252e-38
0.0479696014859 -0.0687564287964 0.864 1.90462497427e-38
0.0497407013555 -0.0689951663964 0.867 1.51528568661e-38
0.051345240109 -0.0689951663964 0.867 1.56199264598e-38
0.0529497788624 -0.0689951663964 0.867 1.79319582234e-38
0.0545543176158 -0.0689951663964 0.867 2.19863602936e-38
0.0561588563692 -0.0689951663964 0.867 2.106082648e-38
0.0577633951226 -0.0689951663964 0.867 1.88560515022e-38
0.059367933876 -0.0689951663964 0.867 1.37904374276e-38
0.0609724726294 -0.0689951663964 0.867 1.18615584993e-38
0.0625770113828 -0.0689951663964 0.867 1.7761296886e-38
0.0641815501362 -0.0689951663964 0.867 2.11613836578e-38
0.0659378445733 -0.0691543247964 0.869 2.35008920816e-38
0.0675460846849 -0.0691543247964 0.869 2.35098505827e-38
0.0106488073669 -0.0745416515682 0.959 9.19115306127e-39
0.0123588348273 -0.0741530089636 0.954 1.6280066956e-38
0.0140799663621 -0.0739198234008 0.951 1.74828238487e-38
0.0157899938224 -0.073686637838 0.948 1.38854552726e-38
0.0175444375805 -0.073686637838 0.948 8.72437213501e-39
0.0192988813385 -0.073686637838 0.948 5.87748716839e-39
0.0210089087989 -0.0735311807962 0.946 3.67341984632e-39
0.0227596511988 -0.0735311807962 0.946 7.34683969264e-40
0.0245103935987 -0.0735311807962 0.946 3.21424236553e-39
0.0262611359986 -0.0735311807962 0.946 9.64272709659e-39
0.0279230458032 -0.0732979952334 0.943 1.64594836061e-38
0.0296682361659 -0.0732979952334 0.943 1.89566156865e-38
0.028715136445 -0.0670019850384 0.862 2.24585264098e-38
0.0302400959984 -0.0668465279965 0.86 2.3473376185e-38
0.0318316799983 -0.0668465279965 0.86 2.34787908022e-38
0.0334232639983 -0.0668465279965 0.86 2.34770461856e-38
0.0350962778772 -0.0670019850384 0.862 2.34770237649e-38
0.0366915632353 -0.0670019850384 0.862 2.34723336189e-38
0.0382868485934 -0.0670019850384 0.862 2.24527488563e-38
0.0398821339514 -0.0670019850384 0.862 2.29137690445e-38
0.0414774193095 -0.0670019850384 0.862 2.00535493217e-38
0.0430727046675 -0.0670019850384 0.862 1.78333054102e-38
0.0446679900256 -0.0670019850384 0.862 1.67251810054e-38
0.0463706147697 -0.0671574420802 0.864 1.80180525997e-38
0.0479696014859 -0.0671574420802 0.864 1.93094892644e-38
0.0495685882021 -0.0671574420802 0.864 2.01388897995e-38
0.0511675749183 -0.0671574420802 0.864 1.98637630629e-38
0.0529497788624 -0.067390627643 0.867 1.88553340373e-38
0.0545543176158 -0.067390627643 0.867 1.6830648333e-38
0.0561588563692 -0.067390627643 0.867 1.41588317874e-38
0.0577633951226 -0.067390627643 0.867 8.6372337913e-39
0.059367933876 -0.067390627643 0.867 1.22368080112e-38
0.0609724726294 -0.067390627643 0.867 1.85888883447e-38
0.0625770113828 -0.067390627643 0.867 2.34701798232e-38
0.0643296044618 -0.0675460846849 0.869 1.79341386438e-38
0.0659378445733 -0.0675460846849 0.869 2.3509086875e-38
0.0675460846849 -0.0675460846849 0.869 2.35076925831e-38
0.0123847443342 -0.0725392168148 0.956 5.69489657719e-39
0.0141243826597 -0.0723874611311 0.954 1.39848605831e-38
0.0158399621573 -0.0721598276055 0.951 1.89611657026e-38
0.0175999579526 -0.0721598276055 0.951 1.66495178948e-38
0.0192988813385 -0.07193219408 0.948 1.44396968412e-38
0.0210533250966 -0.07193219408 0.948 1.14909164568e-38
0.0207387096547 -0.0654066996803 0.862 7.62238822007e-39
0.0223339950128 -0.0654066996803 0.862 7.53697627607e-39
0.0239292803708 -0.0654066996803 0.862 6.0676475739e-39
0.0255245657289 -0.0654066996803 0.862 3.85709083864e-39
0.027119851087 -0.0654066996803 0.862 7.2568118715e-39
0.028715136445 -0.0654066996803 0.862 9.73456259275e-39
0.0302400959984 -0.0652549439966 0.86 1.21222854929e-38
0.0318316799983 -0.0652549439966 0.86 1.4515755118e-38
0.0334232639983 -0.0652549439966 0.86 1.4336381908e-38
0.0350962778772 -0.0654066996803 0.862 1.59047599909e-38
0.0366915632353 -0.0654066996803 0.862 1.62742543699e-38
0.0382868485934 -0.0654066996803 0.862 1.69178203079e-38
0.0398821339514 -0.0654066996803 0.862 1.71018500326e-38
0.0414774193095 -0.0654066996803 0.862 1.77482858298e-38
0.0430727046675 -0.0654066996803 0.862 1.90390050297e-38
0.0446679900256 -0.0654066996803 0.862 1.84919381092e-38
0.0463706147697 -0.065558455364 0.864 1.62828639477e-38
0.0479696014859 -0.065558455364 0.864 1.67431232309e-38
0.0495685882021 -0.065558455364 0.864 1.49925034802e-38
0.0511675749183 -0.065558455364 0.864 1.29603264343e-38
0.0527665616345 -0.065558455364 0.864 1.03900017326e-38
0.0545543176158 -0.0657860888896 0.867 9.19794515492e-39
0.056288403904 -0.0659378445733 0.869 1.02116794965e-38
0.0578966440156 -0.0659378445733 0.869 1.43515579704e-38
0.0595048841271 -0.0659378445733 0.869 2.11642324975e-38
0.0611131242387 -0.0659378445733 0.869 2.30034045021e-38
0.0627213643502 -0.0659378445733 0.869 1.55377767386e-38
0.0643296044618 -0.0659378445733 0.869 2.34730903201e-38
0.0659378445733 -0.0659378445733 0.869 2.35076869779e-38
0.00884624595303 -0.0707699676242 0.956 1.53638587836e-38
0.0106154951436 -0.0707699676242 0.956 1.56436854753e-38
0.0123847443342 -0.0707699676242 0.956 1.10328151732e-38
0.0141539935248 -0.0707699676242 0.956 5.6938007618e-39
0.0158399621573 -0.0703998318103 0.951 1.039361428e-38
0.015989867162 -0.0639594686478 0.864 1.36146361275e-38
0.0175888538782 -0.0639594686478 0.864 1.68356705867e-38
0.0191878405943 -0.0639594686478 0.864 1.74763904874e-38
0.0207387096547 -0.0638114143223 0.862 1.7385248634e-38
0.0223339950128 -0.0638114143223 0.862 1.36099487841e-38
0.0239292803708 -0.0638114143223 0.862 1.24046191074e-38
0.0255245657289 -0.0638114143223 0.862 1.01937400735e-38
0.027119851087 -0.0638114143223 0.862 9.93085648163e-39
0.028715136445 -0.0638114143223 0.862 6.71229251164e-39
0.0303104218031 -0.0638114143223 0.862 5.23464990568e-39
0.0318316799983 -0.0636633599967 0.86 7.53840279791e-39
0.0334232639983 -0.0636633599967 0.86 6.43318048221e-39
0.0350148479982 -0.0636633599967 0.86 9.19217460785e-39
0.0366064319981 -0.0636633599967 0.86 7.07136403273e-39
0.0382868485934 -0.0638114143223 0.862 8.17335915806e-39
0.0398821339514 -0.0638114143223 0.862 9.00028500004e-39
0.0414774193095 -0.0638114143223 0.862 1.12068087983e-38
0.0430727046675 -0.0638114143223 0.862 1.13905176257e-38
0.0446679900256 -0.0638114143223 0.862 1.01937737047e-38
0.0462632753836 -0.0638114143223 0.862 1.26829982578e-38
0.0479696014859 -0.0639594686478 0.864 1.54460155113e-38
0.0495685882021 -0.0639594686478 0.864 1.41617156597e-38
0.0511675749183 -0.0639594686478 0.864 9.10035732857e-39
0.0527665616345 -0.0639594686478 0.864 7.35903659447e-39
0.0545543176158 -0.0641815501362 0.867 1.19533771799e-38
0.056288403904 -0.0643296044618 0.869 1.80353278072e-38
0.0578966440156 -0.0643296044618 0.869 2.30051911576e-38
0.0595048841271 -0.0643296044618 0.869 2.24513419526e-38
0.0611131242387 -0.0643296044618 0.869 1.59966080987e-38
0.0627213643502 -0.0643296044618 0.869 1.36967648292e-38
0.0643296044618 -0.0643296044618 0.869 2.34922698922e-38
0.0158899304922 -0.0688563654662 0.954 1.11275205286e-38
0.015989867162 -0.0623604819316 0.864 6.06581467551e-39
0.0175888538782 -0.0623604819316 0.864 7.80816956787e-39
0.0191878405943 -0.0623604819316 0.864 1.2405748554e-38
0.0207387096547 -0.0622161289642 0.862 1.51747395429e-38
0.0223339950128 -0.0622161289642 0.862 1.77561779427e-38
0.0239848007429 -0.0623604819316 0.864 1.86731526253e-38
0.0255837874591 -0.0623604819316 0.864 1.84869158555e-38
0.027119851087 -0.0622161289642 0.862 1.60963230961e-38
0.028715136445 -0.0622161289642 0.862 1.59140870334e-38
0.0303104218031 -0.0622161289642 0.862 1.54527571582e-38
0.0319057071611 -0.0622161289642 0.862 1.46226503687e-38
0.0335009925192 -0.0622161289642 0.862 1.48942108007e-38
0.0350148479982 -0.0620717759968 0.86 1.53551819435e-38
0.0366064319981 -0.0620717759968 0.86 1.57250364563e-38
0.0382868485934 -0.0622161289642 0.862 1.53562581408e-38
0.0398821339514 -0.0622161289642 0.862 1.55385194268e-38
0.0414774193095 -0.0622161289642 0.862 1.67409652313e-38
0.0430727046675 -0.0622161289642 0.862 1.7572148218e-38
0.0446679900256 -0.0622161289642 0.862 1.74839084537e-38
0.0462632753836 -0.0622161289642 0.862 1.65641101547e-38
0.0478585607417 -0.0622161289642 0.862 1.58258388614e-38
0.0497407013555 -0.0625770113828 0.867 1.09363161558e-38
0.051345240109 -0.0625770113828 0.867 1.2869204199e-38
0.0529497788624 -0.0625770113828 0.867 1.68367537904e-38
0.0546801637925 -0.0627213643502 0.869 2.10705907277e-38
0.0564179514389 -0.0628657173177 0.871 2.16205219022e-38
0.0580298929086 -0.0628657173177 0.871 2.18044731542e-38
0.0596418343783 -0.0628657173177 0.871 1.35148846963e-38
0.061253775848 -0.0628657173177 0.871 1.31464665145e-38
0.0628657173177 -0.0628657173177 0.871 2.13454372046e-38
0.0158899304922 -0.0670908176337 0.954 1.25125863515e-38
0.016045387534 -0.0609724726294 0.867 1.36228673547e-38
0.0176499262875 -0.0609724726294 0.867 1.08480876018e-38
0.0191878405943 -0.0607614952154 0.864 8.26807572386e-39
0.0207868273105 -0.0607614952154 0.864 6.06114274643e-39
0.0223858140267 -0.0607614952154 0.864 9.55561257496e-39
0.0239848007429 -0.0607614952154 0.864 1.21287861164e-38
0.0255837874591 -0.0607614952154 0.864 1.48024033305e-38
0.0271827741753 -0.0607614952154 0.864 1.59165981603e-38
0.0287817608915 -0.0607614952154 0.864 1.65580117038e-38
0.0303104218031 -0.0606208436061 0.862 1.77540255483e-38
0.0319057071611 -0.0606208436061 0.862 1.84912206444e-38
0.0335009925192 -0.0606208436061 0.862 1.83969020473e-38
0.0350962778772 -0.0606208436061 0.862 1.87649334708e-38
0.0366915632353 -0.0606208436061 0.862 1.74763666653e-38
0.0382868485934 -0.0606208436061 0.862 1.85841323378e-38
0.0398821339514 -0.0606208436061 0.862 1.75707132884e-38
0.0414774193095 -0.0606208436061 0.862 1.59140870334e-38
0.0430727046675 -0.0606208436061 0.862 1.48949282655e-38
0.0446679900256 -0.0606208436061 0.862 1.22180698481e-38
0.0462632753836 -0.0606208436061 0.862 1.08412688835e-38
0.0478585607417 -0.0606208436061 0.862 1.31425695034e-38
0.0497407013555 -0.0609724726294 0.867 1.73828103747e-38
0.051345240109 -0.0609724726294 0.867 2.09772628486e-38
0.0529497788624 -0.0609724726294 0.867 2.14332593819e-38
0.0548060099692 -0.061253775848 0.871 2.143248026e-38
0.0564179514389 -0.061253775848 0.871 1.81238786597e-38
0.0580298929086 -0.061253775848 0.871 1.17696571421e-38
0.0596418343783 -0.061253775848 0.871 1.37962331981e-38
0.061253775848 -0.061253775848 0.871 2.17196273348e-38
0.0146240660085 -0.0601211602573 0.878 7.25500419648e-39
0.0160824011154 -0.0595048841271 0.869 1.0199479792e-38
0.017690641227 -0.0595048841271 0.869 1.3239787387e-38
0.0192544650409 -0.059367933876 0.867 1.34342343645e-38
0.0207868273105 -0.0591625084992 0.864 1.26047805801e-38
0.0223858140267 -0.0591625084992 0.864 1.37864563387e-38
0.0239848007429 -0.0591625084992 0.864 1.02855979905e-38
0.0255837874591 -0.0591625084992 0.864 7.53051068496e-39
0.0271827741753 -0.0591625084992 0.864 6.89124953592e-39
0.0287817608915 -0.0591625084992 0.864 7.62632586875e-39
0.0303104218031 -0.0590255582481 0.862 9.09566017612e-39
0.0319057071611 -0.0590255582481 0.862 1.0661569171e-38
0.0335009925192 -0.0590255582481 0.862 1.06597713051e-38
0.0350962778772 -0.0590255582481 0.862 9.09317427264e-39
0.0366915632353 -0.0590255582481 0.862 8.81620763117e-39
0.0382868485934 -0.0590255582481 0.862 9.74037377748e-39
0.0399746679049 -0.0591625084992 0.864 9.09422524649e-39
0.0415736546211 -0.0591625084992 0.864 1.16678247827e-38
0.0430727046675 -0.0590255582481 0.862 1.34180269465e-38
0.0446679900256 -0.0590255582481 0.862 1.64658735271e-38
0.0462632753836 -0.0590255582481 0.862 1.84011788103e-38
0.0478585607417 -0.0590255582481 0.862 1.99605885829e-38
0.0497407013555 -0.059367933876 0.867 2.30887351708e-38
0.051345240109 -0.059367933876 0.867 2.06949208263e-38
0.0529497788624 -0.059367933876 0.867 1.80288145719e-38
0.0550577023227 -0.0599157348806 0.875 1.34259484867e-38
0.0566770465087 -0.0599157348806 0.875 8.91489407552e-39
0.0146240660085 -0.0584962640342 0.878 1.54613877555e-38
0.0161564282782 -0.0581631418016 0.873 1.38011853869e-38
0.0177313561665 -0.0580298929086 0.871 1.26912350901e-38
0.0192988813385 -0.0578966440156 0.869 1.33272676475e-38
0.0209071214501 -0.0578966440156 0.869 1.83954390917e-38
0.0224635425477 -0.0577633951226 0.867 1.92198061627e-38
0.0240680813011 -0.0577633951226 0.867 1.8764216006e-38
0.0255837874591 -0.057563521783 0.864 1.6557294239e-38
0.0271827741753 -0.057563521783 0.864 1.38883251319e-38
0.0287817608915 -0.057563521783 0.864 1.51725871484e-38
0.0303807476077 -0.057563521783 0.864 1.31400093311e-38
0.0319057071611 -0.05743027289 0.862 1.40619824454e-38
0.0335009925192 -0.05743027289 0.862 1.35084611442e-38
0.0351777077563 -0.057563521783 0.864 1.4337522565e-38
0.0367766944725 -0.057563521783 0.864 1.5724340011e-38
0.0383756811887 -0.057563521783 0.864 1.72033713037e-38
0.0399746679049 -0.057563521783 0.864 1.77554604779e-38
0.0415736546211 -0.057563521783 0.864 1.9224469684e-38
0.0431726413373 -0.057563521783 0.864 2.09725965247e-38
0.0446679900256 -0.05743027289 0.862 2.07885906221e-38
0.0462632753836 -0.05743027289 0.862 2.05119602923e-38
0.0478585607417 -0.05743027289 0.862 1.82128807304e-38
0.0497407013555 -0.0577633951226 0.867 1.69246362236e-38
0.051345240109 -0.0577633951226 0.867 1.27780623456e-38
0.0529497788624 -0.0577633951226 0.867 9.65133667435e-39
0.00496352126486 -0.05790774809 0.894 1.62886471065e-38
0.00661802835314 -0.05790774809 0.894 1.2414293672e-38
0.00829104223213 -0.0580372956249 0.896 8.35886865396e-39
0.00994925067855 -0.0580372956249 0.896 6.89883056061e-39
0.011581549618 -0.05790774809 0.894 6.53004944246e-39
0.0130287806505 -0.0570009153459 0.88 5.23821060507e-39
0.0146573782318 -0.0570009153459 0.88 8.73447829953e-39
0.0162489622317 -0.056871367811 0.878 1.20437777464e-38
0.0178127860456 -0.0566770465087 0.875 1.45340434642e-38
0.0193877139339 -0.0565474989738 0.873 1.52701623631e-38
0.0210033567617 -0.0565474989738 0.873 1.6373981979e-38
0.0225671805756 -0.0564179514389 0.871 1.79373490186e-38
0.0241791220453 -0.0564179514389 0.871 1.82096367245e-38
0.0257318417847 -0.056288403904 0.869 1.92216404624e-38
0.0273400818963 -0.056288403904 0.869 1.94059882819e-38
0.0289483220078 -0.056288403904 0.869 2.00477605578e-38
0.0304862363147 -0.0561588563692 0.867 1.94064170792e-38
0.0320907750681 -0.0561588563692 0.867 1.94974650456e-38
0.0336953138215 -0.0561588563692 0.867 2.02332252121e-38
0.0352998525749 -0.0561588563692 0.867 1.97716066694e-38
0.0369043913283 -0.0561588563692 0.867 1.98655244951e-38
0.0385977626771 -0.056288403904 0.869 2.09711924237e-38
0.0402060027886 -0.056288403904 0.869 1.9222676022e-38
0.0418142429001 -0.056288403904 0.869 1.73848899016e-38
0.0434224830117 -0.056288403904 0.869 1.6835700014e-38
0.0447716280535 -0.0559645350669 0.864 1.43457187597e-38
0.0463706147697 -0.0559645350669 0.864 1.20412413962e-38
0.0479696014859 -0.0559645350669 0.864 1.11253989627e-38
0.0497407013555 -0.0561588563692 0.867 8.73729490945e-39
0.051345240109 -0.0561588563692 0.867 9.65680734356e-39
0.00332381960913 -0.0565049333552 0.898 1.06633207941e-38
0.00496352126486 -0.0562532410017 0.894 1.11225291035e-38
0.00661802835314 -0.0562532410017 0.894 1.84916186131e-38
0.00829104223213 -0.0563790871785 0.896 1.54527921907e-38
0.00992704252972 -0.0562532410017 0.894 1.2597605932e-38
0.011581549618 -0.0562532410017 0.894 1.00101209293e-38
0.0132360567063 -0.0562532410017 0.894 7.62346721988e-39
0.0146573782318 -0.0553723177646 0.88 6.89775856728e-39
0.0162489622317 -0.0552464715878 0.878 6.25310802435e-39
0.0178127860456 -0.0550577023227 0.875 5.23967636327e-39
0.0194321302315 -0.0550577023227 0.875 6.71044840286e-39
0.0210514744175 -0.0550577023227 0.875 7.62702371539e-39
0.0226708186035 -0.0550577023227 0.875 9.82890921575e-39
0.0242346424173 -0.054931856146 0.873 1.13922650449e-38
0.0257910635149 -0.0548060099692 0.871 1.37868220776e-38
0.0274030049846 -0.0548060099692 0.871 1.36027825438e-38
0.0290149464543 -0.0548060099692 0.871 1.45247402437e-38
0.030626887924 -0.0548060099692 0.871 1.36967620266e-38
0.0322388293937 -0.0548060099692 0.871 1.36964032942e-38
0.0337730423424 -0.0546801637925 0.869 1.40658976733e-38
0.035381282454 -0.0546801637925 0.869 1.36034916008e-38
0.0370746538027 -0.0548060099692 0.871 1.36035280346e-38
0.0386865952724 -0.0548060099692 0.871 1.33247565207e-38
0.0402985367421 -0.0548060099692 0.871 1.1949767435e-38
0.0419104782118 -0.0548060099692 0.871 8.27239312443e-39
0.0434224830117 -0.0546801637925 0.869 9.19431158801e-39
0.0446679900256 -0.0542397021739 0.862 6.89595789876e-39
0.0462632753836 -0.0542397021739 0.862 8.00154595335e-39
0.0478585607417 -0.0542397021739 0.862 1.21374195163e-38
0.0494538460997 -0.0542397021739 0.862 1.55403789499e-38
0.0514636835694 -0.0546801637925 0.869 2.01500581483e-38
0.00166190980456 -0.0548430235506 0.898 5.78563625795e-39
0.00332381960913 -0.0548430235506 0.898 1.72999221692e-38
0.00498572941369 -0.0548430235506 0.898 7.80888703268e-39
0.00664763921826 -0.0548430235506 0.898 9.46375185543e-39
0.00829104223213 -0.054720878732 0.896 1.55453437503e-38
0.00992704252972 -0.0545987339134 0.894 1.8490861912e-38
0.011581549618 -0.0545987339134 0.894 1.68302896006e-38
0.0131620295435 -0.0542933718669 0.889 1.54527571582e-38
0.014690690455 -0.0538658650018 0.882 1.49021029137e-38
0.0163229893945 -0.0538658650018 0.882 1.21348411271e-38
0.0179145733944 -0.0537437201832 0.88 1.07447880829e-38
0.0194987546781 -0.0536215753646 0.878 8.08261247081e-39
0.0211236509012 -0.0536215753646 0.878 7.720997593e-39
0.0227485471244 -0.0536215753646 0.878 6.89627178961e-39
0.0242901627894 -0.0534383581368 0.875 6.43530064679e-39
0.0259095069754 -0.0534383581368 0.875 6.61758155103e-39
0.0275288511614 -0.0534383581368 0.875 6.98523742652e-39
0.0290815709008 -0.0533162133182 0.873 6.24988503789e-39
0.0306972137286 -0.0533162133182 0.873 7.53771616166e-39
0.0323128565565 -0.0533162133182 0.873 6.61972974158e-39
0.0338507708634 -0.0531940684996 0.871 7.72314998744e-39
0.035462712333 -0.0531940684996 0.871 7.17290352075e-39
0.0371597850399 -0.0533162133182 0.873 7.4473394172e-39
0.0387754278677 -0.0533162133182 0.873 8.91738838678e-39
0.0403910706956 -0.0533162133182 0.873 8.91887796705e-39
0.0420067135234 -0.0533162133182 0.873 1.14956682599e-38
0.0435224196815 -0.0531940684996 0.871 1.39726832994e-38
0.0446679900256 -0.0526444168159 0.862 1.68292582449e-38
0.0462632753836 -0.0526444168159 0.862 1.8034195558e-38
0.0478585607417 -0.0526444168159 0.862 2.0792909424e-38
0.0494538460997 -0.0526444168159 0.862 2.15239948588e-38
0.0515821270299 -0.0531940684996 0.871 2.2350105145e-38
0.00167116319991 -0.0534772223972 0.903 1.10396422993e-38
0.00332381960913 -0.0531811137461 0.898 1.24038904322e-38
0.00498572941369 -0.0531811137461 0.898 1.78520421719e-38
0.00664763921826 -0.0531811137461 0.898 7.53230434699e-39
0.00830954902282 -0.0531811137461 0.898 7.53054011222e-39
0.00992704252972 -0.0529442268251 0.894 1.30607434822e-38
0.011581549618 -0.0529442268251 0.894 1.55463863164e-38
0.0131620295435 -0.052648118174 0.889 1.62767654968e-38
0.0147739710132 -0.0525296747135 0.887 1.94924427919e-38
0.0163785097666 -0.0524112312531 0.885 1.79294597082e-38
0.0180163607432 -0.0524112312531 0.885 1.82056696485e-38
0.0195875872734 -0.0522335660624 0.882 1.71997839797e-38
0.0212198862128 -0.0522335660624 0.882 1.56364281505e-38
0.0228521851523 -0.0522335660624 0.882 1.44393381088e-38
0.0244844840917 -0.0522335660624 0.882 1.44357619951e-38
0.026057561301 -0.0521151226019 0.88 1.43396287166e-38
0.0276861588823 -0.0521151226019 0.88 1.31364332175e-38
0.0293147564636 -0.0521151226019 0.88 1.43345910486e-38
0.0309433540449 -0.0521151226019 0.88 1.42449163547e-38
0.0324979244634 -0.0519966791415 0.878 1.4708387414e-38
0.0341228206866 -0.0519966791415 0.878 1.35077142521e-38
0.0355441422121 -0.0517005704903 0.873 1.55342062301e-38
0.0371597850399 -0.0517005704903 0.873 1.58165202266e-38
0.0389975093561 -0.0519966791415 0.878 1.67402477665e-38
0.0406224055793 -0.0519966791415 0.878 1.73830962396e-38
0.0422473018025 -0.0519966791415 0.878 1.93184575746e-38
0.043722293021 -0.0518190139508 0.875 2.10640494664e-38
0.0453416372069 -0.0518190139508 0.875 2.11497865117e-38
0.0469609813929 -0.0518190139508 0.875 2.2348311483e-38
0.0485803255789 -0.0518190139508 0.875 2.06920607761e-38
0.00167116319991 -0.0518060591973 0.903 1.50033537342e-38
0.00333492368355 -0.051691317095 0.901 8.63253663885e-39
0.00498572941369 -0.0515192039415 0.898 1.2234990527e-38
0.00664763921826 -0.0515192039415 0.898 1.62843857578e-38
0.00830954902282 -0.0515192039415 0.898 1.25000307173e-38
0.00994925067855 -0.0514044618392 0.896 6.24481373874e-39
0.011581549618 -0.0512897197369 0.894 6.24485998159e-39
0.0131620295435 -0.0510028644811 0.889 1.18572439013e-38
0.0148072832364 -0.0510028644811 0.889 1.41631141555e-38
0.016415523348 -0.0508881223787 0.887 1.60069987268e-38
0.0180570756828 -0.0508881223787 0.887 1.89468332219e-38
0.0196542117199 -0.0507733802764 0.885 1.8386829514e-38
0.0212198862128 -0.0506012671229 0.882 1.99530552024e-38
0.0228521851523 -0.0506012671229 0.882 1.82996673482e-38
0.0244844840917 -0.0506012671229 0.882 1.89410710826e-38
0.0261167830312 -0.0506012671229 0.882 2.04147984606e-38
0.0277490819706 -0.0506012671229 0.882 1.98626546358e-38
0.0293813809101 -0.0506012671229 0.882 1.98626546358e-38
0.0309433540449 -0.0504865250206 0.88 2.00430970365e-38
0.0324979244634 -0.0503717829183 0.878 2.00466843606e-38
0.0341228206866 -0.0503717829183 0.878 2.05044269117e-38
0.0356255720912 -0.0501996697648 0.875 2.03229083138e-38
0.0372449162771 -0.0501996697648 0.875 2.09657567869e-38
0.0389975093561 -0.0503717829183 0.878 2.03221922503e-38
0.0406224055793 -0.0503717829183 0.878 2.05980560699e-38
0.0422473018025 -0.0503717829183 0.878 2.14292390566e-38
0.043722293021 -0.0501996697648 0.875 2.0509090433e-38
0.0453416372069 -0.0501996697648 0.875 1.94102930708e-38
0.0469609813929 -0.0501996697648 0.875 1.62821464829e-38
0.00167116319991 -0.0501348959974 0.903 1.4267219421e-38
0.00334232639983 -0.0501348959974 0.903 1.57351426208e-38
0.00500238552532 -0.0500238552532 0.901 5.23462328101e-39
0.00666984736709 -0.0500238552532 0.901 1.05755070246e-38
0.00830954902282 -0.0498572941369 0.898 1.85866784971e-38
0.00994925067855 -0.0497462533928 0.896 1.46187043122e-38
0.011581549618 -0.0496352126486 0.894 9.46408536446e-39
0.0131916404086 -0.0494686515323 0.891 5.41830408241e-39
0.0148405954597 -0.0494686515323 0.891 5.05202848591e-39
0.0164525369294 -0.0493576107881 0.889 6.9845241656e-39
0.0180977906223 -0.0493576107881 0.889 1.23099571923e-38
0.0196986280176 -0.0492465700439 0.887 1.56328464317e-38
0.0212920626966 -0.0491355292998 0.885 1.46226503687e-38
0.0229299136732 -0.0491355292998 0.885 1.56371456153e-38
0.0245677646499 -0.0491355292998 0.885 1.830575599e-38
0.0261167830312 -0.0489689681835 0.882 1.88513935861e-38
0.0277490819706 -0.0489689681835 0.882 1.97701016749e-38
0.0293813809101 -0.0489689681835 0.882 2.04161787396e-38
0.0310136798495 -0.0489689681835 0.882 1.92172950359e-38
0.0325719516262 -0.0488579274393 0.88 2.01389052138e-38
0.0342005492075 -0.0488579274393 0.88 2.04154612748e-38
0.0357477169098 -0.0487468866951 0.878 2.00495542198e-38
0.0373726131329 -0.0487468866951 0.878 1.89450171391e-38
0.0389975093561 -0.0487468866951 0.878 1.7108331038e-38
0.0407149395328 -0.0488579274393 0.88 1.68360559438e-38
0.0423435371141 -0.0488579274393 0.88 1.40655389409e-38
0.0439721346954 -0.0488579274393 0.88 1.31403988921e-38
0.0456007322767 -0.0488579274393 0.88 1.05679063817e-38
0.0478196964812 -0.0494686515323 0.891 9.28974842122e-39
0.00167671523712 -0.0486247418765 0.906 1.45470671322e-38
0.00335343047424 -0.0486247418765 0.906 1.72048426671e-38
0.00500238552532 -0.0483563934114 0.901 1.18582584414e-38
0.00666984736709 -0.0483563934114 0.901 6.06114274643e-39
0.00833730920887 -0.0483563934114 0.901 1.05754523739e-38
0.00997145882739 -0.0481953843324 0.898 1.78465995287e-38
0.011607459125 -0.0480880449463 0.896 1.76633180974e-38
0.0132656675714 -0.0480880449463 0.896 1.38890425967e-38
0.0148905637946 -0.0479807055603 0.894 1.02952613447e-38
0.0164895505108 -0.0478196964812 0.891 8.17519626035e-39
0.0180977906223 -0.0477123570952 0.889 5.6956210485e-39
0.0196986280176 -0.0476050177091 0.887 5.97253584193e-39
0.0213401803524 -0.0476050177091 0.887 6.33919679551e-39
0.0229817326872 -0.0476050177091 0.887 8.72981477824e-39
0.0245677646499 -0.0474976783231 0.885 9.82890921575e-39
0.0262056156265 -0.0474976783231 0.885 1.30442375876e-38
0.0277490819706 -0.047336669244 0.882 1.32329658661e-38
0.0293813809101 -0.047336669244 0.882 1.36024532386e-38
0.0310136798495 -0.047336669244 0.882 1.28634392571e-38
0.0325719516262 -0.047229329858 0.88 1.44307299323e-38
0.0342005492075 -0.047229329858 0.88 1.2131253803e-38
0.0358291467888 -0.047229329858 0.88 1.28673727019e-38
0.0374577443701 -0.047229329858 0.88 1.01980672832e-38
0.0390863419515 -0.047229329858 0.88 8.54716112861e-39
0.0408074734862 -0.047336669244 0.882 7.90825731068e-39
0.0425841253931 -0.0474976783231 0.885 8.18699239082e-39
0.0442219763698 -0.0474976783231 0.885 8.09629895291e-39
0.0460671034023 -0.0477123570952 0.889 7.72607169474e-39
0.0478196964812 -0.0478196964812 0.891 1.26870241883e-38
0.0496352126486 -0.0479807055603 0.894 1.69250706261e-38
0.0514044618392 -0.0480880449463 0.896 2.07028689911e-38
0.00337933998122 -0.0473107597371 0.913 1.07569667679e-38
0.0050523538602 -0.0471553026952 0.91 1.72080824692e-38
0.00672166638105 -0.0470516646673 0.908 1.2319947049e-38
0.00835581599956 -0.0467925695976 0.903 5.96932126325e-39
0.00997145882739 -0.0465334745278 0.898 7.7220920071e-39
0.011633368632 -0.0465334745278 0.898 1.37075352092e-38
0.0132656675714 -0.0464298364999 0.896 1.72977179267e-38
0.0149238760178 -0.0464298364999 0.896 1.78451926251e-38
0.0165820844643 -0.0464298364999 0.896 1.63693184578e-38
0.0181995779711 -0.046326198472 0.894 1.28716774908e-38
0.0197874606129 -0.0461707414302 0.891 1.27712436273e-38
0.0213882980082 -0.0460671034023 0.889 1.0380646664e-38
0.0230335517011 -0.0460671034023 0.889 6.89164330079e-39
0.024623285022 -0.0459634653743 0.887 6.52860049984e-39
0.0262648373568 -0.0459634653743 0.887 7.16998461605e-39
0.0278434666032 -0.0458598273464 0.885 6.80519719852e-39
0.0294813175799 -0.0458598273464 0.885 5.88468003341e-39
0.0311191685565 -0.0458598273464 0.885 7.35831912966e-39
0.032645978789 -0.0457043703046 0.882 6.62224507232e-39
0.0342782777284 -0.0457043703046 0.882 7.26755983072e-39
0.0359105766679 -0.0457043703046 0.882 6.89986612018e-39
0.0375428756073 -0.0457043703046 0.882 7.63819486674e-39
0.0391751745468 -0.0457043703046 0.882 7.91190629189e-39
0.0411313423234 -0.0460671034023 0.889 9.37948196968e-39
0.0427765960164 -0.0460671034023 0.889 1.29642710894e-38
0.0444218497093 -0.0460671034023 0.889 1.47995348726e-38
0.0461707414302 -0.0461707414302 0.891 1.84926723896e-38
0.0478196964812 -0.0461707414302 0.891 2.07010122707e-38
0.0496352126486 -0.046326198472 0.894 2.19871338103e-38
0.0514044618392 -0.0464298364999 0.896 1.95014111021e-38
0.0033867426975 -0.0457210264162 0.915 5.69559442383e-39
0.00506900997183 -0.0456210897465 0.913 1.32495053918e-38
0.0067364718136 -0.0454711847418 0.91 1.73892115061e-38
0.00838357618561 -0.0452713114023 0.906 1.25889963542e-38
0.00997145882739 -0.0448715647232 0.898 5.96930725027e-39
0.011633368632 -0.0448715647232 0.898 3.76525534248e-39
0.0132952784365 -0.0448715647232 0.898 1.04761395492e-38
0.0149238760178 -0.0447716280535 0.896 1.4252805665e-38
0.0165820844643 -0.0447716280535 0.896 1.6557294239e-38
0.0181995779711 -0.0446716913837 0.894 1.90390092336e-38
0.0198540850594 -0.0446716913837 0.894 1.83918615768e-38
0.021436415664 -0.0445217863791 0.891 1.72901845462e-38
0.0230335517011 -0.0444218497093 0.889 1.51761744725e-38
0.0246788053941 -0.0444218497093 0.889 1.55474625136e-38
0.0262648373568 -0.0443219130396 0.887 1.33319311688e-38
0.0279063896916 -0.0443219130396 0.887 1.45257996254e-38
