# .PCD v0.7 - Point Cloud Data file format
VERSION 0.7
FIELDS x y z rgb
SIZE 4 4 4 4
TYPE F F F F
COUNT 1 1 1 1
WIDTH 848
HEIGHT 1
VIEWPOINT 0 0 0 1 0 0 0
POINTS 848
DATA ascii
0.089678355679 -0.0362529522958 1.031 2.35036021928e-38
0.00175074239991 -0.0315133631984 0.946 2.35029828189e-38
0.00350148479982 -0.0315133631984 0.946 2.34889039732e-38
0.00525222719973 -0.0315133631984 0.946 2.34909863028e-38
0.00701777503219 -0.0315799876449 0.948 2.11677497567e-38
0.00877221879024 -0.0315799876449 0.948 2.04359664752e-38
0.0105266625483 -0.0315799876449 0.948 2.0529922136e-38
0.0123588348273 -0.0317798609844 0.954 1.98824143455e-38
0.0141243826597 -0.0317798609844 0.954 1.90537298739e-38
0.0159732110503 -0.0319464221007 0.959 1.91473422165e-38
0.0178035326502 -0.0320463587704 0.962 1.80388843027e-38
0.0196246008548 -0.0321129832169 0.964 1.71183727428e-38
0.0214752799245 -0.0322129198867 0.967 1.72109046843e-38
0.0233370630686 -0.0323128565565 0.97 1.68432039672e-38
0.0251322217661 -0.0323128565565 0.97 1.67495804142e-38
0.0269273804637 -0.0323128565565 0.97 1.66567065559e-38
0.0287225391613 -0.0323128565565 0.97 1.61960507052e-38
0.0305176978589 -0.0323128565565 0.97 1.6287527469e-38
0.0324127932262 -0.0324127932262 0.973 1.64726333909e-38
0.034213503961 -0.0324127932262 0.973 1.61034977443e-38
0.0360142146958 -0.0324127932262 0.973 1.61968172155e-38
0.0378926539515 -0.0324794176727 0.975 1.52748258844e-38
0.039819210863 -0.0325793543425 0.978 1.54602905388e-38
0.0416291749932 -0.0325793543425 0.978 1.52776957437e-38
0.0434391391233 -0.0325793543425 0.978 1.52751846168e-38
0.0452491032535 -0.0325793543425 0.978 1.52755433492e-38
0.0470590673836 -0.0325793543425 0.978 1.50904374273e-38
0.0487191265091 -0.0324794176727 0.975 1.48127785444e-38
0.0504199005741 -0.0324127932262 0.973 1.47230954426e-38
0.0522206113089 -0.0324127932262 0.973 1.49074838998e-38
0.0538547609274 -0.0323128565565 0.97 1.47223779778e-38
0.055649919625 -0.0323128565565 0.97 1.44468714894e-38
0.0574450783226 -0.0323128565565 0.97 1.46319774113e-38
0.0592402370202 -0.0323128565565 0.97 1.45397831827e-38
0.0608466264526 -0.0322129198867 0.967 1.47245626021e-38
0.062636233113 -0.0322129198867 0.967 1.42624830322e-38
0.0642259664339 -0.0321129832169 0.964 1.43550359932e-38
0.0656676454291 -0.0319464221007 0.959 1.45397831827e-38
0.067231469243 -0.0318464854309 0.956 1.43546772608e-38
0.0688563654662 -0.0317798609844 0.954 1.44468714894e-38
0.0703998318103 -0.0316799243146 0.951 1.44454365597e-38
0.07193219408 -0.0315799876449 0.948 1.47227661375e-38
0.0732979952334 -0.0314134265286 0.943 1.45372720559e-38
0.0746452895961 -0.0312468654123 0.938 1.47230954426e-38
0.0763812265635 -0.0312468654123 0.938 1.48163658684e-38
0.0781171635308 -0.0312468654123 0.938 1.42581782433e-38
0.0877703055582 -0.034344902175 1.031 1.92356408354e-38
0.089678355679 -0.034344902175 1.031 2.34975373731e-38
0.00175074239991 -0.0297626207984 0.946 2.34982618444e-38
0.00350148479982 -0.0297626207984 0.946 2.34845823688e-38
0.00526333127414 -0.0298255438868 0.948 2.34906457872e-38
0.00701777503219 -0.0298255438868 0.948 2.08922166435e-38
0.00877221879024 -0.0298255438868 0.948 2.04352476091e-38
0.0105599747715 -0.0299199285194 0.951 2.05284689895e-38
0.0123847443342 -0.0300772362403 0.956 2.01589676039e-38
0.0141984098225 -0.0301716208728 0.959 1.93295810818e-38
0.0160231793852 -0.0302660055054 0.962 1.87774891051e-38
0.0178405462316 -0.0303289285938 0.964 1.7760841464e-38
0.0196856732641 -0.0304233132263 0.967 1.71165678703e-38
0.021541904371 -0.0305176978589 0.97 1.71183517233e-38
0.0233370630686 -0.0305176978589 0.97 1.67499335414e-38
0.0251322217661 -0.0305176978589 0.97 1.6474427053e-38
0.0269273804637 -0.0305176978589 0.97 1.64726333909e-38
0.0288113717566 -0.0306120824914 0.973 1.62900385958e-38
0.0306120824914 -0.0306120824914 0.973 1.60116622481e-38
0.0324794176727 -0.0306750055798 0.975 1.60091511213e-38
0.0342838297657 -0.0306750055798 0.975 1.57336446328e-38
0.0361992826028 -0.0307693902124 0.978 1.54577794119e-38
0.0380092467329 -0.0307693902124 0.978 1.54602905388e-38
0.0399413556816 -0.0308637748449 0.981 1.49071251674e-38
0.041756871849 -0.0308637748449 0.981 1.46298250169e-38
0.0435723880163 -0.0308637748449 0.981 1.43543185284e-38
0.0453879041837 -0.0308637748449 0.981 1.45397831827e-38
0.047203420351 -0.0308637748449 0.981 1.45397831827e-38
0.0490189365184 -0.0308637748449 0.981 1.45376307883e-38
0.0506789956439 -0.0307693902124 0.978 1.47238353282e-38
0.052488959774 -0.0307693902124 0.978 1.4448306419e-38
0.0540213220437 -0.0306120824914 0.973 1.43550359932e-38
0.055649919625 -0.0305176978589 0.97 1.40795295047e-38
0.0574450783226 -0.0305176978589 0.97 1.39862590789e-38
0.0592402370202 -0.0305176978589 0.97 1.40773771103e-38
0.0610353957178 -0.0305176978589 0.97 1.38025880866e-38
0.062636233113 -0.0304233132263 0.967 1.39873352762e-38
0.0644258397734 -0.0304233132263 0.967 1.41702888037e-38
0.0656676454291 -0.0301716208728 0.959 1.42628417646e-38
0.067442446657 -0.0301716208728 0.959 1.44468714894e-38
0.0690007184336 -0.0300772362403 0.956 1.45390657179e-38
0.0706219132986 -0.0300143131519 0.954 1.39851828817e-38
0.07193219408 -0.0298255438868 0.948 1.43550359932e-38
0.0732979952334 -0.0296682361659 0.943 1.44468714894e-38
0.0748044479961 -0.0295738515333 0.94 1.45397831827e-38
0.0763812265635 -0.029510928445 0.938 1.49107124914e-38
0.0781171635308 -0.029510928445 0.938 1.36171234323e-38
0.0877703055582 -0.0324368520541 1.031 1.83165179622e-38
0.0894174099302 -0.0323424674216 1.028 2.34935801062e-38
0.00175074239991 -0.0280118783985 0.946 2.35004394622e-38
0.00350148479982 -0.0280118783985 0.946 2.34867207502e-38
0.00526333127414 -0.0280711001288 0.948 2.3488470972e-38
0.00703998318103 -0.0281599327241 0.951 2.08918579111e-38
0.00879997897629 -0.0281599327241 0.951 2.08033014534e-38
0.0105932869948 -0.0282487653195 0.954 2.02511646351e-38
0.0123847443342 -0.0283079870497 0.956 1.96965685379e-38
0.0141984098225 -0.028396819645 0.959 1.88696917414e-38
0.0160231793852 -0.0284856522404 0.962 1.79506109072e-38
0.0178960666037 -0.028633706566 0.967 1.81321295051e-38
0.0196856732641 -0.028633706566 0.967 1.73945756766e-38
0.021541904371 -0.0287225391613 0.97 1.70257987623e-38
0.0234092395523 -0.0288113717566 0.973 1.69332458014e-38
0.0252099502871 -0.0288113717566 0.973 1.59191092871e-38
0.0270661813939 -0.0288705934869 0.975 1.60120209805e-38
0.0289594260822 -0.0289594260822 0.978 1.55517673025e-38
0.0308637748449 -0.0290482586776 0.981 1.53659439157e-38
0.0326792910123 -0.0290482586776 0.981 1.57336446328e-38
0.0346002958866 -0.0291370912729 0.984 1.53659439157e-38
0.0365324048353 -0.0292259238682 0.987 1.52737496872e-38
0.0383590250771 -0.0292259238682 0.987 1.53663026482e-38
0.0401856453188 -0.0292259238682 0.987 1.4723454175e-38
0.0420122655606 -0.0292259238682 0.987 1.50925898217e-38
0.0438388858024 -0.0292259238682 0.987 1.46301837493e-38
0.0456655060441 -0.0292259238682 0.987 1.44468714894e-38
0.0474921262859 -0.0292259238682 0.987 1.38940648504e-38
0.0493187465277 -0.0292259238682 0.987 1.42628417646e-38
0.0509899097276 -0.0291370912729 0.984 1.35260054009e-38
0.0528109779321 -0.0291370912729 0.984 1.36185583619e-38
0.0542989239041 -0.0289594260822 0.978 1.39869765438e-38
0.0559367748808 -0.0288705934869 0.975 1.38969347096e-38
0.0576227435133 -0.0288113717566 0.973 1.38947823152e-38
0.0594234542481 -0.0288113717566 0.973 1.40773771103e-38
0.0610353957178 -0.0287225391613 0.97 1.38947823152e-38
0.0628305544153 -0.0287225391613 0.97 1.38947823152e-38
0.0644258397734 -0.028633706566 0.967 1.43553947256e-38
0.0662154464338 -0.028633706566 0.967 1.43553947256e-38
0.067442446657 -0.028396819645 0.959 1.41699300713e-38
0.0692172478848 -0.028396819645 0.959 1.38018706218e-38
0.0707699676242 -0.0283079870497 0.956 1.38947823152e-38
0.0721598276055 -0.0281599327241 0.951 1.39869765438e-38
0.0735311807962 -0.0280118783985 0.946 1.44472554451e-38
0.0748044479961 -0.0278342132079 0.94 1.41702888037e-38
0.0765440863216 -0.0278342132079 0.94 1.44472302218e-38
0.0858622554374 -0.0305288019333 1.031 1.35231355417e-38
0.0875149118466 -0.0304399693379 1.028 1.7947755061e-38
0.0894174099302 -0.0304399693379 1.028 2.34881879097e-38
0.00175074239991 -0.0262611359986 0.946 2.34989933222e-38
0.00350148479982 -0.0262611359986 0.946 2.34849284895e-38
0.00526333127414 -0.0263166563707 0.948 2.3487761915e-38
0.00703998318103 -0.0263999369289 0.951 2.05241571941e-38
0.00879997897629 -0.0263999369289 0.951 2.01615095593e-38
0.0105932869948 -0.026483217487 0.954 1.96994397985e-38
0.0124236085947 -0.0266220184172 0.959 1.92384770635e-38
0.0141984098225 -0.0266220184172 0.959 1.84115876552e-38
0.0160564916085 -0.0267608193474 0.964 1.77680161121e-38
0.0178960666037 -0.0268440999056 0.967 1.73027401804e-38
0.0197467456734 -0.0269273804637 0.97 1.73013052508e-38
0.0216085288175 -0.0270106610218 0.973 1.70229289031e-38
0.0234092395523 -0.0270106610218 0.973 1.70236715913e-38
0.025261769301 -0.0270661813939 0.975 1.61034977443e-38
0.0271494619521 -0.0271494619521 0.978 1.60138146425e-38
0.0290482586776 -0.0272327425102 0.981 1.57390662565e-38
0.0309581594775 -0.0273160230683 0.984 1.54584968767e-38
0.032779227682 -0.0273160230683 0.984 1.54592143415e-38
0.0346002958866 -0.0273160230683 0.984 1.49971670015e-38
0.0365324048353 -0.0273993036265 0.987 1.47223779778e-38
0.0383590250771 -0.0273993036265 0.987 1.43525248663e-38
0.0401856453188 -0.0273993036265 0.987 1.40773771103e-38
0.0420973967978 -0.0274548239986 0.989 1.39862590789e-38
0.0439277183977 -0.0274548239986 0.989 1.35209831472e-38
0.0457580399976 -0.0274548239986 0.989 1.41699482881e-38
0.0475883615975 -0.0274548239986 0.989 1.35260054009e-38
0.0494186831974 -0.0274548239986 0.989 1.41702888037e-38
0.0511453667694 -0.0273993036265 0.987 1.38940648504e-38
0.0528109779321 -0.0273160230683 0.984 1.33423344086e-38
0.0546320461367 -0.0273160230683 0.984 1.36192758267e-38
0.0562810011878 -0.0272327425102 0.981 1.37114700553e-38
0.0579188521644 -0.0271494619521 0.978 1.36192758267e-38
0.0595455990667 -0.0270661813939 0.975 1.39873352762e-38
0.0612241649829 -0.0270106610218 0.973 1.39873352762e-38
0.0630248757176 -0.0270106610218 0.973 1.39851828817e-38
0.0646257131129 -0.0269273804637 0.97 1.39855416141e-38
0.0662154464338 -0.0268440999056 0.967 1.42617893895e-38
0.0680050530941 -0.0268440999056 0.967 1.39862590789e-38
0.0692172478848 -0.0266220184172 0.959 1.39869765438e-38
0.0707699676242 -0.0265387378591 0.956 1.39873352762e-38
0.0725392168148 -0.0265387378591 0.956 1.38947823152e-38
0.0739198234008 -0.0263999369289 0.951 1.38947823152e-38
0.0756798191961 -0.0263999369289 0.951 1.42621242998e-38
0.0839542053166 -0.0286207518125 1.031 1.43550359932e-38
0.085612413763 -0.0285374712543 1.028 1.3708600196e-38
0.0875149118466 -0.0285374712543 1.028 1.80367487238e-38
0.0894174099302 -0.0285374712543 1.028 2.3489287929e-38
0.00175074239991 -0.0245103935987 0.946 2.35000737233e-38
0.00350148479982 -0.0245103935987 0.946 2.34849284895e-38
0.00526333127414 -0.0245622126127 0.948 2.34888311057e-38
0.00703998318103 -0.0246399411336 0.951 2.04326804303e-38
0.00879997897629 -0.0246399411336 0.951 2.00711117954e-38
0.0105932869948 -0.0247176696545 0.954 1.94235885906e-38
0.0124236085947 -0.0248472171894 0.959 1.88693386142e-38
0.0142428261202 -0.0249249457103 0.962 1.83165179622e-38
0.0161064599433 -0.0250544932452 0.967 1.80431764799e-38
0.0179515869758 -0.0251322217661 0.97 1.73960106062e-38
0.0198078180827 -0.0252099502871 0.973 1.69325297378e-38
0.0216529451152 -0.025261769301 0.975 1.6840334108e-38
0.0235295336918 -0.0253394978219 0.978 1.67502922738e-38
0.0253394978219 -0.0253394978219 0.978 1.63822328244e-38
0.0272327425102 -0.0254172263429 0.981 1.61074438007e-38
0.0291370912729 -0.0254949548638 0.984 1.50929485541e-38
0.03105254411 -0.0255726833847 0.987 1.46319774113e-38
0.0328791643518 -0.0255726833847 0.987 1.46309012141e-38
0.0347057845935 -0.0255726833847 0.987 1.42621242998e-38
0.0365324048353 -0.0255726833847 0.987 1.42628417646e-38
0.038436753598 -0.0256245023987 0.989 1.38025880866e-38
0.0402670751979 -0.0256245023987 0.989 1.38025880866e-38
0.0420973967978 -0.0256245023987 0.989 1.36171234323e-38
0.0439277183977 -0.0256245023987 0.989 1.3708600196e-38
0.0457580399976 -0.0256245023987 0.989 1.38940648504e-38
0.0475883615975 -0.0256245023987 0.989 1.33412582114e-38
0.0494186831974 -0.0256245023987 0.989 1.39851828817e-38
0.0511453667694 -0.0255726833847 0.987 1.37997182274e-38
0.0529719870112 -0.0255726833847 0.987 1.35260054009e-38
0.0546320461367 -0.0254949548638 0.984 1.35260054009e-38
0.0562810011878 -0.0254172263429 0.981 1.41703126257e-38
0.0580965173551 -0.0254172263429 0.981 1.29735574944e-38
0.0597288162946 -0.0253394978219 0.978 1.34345286372e-38
0.0613500111596 -0.025261769301 0.975 1.40791721736e-38
0.0630248757176 -0.0252099502871 0.973 1.39862590789e-38
0.0648255864524 -0.0252099502871 0.973 1.38947823152e-38
0.0664208718105 -0.0251322217661 0.97 1.42628417646e-38
0.0680050530941 -0.0250544932452 0.967 1.41706475361e-38
0.0692172478848 -0.0248472171894 0.959 1.40795295047e-38
0.0707699676242 -0.0247694886685 0.956 1.41706475361e-38
0.0723874611311 -0.0247176696545 0.954 1.39873352762e-38
0.0741530089636 -0.0247176696545 0.954 1.39866234165e-38
0.075918556796 -0.0247176696545 0.954 1.40795295047e-38
0.0839542053166 -0.0267127016916 1.031 1.38947823152e-38
0.085612413763 -0.0266349731707 1.028 1.3521700612e-38
0.0875149118466 -0.0266349731707 1.028 1.91452444727e-38
0.0894174099302 -0.0266349731707 1.028 2.34900124003e-38
0.00175074239991 -0.0227596511988 0.946 2.34989905196e-38
0.00350148479982 -0.0227596511988 0.946 2.34856739803e-38
0.00526333127414 -0.0228077688546 0.948 2.34913548443e-38
0.00703998318103 -0.0228799453383 0.951 2.11698979472e-38
0.00879997897629 -0.0228799453383 0.951 2.00689257698e-38
0.0105932869948 -0.0229521218221 0.954 1.92377455857e-38
0.0124236085947 -0.0230724159616 0.959 1.90555067204e-38
0.0142724369853 -0.0231927101011 0.964 1.84090709232e-38
0.0161064599433 -0.0232648865848 0.967 1.81332757672e-38
0.0179515869758 -0.0233370630686 0.97 1.73027401804e-38
0.0198485330222 -0.0234573572081 0.975 1.69350394634e-38
0.0217195695617 -0.0235295336918 0.978 1.65666212815e-38
0.0235295336918 -0.0235295336918 0.978 1.62900385958e-38
0.0254172263429 -0.0236017101755 0.981 1.52737496872e-38
0.0273160230683 -0.0236738866592 0.984 1.41677776768e-38
0.0292259238682 -0.0237460631429 0.987 1.42624830322e-38
0.0311154671984 -0.0237941807988 0.989 1.39869765438e-38
0.0329457887983 -0.0237941807988 0.989 1.38940648504e-38
0.0347761103982 -0.0237941807988 0.989 1.38025880866e-38
0.0366064319981 -0.0237941807988 0.989 1.38947823152e-38
0.038436753598 -0.0237941807988 0.989 1.38011573609e-38
0.0403892200165 -0.0238663572825 0.992 1.37082414636e-38
0.0422250936536 -0.0238663572825 0.992 1.38933473856e-38
0.0439277183977 -0.0237941807988 0.989 1.39851828817e-38
0.0457580399976 -0.0237941807988 0.989 1.32487052504e-38
0.0475883615975 -0.0237941807988 0.989 1.33416169438e-38
0.0494186831974 -0.0237941807988 0.989 1.38933473856e-38
0.0512490047973 -0.0237941807988 0.989 1.40759463845e-38
0.0529719870112 -0.0237460631429 0.987 1.39844654169e-38
0.054798607253 -0.0237460631429 0.987 1.39851828817e-38
0.0564531143412 -0.0236738866592 0.984 1.39851828817e-38
0.0580965173551 -0.0236017101755 0.981 1.38025880866e-38
0.0599120335225 -0.0236017101755 0.981 1.36185583619e-38
0.0615387804247 -0.0235295336918 0.978 1.35249292037e-38
0.0631544232525 -0.0234573572081 0.975 1.38025880866e-38
0.0649588353455 -0.0234573572081 0.975 1.38947823152e-38
0.0666262971872 -0.0234092395523 0.973 1.41706475361e-38
0.0682160305081 -0.0233370630686 0.97 1.40795295047e-38
0.0697946597545 -0.0232648865848 0.967 1.39880695566e-38
0.0709920491126 -0.0230724159616 0.959 1.42621242998e-38
0.0723874611311 -0.0229521218221 0.954 1.39851828817e-38
0.0741530089636 -0.0229521218221 0.954 1.38947823152e-38
0.0820461551957 -0.0248046515708 1.031 1.41717237333e-38
0.0839542053166 -0.0248046515708 1.031 1.41713650009e-38
0.0858622554374 -0.0248046515708 1.031 1.29685352407e-38
0.0875149118466 -0.0247324750871 1.028 1.88693666402e-38
0.0891564641814 -0.0246602986034 1.025 2.34978638756e-38
0.00175074239991 -0.0210089087989 0.946 2.34971926537e-38
0.00350148479982 -0.0210089087989 0.946 2.34863998529e-38
0.00526333127414 -0.0210533250966 0.948 2.34913590482e-38
0.00706219132986 -0.0211865739896 0.954 2.17223444525e-38
0.00882773916233 -0.0211865739896 0.954 2.00692845022e-38
0.0106154951436 -0.0212309902873 0.956 1.89637244736e-38
0.0124624728552 -0.0213642391803 0.962 1.86856886414e-38
0.0142724369853 -0.021408655478 0.964 1.84090709232e-38
0.0161564282782 -0.021541904371 0.97 1.77655049853e-38
0.0179515869758 -0.021541904371 0.97 1.67502922738e-38
0.0198485330222 -0.0216529451152 0.975 1.61049326739e-38
0.0217195695617 -0.0217195695617 0.978 1.49971670015e-38
0.0236017101755 -0.0217861940082 0.981 1.49971670015e-38
0.0254949548638 -0.0218528184547 0.984 1.48163658684e-38
0.0273993036265 -0.0219194429012 0.987 1.43546772608e-38
0.0292259238682 -0.0219194429012 0.987 1.43561514268e-38
0.0311154671984 -0.0219638591989 0.989 1.36174821647e-38
0.0329457887983 -0.0219638591989 0.989 1.3801153157e-38
0.0348815991052 -0.0220304836454 0.992 1.39869765438e-38
0.0367174727423 -0.0220304836454 0.992 1.38025880866e-38
0.0385533463794 -0.0220304836454 0.992 1.39851828817e-38
0.0403892200165 -0.0220304836454 0.992 1.3708600196e-38
0.0422250936536 -0.0220304836454 0.992 1.38018706218e-38
0.0440609672907 -0.0220304836454 0.992 1.37093176608e-38
0.0458968409278 -0.0220304836454 0.992 1.34345286372e-38
0.047732714565 -0.0220304836454 0.992 1.32508576449e-38
0.0495685882021 -0.0220304836454 0.992 1.3708600196e-38
0.0514044618392 -0.0220304836454 0.992 1.40759421807e-38
0.0530793263972 -0.0219638591989 0.989 1.37093176608e-38
0.0549096479971 -0.0219638591989 0.989 1.36185583619e-38
0.0566252274947 -0.0219194429012 0.987 1.35260054009e-38
0.0584518477365 -0.0219194429012 0.987 1.35260054009e-38
0.0600952507504 -0.0218528184547 0.984 1.35260054009e-38
0.0617275496898 -0.0217861940082 0.981 1.36189170943e-38
0.0633487445548 -0.0217195695617 0.978 1.38033111566e-38
0.065158708685 -0.0217195695617 0.978 1.38947823152e-38
0.0667632474384 -0.0216529451152 0.975 1.38940648504e-38
0.068427007922 -0.0216085288175 0.973 1.38025880866e-38
0.0700111892057 -0.021541904371 0.97 1.34338111724e-38
0.0709920491126 -0.0212976147338 0.959 1.39862590789e-38
0.0725392168148 -0.0212309902873 0.956 1.43546772608e-38
0.0743084660054 -0.0212309902873 0.956 1.43553947256e-38
0.0820461551957 -0.02289660145 1.031 1.41702888037e-38
0.0837099156794 -0.0228299770035 1.028 1.3801153157e-38
0.085612413763 -0.0228299770035 1.028 1.37946959737e-38
0.0875149118466 -0.0228299770035 1.028 2.07136842127e-38
0.0891564641814 -0.022763352557 1.025 2.35058120405e-38
0.00379389209283 -0.0208664065105 1.025 2.34917850429e-38
0.0052966434974 -0.0194210261571 0.954 2.34902800483e-38
0.00706219132986 -0.0194210261571 0.954 2.32003724155e-38
0.00882773916233 -0.0194210261571 0.954 1.9055147988e-38
0.010704327739 -0.0196246008548 0.964 1.85959971319e-38
0.0124883823621 -0.0196246008548 0.964 1.87792827671e-38
0.014316853283 -0.0196856732641 0.967 1.77644399984e-38
0.0161564282782 -0.0197467456734 0.97 1.7302381448e-38
0.0180071073479 -0.0198078180827 0.973 1.67510097387e-38
0.0199096054315 -0.0199096054315 0.978 1.6014173375e-38
0.0217861940082 -0.0199706778408 0.981 1.47230954426e-38
0.0236738866592 -0.0200317502501 0.984 1.47230954426e-38
0.0255726833847 -0.0200928226594 0.987 1.49074853011e-38
0.0274548239986 -0.020133537599 0.989 1.45401419151e-38
0.0292851455985 -0.020133537599 0.989 1.39869765438e-38
0.0312098518309 -0.0201946100083 0.992 1.38947823152e-38
0.033045725468 -0.0201946100083 0.992 1.36181996295e-38
0.0349870878121 -0.0202556824175 0.995 1.39862590789e-38
0.0368285134865 -0.0202556824175 0.995 1.34338111724e-38
0.0387865319422 -0.0203167548268 0.998 1.37114700553e-38
0.0405113648351 -0.0202556824175 0.995 1.37103938581e-38
0.0423527905094 -0.0202556824175 0.995 1.3708600196e-38
0.0441942161837 -0.0202556824175 0.995 1.36171234323e-38
0.0458968409278 -0.0201946100083 0.992 1.35260054009e-38
0.047732714565 -0.0201946100083 0.992 1.34338111724e-38
0.0495685882021 -0.0201946100083 0.992 1.34345286372e-38
0.0514044618392 -0.0201946100083 0.992 1.35260054009e-38
0.0530793263972 -0.020133537599 0.989 1.35260054009e-38
0.0549096479971 -0.020133537599 0.989 1.36192758267e-38
0.056739969597 -0.020133537599 0.989 1.29753511564e-38
0.0585702911969 -0.020133537599 0.989 1.36185583619e-38
0.0602784679783 -0.0200928226594 0.987 1.34345286372e-38
0.0619163189549 -0.0200317502501 0.984 1.35267228657e-38
0.0635430658572 -0.0199706778408 0.981 1.37114700553e-38
0.065158708685 -0.0199096054315 0.978 1.38036642838e-38
0.0669686728151 -0.0199096054315 0.978 1.41717237333e-38
0.0685676595313 -0.0198485330222 0.975 1.39869765438e-38
0.0700111892057 -0.0197467456734 0.97 1.38025880866e-38
0.0709920491126 -0.019522813506 0.959 1.38947823152e-38
0.0727668503404 -0.019522813506 0.959 1.45397831827e-38
0.0745416515682 -0.019522813506 0.959 1.39862590789e-38
0.0820461551957 -0.0209885513291 1.031 1.41702888037e-38
0.0834656260422 -0.0208664065105 1.025 1.35231355417e-38
0.0853625720886 -0.0208664065105 1.025 1.42495686656e-38
0.087259518135 -0.0208664065105 1.025 2.34798908215e-38
0.00707699676242 -0.0176924919061 0.956 2.3491259556e-38
0.00884624595303 -0.0176924919061 0.956 1.87760541754e-38
0.0107376399622 -0.0178960666037 0.967 1.86867424178e-38
0.0125272466226 -0.0178960666037 0.967 1.83183158282e-38
0.0143612695806 -0.0179515869758 0.97 1.76729520243e-38
0.0162063966131 -0.0180071073479 0.973 1.684212777e-38
0.0180441209293 -0.0180441209293 0.975 1.60113035157e-38
0.0199096054315 -0.0180996413014 0.978 1.55506911053e-38
0.0217861940082 -0.0181551616735 0.981 1.49078426322e-38
0.0237941807988 -0.018303215999 0.989 1.48163658684e-38
0.0256245023987 -0.018303215999 0.989 1.44468714894e-38
0.0275381045567 -0.0183587363711 0.992 1.42621242998e-38
0.0293739781938 -0.0183587363711 0.992 1.42624830322e-38
0.0313042364635 -0.0184142567432 0.995 1.39869765438e-38
0.0331456621378 -0.0184142567432 0.995 1.36185583619e-38
0.0349870878121 -0.0184142567432 0.995 1.43539611973e-38
0.0369395542306 -0.0184697771153 0.998 1.38025880866e-38
0.0389031247236 -0.0185252974874 1.001 1.36192758267e-38
0.0406335096537 -0.0184697771153 0.998 1.35267228657e-38
0.0424804873652 -0.0184697771153 0.998 1.35249292037e-38
0.0443274650768 -0.0184697771153 0.998 1.34338111724e-38
0.0461744427883 -0.0184697771153 0.998 1.34338111724e-38
0.0480214204998 -0.0184697771153 0.998 1.31550760922e-38
0.0498683982114 -0.0184697771153 0.998 1.29714050999e-38
0.0517153759229 -0.0184697771153 0.998 1.35260054009e-38
0.0535623536344 -0.0184697771153 0.998 1.31550760922e-38
0.0549096479971 -0.018303215999 0.989 1.29731987619e-38
0.056739969597 -0.018303215999 0.989 1.34345454528e-38
0.0585702911969 -0.018303215999 0.989 1.35260054009e-38
0.0604006127969 -0.018303215999 0.989 1.34352517072e-38
0.06210508822 -0.0182662024177 0.987 1.33430518734e-38
0.0635430658572 -0.0181551616735 0.981 1.36192758267e-38
0.0653585820245 -0.0181551616735 0.981 1.36181996295e-38
0.0669686728151 -0.0180996413014 0.978 1.40788484737e-38
0.0687786369453 -0.0180996413014 0.978 1.41702888037e-38
0.0702277186568 -0.0180071073479 0.973 1.35260054009e-38
0.0713621849265 -0.0178405462316 0.964 1.41702888037e-38
0.0731462395497 -0.0178405462316 0.964 1.39866178113e-38
0.0749302941728 -0.0178405462316 0.964 1.40795295047e-38
0.0815686799958 -0.0189694604641 1.025 1.38025880866e-38
0.0834656260422 -0.0189694604641 1.025 1.29674590434e-38
0.0851127304142 -0.018913940092 1.022 1.69293501916e-38
0.0870041244234 -0.018913940092 1.022 2.34892234693e-38
0.00718063479032 -0.0161564282782 0.97 2.34927869713e-38
0.0089757934879 -0.0161564282782 0.97 2.07975785504e-38
0.0107709521855 -0.0161564282782 0.97 1.84994714897e-38
0.0125661108831 -0.0161564282782 0.97 1.82239916259e-38
0.0143612695806 -0.0161564282782 0.97 1.71172895391e-38
0.0162397088364 -0.0162397088364 0.975 1.65633996964e-38
0.0180996413014 -0.0162896771712 0.978 1.60116622481e-38
0.0199706778408 -0.0163396455061 0.981 1.56439615311e-38
0.0217861940082 -0.0163396455061 0.981 1.50929485541e-38
0.0237941807988 -0.0164728943991 0.989 1.49075245374e-38
0.0257022309196 -0.016522862734 0.992 1.45397831827e-38
0.0276213851148 -0.0165728310689 0.995 1.44468714894e-38
0.0294628107892 -0.0165728310689 0.995 1.44472302218e-38
0.031398621096 -0.0166227994038 0.998 1.34341699048e-38
0.0332455988076 -0.0166227994038 0.998 1.36181996295e-38
0.0351980652261 -0.0166727677387 1.001 1.38908362587e-38
0.0370505949748 -0.0166727677387 1.001 1.33383883521e-38
0.0390197175049 -0.0167227360735 1.004 1.33419756762e-38
0.0407556544723 -0.0166727677387 1.001 1.33412582114e-38
0.042608184221 -0.0166727677387 1.001 1.33405407466e-38
0.0444607139698 -0.0166727677387 1.001 1.36164059675e-38
0.0463132437185 -0.0166727677387 1.001 1.30635993285e-38
0.0481657734673 -0.0166727677387 1.001 1.30661104553e-38
0.050018303216 -0.0166727677387 1.001 1.28810045334e-38
0.0518708329647 -0.0166727677387 1.001 1.33412582114e-38
0.0537233627135 -0.0166727677387 1.001 1.3155793557e-38
0.055409331346 -0.0166227994038 0.998 1.31579459515e-38
0.0569120827505 -0.016522862734 0.992 1.29739162268e-38
0.0585702911969 -0.0164728943991 0.989 1.32512163773e-38
0.0604006127969 -0.0164728943991 0.989 1.2974992424e-38
0.0622309343968 -0.0164728943991 0.989 1.32515751097e-38
0.0637373871595 -0.016389613841 0.984 1.31586634163e-38
0.0653585820245 -0.0163396455061 0.981 1.34345286372e-38
0.0671740981918 -0.0163396455061 0.981 1.36171234323e-38
0.0687786369453 -0.0162896771712 0.978 1.39866178113e-38
0.0702277186568 -0.0162063966131 0.973 1.36192758267e-38
0.0718063479032 -0.0161564282782 0.97 1.42642766943e-38
0.0736015066008 -0.0161564282782 0.97 1.39862590789e-38
0.0753966652984 -0.0161564282782 0.97 1.41702888037e-38
0.0815686799958 -0.0170725144177 1.025 1.38011573609e-38
0.0834656260422 -0.0170725144177 1.025 1.27809181919e-38
0.0851127304142 -0.0170225460828 1.022 2.02519479609e-38
0.0870041244234 -0.0170225460828 1.022 2.34921353675e-38
0.00760999233449 -0.015219984669 1.028 2.34866983295e-38
0.00900355367395 -0.0144056858783 0.973 2.34790360295e-38
0.0108042644087 -0.0144056858783 0.973 1.76661361086e-38
0.0126049751435 -0.0144056858783 0.973 1.79484585128e-38
0.0144056858783 -0.0144056858783 0.973 1.7116918195e-38
0.0162896771712 -0.0144797130411 0.978 1.65637514223e-38
0.0181551616735 -0.0145241293388 0.981 1.6287527469e-38
0.0199706778408 -0.0145241293388 0.981 1.61049326739e-38
0.0219194429012 -0.0146129619341 0.987 1.52748258844e-38
0.0237941807988 -0.0146425727992 0.989 1.49960908043e-38
0.0257022309196 -0.0146869890969 0.992 1.49975257339e-38
0.0276213851148 -0.0147314053946 0.995 1.46301837493e-38
0.0294628107892 -0.0147314053946 0.995 1.41706475361e-38
0.031398621096 -0.0147758216923 0.998 1.34345286372e-38
0.0333455354773 -0.0148202379899 1.001 1.34345286372e-38
0.035303553933 -0.0148646542876 1.004 1.39862590789e-38
0.037161635719 -0.0148646542876 1.004 1.39866178113e-38
0.0390197175049 -0.0148646542876 1.004 1.38947823152e-38
0.0408777992909 -0.0148646542876 1.004 1.36192758267e-38
0.0427358810768 -0.0148646542876 1.004 1.36171234323e-38
0.0445939628628 -0.0148646542876 1.004 1.3616047235e-38
0.0464520446487 -0.0148646542876 1.004 1.33391058169e-38
0.0483101264347 -0.0148646542876 1.004 1.3988052741e-38
0.0501682082206 -0.0148646542876 1.004 1.33441280706e-38
0.0518708329647 -0.0148202379899 1.001 1.35270815981e-38
0.0537233627135 -0.0148202379899 1.001 1.34345286372e-38
0.0555758924622 -0.0148202379899 1.001 1.30657517229e-38
0.0572563090575 -0.0147758216923 0.998 1.29742749592e-38
0.0587479563876 -0.0146869890969 0.992 1.30664691877e-38
0.0604006127969 -0.0146425727992 0.989 1.32512163773e-38
0.0622309343968 -0.0146425727992 0.989 1.32512163773e-38
0.0639317084618 -0.0146129619341 0.987 1.28831569278e-38
0.065558455364 -0.0145685456365 0.984 1.34356048344e-38
0.0673795235686 -0.0145685456365 0.984 1.36171234323e-38
0.0689896143592 -0.0145241293388 0.981 1.38025880866e-38
0.0702277186568 -0.0144056858783 0.973 1.38947823152e-38
0.0718063479032 -0.0143612695806 0.97 1.38036642838e-38
0.0736015066008 -0.0143612695806 0.97 1.36185583619e-38
0.0753966652984 -0.0143612695806 0.97 1.43553947256e-38
0.077191823996 -0.0143612695806 0.97 1.27852229807e-38
0.083221336405 -0.0151311520736 1.022 1.610243556e-38
0.0851127304142 -0.0151311520736 1.022 2.34812991265e-38
0.0870041244234 -0.0151311520736 1.022 2.34989933222e-38
0.0886345726838 -0.015086735776 1.019 2.35098491814e-38
0.00760999233449 -0.0133174865854 1.028 2.28326212518e-38
0.0108597847808 -0.012669748911 0.978 2.0520583883e-38
0.012669748911 -0.012669748911 0.978 1.73016639832e-38
0.0144797130411 -0.012669748911 0.978 1.6934694744e-38
0.0162896771712 -0.012669748911 0.978 1.67495776116e-38
0.0181551616735 -0.0127086131714 0.981 1.57336446328e-38
0.0199706778408 -0.0127086131714 0.981 1.58261975938e-38
0.0219638591989 -0.0128122511993 0.989 1.54602905388e-38
0.0238663572825 -0.0128511154598 0.992 1.5180120529e-38
0.0257799594405 -0.0128899797203 0.995 1.49049727729e-38
0.0276213851148 -0.0128899797203 0.995 1.44468714894e-38
0.0295516433845 -0.0129288439807 0.998 1.39866178113e-38
0.0314930057286 -0.0129677082412 1.001 1.39866178113e-38
0.0333455354773 -0.0129677082412 1.001 1.38947823152e-38
0.035303553933 -0.0130065725016 1.004 1.39869765438e-38
0.037161635719 -0.0130065725016 1.004 1.4168853874e-38
0.0391363102863 -0.0130454367621 1.007 1.43550359932e-38
0.0409999441095 -0.0130454367621 1.007 1.49096362942e-38
0.0427358810768 -0.0130065725016 1.004 1.50933072865e-38
0.0445939628628 -0.0130065725016 1.004 1.50936660189e-38
0.0464520446487 -0.0130065725016 1.004 1.47252478371e-38
0.0483101264347 -0.0130065725016 1.004 1.41724411981e-38
0.0501682082206 -0.0130065725016 1.004 1.47252814682e-38
0.0520262900066 -0.0130065725016 1.004 1.40795295047e-38
0.0538843717925 -0.0130065725016 1.004 1.39869765438e-38
0.0557424535785 -0.0130065725016 1.004 1.36181996295e-38
0.057428422211 -0.0129677082412 1.001 1.35245704713e-38
0.0592809519597 -0.0129677082412 1.001 1.3155793557e-38
0.0605838300248 -0.0128511154598 0.992 1.33412582114e-38
0.0624197036619 -0.0128511154598 0.992 1.31590221487e-38
0.0640612559967 -0.0128122511993 0.989 1.30679041174e-38
0.0657583287036 -0.0127863416924 0.987 1.34345286372e-38
0.0673795235686 -0.0127474774319 0.984 1.36185583619e-38
0.0692005917731 -0.0127474774319 0.984 1.36181996295e-38
0.0703720716242 -0.0126308846505 0.975 1.36178408971e-38
0.0718063479032 -0.0125661108831 0.97 1.39855640349e-38
0.0736015066008 -0.0125661108831 0.97 1.38025880866e-38
0.0756298508612 -0.0126049751435 0.973 1.38940648504e-38
0.077430561596 -0.0126049751435 0.973 1.15730661779e-38
0.0829770467678 -0.013200893804 1.019 2.21895205449e-38
0.0848628887398 -0.013200893804 1.019 2.3478451688e-38
0.0867487307118 -0.013200893804 1.019 2.35097889256e-38
0.0886345726838 -0.013200893804 1.019 2.35098337671e-38
0.00570749425087 -0.0114149885017 1.028 2.34943059788e-38
0.00760999233449 -0.0114149885017 1.028 1.94190371732e-38
0.0108930970041 -0.0108930970041 0.981 2.34881276539e-38
0.0145241293388 -0.0108930970041 0.981 1.72116529776e-38
0.0163396455061 -0.0108930970041 0.981 1.70283098892e-38
0.0181551616735 -0.0108930970041 0.981 1.60123909233e-38
0.0200317502501 -0.0109264092273 0.984 1.55506911053e-38
0.0220304836454 -0.0110152418227 0.992 1.54606492712e-38
0.0238663572825 -0.0110152418227 0.992 1.46280313548e-38
0.0257799594405 -0.0110485540459 0.995 1.48127785444e-38
0.027704665673 -0.0110818662692 0.998 1.41695713388e-38
0.0296404759799 -0.0111151784924 1.001 1.43550359932e-38
0.0315873903611 -0.0111484907157 1.004 1.41717237333e-38
0.0334454721471 -0.0111484907157 1.004 1.46330536085e-38
0.03540904264 -0.011181802939 1.007 1.62032253534e-38
0.0373837172074 -0.0112151151622 1.01 1.61099549276e-38
0.0392529030677 -0.0112151151622 1.01 1.58322960447e-38
0.0409999441095 -0.011181802939 1.007 1.62914763281e-38
0.0428635779327 -0.011181802939 1.007 1.54592143415e-38
0.0447272117558 -0.011181802939 1.007 1.50925968282e-38
0.046590845579 -0.011181802939 1.007 1.47252478371e-38
0.0483101264347 -0.0111484907157 1.004 1.46326948761e-38
0.0501682082206 -0.0111484907157 1.004 1.454085938e-38
0.0520262900066 -0.0111484907157 1.004 1.42649941591e-38
0.0538843717925 -0.0111484907157 1.004 1.43568296552e-38
0.0557424535785 -0.0111484907157 1.004 1.46309012141e-38
0.0576005353644 -0.0111484907157 1.004 1.41702888037e-38
0.0592809519597 -0.0111151784924 1.001 1.3801153157e-38
0.0609502644805 -0.0110818662692 0.998 1.34295231991e-38
0.0627972421921 -0.0110818662692 0.998 1.31583046839e-38
0.064255577299 -0.0110152418227 0.992 1.29753511564e-38
0.0658915775966 -0.0109819295994 0.989 1.33419756762e-38
0.0675849489453 -0.0109597214506 0.987 1.35260054009e-38
0.0692005917731 -0.0109264092273 0.984 1.36189170943e-38
0.0703720716242 -0.0108264725576 0.975 1.38018706218e-38
0.0720284293916 -0.0108042644087 0.973 1.36174821647e-38
0.0738291401264 -0.0108042644087 0.973 1.38025880866e-38
0.0756298508612 -0.0108042644087 0.973 1.22316988769e-38
0.077430561596 -0.0108042644087 0.973 1.79474649922e-38
0.0827327571306 -0.0112817396087 1.016 2.3489597616e-38
0.0846130470654 -0.0112817396087 1.016 2.34766986636e-38
0.0864933370001 -0.0112817396087 1.016 2.35098365697e-38
0.00756557603682 -0.00945697004602 1.022 2.34860565348e-38
0.0146425727992 -0.00915160799952 0.989 1.60091511213e-38
0.016389613841 -0.00910534102278 0.984 1.69350394634e-38
0.0182106820456 -0.00910534102278 0.984 1.5829067453e-38
0.0200928226594 -0.00913310120883 0.987 1.57361557596e-38
0.0220971080919 -0.00920712837161 0.995 1.55506911053e-38
0.0239385337662 -0.00920712837161 0.995 1.49049727729e-38
0.0257799594405 -0.00920712837161 0.995 1.52730322224e-38
0.0277879462311 -0.0092626487437 1.001 1.46301837493e-38
0.0296404759799 -0.0092626487437 1.001 1.5555713359e-38
0.0316817749937 -0.00931816911579 1.007 1.70315384808e-38
0.0335454088169 -0.00931816911579 1.007 1.77698882469e-38
0.03540904264 -0.00931816911579 1.007 1.62918322579e-38
0.0373837172074 -0.00934592930184 1.01 1.57393843513e-38
0.0392529030677 -0.00934592930184 1.01 1.49078426322e-38
0.0411220889281 -0.00934592930184 1.01 1.51855015151e-38
0.0429912747885 -0.00934592930184 1.01 1.50003955932e-38
0.0448604606488 -0.00934592930184 1.01 1.50940247513e-38
0.0467296465092 -0.00934592930184 1.01 1.4908560097e-38
0.0484544794021 -0.00931816911579 1.007 1.47252478371e-38
0.0503181132253 -0.00931816911579 1.007 1.39862590789e-38
0.0521817470484 -0.00931816911579 1.007 1.41724411981e-38
0.0538843717925 -0.00929040892975 1.004 1.43554073373e-38
0.0557424535785 -0.00929040892975 1.004 1.44465127569e-38
0.0576005353644 -0.00929040892975 1.004 1.43553947256e-38
0.0592809519597 -0.0092626487437 1.001 1.39862590789e-38
0.0611334817084 -0.0092626487437 1.001 1.41702888037e-38
0.0627972421921 -0.00923488855766 0.998 1.35256466685e-38
0.0644498986013 -0.00920712837161 0.995 1.31565110219e-38
0.0660914509361 -0.00917936818557 0.992 1.32490639828e-38
0.0677218991965 -0.00915160799952 0.989 1.31579459515e-38
0.0694115691871 -0.00913310120883 0.987 1.33412582114e-38
0.0705886010754 -0.00904982065069 0.978 1.36189170943e-38
0.0723985652055 -0.00904982065069 0.978 1.37107525905e-38
0.0742085293357 -0.00904982065069 0.978 1.24178809961e-38
0.078972177261 -0.00940144967393 1.016 1.63779462524e-38
0.0808524671958 -0.00940144967393 1.016 2.34867445723e-38
0.0827327571306 -0.00940144967393 1.016 2.14465380862e-38
0.0846130470654 -0.00940144967393 1.016 2.34968619472e-38
0.0864933370001 -0.00940144967393 1.016 2.35098477801e-38
0.0146425727992 -0.00732128639962 0.989 1.96965615314e-38
0.0164728943991 -0.00732128639962 0.989 1.60127636687e-38
0.018303215999 -0.00732128639962 0.989 1.59212616816e-38
0.020133537599 -0.00732128639962 0.989 1.59209029492e-38
0.0220971080919 -0.00736570269729 0.995 1.55506911053e-38
0.0240107102499 -0.00738791084613 0.998 1.49953733395e-38
0.0258576879614 -0.00738791084613 0.998 1.57361557596e-38
0.0277879462311 -0.00741011899496 1.001 1.63829502892e-38
0.0297293085752 -0.0074323271438 1.004 1.78598516083e-38
0.0316817749937 -0.00745453529263 1.007 1.74889222996e-38
0.0335454088169 -0.00745453529263 1.007 1.71187104557e-38
0.035514531347 -0.00747674344147 1.01 1.60120209805e-38
0.0373837172074 -0.00747674344147 1.01 1.61971269025e-38
0.0392529030677 -0.00747674344147 1.01 1.60138146425e-38
0.0411220889281 -0.00747674344147 1.01 1.59209029492e-38
0.0431189716443 -0.00749895159031 1.013 1.57361557596e-38
0.0449937095418 -0.00749895159031 1.013 1.54599318063e-38
0.0468684474394 -0.00749895159031 1.013 1.55514085701e-38
0.0485988323696 -0.00747674344147 1.01 1.57372319569e-38
0.0504680182299 -0.00747674344147 1.01 1.47230954426e-38
0.0523372040903 -0.00747674344147 1.01 1.47230954426e-38
0.0540453808716 -0.00745453529263 1.007 1.41699300713e-38
0.0559090146948 -0.00745453529263 1.007 1.4353959796e-38
0.0576005353644 -0.0074323271438 1.004 1.39869765438e-38
0.0594586171504 -0.0074323271438 1.004 1.35260054009e-38
0.0611334817084 -0.00741011899496 1.001 1.43572108084e-38
0.0627972421921 -0.00738791084613 0.998 1.41717237333e-38
0.0646442199036 -0.00738791084613 0.998 1.34341699048e-38
0.0660914509361 -0.00734349454845 0.992 1.31565110219e-38
0.0679273245732 -0.00734349454845 0.992 1.33412582114e-38
0.0695522207964 -0.00732128639962 0.989 1.3248346518e-38
0.0712381894288 -0.00730648096706 0.987 1.36178408971e-38
0.0730648096706 -0.00730648096706 0.987 1.33412582114e-38
0.0748914299124 -0.00730648096706 0.987 1.43446327534e-38
0.078972177261 -0.00752115973914 1.016 2.34823823302e-38
0.0808524671958 -0.00752115973914 1.016 2.34759559754e-38
0.0827327571306 -0.00752115973914 1.016 1.9685488471e-38
0.0846130470654 -0.00752115973914 1.016 2.35098421749e-38
0.0146869890969 -0.00550762091134 0.992 2.34917472078e-38
0.016522862734 -0.00550762091134 0.992 1.91451898221e-38
0.0183587363711 -0.00550762091134 0.992 1.49060489701e-38
0.0202556824175 -0.00552427702297 0.995 1.60109447833e-38
0.0221637325384 -0.0055409331346 0.998 1.58254801289e-38
0.0240828867336 -0.00555758924622 1.001 1.52730322224e-38
0.0259354164824 -0.00555758924622 1.001 1.66584763959e-38
0.0278712267892 -0.00557424535785 1.004 1.81339231671e-38
0.0297293085752 -0.00557424535785 1.004 1.78584166787e-38
0.0317761596263 -0.0056075575811 1.01 1.71176636857e-38
0.0336453454866 -0.0056075575811 1.01 1.72094893728e-38
0.035514531347 -0.0056075575811 1.01 1.71183517233e-38
0.0373837172074 -0.0056075575811 1.01 1.69339632662e-38
0.0392529030677 -0.0056075575811 1.01 1.70279511568e-38
0.0411220889281 -0.0056075575811 1.01 1.69357569282e-38
0.0429912747885 -0.0056075575811 1.01 1.64751445178e-38
0.0449937095418 -0.00562421369273 1.013 1.61042152091e-38
0.0468684474394 -0.00562421369273 1.013 1.59219791464e-38
0.0485988323696 -0.0056075575811 1.01 1.57368732244e-38
0.0504680182299 -0.0056075575811 1.01 1.53673788454e-38
0.0523372040903 -0.0056075575811 1.01 1.52751846168e-38
0.0542063899507 -0.0056075575811 1.01 1.49993193959e-38
0.0559090146948 -0.00559090146948 1.007 1.49082013646e-38
0.0577726485179 -0.00559090146948 1.007 1.44497413486e-38
0.0594586171504 -0.00557424535785 1.004 1.40802469695e-38
0.0613166989363 -0.00557424535785 1.004 1.39873352762e-38
0.0629860114572 -0.00555758924622 1.001 1.3988052741e-38
0.0646442199036 -0.0055409331346 0.998 1.36185583619e-38
0.0662913242756 -0.00552427702297 0.995 1.36181996295e-38
0.0681327499499 -0.00552427702297 0.995 1.3248346518e-38
0.0699741756243 -0.00552427702297 0.995 1.32490639828e-38
0.0715990718474 -0.00550762091134 0.992 1.29714050999e-38
0.0734349454845 -0.00550762091134 0.992 1.45265100837e-38
0.0752708191217 -0.00550762091134 0.992 2.34813075343e-38
0.078972177261 -0.00564086980436 1.016 2.3484264274e-38
0.0808524671958 -0.00564086980436 1.016 1.82110506346e-38
0.0824884674934 -0.00562421369273 1.013 2.25608982691e-38
0.084363205391 -0.00562421369273 1.013 2.3509851984e-38
0.0147314053946 -0.00368285134865 0.995 2.29238962285e-38
0.0165728310689 -0.00368285134865 0.995 2.34942387165e-38
0.0184142567432 -0.00368285134865 0.995 1.96979964611e-38
0.0203167548268 -0.00369395542306 0.998 1.43467851478e-38
0.0222303569849 -0.00370505949748 1.001 1.57343620976e-38
0.0241550632173 -0.0037161635719 1.004 1.65655450843e-38
0.0260131450033 -0.0037161635719 1.004 1.90580178472e-38
0.0279545073474 -0.00372726764632 1.007 1.8317235427e-38
0.0299069737659 -0.00373837172074 1.01 1.82257670711e-38
0.0317761596263 -0.00373837172074 1.01 1.77633525908e-38
0.0336453454866 -0.00373837172074 1.01 1.77637155271e-38
0.035514531347 -0.00373837172074 1.01 1.77637113232e-38
0.0373837172074 -0.00373837172074 1.01 1.74882048348e-38
0.0392529030677 -0.00373837172074 1.01 1.72130570787e-38
0.0411220889281 -0.00373837172074 1.01 1.68460738265e-38
0.0429912747885 -0.00373837172074 1.01 1.68453563617e-38
0.0449937095418 -0.00374947579515 1.013 1.69353981958e-38
0.0468684474394 -0.00374947579515 1.013 1.68432039672e-38
0.0485988323696 -0.00373837172074 1.01 1.64729921233e-38
0.0504680182299 -0.00373837172074 1.01 1.6474427053e-38
0.0523372040903 -0.00373837172074 1.01 1.57357970272e-38
0.0542063899507 -0.00373837172074 1.01 1.58276325234e-38
0.0559090146948 -0.00372726764632 1.007 1.49074838998e-38
0.0577726485179 -0.00372726764632 1.007 1.47259653019e-38
0.0594586171504 -0.0037161635719 1.004 1.45405006475e-38
0.0613166989363 -0.0037161635719 1.004 1.41706475361e-38
0.0629860114572 -0.00370505949748 1.001 1.40795295047e-38
0.0648385412059 -0.00370505949748 1.001 1.41717237333e-38
0.0664911976151 -0.00369395542306 0.998 1.37121875201e-38
0.0683381753267 -0.00369395542306 0.998 1.26969748087e-38
0.0701851530382 -0.00369395542306 0.998 1.05668217767e-38
0.0720321307497 -0.00369395542306 0.998 1.68424865024e-38
0.0738791084613 -0.00369395542306 0.998 2.34899479406e-38
0.0757260861728 -0.00369395542306 0.998 2.34853040375e-38
0.0787389916982 -0.00374947579515 1.013 2.01550215474e-38
0.0806137295958 -0.00374947579515 1.013 1.71137610695e-38
0.0824884674934 -0.00374947579515 1.013 2.35086790972e-38
0.0185252974874 -0.00185252974874 1.001 2.34943087814e-38
0.0203778272361 -0.00185252974874 1.001 2.17288100436e-38
0.0222969814314 -0.00185808178595 1.004 1.57322097032e-38
0.0241550632173 -0.00185808178595 1.004 1.7580092179e-38
0.0260131450033 -0.00185808178595 1.004 1.92402539099e-38
0.0279545073474 -0.00186363382316 1.007 1.81314120403e-38
0.0299069737659 -0.00186918586037 1.01 1.89629537594e-38
0.0317761596263 -0.00186918586037 1.01 1.81314120403e-38
0.0336453454866 -0.00186918586037 1.01 1.86852948765e-38
0.035514531347 -0.00186918586037 1.01 1.83161592298e-38
0.0373837172074 -0.00186918586037 1.01 1.79491759776e-38
0.0392529030677 -0.00186918586037 1.01 1.80417289386e-38
0.0411220889281 -0.00186918586037 1.01 1.76736694891e-38
0.0429912747885 -0.00186918586037 1.01 1.71201453853e-38
0.0448604606488 -0.00186918586037 1.01 1.73960106062e-38
0.0467296465092 -0.00186918586037 1.01 1.74885789815e-38
0.0485988323696 -0.00186918586037 1.01 1.72105459519e-38
0.0504680182299 -0.00186918586037 1.01 1.68428452348e-38
0.0523372040903 -0.00186918586037 1.01 1.5736514492e-38
0.0542063899507 -0.00186918586037 1.01 1.61989205645e-38
0.056075575811 -0.00186918586037 1.01 1.53709661694e-38
0.0577726485179 -0.00186363382316 1.007 1.51876539095e-38
0.0596362823411 -0.00186363382316 1.007 1.4908560097e-38
0.0613166989363 -0.00185808178595 1.004 1.45397831827e-38
0.0631747807223 -0.00185808178595 1.004 1.44472302218e-38
0.0648385412059 -0.00185252974874 1.001 1.40791721736e-38
0.0664911976151 -0.00184697771153 0.998 1.36192758267e-38
0.0683381753267 -0.00184697771153 0.998 1.1584545615e-38
0.0701851530382 -0.00184697771153 0.998 1.71194839725e-38
0.0720321307497 -0.00184697771153 0.998 2.34874676423e-38
0.0738791084613 -0.00184697771153 0.998 2.34816900887e-38
0.0757260861728 -0.00184697771153 0.998 1.76560944038e-38
0.0775730638843 -0.00184697771153 0.998 1.54564075407e-38
0.0806137295958 -0.00187473789758 1.013 1.86793898048e-38
0.0822441778562 -0.00186918586037 1.01 2.35098351684e-38
0.0204388996454 0.0 1.004 2.34971169835e-38
0.0222969814314 0.0 1.004 2.34876526137e-38
0.0242272397011 0.0 1.007 2.08990493748e-38
0.0260908735242 0.0 1.007 1.8962595027e-38
0.0279545073474 0.0 1.007 1.88700672894e-38
0.0299069737659 0.0 1.01 1.9146278631e-38
0.0317761596263 0.0 1.01 1.8962595027e-38
0.0336453454866 0.0 1.01 1.90544333258e-38
0.035514531347 0.0 1.01 1.84072912742e-38
0.0372726764632 0.0 1.007 1.8500909222e-38
0.0391363102863 0.0 1.007 1.86878060033e-38
0.0409999441095 0.0 1.007 1.81339231671e-38
0.0428635779327 0.0 1.007 1.77658637177e-38
0.0447272117558 0.0 1.007 1.73038163776e-38
0.0467296465092 0.0 1.01 1.70257987623e-38
0.0485988323696 0.0 1.01 1.68424865024e-38
0.0504680182299 0.0 1.01 1.73045814866e-38
0.0523372040903 0.0 1.01 1.68432039672e-38
0.0542063899507 0.0 1.01 1.65676974788e-38
0.0559090146948 0.0 1.007 1.60156083046e-38
0.0577726485179 0.0 1.007 1.54620842008e-38
0.0596362823411 0.0 1.007 1.52755433492e-38
0.0613166989363 0.0 1.004 1.54602905388e-38
0.0631747807223 0.0 1.004 1.44468714894e-38
0.0648385412059 0.0 1.001 1.27830705863e-38
0.0666910709547 0.0 1.001 1.46201392419e-38
0.0685436007034 0.0 1.001 2.32979336172e-38
0.0701851530382 0.0 0.998 2.34957254942e-38
0.0720321307497 0.0 0.998 2.348201519e-38
0.0738791084613 0.0 0.998 1.71111770752e-38
0.0757260861728 0.0 0.998 1.56458715009e-38
0.0778062494471 0.0 1.001 1.42621761479e-38
0.0798975167958 0.0 1.004 2.3490372534e-38
0.0817555985818 0.0 1.004 2.3509837971e-38
0.0242272397011 0.00186363382316 1.007 2.34957100799e-38
0.0260908735242 0.00186363382316 1.007 2.34790360295e-38
0.0280377879055 0.00186918586037 1.01 2.01525104206e-38
0.0299069737659 0.00186918586037 1.01 1.84040486695e-38
0.0317761596263 0.00186918586037 1.01 1.91459072869e-38
0.0336453454866 0.00186918586037 1.01 1.89626356647e-38
0.035514531347 0.00186918586037 1.01 1.88707889581e-38
0.0372726764632 0.00186363382316 1.007 1.90540717907e-38
0.0391363102863 0.00186363382316 1.007 1.85934607816e-38
0.0409999441095 0.00186363382316 1.007 1.84087135921e-38
0.0428635779327 0.00186363382316 1.007 1.82272132111e-38
0.0447272117558 0.00186363382316 1.007 1.80424548112e-38
0.046590845579 0.00186363382316 1.007 1.77658637177e-38
0.0484544794021 0.00186363382316 1.007 1.73956518738e-38
0.0503181132253 0.00186363382316 1.007 1.7394934409e-38
0.0521817470484 0.00186363382316 1.007 1.7396728071e-38
0.0540453808716 0.00186363382316 1.007 1.69332458014e-38
0.0559090146948 0.00186363382316 1.007 1.64751445178e-38
0.0577726485179 0.00186363382316 1.007 1.61045739415e-38
0.0596362823411 0.00186363382316 1.007 1.50882850328e-38
0.0613166989363 0.00185808178595 1.004 1.42542321869e-38
0.0631747807223 0.00185808178595 1.004 1.56364281505e-38
0.0650328625082 0.00185808178595 1.004 2.14576209557e-38
0.0666910709547 0.00185252974874 1.001 2.34946436918e-38
0.0685436007034 0.00185252974874 1.001 2.34877941449e-38
0.0701851530382 0.00184697771153 0.998 1.90443860158e-38
0.0720321307497 0.00184697771153 0.998 1.4445090439e-38
0.0738791084613 0.00184697771153 0.998 1.4912607047e-38
0.0759537196984 0.00185252974874 1.001 1.47264389408e-38
0.0778062494471 0.00185252974874 1.001 1.61029091989e-38
0.0798975167958 0.00185808178595 1.004 2.35097903269e-38
0.0261686020451 0.00373837172074 1.01 2.34895247485e-38
0.0280377879055 0.00373837172074 1.01 2.34967974875e-38
0.0299069737659 0.00373837172074 1.01 2.34895275511e-38
0.0317761596263 0.00373837172074 1.01 2.21855100287e-38
0.0336453454866 0.00373837172074 1.01 1.95132492715e-38
