# .PCD v0.7 - Point Cloud Data file format
VERSION 0.7
FIELDS x y z rgb
SIZE 4 4 4 4
TYPE F F F F
COUNT 1 1 1 1
WIDTH 855
HEIGHT 1
VIEWPOINT 0 0 0 1 0 0 0
POINTS 855
DATA ascii
0.0336083319052 -0.124350828049 0.908 2.22776958495e-38
0.0352887485005 -0.124350828049 0.908 2.17252549494e-38
0.0369691650957 -0.124350828049 0.908 2.12686152201e-38
0.038649581691 -0.124350828049 0.908 2.13619080667e-38
0.0403299982863 -0.124350828049 0.908 2.18185519999e-38
0.0420104148815 -0.124350828049 0.908 2.32886360019e-38
0.0184438676083 -0.12240021231 0.906 2.34741076628e-38
0.0201205828455 -0.12240021231 0.906 2.32003696129e-38
0.0217972980826 -0.12240021231 0.906 2.13590143854e-38
0.0234740133197 -0.12240021231 0.906 2.10828002412e-38
0.0251507285568 -0.12240021231 0.906 1.96987909973e-38
0.026827443794 -0.12240021231 0.906 1.94224899726e-38
0.0285041590311 -0.12240021231 0.906 1.79441649343e-38
0.0301808742682 -0.12240021231 0.906 1.78516007629e-38
0.03192791531 -0.122670411454 0.908 1.8866454742e-38
0.0336083319052 -0.122670411454 0.908 1.79416650178e-38
0.0352887485005 -0.122670411454 0.908 1.84058871731e-38
0.0369691650957 -0.122670411454 0.908 1.83172662556e-38
0.038649581691 -0.122670411454 0.908 1.68418208856e-38
0.0403299982863 -0.122670411454 0.908 1.94192753939e-38
0.0420104148815 -0.122670411454 0.908 1.88678896716e-38
0.0436908314768 -0.122670411454 0.908 1.95122165146e-38
0.0453712480721 -0.122670411454 0.908 1.93285399171e-38
0.0150904371341 -0.120723497073 0.906 2.3480527011e-38
0.0167671523712 -0.120723497073 0.906 2.17260018415e-38
0.0184438676083 -0.120723497073 0.906 2.03441029531e-38
0.0201205828455 -0.120723497073 0.906 1.84970612564e-38
0.0217972980826 -0.120723497073 0.906 1.80363479525e-38
0.0234740133197 -0.120723497073 0.906 1.84072772612e-38
0.0251507285568 -0.120723497073 0.906 1.84966352616e-38
0.026827443794 -0.120723497073 0.906 1.72088083418e-38
0.0285670821194 -0.120989994859 0.908 1.8594584623e-38
0.0302474987147 -0.120989994859 0.908 1.70279875905e-38
0.03192791531 -0.120989994859 0.908 1.84101471204e-38
0.0336083319052 -0.120989994859 0.908 1.80392626533e-38
0.0352887485005 -0.120989994859 0.908 1.76704899429e-38
0.0369691650957 -0.120989994859 0.908 1.74871720778e-38
0.038649581691 -0.120989994859 0.908 1.74860916767e-38
0.0403299982863 -0.120989994859 0.908 1.74853349755e-38
0.0420104148815 -0.120989994859 0.908 1.77612338276e-38
0.0436908314768 -0.120989994859 0.908 1.70240051003e-38
0.0453712480721 -0.120989994859 0.908 1.68403537262e-38
0.0469480266394 -0.120723497073 0.906 1.78541329093e-38
0.0486247418765 -0.120723497073 0.906 1.76704451014e-38
0.0503014571137 -0.120723497073 0.906 1.8866117029e-38
0.0519781723508 -0.120723497073 0.906 2.05267173664e-38
0.0100602914227 -0.119046781836 0.906 2.34827859041e-38
0.0117370066599 -0.119046781836 0.906 2.30110023424e-38
0.0134433327621 -0.119309578264 0.908 2.03376948152e-38
0.0150904371341 -0.119046781836 0.906 1.96901043481e-38
0.0167671523712 -0.119046781836 0.906 1.82175302387e-38
0.0184438676083 -0.119046781836 0.906 1.93289140638e-38
0.0201649991431 -0.119309578264 0.908 1.89611839194e-38
0.0217972980826 -0.119046781836 0.906 1.92391973309e-38
0.0234740133197 -0.119046781836 0.906 1.82236609195e-38
0.0251507285568 -0.119046781836 0.906 1.84069731794e-38
0.0268866655242 -0.119309578264 0.908 1.89619266076e-38
0.0285670821194 -0.119309578264 0.908 1.81343141294e-38
0.0302474987147 -0.119309578264 0.908 1.77637547635e-38
0.03192791531 -0.119309578264 0.908 1.78552315273e-38
0.0336083319052 -0.119309578264 0.908 1.83143949951e-38
0.0352887485005 -0.119309578264 0.908 1.81325176648e-38
0.0369691650957 -0.119309578264 0.908 1.76740604514e-38
0.038649581691 -0.119309578264 0.908 1.74896537774e-38
0.0403299982863 -0.119309578264 0.908 1.78577258385e-38
0.0420104148815 -0.119309578264 0.908 1.73034996842e-38
0.0436908314768 -0.119309578264 0.908 1.83168766946e-38
0.0453712480721 -0.119309578264 0.908 1.68414229169e-38
0.0469480266394 -0.119046781836 0.906 1.7394972244e-38
0.0486247418765 -0.119046781836 0.906 1.72109313089e-38
0.0503014571137 -0.119046781836 0.906 1.67496224532e-38
0.0519781723508 -0.119046781836 0.906 1.61045907571e-38
0.0536548875879 -0.119046781836 0.906 1.68400062041e-38
0.00838357618561 -0.117370066599 0.906 2.3475934956e-38
0.0100602914227 -0.117370066599 0.906 2.04359832908e-38
0.0117370066599 -0.117370066599 0.906 1.93263496876e-38
0.013413721897 -0.117370066599 0.906 1.89572560798e-38
0.0151237493574 -0.117629161668 0.908 1.95154549153e-38
0.0167671523712 -0.117370066599 0.906 1.92377904272e-38
0.0184438676083 -0.117370066599 0.906 1.90530292247e-38
0.0201649991431 -0.117629161668 0.908 1.94232410686e-38
0.0218454157384 -0.117629161668 0.908 1.88711939334e-38
0.0235258323337 -0.117629161668 0.908 1.83183550645e-38
0.0252062489289 -0.117629161668 0.908 1.97005510282e-38
0.0268866655242 -0.117629161668 0.908 1.77640924764e-38
0.0285670821194 -0.117629161668 0.908 1.82250664219e-38
0.0302474987147 -0.117629161668 0.908 1.87789646723e-38
0.03192791531 -0.117629161668 0.908 1.73038724296e-38
0.0336083319052 -0.117629161668 0.908 1.80388815001e-38
0.0352887485005 -0.117629161668 0.908 1.79484585128e-38
0.0369691650957 -0.117629161668 0.908 1.73027962324e-38
0.038649581691 -0.117629161668 0.908 1.78563035206e-38
0.0403299982863 -0.117629161668 0.908 1.78563035206e-38
0.0420104148815 -0.117629161668 0.908 1.76726731659e-38
0.0436908314768 -0.117629161668 0.908 1.74857385495e-38
0.0453712480721 -0.117629161668 0.908 1.73949792505e-38
0.0469480266394 -0.117370066599 0.906 1.64726474039e-38
0.0486247418765 -0.117370066599 0.906 1.71169392144e-38
0.0503014571137 -0.117370066599 0.906 1.69332682221e-38
0.0518060591973 -0.116981423994 0.903 1.69329024832e-38
0.0534772223972 -0.116981423994 0.903 1.65644955118e-38
0.0551483855971 -0.116981423994 0.903 1.63790042327e-38
0.00668465279965 -0.115310260794 0.903 2.18185071583e-38
0.00835581599956 -0.115310260794 0.903 1.978875576e-38
0.0100602914227 -0.115693351361 0.906 1.8593110457e-38
0.0117370066599 -0.115693351361 0.906 1.9975721205e-38
0.013413721897 -0.115693351361 0.906 1.92374373e-38
0.0150904371341 -0.115693351361 0.906 1.93306923115e-38
0.0168041659526 -0.115948745073 0.908 1.9975693179e-38
0.0184845825479 -0.115948745073 0.908 1.92374218857e-38
0.0201649991431 -0.115948745073 0.908 1.87764619533e-38
0.0218454157384 -0.115948745073 0.908 1.96991020856e-38
0.0235258323337 -0.115948745073 0.908 1.76725988971e-38
0.0252062489289 -0.115948745073 0.908 1.90529955935e-38
0.0268866655242 -0.115948745073 0.908 1.82225594989e-38
0.0285670821194 -0.115948745073 0.908 1.85942216867e-38
0.0302474987147 -0.115948745073 0.908 1.77626407312e-38
0.03192791531 -0.115948745073 0.908 1.79484585128e-38
0.0336083319052 -0.115948745073 0.908 1.78573600996e-38
0.0352887485005 -0.115948745073 0.908 1.77647959283e-38
0.0369691650957 -0.115948745073 0.908 1.73027794168e-38
0.038649581691 -0.115948745073 0.908 1.93310580504e-38
0.0403299982863 -0.115948745073 0.908 1.72098368948e-38
0.0420104148815 -0.115948745073 0.908 1.7761940082e-38
0.0436908314768 -0.115948745073 0.908 1.76693913249e-38
0.0453712480721 -0.115948745073 0.908 1.73949792505e-38
0.0469480266394 -0.115693351361 0.906 1.73027766142e-38
0.0486247418765 -0.115693351361 0.906 1.72094725572e-38
0.0503014571137 -0.115693351361 0.906 1.71183853545e-38
0.0518060591973 -0.115310260794 0.903 1.66574100077e-38
0.0534772223972 -0.115310260794 0.903 1.67492539117e-38
0.0551483855971 -0.115310260794 0.903 1.67485266378e-38
0.056819548797 -0.115310260794 0.903 1.63782867679e-38
0.00167116319991 -0.113639097594 0.903 2.3489597616e-38
0.00334232639983 -0.113639097594 0.903 2.34874326099e-38
0.00501348959974 -0.113639097594 0.903 2.05235350176e-38
0.00668465279965 -0.113639097594 0.903 1.95118143419e-38
0.00835581599956 -0.113639097594 0.903 1.96050847677e-38
0.0100602914227 -0.114016636124 0.906 2.04359804882e-38
0.0117370066599 -0.114016636124 0.906 1.94214782351e-38
0.013413721897 -0.114016636124 0.906 1.9605541591e-38
0.0150904371341 -0.114016636124 0.906 1.91448745299e-38
0.0168041659526 -0.114268328478 0.908 1.96994972517e-38
0.0184845825479 -0.114268328478 0.908 1.94228851388e-38
0.0201649991431 -0.114268328478 0.908 1.85016547127e-38
0.0218454157384 -0.114268328478 0.908 1.85916657183e-38
0.0235258323337 -0.114268328478 0.908 1.85009246362e-38
0.0252062489289 -0.114268328478 0.908 1.87778716595e-38
0.0268866655242 -0.114268328478 0.908 1.84090849362e-38
0.0285670821194 -0.114268328478 0.908 1.78569915581e-38
0.0302474987147 -0.114268328478 0.908 1.91455751792e-38
0.03192791531 -0.114268328478 0.908 1.82236160779e-38
0.0336083319052 -0.114268328478 0.908 1.76729660373e-38
0.0352887485005 -0.114268328478 0.908 1.77647875205e-38
0.0370505949748 -0.114520020831 0.91 1.82254559828e-38
0.038649581691 -0.114268328478 0.908 1.70254400299e-38
0.0403299982863 -0.114268328478 0.908 1.73924316899e-38
0.0420104148815 -0.114268328478 0.908 1.75775292041e-38
0.0436908314768 -0.114268328478 0.908 1.85956257878e-38
0.0453712480721 -0.114268328478 0.908 1.70265946998e-38
0.0469480266394 -0.114016636124 0.906 1.7300625621e-38
0.0486247418765 -0.114016636124 0.906 1.78552315273e-38
0.0503014571137 -0.114016636124 0.906 1.68421866245e-38
0.0518060591973 -0.113639097594 0.903 1.62900540101e-38
0.0534772223972 -0.113639097594 0.903 1.71205531632e-38
0.0551483855971 -0.113639097594 0.903 1.62876087443e-38
0.056819548797 -0.113639097594 0.903 1.64726502065e-38
0.058490711997 -0.113639097594 0.903 1.63804545767e-38
0.0601618751969 -0.113639097594 0.903 1.58287087206e-38
0.0 -0.111967934394 0.903 2.3488165489e-38
0.00167116319991 -0.111967934394 0.903 2.34870822852e-38
0.00334232639983 -0.111967934394 0.903 2.01579642742e-38
0.00501348959974 -0.111967934394 0.903 1.9696202799e-38
0.00668465279965 -0.111967934394 0.903 2.0253014349e-38
0.00835581599956 -0.111967934394 0.903 1.95151017881e-38
0.0100602914227 -0.112339920887 0.906 2.03430645909e-38
0.0117370066599 -0.112339920887 0.906 1.95129479924e-38
0.013413721897 -0.112339920887 0.906 2.01597495284e-38
0.0150904371341 -0.112339920887 0.906 1.95132492715e-38
0.0168041659526 -0.112587911883 0.908 1.97909614038e-38
0.0184845825479 -0.112587911883 0.908 1.82247160972e-38
0.0201649991431 -0.112587911883 0.908 1.95147080232e-38
0.0218454157384 -0.112587911883 0.908 1.89604622507e-38
0.0235776513476 -0.112835902878 0.91 1.83173040907e-38
0.025261769301 -0.112835902878 0.91 1.88707861555e-38
0.0269458872544 -0.112835902878 0.91 1.7761940082e-38
0.0286300052078 -0.112835902878 0.91 1.9790243939e-38
0.0303141231612 -0.112835902878 0.91 1.65641549962e-38
0.0319982411146 -0.112835902878 0.91 1.92363288729e-38
0.033682359068 -0.112835902878 0.91 1.79484585128e-38
0.0353664770214 -0.112835902878 0.91 1.748748737e-38
0.0370505949748 -0.112835902878 0.91 1.77622763936e-38
0.0387347129282 -0.112835902878 0.91 1.84087290064e-38
0.0404188308816 -0.112835902878 0.91 1.7210218048e-38
0.042102948835 -0.112835902878 0.91 1.87757641066e-38
0.0436908314768 -0.112587911883 0.908 1.73963819503e-38
0.0453712480721 -0.112587911883 0.908 1.75821997319e-38
0.0470516646673 -0.112587911883 0.908 1.71187230674e-38
0.0486247418765 -0.112339920887 0.906 1.67496070389e-38
0.0503014571137 -0.112339920887 0.906 1.65666633205e-38
0.0519781723508 -0.112339920887 0.906 1.70279693736e-38
0.0536548875879 -0.112339920887 0.906 1.62900540101e-38
0.0551483855971 -0.111967934394 0.903 1.61039027195e-38
0.056819548797 -0.111967934394 0.903 1.61978709919e-38
0.058490711997 -0.111967934394 0.903 1.59216414335e-38
0.0600286263038 -0.111719943399 0.901 1.61081766798e-38
0.0616960881456 -0.111719943399 0.901 1.47223779778e-38
-0.00166746184177 -0.110052481557 0.901 2.34882005214e-38
0.0 -0.110052481557 0.901 2.3488165489e-38
0.00167116319991 -0.110296771194 0.903 2.01572327964e-38
0.00334232639983 -0.110296771194 0.903 1.95143254688e-38
0.00501348959974 -0.110296771194 0.903 2.07154022046e-38
0.00670686094849 -0.11066320565 0.906 1.97016174163e-38
0.00838357618561 -0.11066320565 0.906 1.97928041113e-38
0.0100602914227 -0.11066320565 0.906 1.97909445882e-38
0.0117370066599 -0.11066320565 0.906 1.99746366e-38
0.013413721897 -0.11066320565 0.906 1.91463416894e-38
0.0151237493574 -0.110907495287 0.908 1.96966007678e-38
0.0168041659526 -0.110907495287 0.908 1.92367394534e-38
0.0185252974874 -0.111151784924 0.91 1.9146278631e-38
0.0202094154408 -0.111151784924 0.91 1.88689658688e-38
0.0218935333942 -0.111151784924 0.91 1.95136220169e-38
0.0236553798685 -0.11151821938 0.913 1.79466886728e-38
0.0253450498591 -0.11151821938 0.913 1.81303484548e-38
0.0270347198498 -0.11151821938 0.913 1.83154459689e-38
0.0287243898404 -0.11151821938 0.913 1.77608708913e-38
0.030414059831 -0.11151821938 0.913 1.81296309899e-38
0.0321037298216 -0.11151821938 0.913 1.75796942102e-38
0.033682359068 -0.111151784924 0.91 1.75796815985e-38
0.0353664770214 -0.111151784924 0.91 1.75782887079e-38
0.0371727397934 -0.11151821938 0.913 1.82239720078e-38
0.0387347129282 -0.111151784924 0.91 1.69343696427e-38
0.0404188308816 -0.111151784924 0.91 1.71176664883e-38
0.042102948835 -0.111151784924 0.91 1.7298831959e-38
0.0436908314768 -0.110907495287 0.908 1.71155140939e-38
0.0453712480721 -0.110907495287 0.908 1.7118016813e-38
0.0470516646673 -0.110907495287 0.908 1.69350394634e-38
0.0486247418765 -0.11066320565 0.906 1.6749978383e-38
0.0503014571137 -0.11066320565 0.906 1.67496042363e-38
0.0519781723508 -0.11066320565 0.906 1.64726502065e-38
0.0536548875879 -0.11066320565 0.906 1.67488769624e-38
0.0551483855971 -0.110296771194 0.903 1.61042376299e-38
0.056819548797 -0.110296771194 0.903 1.58297975295e-38
0.058490711997 -0.110296771194 0.903 1.56472027344e-38
0.0600286263038 -0.110052481557 0.901 1.48163812827e-38
0.0614906627689 -0.109686047101 0.898 1.55528434997e-38
0.0631525725735 -0.109686047101 0.898 1.4998258613e-38
0.064814482378 -0.109686047101 0.898 1.5829067453e-38
-0.00332381960913 -0.108024137297 0.898 2.18301715667e-38
-0.00166190980456 -0.108024137297 0.898 2.34914375209e-38
0.0 -0.108024137297 0.898 2.2277007812e-38
0.00166746184177 -0.108385019715 0.901 1.94232074374e-38
0.00334232639983 -0.108625607994 0.903 1.96062254246e-38
0.00501348959974 -0.108625607994 0.903 2.15419553012e-38
0.00670686094849 -0.108986490413 0.906 1.94246633865e-38
0.00838357618561 -0.108986490413 0.906 1.96094049709e-38
0.0100602914227 -0.108986490413 0.906 2.01600606167e-38
0.0117629161668 -0.109227078692 0.908 2.00682545478e-38
0.0134433327621 -0.109227078692 0.908 1.93314111776e-38
0.0151237493574 -0.109227078692 0.908 1.95136514442e-38
0.016841179534 -0.109467666971 0.91 1.93288930443e-38
0.0185863698967 -0.10982854939 0.913 1.89622362946e-38
0.020320456185 -0.110069137669 0.915 1.78555622337e-38
0.0220138275337 -0.110069137669 0.915 1.89611685052e-38
0.0237071988825 -0.110069137669 0.915 1.76704408975e-38
0.0254005702312 -0.110069137669 0.915 1.90522781287e-38
0.02709394158 -0.110069137669 0.915 1.71176342585e-38
0.0287873129287 -0.110069137669 0.915 1.82239972311e-38
0.0304806842775 -0.110069137669 0.915 1.75789907584e-38
0.0321740556262 -0.110069137669 0.915 1.73027962324e-38
0.033867426975 -0.110069137669 0.915 1.71176426663e-38
0.0355607983237 -0.110069137669 0.915 1.77651462529e-38
0.0372541696725 -0.110069137669 0.915 1.70272336919e-38
0.038862409784 -0.10982854939 0.913 1.72116221491e-38
0.0405520797746 -0.10982854939 0.913 1.69350394634e-38
0.0422417497652 -0.10982854939 0.913 1.70243722405e-38
0.0437870667884 -0.109467666971 0.91 1.71165678703e-38
0.0454711847418 -0.109467666971 0.91 1.69325297378e-38
0.0470516646673 -0.109227078692 0.908 1.72094697546e-38
0.0487320812626 -0.109227078692 0.908 1.62893253349e-38
0.0503014571137 -0.108986490413 0.906 1.65655492882e-38
0.0519781723508 -0.108986490413 0.906 1.65641101547e-38
0.0536548875879 -0.108986490413 0.906 1.64722998819e-38
0.0551483855971 -0.108625607994 0.903 1.6104942483e-38
0.056819548797 -0.108625607994 0.903 1.67495804142e-38
0.058490711997 -0.108625607994 0.903 1.61056501387e-38
0.0600286263038 -0.108385019715 0.901 1.54603283738e-38
0.0614906627689 -0.108024137297 0.898 1.61975080556e-38
0.0631525725735 -0.108024137297 0.898 1.5735082365e-38
0.064814482378 -0.108024137297 0.898 1.39834032327e-38
0.0664763921826 -0.108024137297 0.898 1.53641502537e-38
-0.00332381960913 -0.106362227492 0.898 2.34920947298e-38
-0.00166190980456 -0.106362227492 0.898 2.34849593181e-38
0.0 -0.106362227492 0.898 1.96951266018e-38
0.00166746184177 -0.106717557874 0.901 2.01604683946e-38
0.00334232639983 -0.106954444794 0.903 2.14504631232e-38
0.00501348959974 -0.106954444794 0.903 1.93296203182e-38
0.00670686094849 -0.107309775176 0.906 2.00678621842e-38
0.00838357618561 -0.107309775176 0.906 1.96050847677e-38
0.0100602914227 -0.107309775176 0.906 2.00653860899e-38
0.0117629161668 -0.107546662097 0.908 1.99749869246e-38
0.0134433327621 -0.107546662097 0.908 2.02533548646e-38
0.0151570615806 -0.107783549018 0.91 1.82232937793e-38
0.016841179534 -0.107783549018 0.91 1.90523229703e-38
0.0186270848362 -0.10837576632 0.915 1.84076598156e-38
0.020320456185 -0.10837576632 0.915 1.82254741997e-38
0.0220138275337 -0.10837576632 0.915 1.77647959283e-38
0.0237071988825 -0.10837576632 0.915 1.85899211017e-38
0.0254838507894 -0.108731096701 0.918 1.66535045889e-38
0.0271827741753 -0.108731096701 0.918 1.7761940082e-38
0.0288816975613 -0.108731096701 0.918 1.77637113232e-38
0.0305806209472 -0.108731096701 0.918 1.71183517233e-38
0.0322795443332 -0.108731096701 0.918 1.73027401804e-38
0.0339784677192 -0.108731096701 0.918 1.77619372794e-38
0.0356773911051 -0.108731096701 0.918 1.75800403309e-38
0.0372541696725 -0.10837576632 0.915 1.6564848639e-38
0.0389475410212 -0.10837576632 0.915 1.69343668401e-38
0.04064091237 -0.10837576632 0.915 1.62893253349e-38
0.0423342837187 -0.10837576632 0.915 1.70243638327e-38
0.0439314197559 -0.108138879399 0.913 1.6747823186e-38
0.0454711847418 -0.107783549018 0.91 1.71161993289e-38
0.0471553026952 -0.107783549018 0.91 1.77640700557e-38
0.0487320812626 -0.107546662097 0.908 1.60127580635e-38
0.0504124978578 -0.107546662097 0.908 1.63808203156e-38
0.0520929144531 -0.107546662097 0.908 1.67474392302e-38
0.0537733310484 -0.107546662097 0.908 1.62872430054e-38
0.055331602825 -0.107309775176 0.906 1.61042348273e-38
0.0570083180621 -0.107309775176 0.906 1.64722746585e-38
0.0586850332993 -0.107309775176 0.906 1.61034977443e-38
0.0601618751969 -0.106954444794 0.903 1.59201854844e-38
0.0614906627689 -0.106362227492 0.898 1.56446817985e-38
0.0631525725735 -0.106362227492 0.898 1.49082111737e-38
0.0646701294106 -0.106125340571 0.896 1.5276622349e-38
0.066328337857 -0.106125340571 0.896 1.42624830322e-38
0.0679865463034 -0.106125340571 0.896 1.73013739144e-38
-0.00332381960913 -0.104700317688 0.898 2.34921507818e-38
-0.00166190980456 -0.104700317688 0.898 2.07072186216e-38
0.0 -0.104700317688 0.898 2.10816427686e-38
0.00166746184177 -0.105050096032 0.901 2.08043902623e-38
0.00334232639983 -0.105283281595 0.903 2.02497941652e-38
0.00503014571137 -0.105633059939 0.906 1.96984378701e-38
0.00670686094849 -0.105633059939 0.906 1.96980455065e-38
0.00840208297631 -0.105866245501 0.908 2.00657532301e-38
0.0100824995716 -0.105866245501 0.908 1.9512213712e-38
0.0117629161668 -0.105866245501 0.908 1.90526634858e-38
0.0134729436272 -0.106099431064 0.91 1.98824115429e-38
0.0151570615806 -0.106099431064 0.91 1.71154986796e-38
0.0168966999061 -0.106449209408 0.913 1.84963031539e-38
0.0186270848362 -0.106682394971 0.915 1.77623058209e-38
0.020320456185 -0.106682394971 0.915 1.79477578636e-38
0.0220860040175 -0.107032173315 0.918 1.77633595973e-38
0.0237849274034 -0.107032173315 0.918 1.73009661366e-38
0.0254838507894 -0.107032173315 0.918 1.77590828344e-38
0.0271827741753 -0.107032173315 0.918 1.74860524403e-38
0.0288816975613 -0.107032173315 0.918 1.65648276195e-38
0.0305806209472 -0.107032173315 0.918 1.70232876355e-38
0.0323498701378 -0.107265358878 0.92 1.67488587455e-38
0.0340524948819 -0.107265358878 0.92 1.67488573442e-38
0.035755119626 -0.107265358878 0.92 1.67488615481e-38
0.0373763144911 -0.107032173315 0.918 1.73034828686e-38
0.039075237877 -0.107032173315 0.918 1.68407222676e-38
0.040774161263 -0.107032173315 0.918 1.62907602645e-38
0.0423342837187 -0.106682394971 0.915 1.6381874092e-38
0.0440276550675 -0.106682394971 0.915 1.7027243501e-38
0.0456210897465 -0.106449209408 0.913 1.62886036662e-38
0.0473107597371 -0.106449209408 0.913 1.71183699402e-38
0.0488394206486 -0.106099431064 0.91 1.6103857878e-38
0.050523538602 -0.106099431064 0.91 1.65644702884e-38
0.0520929144531 -0.105866245501 0.908 1.69321766106e-38
0.0537733310484 -0.105866245501 0.908 1.61031390119e-38
0.0554537476436 -0.105866245501 0.908 1.61042152091e-38
0.0571341642389 -0.105866245501 0.908 1.59205442168e-38
0.0586850332993 -0.105633059939 0.906 1.60113035157e-38
0.0601618751969 -0.105283281595 0.903 1.57354382948e-38
0.0614906627689 -0.104700317688 0.898 1.53698955774e-38
0.0631525725735 -0.104700317688 0.898 1.49089720787e-38
0.0646701294106 -0.104467132125 0.896 1.50018333254e-38
0.066328337857 -0.104467132125 0.896 1.40798882371e-38
0.0679865463034 -0.104467132125 0.896 1.32487052504e-38
0.0696447547499 -0.104467132125 0.896 2.16320910223e-38
-0.0066328337857 -0.102808923678 0.896 2.34965004122e-38
-0.00497462533928 -0.102808923678 0.896 2.3484226439e-38
-0.00331641689285 -0.102808923678 0.896 2.34878207695e-38
-0.00166190980456 -0.103038407883 0.898 1.91388405388e-38
0.0 -0.103038407883 0.898 2.05266991495e-38
0.00166746184177 -0.10338263419 0.901 2.06203619389e-38
0.00334232639983 -0.103612118395 0.903 2.00661021534e-38
0.00503014571137 -0.103956344702 0.906 1.98813451547e-38
0.00670686094849 -0.103956344702 0.906 2.0437035666e-38
0.00840208297631 -0.104185828906 0.908 1.96065505259e-38
0.0100824995716 -0.104185828906 0.908 1.88679162963e-38
0.0117888256738 -0.104415313111 0.91 1.83151138612e-38
0.0134729436272 -0.104415313111 0.91 1.88672128444e-38
0.0152070299155 -0.104759539418 0.913 1.79459585963e-38
0.0169337134875 -0.104989023622 0.915 1.80396003662e-38
0.0186881572455 -0.105333249929 0.918 1.78573544944e-38
0.0203870806315 -0.105333249929 0.918 1.78573544944e-38
0.0220860040175 -0.105333249929 0.918 1.66552618172e-38
0.0237849274034 -0.105333249929 0.918 1.73928086392e-38
0.0255393711615 -0.105562734134 0.92 1.71169209976e-38
0.0272419959056 -0.105562734134 0.92 1.68396166432e-38
0.0289446206497 -0.105562734134 0.92 1.64708453341e-38
0.0306472453938 -0.105562734134 0.92 1.67481763132e-38
0.0324553588448 -0.105906960441 0.923 1.64737095882e-38
0.0341635356261 -0.105906960441 0.923 1.64733508557e-38
0.0358717124074 -0.105906960441 0.923 1.61967681701e-38
0.0374577443701 -0.105562734134 0.92 1.61949843171e-38
0.0391603691142 -0.105562734134 0.92 1.6287889004e-38
0.040774161263 -0.105333249929 0.918 1.66570218481e-38
0.0423342837187 -0.104989023622 0.915 1.57368732244e-38
0.0440276550675 -0.104989023622 0.915 1.69361156606e-38
0.0456210897465 -0.104759539418 0.913 1.53691725074e-38
0.0473107597371 -0.104759539418 0.913 1.57347698755e-38
0.0490004297277 -0.104759539418 0.913 1.61949997314e-38
0.050523538602 -0.104415313111 0.91 1.61956919728e-38
0.0522076565554 -0.104415313111 0.91 1.57343971301e-38
0.0537733310484 -0.104185828906 0.908 1.60102273185e-38
0.0554537476436 -0.104185828906 0.908 1.59183918223e-38
0.0571341642389 -0.104185828906 0.908 1.57361557596e-38
0.0586850332993 -0.103956344702 0.906 1.58272962118e-38
0.0601618751969 -0.103612118395 0.903 1.54599318063e-38
0.0614906627689 -0.103038407883 0.898 1.52766195464e-38
0.0631525725735 -0.103038407883 0.898 1.51855015151e-38
0.0646701294106 -0.102808923678 0.896 1.50929485541e-38
0.066328337857 -0.102808923678 0.896 1.43561318086e-38
0.0679865463034 -0.102808923678 0.896 1.25108123077e-38
0.069489297708 -0.102579439474 0.894 1.8036378781e-38
0.0711438047963 -0.102579439474 0.894 2.34842460571e-38
-0.00827253544143 -0.100924932385 0.894 2.35004885076e-38
-0.00661802835314 -0.100924932385 0.894 2.34950921073e-38
-0.00496352126486 -0.100924932385 0.894 2.34906710106e-38
-0.00330901417657 -0.100924932385 0.894 2.29299568444e-38
-0.00165820844643 -0.101150715232 0.896 1.96937715462e-38
0.0 -0.101376498078 0.898 2.04363139973e-38
0.00166746184177 -0.101715172348 0.901 2.02537206035e-38
0.00334232639983 -0.101940955195 0.903 1.99756959816e-38
0.00503014571137 -0.102279629464 0.906 2.02508507442e-38
0.00672166638105 -0.102505412311 0.908 1.96086889073e-38
0.00840208297631 -0.102505412311 0.908 1.8961909792e-38
0.0101047077204 -0.102731195157 0.91 1.98824171481e-38
0.0117888256738 -0.102731195157 0.91 1.81303540599e-38
0.0135173599249 -0.103069869427 0.913 1.86846012337e-38
0.0152403421387 -0.103295652274 0.915 1.90533823519e-38
0.0169337134875 -0.103295652274 0.915 1.64730131428e-38
0.0186881572455 -0.103634326543 0.918 1.70279693736e-38
0.0203870806315 -0.103634326543 0.918 1.65648430338e-38
0.0220860040175 -0.103634326543 0.918 1.63804643857e-38
0.0238367464174 -0.10386010939 0.92 1.6473018748e-38
0.0255393711615 -0.10386010939 0.92 1.64722998819e-38
0.0273308285009 -0.10419878366 0.923 1.67481454846e-38
0.0290390052822 -0.10419878366 0.923 1.62871687366e-38
0.0307471820635 -0.10419878366 0.923 1.61957031832e-38
0.0325256846495 -0.104424566506 0.925 1.58283499882e-38
0.0342375627889 -0.104424566506 0.925 1.59209029492e-38
0.0359494409284 -0.104424566506 0.925 1.59205442168e-38
0.0375798891887 -0.10419878366 0.923 1.62882449338e-38
0.03928806597 -0.10419878366 0.923 1.60113035157e-38
0.0408629938583 -0.10386010939 0.92 1.60098685861e-38
0.042473084649 -0.103634326543 0.918 1.56414504042e-38
0.0440276550675 -0.103295652274 0.915 1.55503323729e-38
0.0457210264162 -0.103295652274 0.915 1.59205442168e-38
0.047414397765 -0.103295652274 0.915 1.56432440663e-38
0.0491077691137 -0.103295652274 0.915 1.61063676035e-38
0.0506900997183 -0.103069869427 0.913 1.53677375778e-38
0.0522076565554 -0.102731195157 0.91 1.56432440663e-38
0.0538917745088 -0.102731195157 0.91 1.54588556091e-38
0.0554537476436 -0.102505412311 0.908 1.56439615311e-38
0.0571341642389 -0.102505412311 0.908 1.51829903882e-38
0.0586850332993 -0.102279629464 0.906 1.49982431987e-38
0.0601618751969 -0.101940955195 0.903 1.52741084196e-38
0.0614906627689 -0.101376498078 0.898 1.59223476879e-38
0.0631525725735 -0.101376498078 0.898 1.42636026697e-38
0.0646701294106 -0.101150715232 0.896 1.49078426322e-38
0.066328337857 -0.101150715232 0.896 1.44472302218e-38
0.0678347906197 -0.100924932385 0.894 1.28799283362e-38
0.069489297708 -0.100924932385 0.894 1.4903897977e-38
0.0711438047963 -0.100924932385 0.894 2.26490707711e-38
0.0727983118846 -0.100924932385 0.894 2.35022583476e-38
-0.00827253544143 -0.0992704252972 0.894 2.34975443796e-38
-0.00661802835314 -0.0992704252972 0.894 2.33045729693e-38
-0.00496352126486 -0.0992704252972 0.894 2.34906724119e-38
-0.00330901417657 -0.0992704252972 0.894 2.08969964726e-38
-0.00165820844643 -0.0994925067855 0.896 2.08015091926e-38
0.0 -0.0997145882739 0.898 1.99764498802e-38
0.00166746184177 -0.100047710506 0.901 1.9976430262e-38
0.00334232639983 -0.100269791995 0.903 2.0435613348e-38
0.00503014571137 -0.100602914227 0.906 2.00672161856e-38
0.00672166638105 -0.100824995716 0.908 1.92398951775e-38
0.008420589767 -0.101047077204 0.91 1.99746127779e-38
0.0101380199437 -0.101380199437 0.913 1.86820985147e-38
0.0118276899343 -0.101380199437 0.913 1.77622932092e-38
0.01354697079 -0.101602280925 0.915 1.80403192323e-38
0.0152403421387 -0.101602280925 0.915 1.69321794132e-38
0.0169892338596 -0.101935403157 0.918 1.71183825519e-38
0.0186881572455 -0.101935403157 0.918 1.62886218831e-38
0.0204314969292 -0.102157484646 0.92 1.67499335414e-38
0.0221341216733 -0.102157484646 0.92 1.67502922738e-38
0.0238367464174 -0.102157484646 0.92 1.59219945607e-38
0.0256226517196 -0.102490606878 0.923 1.5919489039e-38
0.0273308285009 -0.102490606878 0.923 1.61042152091e-38
0.0291019283706 -0.102712688367 0.925 1.58265563262e-38
0.03081380651 -0.102712688367 0.925 1.57357970272e-38
0.0325256846495 -0.102712688367 0.925 1.55535805827e-38
0.0342375627889 -0.102712688367 0.925 1.55518247557e-38
0.0359494409284 -0.102712688367 0.925 1.61038564767e-38
0.0376613190678 -0.102712688367 0.925 1.52741084196e-38
0.0393731972073 -0.102712688367 0.925 1.57350795624e-38
0.0409962427514 -0.102490606878 0.923 1.56425266014e-38
0.042473084649 -0.101935403157 0.918 1.56432440663e-38
0.0441720080349 -0.101935403157 0.918 1.56425266014e-38
0.0458709314209 -0.101935403157 0.918 1.51822729234e-38
0.0475698548068 -0.101935403157 0.918 1.50900786949e-38
0.0491077691137 -0.101602280925 0.915 1.50000368607e-38
0.0508011404625 -0.101602280925 0.915 1.51826316558e-38
0.0523797697089 -0.101380199437 0.913 1.59191092871e-38
0.0540694396995 -0.101380199437 0.913 1.52751846168e-38
0.0555758924622 -0.101047077204 0.91 1.47220626857e-38
0.0572600104156 -0.101047077204 0.91 1.49071251674e-38
0.0588145808341 -0.100824995716 0.908 1.48152896712e-38
0.0603617485364 -0.100602914227 0.906 1.47223779778e-38
0.0616960881456 -0.100047710506 0.901 1.49993193959e-38
0.0631525725735 -0.0997145882739 0.898 1.43553947256e-38
0.0646701294106 -0.0994925067855 0.896 1.47220192454e-38
0.066328337857 -0.0994925067855 0.896 1.48145722064e-38
0.0678347906197 -0.0992704252972 0.894 1.38940648504e-38
0.069489297708 -0.0992704252972 0.894 1.30628818637e-38
0.0709050671963 -0.0989373030646 0.891 2.20037041647e-38
0.0725540222474 -0.0989373030646 0.891 2.34979661704e-38
-0.00824477525538 -0.0972883480135 0.891 2.3495452241e-38
-0.00659582020431 -0.0972883480135 0.891 2.33960497331e-38
-0.00494686515323 -0.0972883480135 0.891 2.34946408892e-38
-0.00329791010215 -0.0972883480135 0.891 1.96058470741e-38
-0.00165820844643 -0.0978342983391 0.896 2.14446855696e-38
0.0 -0.0980526784693 0.898 2.08072447073e-38
0.00166746184177 -0.0983802486646 0.901 1.95150835712e-38
0.00334232639983 -0.0985986287949 0.903 2.01575859236e-38
0.00504124978578 -0.0991445791204 0.908 1.97884432705e-38
0.0067364718136 -0.0993629592506 0.91 1.96987489584e-38
0.00844834995305 -0.099690529446 0.913 1.73009661366e-38
0.0101380199437 -0.099690529446 0.913 1.84051613005e-38
0.0118535994412 -0.0999089095762 0.915 1.75768117393e-38
0.0135913870877 -0.100236479772 0.918 1.84090709232e-38
0.0152903104736 -0.100236479772 0.918 1.7115495877e-38
0.017026247441 -0.100454859902 0.92 1.67488769624e-38
0.0187288721851 -0.100454859902 0.92 1.62886078701e-38
0.0204314969292 -0.100454859902 0.92 1.59180330899e-38
0.0221341216733 -0.100454859902 0.92 1.60109447833e-38
0.0239144749383 -0.100782430097 0.923 1.59191233001e-38
0.0256781720917 -0.101000810227 0.925 1.53673788454e-38
0.0273900502311 -0.101000810227 0.925 1.54588556091e-38
0.0291019283706 -0.101000810227 0.925 1.54588556091e-38
0.03081380651 -0.101000810227 0.925 1.50000368607e-38
0.0325256846495 -0.101000810227 0.925 1.50918723569e-38
0.0342375627889 -0.101000810227 0.925 1.49053315053e-38
0.0359494409284 -0.101000810227 0.925 1.49968082691e-38
0.0376613190678 -0.101000810227 0.925 1.5735082365e-38
0.0393731972073 -0.101000810227 0.925 1.47227367102e-38
0.0409962427514 -0.100782430097 0.923 1.5181914191e-38
0.0427044195327 -0.100782430097 0.923 1.47220192454e-38
0.0441720080349 -0.100236479772 0.918 1.51808379938e-38
0.0458709314209 -0.100236479772 0.918 1.52755433492e-38
0.0475698548068 -0.100236479772 0.918 1.48156484036e-38
0.0492687781928 -0.100236479772 0.918 1.49071251674e-38
0.0508011404625 -0.0999089095762 0.915 1.4814936544e-38
0.0524945118112 -0.0999089095762 0.915 1.50897199625e-38
0.05418788316 -0.0999089095762 0.915 1.49978844663e-38
0.0557591096901 -0.099690529446 0.913 1.43532451338e-38
0.0572600104156 -0.0993629592506 0.91 1.47227367102e-38
0.0588145808341 -0.0991445791204 0.908 1.45394244503e-38
0.0603617485364 -0.0989261989902 0.906 1.47230954426e-38
0.0616960881456 -0.0983802486646 0.901 1.41717237333e-38
0.0631525725735 -0.0980526784693 0.898 1.50000368607e-38
0.0646701294106 -0.0978342983391 0.896 1.46298516415e-38
0.066328337857 -0.0978342983391 0.896 1.48145722064e-38
0.0678347906197 -0.0976159182089 0.894 1.35267228657e-38
0.069489297708 -0.0976159182089 0.894 1.3155793557e-38
0.0709050671963 -0.0972883480135 0.891 2.08026582574e-38
0.0725540222474 -0.0972883480135 0.891 2.34928416219e-38
0.0742029772985 -0.0972883480135 0.891 2.35058821054e-38
-0.00824477525538 -0.0956393929625 0.891 2.34965214317e-38
-0.00659582020431 -0.0956393929625 0.891 2.3303500976e-38
-0.00494686515323 -0.0956393929625 0.891 2.34914010871e-38
-0.00329791010215 -0.0956393929625 0.891 1.89583098563e-38
-0.00165820844643 -0.0961760898927 0.896 2.14461723473e-38
0.0 -0.0963907686647 0.898 1.96987489584e-38
0.00166746184177 -0.0967127868229 0.901 1.99767455542e-38
0.00335343047424 -0.0972494837531 0.906 1.96054841378e-38
0.0050523538602 -0.0976788412972 0.91 1.95132829027e-38
0.00675867996244 -0.0980008594554 0.913 1.85913490248e-38
0.00846685674374 -0.0982155382274 0.915 1.72119808815e-38
0.0101602280925 -0.0982155382274 0.915 1.73953029505e-38
0.0118924637017 -0.0985375563856 0.918 1.74856937079e-38
0.0135913870877 -0.0985375563856 0.918 1.67470636822e-38
0.0153236226969 -0.0987522351576 0.92 1.70243694379e-38
0.017026247441 -0.0987522351576 0.92 1.6287889004e-38
0.0187899445944 -0.0990742533158 0.923 1.61960563104e-38
0.0204981213757 -0.0990742533158 0.923 1.60130971777e-38
0.022206298157 -0.0990742533158 0.923 1.55514085701e-38
0.0239662939522 -0.0992889320879 0.925 1.51815610638e-38
0.0256781720917 -0.0992889320879 0.925 1.53648733237e-38
0.0273900502311 -0.0992889320879 0.925 1.51847840503e-38
0.0291019283706 -0.0992889320879 0.925 1.47230954426e-38
0.0309137431798 -0.099610950246 0.928 1.46305424817e-38
0.0326311733564 -0.099610950246 0.928 1.50918723569e-38
0.0342375627889 -0.0992889320879 0.925 1.44465127569e-38
0.0359494409284 -0.0992889320879 0.925 1.47230954426e-38
0.0376613190678 -0.0992889320879 0.925 1.47220192454e-38
0.0393731972073 -0.0992889320879 0.925 1.45394244503e-38
0.0410850753467 -0.0992889320879 0.925 1.46301837493e-38
0.0427044195327 -0.0990742533158 0.923 1.4353959796e-38
0.044412596314 -0.0990742533158 0.923 1.49074838998e-38
0.0461207730953 -0.0990742533158 0.923 1.43539611973e-38
0.0476734928347 -0.0987522351576 0.92 1.44468714894e-38
0.0492687781928 -0.0985375563856 0.918 1.45394244503e-38
0.0509677015787 -0.0985375563856 0.918 1.44461540245e-38
0.0524945118112 -0.0982155382274 0.915 1.52733909548e-38
0.05418788316 -0.0982155382274 0.915 1.49960908043e-38
0.0558812545087 -0.0982155382274 0.915 1.40777358427e-38
0.0574487796807 -0.0980008594554 0.913 1.49082013646e-38
0.058944128369 -0.0976788412972 0.91 1.38026020996e-38
0.0603617485364 -0.0972494837531 0.906 1.49082013646e-38
0.0616960881456 -0.0967127868229 0.901 1.45405006475e-38
0.0631525725735 -0.0963907686647 0.898 1.42639179619e-38
0.0646701294106 -0.0961760898927 0.896 1.45397831827e-38
0.066328337857 -0.0961760898927 0.896 1.42635592294e-38
0.0678347906197 -0.0959614111206 0.894 1.40791707723e-38
0.069489297708 -0.0959614111206 0.894 1.16817620972e-38
0.0707459087963 -0.0954247141904 0.889 2.12632258262e-38
0.0723911624893 -0.0954247141904 0.889 2.34946703164e-38
0.0740364161822 -0.0954247141904 0.889 2.35076883792e-38
-0.00824477525538 -0.0939904379114 0.891 2.34990367624e-38
-0.00659582020431 -0.0939904379114 0.891 2.34932886361e-38
-0.00494686515323 -0.0939904379114 0.891 2.34863858399e-38
-0.00329791010215 -0.0939904379114 0.891 2.02558491758e-38
-0.00165820844643 -0.0945178814462 0.896 1.9696953895e-38
0.0 -0.0947288588602 0.898 2.00690000386e-38
0.00166746184177 -0.0950453249811 0.901 1.93310426361e-38
0.00335343047424 -0.095572768516 0.906 1.97920432062e-38
0.0050523538602 -0.0959947233438 0.91 1.85928344012e-38
0.006773485395 -0.0965221668787 0.915 1.80392318247e-38
0.00846685674374 -0.0965221668787 0.915 1.72112872387e-38
0.0101935403157 -0.0968386329996 0.918 1.70272336919e-38
0.0119183732087 -0.0970496104135 0.92 1.72991766784e-38
0.0136209979528 -0.0970496104135 0.92 1.72098929468e-38
0.0153735910318 -0.0973660765345 0.923 1.65666310906e-38
0.0170817678131 -0.0973660765345 0.923 1.61038606806e-38
0.0187899445944 -0.0973660765345 0.923 1.59201854844e-38
0.0205425376733 -0.0975770539484 0.925 1.50900786949e-38
0.0222544158128 -0.0975770539484 0.925 1.56421986976e-38
0.0239662939522 -0.0975770539484 0.925 1.45376714259e-38
0.0256781720917 -0.0975770539484 0.925 1.49042553081e-38
0.0273900502311 -0.0975770539484 0.925 1.43543185284e-38
0.0291963130031 -0.0978935200693 0.928 1.49074838998e-38
0.0309137431798 -0.0978935200693 0.928 1.39862590789e-38
0.0326311733564 -0.0978935200693 0.928 1.44465127569e-38
0.0343486035331 -0.0978935200693 0.928 1.4353959796e-38
0.0359494409284 -0.0975770539484 0.925 1.43543185284e-38
0.0376613190678 -0.0975770539484 0.925 1.46305424817e-38
0.0393731972073 -0.0975770539484 0.925 1.4539451075e-38
0.0410850753467 -0.0975770539484 0.925 1.45376307883e-38
0.0427969534861 -0.0975770539484 0.925 1.44465127569e-38
0.044412596314 -0.0973660765345 0.923 1.41703154283e-38
0.0461207730953 -0.0973660765345 0.923 1.4353959796e-38
0.0478289498766 -0.0973660765345 0.923 1.4629107552e-38
0.0493761175788 -0.0970496104135 0.92 1.46309012141e-38
0.0509677015787 -0.0968386329996 0.918 1.42628445672e-38
0.0526666249647 -0.0968386329996 0.918 1.4538394496e-38
0.0543655483507 -0.0968386329996 0.918 1.45376307883e-38
0.0558812545087 -0.0965221668787 0.915 1.41702888037e-38
0.0574487796807 -0.0963111894648 0.913 1.3802946819e-38
0.058944128369 -0.0959947233438 0.91 1.42624830322e-38
0.0604949974294 -0.0957837459299 0.908 1.45394244503e-38
0.0616960881456 -0.0950453249811 0.901 1.3340899479e-38
0.0631525725735 -0.0947288588602 0.898 1.40766596455e-38
0.0646701294106 -0.0945178814462 0.896 1.38025880866e-38
0.066328337857 -0.0945178814462 0.896 1.37121875201e-38
0.0678347906197 -0.0943069040323 0.894 1.42639179619e-38
0.0692561121452 -0.0939904379114 0.891 1.03892492353e-38
0.0707459087963 -0.0937794604974 0.889 2.10781675485e-38
0.0723911624893 -0.0937794604974 0.889 2.34914291131e-38
0.0740364161822 -0.0937794604974 0.889 2.35080527168e-38
-0.00659582020431 -0.0923414828603 0.891 2.34943704386e-38
-0.00494686515323 -0.0923414828603 0.891 2.34860397192e-38
-0.00329791010215 -0.0923414828603 0.891 2.23800046504e-38
-0.00165820844643 -0.0928596729998 0.896 2.00628847721e-38
0.0 -0.0935851391951 0.903 1.98827940974e-38
0.00167671523712 -0.0938960532788 0.906 2.0252976514e-38
0.00336083319052 -0.0941033293346 0.908 1.92377736116e-38
0.00506900997183 -0.0946215194741 0.913 1.75786054013e-38
0.006773485395 -0.0948287955299 0.915 1.74853756132e-38
0.00849461692979 -0.0951397096136 0.918 1.73935148936e-38
0.0101935403157 -0.0951397096136 0.918 1.71172867365e-38
0.0119572374691 -0.0956578997532 0.923 1.6193180846e-38
0.0136654142505 -0.0956578997532 0.923 1.62857380109e-38
0.0153735910318 -0.0956578997532 0.923 1.64733508557e-38
0.0171187813945 -0.095865175809 0.925 1.5181205134e-38
0.0188306595339 -0.095865175809 0.925 1.55506911053e-38
0.0205425376733 -0.095865175809 0.925 1.56436027987e-38
0.0222544158128 -0.095865175809 0.925 1.49074838998e-38
0.0239662939522 -0.095865175809 0.925 1.49989620648e-38
0.0257614526498 -0.0961760898927 0.928 1.44472302218e-38
0.0274788828265 -0.0961760898927 0.928 1.50003955932e-38
0.0291963130031 -0.0961760898927 0.928 1.44472302218e-38
0.0309137431798 -0.0961760898927 0.928 1.39862730919e-38
0.0326311733564 -0.0961760898927 0.928 1.4814936544e-38
0.0343486035331 -0.0961760898927 0.928 1.40788610854e-38
0.0359494409284 -0.095865175809 0.925 1.37111113229e-38
0.0376613190678 -0.095865175809 0.925 1.40791707723e-38
0.0393731972073 -0.095865175809 0.925 1.38933473856e-38
0.0410850753467 -0.095865175809 0.925 1.40763009131e-38
0.0427969534861 -0.095865175809 0.925 1.44447190949e-38
0.044412596314 -0.0956578997532 0.923 1.39855416141e-38
0.0461207730953 -0.0956578997532 0.923 1.42617655674e-38
0.0478289498766 -0.0956578997532 0.923 1.41692126064e-38
0.0493761175788 -0.0953469856695 0.92 1.40766596455e-38
0.0510787423229 -0.0953469856695 0.92 1.34330937075e-38
0.0526666249647 -0.0951397096136 0.918 1.3893706118e-38
0.0543655483507 -0.0951397096136 0.918 1.41702888037e-38
0.0558812545087 -0.0948287955299 0.915 1.39862590789e-38
0.0575746258575 -0.0948287955299 0.915 1.37100561451e-38
0.058944128369 -0.0943106053904 0.91 1.2880645801e-38
0.0604949974294 -0.0941033293346 0.908 1.36178408971e-38
0.0616960881456 -0.0933778631393 0.901 1.39855416141e-38
0.0631525725735 -0.0930669490556 0.898 1.41695713388e-38
0.0646701294106 -0.0928596729998 0.896 1.37111113229e-38
0.066328337857 -0.0928596729998 0.896 1.35285165278e-38
0.0678347906197 -0.092652396944 0.894 1.35263641333e-38
0.0692561121452 -0.0923414828603 0.891 1.23235343731e-38
0.0707459087963 -0.0921342068045 0.889 2.26440667343e-38
0.0723911624893 -0.0921342068045 0.889 2.34965004122e-38
-0.00659582020431 -0.0906925278092 0.891 2.35030094436e-38
-0.00494686515323 -0.0906925278092 0.891 2.08015792576e-38
-0.00329791010215 -0.0906925278092 0.891 2.34961262655e-38
-0.00166190980456 -0.0914050392511 0.898 1.86803034514e-38
0.0 -0.0919139759952 0.903 1.98823961286e-38
0.00167671523712 -0.0922193380417 0.906 1.93296231208e-38
0.0033682359068 -0.092626487437 0.91 1.95125430171e-38
0.00506900997183 -0.0929318494835 0.913 1.84998582481e-38
0.00679569354383 -0.0934407862277 0.918 1.73953029505e-38
0.00849461692979 -0.0934407862277 0.918 1.74867923259e-38
0.0102157484646 -0.0936443609254 0.92 1.61953374443e-38
0.0119572374691 -0.0939497229719 0.923 1.63790042327e-38
0.0136950251156 -0.0941532976695 0.925 1.58276325234e-38
0.015406903255 -0.0941532976695 0.925 1.57357970272e-38
0.0171187813945 -0.0941532976695 0.925 1.55510498377e-38
0.0188306595339 -0.0941532976695 0.925 1.50900786949e-38
0.0206091621199 -0.094458659716 0.928 1.49071251674e-38
0.0223265922965 -0.094458659716 0.928 1.48152896712e-38
0.0240440224732 -0.094458659716 0.928 1.45390657179e-38
0.0257614526498 -0.094458659716 0.928 1.43553947256e-38
0.0274788828265 -0.094458659716 0.928 1.46305424817e-38
0.0291963130031 -0.094458659716 0.928 1.42621242998e-38
0.0309137431798 -0.094458659716 0.928 1.42617655674e-38
0.0326311733564 -0.094458659716 0.928 1.40773771103e-38
0.0343486035331 -0.094458659716 0.928 1.37100407308e-38
0.0360660337097 -0.094458659716 0.928 1.39891289382e-38
0.0377834638864 -0.094458659716 0.928 1.36189170943e-38
0.0395008940631 -0.094458659716 0.928 1.39869765438e-38
0.0412183242397 -0.094458659716 0.928 1.38926523415e-38
0.0427969534861 -0.0941532976695 0.925 1.40773771103e-38
0.0445088316256 -0.0941532976695 0.925 1.40766596455e-38
0.046220709765 -0.0941532976695 0.925 1.39848241493e-38
0.0479325879045 -0.0941532976695 0.925 1.34320399311e-38
0.0495371266579 -0.0939497229719 0.923 1.37100407308e-38
0.0510787423229 -0.0936443609254 0.92 1.33416169438e-38
0.0526666249647 -0.0934407862277 0.918 1.41699300713e-38
0.0543655483507 -0.0934407862277 0.918 1.3155793557e-38
0.0560644717366 -0.0934407862277 0.918 1.35256466685e-38
0.0575746258575 -0.0931354241812 0.915 1.306396787e-38
0.0591384496713 -0.0929318494835 0.913 1.36174821647e-38
0.0604949974294 -0.0924229127394 0.908 1.34341699048e-38
0.0618330383968 -0.0919139759952 0.903 1.35263641333e-38
0.0631525725735 -0.0914050392511 0.898 1.36164059675e-38
0.0646701294106 -0.0912014645534 0.896 1.47238171114e-38
0.066328337857 -0.0912014645534 0.896 1.3342693141e-38
0.0678347906197 -0.0909978898557 0.894 1.3617845101e-38
0.069489297708 -0.0909978898557 0.894 1.13126264506e-38
0.0711438047963 -0.0909978898557 0.894 2.34805186032e-38
-0.00336083319052 -0.0907424961441 0.908 2.35004604817e-38
0.0 -0.0907424961441 0.908 1.95139751441e-38
0.00168041659526 -0.0907424961441 0.908 1.91455751792e-38
0.00337933998122 -0.0912421794929 0.913 1.91459072869e-38
0.00508011404625 -0.0914420528324 0.915 1.85009120246e-38
0.00679569354383 -0.0917418628417 0.918 1.64737221998e-38
0.00851312372049 -0.0919417361813 0.92 1.71183727428e-38
0.0102490606878 -0.0922415461905 0.923 1.58254815302e-38
0.0119572374691 -0.0922415461905 0.923 1.62868100042e-38
0.0136950251156 -0.0924414195301 0.925 1.59191092871e-38
0.015406903255 -0.0924414195301 0.925 1.67495832168e-38
0.0171187813945 -0.0924414195301 0.925 1.49042553081e-38
0.0188917319432 -0.0927412295394 0.928 1.58283499882e-38
0.0206091621199 -0.0927412295394 0.928 1.4447273662e-38
0.0223265922965 -0.0927412295394 0.928 1.46319774113e-38
0.0240440224732 -0.0927412295394 0.928 1.44475889542e-38
0.0257614526498 -0.0927412295394 0.928 1.43553947256e-38
0.0275381045567 -0.0929411028789 0.93 1.47238171114e-38
0.0292592360915 -0.0929411028789 0.93 1.4168853874e-38
0.0309803676263 -0.0929411028789 0.93 1.39862590789e-38
0.0327014991611 -0.0929411028789 0.93 1.4353959796e-38
0.0344226306959 -0.0929411028789 0.93 1.36167759103e-38
0.0360660337097 -0.0927412295394 0.928 1.38025880866e-38
0.0377834638864 -0.0927412295394 0.928 1.38004412974e-38
0.0395008940631 -0.0927412295394 0.928 1.36178408971e-38
0.0412183242397 -0.0927412295394 0.928 1.39862590789e-38
0.0429357544164 -0.0927412295394 0.928 1.39862590789e-38
0.0445088316256 -0.0924414195301 0.925 1.36181996295e-38
0.046220709765 -0.0924414195301 0.925 1.38018706218e-38
0.0479325879045 -0.0924414195301 0.925 1.35242117389e-38
0.0495371266579 -0.0922415461905 0.923 1.3155793557e-38
0.0512453034392 -0.0922415461905 0.923 1.46323361437e-38
0.052781367067 -0.0919417361813 0.92 1.30635993285e-38
0.0544839918111 -0.0919417361813 0.92 1.35234942741e-38
0.0560644717366 -0.0917418628417 0.918 1.29721225647e-38
0.0575746258575 -0.0914420528324 0.915 1.29731987619e-38
0.0592679972062 -0.0914420528324 0.915 1.30653929905e-38
0.0608281196619 -0.0912421794929 0.913 1.31579459515e-38
0.0618330383968 -0.0902428127953 0.903 1.31572284867e-38
0.0631525725735 -0.0897431294465 0.898 1.42635830515e-38
0.064814482378 -0.0897431294465 0.898 1.39869765438e-38
0.066328337857 -0.089543256107 0.896 1.35263641333e-38
0.0678347906197 -0.0893433827674 0.894 1.26037043829e-38
0.069489297708 -0.0893433827674 0.894 1.57368984478e-38
0.0711438047963 -0.0893433827674 0.894 2.34878235721e-38
0.0 -0.0897486814837 0.915 1.92334379942e-38
0.00169337134875 -0.0897486814837 0.915 1.91469834841e-38
0.0033867426975 -0.0897486814837 0.915 1.72112634167e-38
0.00508011404625 -0.0897486814837 0.915 1.7209133443e-38
0.00681049897639 -0.0902391114372 0.92 1.75771900899e-38
0.00851312372049 -0.0902391114372 0.92 1.64737095882e-38
0.0102490606878 -0.0905333694092 0.923 1.61956919728e-38
0.0119831469761 -0.0907295413906 0.925 1.61953346417e-38
0.0136950251156 -0.0907295413906 0.925 1.59191092871e-38
0.015406903255 -0.0907295413906 0.925 1.64729977285e-38
0.0171743017665 -0.0910237993627 0.928 1.50900786949e-38
0.0188917319432 -0.0910237993627 0.928 1.46301837493e-38
0.0206091621199 -0.0910237993627 0.928 1.48145722064e-38
0.0223265922965 -0.0910237993627 0.928 1.45394244503e-38
0.0240958414871 -0.0912199713441 0.93 1.42624830322e-38
0.0258169730219 -0.0912199713441 0.93 1.43543185284e-38
0.0275381045567 -0.0912199713441 0.93 1.43532423312e-38
0.0293536207241 -0.0915142293162 0.933 1.39862590789e-38
0.0310803042961 -0.0915142293162 0.933 1.43546772608e-38
0.0328069878681 -0.0915142293162 0.933 1.46319774113e-38
0.0346076986028 -0.0917104012975 0.935 1.36174821647e-38
0.0362603550121 -0.0915142293162 0.933 1.39869765438e-38
0.0379870385841 -0.0915142293162 0.933 1.36178408971e-38
0.0395860253003 -0.0912199713441 0.93 1.38004356922e-38
0.0412183242397 -0.0910237993627 0.928 1.38004356922e-38
0.0429357544164 -0.0910237993627 0.928 1.36167646999e-38
0.044653184593 -0.0910237993627 0.928 1.38007944246e-38
0.0463706147697 -0.0910237993627 0.928 1.3801153157e-38
0.0479325879045 -0.0907295413906 0.925 1.37082414636e-38
0.0496444660439 -0.0907295413906 0.925 1.37082414636e-38
0.0513563441834 -0.0907295413906 0.925 1.31579459515e-38
0.0529534802205 -0.0905333694092 0.923 1.3248346518e-38
