# .PCD v0.7 - Point Cloud Data file format
VERSION 0.7
FIELDS x y z rgb
SIZE 4 4 4 4
TYPE F F F F
COUNT 1 1 1 1
WIDTH 848
HEIGHT 1
VIEWPOINT 0 0 0 1 0 0 0
POINTS 848
DATA ascii
-0.00166746184177 -0.10338263419 0.901 2.12642824053e-38
0.0 -0.103612118395 0.903 2.12657313479e-38
0.00167671523712 -0.103956344702 0.906 1.98831598363e-38
0.00336083319052 -0.104185828906 0.908 2.06192787351e-38
0.00504124978578 -0.104185828906 0.908 1.9605499552e-38
0.0067364718136 -0.104415313111 0.91 2.01590236558e-38
0.008420589767 -0.104415313111 0.91 1.85914092807e-38
0.0101047077204 -0.104415313111 0.91 1.88675785833e-38
0.0117888256738 -0.104415313111 0.91 1.79474075389e-38
0.0135173599249 -0.104759539418 0.913 1.86863948958e-38
0.0152070299155 -0.104759539418 0.913 1.77615589288e-38
0.0169337134875 -0.104989023622 0.915 1.8313648103e-38
0.0186270848362 -0.104989023622 0.915 1.85931216674e-38
0.020320456185 -0.104989023622 0.915 1.72084159782e-38
0.0220138275337 -0.104989023622 0.915 1.76707996299e-38
0.0237849274034 -0.105333249929 0.918 1.71176342585e-38
0.0254838507894 -0.105333249929 0.918 1.74871482557e-38
0.0271827741753 -0.105333249929 0.918 1.78548391637e-38
0.0288816975613 -0.105333249929 0.918 1.70265652726e-38
0.0305806209472 -0.105333249929 0.918 1.68403747456e-38
0.0322795443332 -0.105333249929 0.918 1.69336087377e-38
0.0339784677192 -0.105333249929 0.918 1.61971269025e-38
0.0356773911051 -0.105333249929 0.918 1.75786278221e-38
0.0373763144911 -0.105333249929 0.918 1.63808203156e-38
0.0389475410212 -0.104989023622 0.915 1.73016667858e-38
0.04064091237 -0.104989023622 0.915 1.63804391624e-38
0.0422417497652 -0.104759539418 0.913 1.69350478712e-38
0.0439314197559 -0.104759539418 0.913 1.62900568127e-38
0.0454711847418 -0.104415313111 0.91 1.60141929931e-38
0.0471553026952 -0.104415313111 0.91 1.61982115075e-38
0.0487320812626 -0.104185828906 0.908 1.60116622481e-38
0.0504124978578 -0.104185828906 0.908 1.67506510063e-38
0.0519781723508 -0.103956344702 0.906 1.54588556091e-38
0.0533587789368 -0.10338263419 0.901 1.59194680195e-38
0.0550262407785 -0.10338263419 0.901 1.53677375778e-38
0.0566937026203 -0.10338263419 0.901 1.54606492712e-38
0.0581668431598 -0.103038407883 0.898 1.54592339597e-38
0.0592291329458 -0.102005728962 0.889 1.4630905418e-38
0.0607374363875 -0.101776244757 0.887 1.49078426322e-38
0.0623789887223 -0.101776244757 0.887 1.38004356922e-38
0.0640205410571 -0.101776244757 0.887 1.6285034559e-38
-0.00989373030646 -0.100586258116 0.891 2.28388906611e-38
-0.00824477525538 -0.100586258116 0.891 2.34935562841e-38
-0.00661802835314 -0.100924932385 0.894 1.92338808045e-38
-0.00497462533928 -0.101150715232 0.896 2.18156387004e-38
-0.00331641689285 -0.101150715232 0.896 2.08951663768e-38
-0.00166190980456 -0.101376498078 0.898 2.15404937469e-38
0.0 -0.101940955195 0.903 2.0526011112e-38
0.00167671523712 -0.102279629464 0.906 1.95133039222e-38
0.00336083319052 -0.102505412311 0.908 2.09880682611e-38
0.0050523538602 -0.102731195157 0.91 2.02519073232e-38
0.0067364718136 -0.102731195157 0.91 1.89622797348e-38
0.00844834995305 -0.103069869427 0.913 1.86839005845e-38
0.0101380199437 -0.103069869427 0.913 1.85938279218e-38
0.0118276899343 -0.103069869427 0.913 1.7119073392e-38
0.0135173599249 -0.103069869427 0.913 1.73963987659e-38
0.0152403421387 -0.103295652274 0.915 1.78576992138e-38
0.0169337134875 -0.103295652274 0.915 1.69357569282e-38
0.0186881572455 -0.103634326543 0.918 1.720911943e-38
0.0203870806315 -0.103634326543 0.918 1.60098741913e-38
0.0220860040175 -0.103634326543 0.918 1.63786525068e-38
0.0237849274034 -0.103634326543 0.918 1.62871687366e-38
0.0254838507894 -0.103634326543 0.918 1.7763386222e-38
0.0271827741753 -0.103634326543 0.918 1.60109461846e-38
0.0289446206497 -0.10386010939 0.92 1.61031390119e-38
0.0306472453938 -0.10386010939 0.92 1.69332556104e-38
0.0323498701378 -0.10386010939 0.92 1.5921620414e-38
0.0340524948819 -0.10386010939 0.92 1.68424865024e-38
0.035755119626 -0.10386010939 0.92 1.56439615311e-38
0.0373763144911 -0.103634326543 0.918 1.55503323729e-38
0.039075237877 -0.103634326543 0.918 1.60087937902e-38
0.040774161263 -0.103634326543 0.918 1.61034977443e-38
0.0423342837187 -0.103295652274 0.915 1.55499736405e-38
0.0439314197559 -0.103069869427 0.913 1.61027886872e-38
0.0456210897465 -0.103069869427 0.913 1.65655492882e-38
0.0471553026952 -0.102731195157 0.91 1.55514085701e-38
0.0488394206486 -0.102731195157 0.91 1.69328870689e-38
0.0504124978578 -0.102505412311 0.908 1.56446789959e-38
0.0519781723508 -0.102279629464 0.906 1.55521484557e-38
0.0534772223972 -0.101940955195 0.903 1.54595730739e-38
0.0551483855971 -0.101940955195 0.903 1.61961137637e-38
0.0566937026203 -0.101715172348 0.901 1.50904374273e-38
0.0581668431598 -0.101376498078 0.898 1.47238171114e-38
0.0592291329458 -0.100360475269 0.889 1.49074853011e-38
0.0607374363875 -0.100134692423 0.887 1.55525310102e-38
0.0623789887223 -0.100134692423 0.887 1.45376307883e-38
0.0638761880897 -0.0999089095762 0.885 1.37089589284e-38
0.0655140390664 -0.0999089095762 0.885 2.13564780352e-38
-0.00989373030646 -0.0989373030646 0.891 2.3482442586e-38
-0.00824477525538 -0.0989373030646 0.891 2.34892444888e-38
-0.00661802835314 -0.0992704252972 0.894 1.97887781808e-38
-0.00497462533928 -0.0994925067855 0.896 2.12642824053e-38
-0.00331641689285 -0.0994925067855 0.896 2.01579320443e-38
-0.00166190980456 -0.0997145882739 0.898 2.12642403663e-38
0.0 -0.100602914227 0.906 1.99742862754e-38
0.00167671523712 -0.100602914227 0.906 1.99742834728e-38
0.00336083319052 -0.100824995716 0.908 2.05263642392e-38
0.0050523538602 -0.101047077204 0.91 1.91437773132e-38
0.00675867996244 -0.101380199437 0.913 1.79484585128e-38
0.00844834995305 -0.101380199437 0.913 1.79445362784e-38
0.0101380199437 -0.101380199437 0.913 1.82225328742e-38
0.0118535994412 -0.101602280925 0.915 1.69332528078e-38
0.01354697079 -0.101602280925 0.915 1.73045338425e-38
0.0152403421387 -0.101602280925 0.915 1.61056501387e-38
0.0169892338596 -0.101935403157 0.918 1.64729921233e-38
0.0186881572455 -0.101935403157 0.918 1.6934680731e-38
0.0203870806315 -0.101935403157 0.918 1.67495804142e-38
0.0220860040175 -0.101935403157 0.918 1.61964094376e-38
0.0237849274034 -0.101935403157 0.918 1.6103857878e-38
0.0255393711615 -0.102157484646 0.92 1.57350795624e-38
0.0272419959056 -0.102157484646 0.92 1.60113035157e-38
0.0289446206497 -0.102157484646 0.92 1.60109447833e-38
0.0307471820635 -0.102490606878 0.923 1.69350478712e-38
0.0324553588448 -0.102490606878 0.923 1.54613877555e-38
0.0340524948819 -0.102157484646 0.92 1.56425266014e-38
0.035755119626 -0.102157484646 0.92 1.55506911053e-38
0.0374577443701 -0.102157484646 0.92 1.59187505547e-38
0.0391603691142 -0.102157484646 0.92 1.58276339247e-38
0.040774161263 -0.101935403157 0.918 1.56428853338e-38
0.0423342837187 -0.101602280925 0.915 1.51826722935e-38
0.0440276550675 -0.101602280925 0.915 1.55496149081e-38
0.0457210264162 -0.101602280925 0.915 1.52726776939e-38
0.0473107597371 -0.101380199437 0.913 1.51808379938e-38
0.0490004297277 -0.101380199437 0.913 1.54577794119e-38
0.050523538602 -0.101047077204 0.91 1.55499736405e-38
0.0520929144531 -0.100824995716 0.908 1.53666739922e-38
0.0536548875879 -0.100602914227 0.906 1.51815610638e-38
0.055331602825 -0.100602914227 0.906 1.52730322224e-38
0.056819548797 -0.100269791995 0.903 1.49074838998e-38
0.0583611644621 -0.100047710506 0.901 1.47252478371e-38
0.0593623818388 -0.0989373030646 0.891 1.49082013646e-38
0.0608743866387 -0.0987152215763 0.889 1.47220192454e-38
0.0623789887223 -0.0984931400879 0.887 1.47223779778e-38
0.0638761880897 -0.0982710585995 0.885 1.3801153157e-38
0.0655140390664 -0.0982710585995 0.885 1.84985087977e-38
0.067151890043 -0.0982710585995 0.885 2.34882075279e-38
-0.00992704252972 -0.0976159182089 0.894 2.34849411012e-38
-0.00827253544143 -0.0976159182089 0.894 2.31125530408e-38
-0.0066328337857 -0.0978342983391 0.896 2.15383455563e-38
-0.00497462533928 -0.0978342983391 0.896 2.09898829426e-38
-0.00331641689285 -0.0978342983391 0.896 2.03416198522e-38
-0.00166190980456 -0.0980526784693 0.898 2.0895867026e-38
0.0 -0.0989261989902 0.906 2.05285264427e-38
0.00167671523712 -0.0989261989902 0.906 1.99757057907e-38
0.0033682359068 -0.0993629592506 0.91 1.9051960034e-38
0.00506900997183 -0.099690529446 0.913 1.93292699936e-38
0.006773485395 -0.0999089095762 0.915 1.81350203838e-38
0.00846685674374 -0.0999089095762 0.915 1.77623058209e-38
0.0101602280925 -0.0999089095762 0.915 1.75782466689e-38
0.0118535994412 -0.0999089095762 0.915 1.71190761946e-38
0.0135913870877 -0.100236479772 0.918 1.64740725245e-38
0.0152903104736 -0.100236479772 0.918 1.62904043347e-38
0.0169892338596 -0.100236479772 0.918 1.66598917073e-38
0.0186881572455 -0.100236479772 0.918 1.59209029492e-38
0.0203870806315 -0.100236479772 0.918 1.53677375778e-38
0.0221341216733 -0.100454859902 0.92 1.56432440663e-38
0.0238367464174 -0.100454859902 0.92 1.64737095882e-38
0.0256226517196 -0.100782430097 0.923 1.55510498377e-38
0.0273308285009 -0.100782430097 0.923 1.52733909548e-38
0.0290390052822 -0.100782430097 0.923 1.71169238002e-38
0.03081380651 -0.101000810227 0.925 1.50915136245e-38
0.0325256846495 -0.101000810227 0.925 1.50918723569e-38
0.0341635356261 -0.100782430097 0.923 1.46287488196e-38
0.0358717124074 -0.100782430097 0.923 1.57350795624e-38
0.0375798891887 -0.100782430097 0.923 1.55506911053e-38
0.0391603691142 -0.100454859902 0.92 1.50893808482e-38
0.0408629938583 -0.100454859902 0.92 1.49971670015e-38
0.042473084649 -0.100236479772 0.918 1.59216442361e-38
0.0440276550675 -0.0999089095762 0.915 1.47223779778e-38
0.0457210264162 -0.0999089095762 0.915 1.53659817508e-38
0.047414397765 -0.0999089095762 0.915 1.50897199625e-38
0.0490004297277 -0.099690529446 0.913 1.55510498377e-38
0.0506900997183 -0.099690529446 0.913 1.55510498377e-38
0.0522076565554 -0.0993629592506 0.91 1.50904374273e-38
0.0537733310484 -0.0991445791204 0.908 1.46309012141e-38
0.0554537476436 -0.0991445791204 0.908 1.61982087049e-38
0.0570083180621 -0.0989261989902 0.906 1.44465127569e-38
0.0583611644621 -0.0983802486646 0.901 1.49060657857e-38
0.0593623818388 -0.0972883480135 0.891 1.48145722064e-38
0.0608743866387 -0.0970699678833 0.889 1.44469023179e-38
0.0623789887223 -0.0968515877531 0.887 1.48145722064e-38
0.0640205410571 -0.0968515877531 0.887 1.33405407466e-38
0.0655140390664 -0.0966332076229 0.885 1.66495178948e-38
0.067151890043 -0.0966332076229 0.885 2.34849649233e-38
-0.0115167758506 -0.0954247141904 0.889 2.3496536846e-38
-0.00987152215763 -0.0954247141904 0.889 2.34849761336e-38
-0.00827253544143 -0.0959614111206 0.894 2.30210566589e-38
-0.00661802835314 -0.0959614111206 0.894 2.024584951e-38
-0.00497462533928 -0.0961760898927 0.896 2.19096490117e-38
-0.00331641689285 -0.0961760898927 0.896 2.05253104627e-38
-0.00166746184177 -0.0967127868229 0.901 2.08965886947e-38
0.0 -0.0974641625252 0.908 2.01593739805e-38
0.00168041659526 -0.0974641625252 0.908 1.89615342441e-38
0.00337933998122 -0.0980008594554 0.913 1.82211273719e-38
0.00508011404625 -0.0982155382274 0.915 1.859167833e-38
0.006773485395 -0.0982155382274 0.915 1.74889222996e-38
0.00849461692979 -0.0985375563856 0.918 1.69350394634e-38
0.0101935403157 -0.0985375563856 0.918 1.6748142682e-38
0.0118924637017 -0.0985375563856 0.918 1.73942281546e-38
0.0135913870877 -0.0985375563856 0.918 1.63815153596e-38
0.0153236226969 -0.0987522351576 0.92 1.63829558944e-38
0.017026247441 -0.0987522351576 0.92 1.4906766435e-38
0.0187288721851 -0.0987522351576 0.92 1.61985772464e-38
0.0204314969292 -0.0987522351576 0.92 1.53680963102e-38
0.0221341216733 -0.0987522351576 0.92 1.52748258844e-38
0.0239144749383 -0.0990742533158 0.923 1.52769782788e-38
0.0256226517196 -0.0990742533158 0.923 1.51851736113e-38
0.0273308285009 -0.0990742533158 0.923 1.53677375778e-38
0.0291019283706 -0.0992889320879 0.925 1.49046140405e-38
0.03081380651 -0.0992889320879 0.925 1.49975257339e-38
0.0325256846495 -0.0992889320879 0.925 1.50000368607e-38
0.0341635356261 -0.0990742533158 0.923 1.48156484036e-38
0.0358717124074 -0.0990742533158 0.923 1.49071251674e-38
0.0375798891887 -0.0990742533158 0.923 1.47223779778e-38
0.03928806597 -0.0990742533158 0.923 1.47223779778e-38
0.0408629938583 -0.0987522351576 0.92 1.46294662844e-38
0.042473084649 -0.0985375563856 0.918 1.54588556091e-38
0.0441720080349 -0.0985375563856 0.918 1.54617254684e-38
0.0457210264162 -0.0982155382274 0.915 1.46309012141e-38
0.047414397765 -0.0982155382274 0.915 1.48149309388e-38
0.0490004297277 -0.0980008594554 0.913 1.49996781283e-38
0.0506900997183 -0.0980008594554 0.913 1.49986019311e-38
0.0523797697089 -0.0980008594554 0.913 1.49978844663e-38
0.0538917745088 -0.0976788412972 0.91 1.47205843158e-38
0.0554537476436 -0.0974641625252 0.908 1.44454365597e-38
0.0570083180621 -0.0972494837531 0.906 1.43543185284e-38
0.0586850332993 -0.0972494837531 0.906 1.43553947256e-38
0.0600286263038 -0.0967127868229 0.901 1.45379895207e-38
0.0608743866387 -0.0954247141904 0.889 1.52755447505e-38
0.0623789887223 -0.0952100354183 0.887 1.47230954426e-38
0.0640205410571 -0.0952100354183 0.887 1.27870166428e-38
0.0655140390664 -0.0949953566462 0.885 1.58229802125e-38
0.067151890043 -0.0949953566462 0.885 2.34809796304e-38
0.0687897410197 -0.0949953566462 0.885 2.35058386652e-38
-0.0115167758506 -0.0937794604974 0.889 2.34950921073e-38
-0.00987152215763 -0.0937794604974 0.889 2.34835482105e-38
-0.00827253544143 -0.0943069040323 0.894 2.30214490224e-38
-0.00661802835314 -0.0943069040323 0.894 2.18149198343e-38
-0.00497462533928 -0.0945178814462 0.896 2.09880836754e-38
-0.00332381960913 -0.0947288588602 0.898 2.05267538001e-38
-0.00167116319991 -0.095256302395 0.903 1.97902467416e-38
0.0 -0.0957837459299 0.908 1.96058498767e-38
0.0016841179534 -0.0959947233438 0.91 1.90548284919e-38
0.00337933998122 -0.0963111894648 0.913 1.88700827037e-38
0.00508011404625 -0.0965221668787 0.915 1.73942729961e-38
0.006773485395 -0.0965221668787 0.915 1.76712060064e-38
0.00849461692979 -0.0968386329996 0.918 1.65652115753e-38
0.0101935403157 -0.0968386329996 0.918 1.67492300896e-38
0.0118924637017 -0.0968386329996 0.918 1.65655464856e-38
0.0136209979528 -0.0970496104135 0.92 1.58276465364e-38
0.0153236226969 -0.0970496104135 0.92 1.57357970272e-38
0.017026247441 -0.0970496104135 0.92 1.58287087206e-38
0.0187899445944 -0.0973660765345 0.923 1.54617254684e-38
0.0204981213757 -0.0973660765345 0.923 1.47245303723e-38
0.022206298157 -0.0973660765345 0.923 1.49996837335e-38
0.0239662939522 -0.0975770539484 0.925 1.42617893895e-38
0.0256226517196 -0.0973660765345 0.923 1.46301837493e-38
0.0273308285009 -0.0973660765345 0.923 1.43532451338e-38
0.0291019283706 -0.0975770539484 0.925 1.44468714894e-38
0.03081380651 -0.0975770539484 0.925 1.47227367102e-38
0.0325256846495 -0.0975770539484 0.925 1.47227843544e-38
0.0342375627889 -0.0975770539484 0.925 1.43546772608e-38
0.0358717124074 -0.0973660765345 0.923 1.48152896712e-38
0.0375798891887 -0.0973660765345 0.923 1.47230954426e-38
0.03928806597 -0.0973660765345 0.923 1.41710062685e-38
0.0409962427514 -0.0973660765345 0.923 1.41702930076e-38
0.042473084649 -0.0968386329996 0.918 1.44465127569e-38
0.0441720080349 -0.0968386329996 0.918 1.44454365597e-38
0.0458709314209 -0.0968386329996 0.918 1.47227367102e-38
0.047414397765 -0.0965221668787 0.915 1.42617893895e-38
0.0491077691137 -0.0965221668787 0.915 1.41684951416e-38
0.0508011404625 -0.0965221668787 0.915 1.39841066845e-38
0.0523797697089 -0.0963111894648 0.913 1.49989648674e-38
0.0538917745088 -0.0959947233438 0.91 1.50000368607e-38
0.0554537476436 -0.0957837459299 0.908 1.49986019311e-38
0.0570083180621 -0.095572768516 0.906 1.41696091739e-38
0.0586850332993 -0.095572768516 0.906 1.38025922905e-38
0.0600286263038 -0.0950453249811 0.901 1.40788190464e-38
0.0610113368898 -0.0939904379114 0.891 1.4353959796e-38
0.0625196403316 -0.0937794604974 0.889 1.41706489374e-38
0.0638761880897 -0.0933575056696 0.885 1.28799283362e-38
0.065291957578 -0.0930410395486 0.882 1.58219082192e-38
0.0669242565174 -0.0930410395486 0.882 2.34838621014e-38
0.0687897410197 -0.0933575056696 0.885 2.35087085244e-38
-0.0115167758506 -0.0921342068045 0.889 2.35008276219e-38
-0.00987152215763 -0.0921342068045 0.889 2.34810132616e-38
-0.00824477525538 -0.0923414828603 0.891 2.34878529994e-38
-0.00659582020431 -0.0923414828603 0.891 1.94174999488e-38
-0.00496352126486 -0.092652396944 0.894 2.12664347997e-38
-0.00332381960913 -0.0930669490556 0.898 2.00672007714e-38
-0.00167671523712 -0.0938960532788 0.906 1.98824437727e-38
0.0 -0.0943106053904 0.91 1.9422890744e-38
0.00168966999061 -0.0946215194741 0.913 1.87796723281e-38
0.0033867426975 -0.0948287955299 0.915 1.78580607489e-38
0.00508011404625 -0.0948287955299 0.915 1.74857413521e-38
0.00679569354383 -0.0951397096136 0.918 1.68414285221e-38
0.00849461692979 -0.0951397096136 0.918 1.69314703562e-38
0.0102157484646 -0.0953469856695 0.92 1.67488573442e-38
0.0119183732087 -0.0953469856695 0.92 1.55510498377e-38
0.0136654142505 -0.0956578997532 0.923 1.56432440663e-38
0.0153735910318 -0.0956578997532 0.923 1.5735082365e-38
0.0170817678131 -0.0956578997532 0.923 1.50911548921e-38
0.0187899445944 -0.0956578997532 0.923 1.49078426322e-38
0.0205425376733 -0.095865175809 0.925 1.46309012141e-38
0.0222544158128 -0.095865175809 0.925 1.57375906893e-38
0.0239662939522 -0.095865175809 0.925 1.41699482881e-38
0.0256781720917 -0.095865175809 0.925 1.43546772608e-38
0.0273900502311 -0.095865175809 0.925 1.43557604645e-38
0.0291019283706 -0.095865175809 0.925 1.44469023179e-38
0.03081380651 -0.095865175809 0.925 1.4814213474e-38
0.0325256846495 -0.095865175809 0.925 1.42614096376e-38
0.0342375627889 -0.095865175809 0.925 1.44461764453e-38
0.0359494409284 -0.095865175809 0.925 1.44443603625e-38
0.0375798891887 -0.0956578997532 0.923 1.42617655674e-38
0.03928806597 -0.0956578997532 0.923 1.46312599465e-38
0.0409962427514 -0.0956578997532 0.923 1.39859017478e-38
0.042473084649 -0.0951397096136 0.918 1.42624830322e-38
0.0441720080349 -0.0951397096136 0.918 1.38018706218e-38
0.0458709314209 -0.0951397096136 0.918 1.39862590789e-38
0.0475698548068 -0.0951397096136 0.918 1.39862590789e-38
0.0491077691137 -0.0948287955299 0.915 1.41713650009e-38
0.0508011404625 -0.0948287955299 0.915 1.38940648504e-38
0.0523797697089 -0.0946215194741 0.913 1.42624830322e-38
0.0540694396995 -0.0946215194741 0.913 1.43539611973e-38
0.0555758924622 -0.0943106053904 0.91 1.41702888037e-38
0.0571341642389 -0.0941033293346 0.908 1.41695713388e-38
0.0586850332993 -0.0938960532788 0.906 1.39862590789e-38
0.0600286263038 -0.0933778631393 0.901 1.34345286372e-38
0.0610113368898 -0.0923414828603 0.891 1.45401419151e-38
0.0623789887223 -0.0919269307487 0.887 1.4448306419e-38
0.0638761880897 -0.0917196546929 0.885 1.28792108713e-38
0.065291957578 -0.0914087406092 0.882 1.72981102903e-38
0.0669242565174 -0.0914087406092 0.882 2.34834851521e-38
0.0685565554569 -0.0914087406092 0.882 2.350872534e-38
0.0701888543963 -0.0914087406092 0.882 2.35048073095e-38
-0.0115167758506 -0.0904889531116 0.889 2.35026366982e-38
-0.00987152215763 -0.0904889531116 0.889 1.7032027534e-38
-0.00824477525538 -0.0906925278092 0.891 2.34967750667e-38
-0.00659582020431 -0.0906925278092 0.891 2.0891594467e-38
-0.00496352126486 -0.0909978898557 0.894 2.06203591363e-38
-0.00334232639983 -0.0919139759952 0.903 2.01608215218e-38
-0.00168041659526 -0.0924229127394 0.908 1.98831458233e-38
0.0 -0.092626487437 0.91 1.89594084743e-38
0.00168966999061 -0.0929318494835 0.913 1.84083632675e-38
0.0033867426975 -0.0931354241812 0.915 1.8313685938e-38
0.00508011404625 -0.0931354241812 0.915 1.69325549612e-38
0.00679569354383 -0.0934407862277 0.918 1.64715698054e-38
0.00851312372049 -0.0936443609254 0.92 1.64715571937e-38
0.0102157484646 -0.0936443609254 0.92 1.58261975938e-38
0.0119572374691 -0.0939497229719 0.923 1.64719159261e-38
0.0136950251156 -0.0941532976695 0.925 1.4723134679e-38
0.015406903255 -0.0941532976695 0.925 1.52766251516e-38
0.0171187813945 -0.0941532976695 0.925 1.49975257339e-38
0.0188306595339 -0.0941532976695 0.925 1.5368813775e-38
0.0206091621199 -0.094458659716 0.928 1.5276260814e-38
0.0223265922965 -0.094458659716 0.928 1.46294662844e-38
0.0240440224732 -0.094458659716 0.928 1.41692392311e-38
0.0257614526498 -0.094458659716 0.928 1.42628417646e-38
0.0274788828265 -0.094458659716 0.928 1.39869765438e-38
0.0291963130031 -0.094458659716 0.928 1.41695713388e-38
0.0309137431798 -0.094458659716 0.928 1.47195081186e-38
0.0326311733564 -0.094458659716 0.928 1.35209831472e-38
0.0342375627889 -0.0941532976695 0.925 1.4168853874e-38
0.0359494409284 -0.0941532976695 0.925 1.41677776768e-38
0.0376613190678 -0.0941532976695 0.925 1.44450778273e-38
0.0393731972073 -0.0941532976695 0.925 1.40766596455e-38
0.0409962427514 -0.0939497229719 0.923 1.41681602313e-38
0.0425656186024 -0.0936443609254 0.92 1.39855416141e-38
0.0442682433465 -0.0936443609254 0.92 1.38025880866e-38
0.0459708680906 -0.0936443609254 0.92 1.36189170943e-38
0.0475698548068 -0.0934407862277 0.918 1.33423344086e-38
0.0492687781928 -0.0934407862277 0.918 1.35263641333e-38
0.0508011404625 -0.0931354241812 0.915 1.33419756762e-38
0.0524945118112 -0.0931354241812 0.915 1.35260054009e-38
0.0540694396995 -0.0929318494835 0.913 1.36181996295e-38
0.0555758924622 -0.092626487437 0.91 1.36185583619e-38
0.0571341642389 -0.0924229127394 0.908 1.35260054009e-38
0.0586850332993 -0.0922193380417 0.906 1.343345244e-38
0.0600286263038 -0.0917104012975 0.901 1.3708600196e-38
0.0608743866387 -0.0904889531116 0.889 1.35242117389e-38
0.0623789887223 -0.0902853784139 0.887 1.41692168103e-38
0.0638761880897 -0.0900818037162 0.885 1.17725213962e-38
0.065291957578 -0.0897764416697 0.882 1.90448302274e-38
0.0669242565174 -0.0897764416697 0.882 2.34863998529e-38
0.0685565554569 -0.0897764416697 0.882 2.35058372639e-38
0.0701888543963 -0.0897764416697 0.882 2.35033597682e-38
0.0718211533358 -0.0897764416697 0.882 2.35040954499e-38
-0.0115167758506 -0.0888436994186 0.889 2.35026395008e-38
-0.00987152215763 -0.0888436994186 0.889 8.64365734346e-39
-0.00824477525538 -0.0890435727582 0.891 2.34997037805e-38
-0.00659582020431 -0.0890435727582 0.891 1.94239571321e-38
-0.00498572941369 -0.0897431294465 0.898 2.01590208532e-38
-0.00334232639983 -0.0902428127953 0.903 1.96065925648e-38
-0.00168041659526 -0.0907424961441 0.908 1.9329267191e-38
0.0 -0.0909423694836 0.91 1.83140390652e-38
0.00168966999061 -0.0912421794929 0.913 1.84083660701e-38
0.0033867426975 -0.0914420528324 0.915 1.73006130094e-38
0.00509677015787 -0.0917418628417 0.918 1.73938806325e-38
0.00681049897639 -0.0919417361813 0.92 1.56425364105e-38
0.00854088390653 -0.0922415461905 0.923 1.61024383626e-38
0.0102490606878 -0.0922415461905 0.923 1.59191233001e-38
0.0119572374691 -0.0922415461905 0.923 1.59183974275e-38
0.0136950251156 -0.0924414195301 0.925 1.50926024334e-38
0.015406903255 -0.0924414195301 0.925 1.48178007981e-38
0.0171743017665 -0.0927412295394 0.928 1.55535609645e-38
0.0188917319432 -0.0927412295394 0.928 1.45405006475e-38
0.0206091621199 -0.0927412295394 0.928 1.47223779778e-38
0.0223265922965 -0.0927412295394 0.928 1.49074838998e-38
0.0240440224732 -0.0927412295394 0.928 1.42617655674e-38
0.0257614526498 -0.0927412295394 0.928 1.47227367102e-38
0.0274788828265 -0.0927412295394 0.928 1.39862590789e-38
0.0291963130031 -0.0927412295394 0.928 1.39855416141e-38
0.0309137431798 -0.0927412295394 0.928 1.47227367102e-38
0.0326311733564 -0.0927412295394 0.928 1.43536108727e-38
0.0343486035331 -0.0927412295394 0.928 1.41695713388e-38
0.0360660337097 -0.0927412295394 0.928 1.41695713388e-38
0.0377834638864 -0.0927412295394 0.928 1.39851828817e-38
0.0393731972073 -0.0924414195301 0.925 1.39851828817e-38
0.0410850753467 -0.0924414195301 0.925 1.37075239988e-38
0.0427044195327 -0.0922415461905 0.923 1.36181996295e-38
0.044412596314 -0.0922415461905 0.923 1.34338111724e-38
0.0461207730953 -0.0922415461905 0.923 1.38022363607e-38
0.0475698548068 -0.0917418628417 0.918 1.343345244e-38
0.0492687781928 -0.0917418628417 0.918 1.35252879361e-38
0.0509677015787 -0.0917418628417 0.918 1.34341769113e-38
0.0524945118112 -0.0914420528324 0.915 1.2695539879e-38
0.05418788316 -0.0914420528324 0.915 1.33405407466e-38
0.0557591096901 -0.0912421794929 0.913 1.33419756762e-38
0.0571341642389 -0.0907424961441 0.908 1.32508576449e-38
0.0588145808341 -0.0907424961441 0.908 1.33419756762e-38
0.0603617485364 -0.0905426228046 0.906 1.3802946819e-38
0.0608743866387 -0.0888436994186 0.889 1.38015118894e-38
0.0623789887223 -0.0886438260791 0.887 1.38008070363e-38
0.0638761880897 -0.0884439527396 0.885 1.16803271676e-38
0.065291957578 -0.0881441427303 0.882 2.30157036987e-38
0.0669242565174 -0.0881441427303 0.882 2.3495452241e-38
0.0685565554569 -0.0881441427303 0.882 2.35091303153e-38
0.0701888543963 -0.0881441427303 0.882 2.35077051947e-38
-0.008420589767 -0.0892582515302 0.91 2.34870696736e-38
-0.0033682359068 -0.0892582515302 0.91 1.84073249053e-38
-0.0016841179534 -0.0892582515302 0.91 1.92374246883e-38
0.0 -0.0895525095023 0.913 1.82236413013e-38
0.00169337134875 -0.0897486814837 0.915 1.7393140747e-38
0.0033867426975 -0.0897486814837 0.915 1.66559470521e-38
0.00509677015787 -0.0900429394558 0.918 1.70265218323e-38
0.00683270712523 -0.0905333694092 0.923 1.67499335414e-38
0.00854088390653 -0.0905333694092 0.923 1.64726333909e-38
0.0102712688367 -0.0907295413906 0.925 1.56436027987e-38
0.0119831469761 -0.0907295413906 0.925 1.55506911053e-38
0.0137394414132 -0.0910237993627 0.928 1.51829903882e-38
0.0154568715899 -0.0910237993627 0.928 1.49078426322e-38
0.0171743017665 -0.0910237993627 0.928 1.50929485541e-38
0.0188917319432 -0.0910237993627 0.928 1.43550359932e-38
0.0206091621199 -0.0910237993627 0.928 1.41695713388e-38
0.0223265922965 -0.0910237993627 0.928 1.46298250169e-38
0.0240440224732 -0.0910237993627 0.928 1.49982431987e-38
0.0257614526498 -0.0910237993627 0.928 1.4262157931e-38
0.0275381045567 -0.0912199713441 0.93 1.3801153157e-38
0.0292592360915 -0.0912199713441 0.93 1.39855416141e-38
0.0309803676263 -0.0912199713441 0.93 1.43543185284e-38
0.0327014991611 -0.0912199713441 0.93 1.39851828817e-38
0.0345336714401 -0.0915142293162 0.933 1.3801153157e-38
0.0362603550121 -0.0915142293162 0.933 1.36178408971e-38
0.0378648937655 -0.0912199713441 0.93 1.38025880866e-38
0.0395008940631 -0.0910237993627 0.928 1.38025880866e-38
0.0412183242397 -0.0910237993627 0.928 1.36171234323e-38
0.0427969534861 -0.0907295413906 0.925 1.33423344086e-38
0.044412596314 -0.0905333694092 0.923 1.31568697543e-38
0.0461207730953 -0.0905333694092 0.923 1.32487052504e-38
0.0478289498766 -0.0905333694092 0.923 1.3708600196e-38
0.0492687781928 -0.0900429394558 0.918 1.32490639828e-38
0.0509677015787 -0.0900429394558 0.918 1.33419756762e-38
0.0526666249647 -0.0900429394558 0.918 1.29724812971e-38
0.05418788316 -0.0897486814837 0.915 1.36164059675e-38
0.0557591096901 -0.0895525095023 0.913 1.33419756762e-38
0.0572600104156 -0.0892582515302 0.91 1.31579459515e-38
0.058944128369 -0.0892582515302 0.91 1.3342693141e-38
0.0603617485364 -0.0888659075675 0.906 1.2882439463e-38
0.0610113368898 -0.0873946177071 0.891 1.35285165278e-38
0.0625196403316 -0.0871984457257 0.889 1.23274804296e-38
0.0638761880897 -0.0868061017629 0.885 1.30535576237e-38
0.0655140390664 -0.0868061017629 0.885 2.34842208338e-38
0.067151890043 -0.0868061017629 0.885 2.34986528067e-38
0.0687897410197 -0.0868061017629 0.885 2.35062478443e-38
-0.00337933998122 -0.0878628395117 0.913 1.99713505551e-38
-0.00168966999061 -0.0878628395117 0.913 1.90522781287e-38
0.0 -0.0880553101349 0.915 1.73030989128e-38
0.00169337134875 -0.0880553101349 0.915 1.73938932442e-38
0.00339784677192 -0.0883440160698 0.918 1.71183517233e-38
0.00510787423229 -0.0885364866931 0.92 1.74885635672e-38
0.00683270712523 -0.0888251926279 0.923 1.61042152091e-38
0.00854088390653 -0.0888251926279 0.923 1.58287087206e-38
0.0102712688367 -0.0890176632512 0.925 1.5735082365e-38
0.0119831469761 -0.0890176632512 0.925 1.56439615311e-38
0.0137394414132 -0.089306369186 0.928 1.49996781283e-38
0.0154901838131 -0.0894988398093 0.93 1.49996781283e-38
0.0172113153479 -0.0894988398093 0.93 1.47241884554e-38
0.0189324468827 -0.0894988398093 0.93 1.45394244503e-38
0.0206535784175 -0.0894988398093 0.93 1.49067790466e-38
0.0223747099523 -0.0894988398093 0.93 1.44458065025e-38
0.024173570008 -0.0897875457442 0.933 1.40773771103e-38
0.02590025358 -0.0897875457442 0.933 1.39841066845e-38
0.027626937152 -0.0897875457442 0.933 1.39851828817e-38
0.0293536207241 -0.0897875457442 0.933 1.41695713388e-38
0.0310803042961 -0.0897875457442 0.933 1.4168853874e-38
0.0328773136727 -0.0899800163674 0.935 1.38004511065e-38
0.0346076986028 -0.0899800163674 0.935 1.39862590789e-38
0.036338083533 -0.0899800163674 0.935 1.31568823659e-38
0.0379870385841 -0.0897875457442 0.933 1.35260054009e-38
0.0395860253003 -0.0894988398093 0.93 1.38018706218e-38
0.0412183242397 -0.089306369186 0.928 1.36167646999e-38
0.0429357544164 -0.089306369186 0.928 1.32504989125e-38
0.0445088316256 -0.0890176632512 0.925 1.30665042202e-38
0.046220709765 -0.0890176632512 0.925 1.34327349751e-38
0.0478289498766 -0.0888251926279 0.923 1.3801153157e-38
0.0492687781928 -0.0883440160698 0.918 1.3248346518e-38
0.0509677015787 -0.0883440160698 0.918 1.26015519884e-38
0.0526666249647 -0.0883440160698 0.918 1.30628818637e-38
0.05418788316 -0.0880553101349 0.915 1.38004356922e-38
0.0558812545087 -0.0880553101349 0.915 1.33394645494e-38
0.0574487796807 -0.0878628395117 0.913 1.31572284867e-38
0.0591384496713 -0.0878628395117 0.913 1.30650342581e-38
0.0604949974294 -0.0873816629536 0.908 1.26973335411e-38
0.0610113368898 -0.085745662656 0.891 1.29728400295e-38
0.0625196403316 -0.0855531920328 0.889 1.00197548562e-38
0.0638761880897 -0.0851682507863 0.885 2.30095702153e-38
0.0655140390664 -0.0851682507863 0.885 2.34845613493e-38
0.067151890043 -0.0851682507863 0.885 2.35019472593e-38
-0.00337933998122 -0.0861731695211 0.913 1.73002290536e-38
-0.00168966999061 -0.0861731695211 0.913 1.9235963134e-38
0.0 -0.0863619387862 0.915 1.78577258385e-38
0.00169892338596 -0.0866450926839 0.918 1.71173161637e-38
0.00340524948819 -0.086833861949 0.92 1.65659122245e-38
0.00512453034392 -0.0871170158466 0.923 1.60138146425e-38
0.00684751255778 -0.0873057851117 0.925 1.61960563104e-38
0.00855939069723 -0.0873057851117 0.925 1.59180877406e-38
0.0103045810599 -0.0875889390094 0.928 1.54585333105e-38
0.0120220112366 -0.0875889390094 0.928 1.52734329937e-38
0.0137690522784 -0.0877777082745 0.93 1.5274467152e-38
0.0154901838131 -0.0877777082745 0.93 1.49071251674e-38
0.0172113153479 -0.0877777082745 0.93 1.46316186789e-38
0.018993519292 -0.0880608621722 0.933 1.43546772608e-38
0.020720202864 -0.0880608621722 0.933 1.42624830322e-38
0.022446886436 -0.0880608621722 0.933 1.42624830322e-38
0.024173570008 -0.0880608621722 0.933 1.38018706218e-38
0.02590025358 -0.0880608621722 0.933 1.5460305953e-38
0.027626937152 -0.0880608621722 0.933 1.38947823152e-38
0.0293536207241 -0.0880608621722 0.933 1.34338265866e-38
0.0310803042961 -0.0880608621722 0.933 1.35252879361e-38
0.0328773136727 -0.0882496314373 0.935 1.37093176608e-38
0.0346076986028 -0.0882496314373 0.935 1.33416169438e-38
0.036338083533 -0.0882496314373 0.935 1.33416169438e-38
0.0379870385841 -0.0880608621722 0.933 1.3801153157e-38
0.0397137221561 -0.0880608621722 0.933 1.42617949947e-38
0.0413071568351 -0.0877777082745 0.93 1.3155793557e-38
0.0429357544164 -0.0875889390094 0.928 1.2789886502e-38
0.044653184593 -0.0875889390094 0.928 1.30661104553e-38
0.046220709765 -0.0873057851117 0.925 1.3340899479e-38
0.0479325879045 -0.0873057851117 0.925 1.33416169438e-38
0.0493761175788 -0.086833861949 0.92 1.33416169438e-38
0.0509677015787 -0.0866450926839 0.918 1.35252879361e-38
0.0526666249647 -0.0866450926839 0.918 1.26969748087e-38
0.05418788316 -0.0863619387862 0.915 1.3801153157e-38
0.0558812545087 -0.0863619387862 0.915 1.33412582114e-38
0.0574487796807 -0.0861731695211 0.913 1.29742749592e-38
0.0591384496713 -0.0861731695211 0.913 1.26962573438e-38
0.0604949974294 -0.0857012463583 0.908 1.33405477531e-38
0.0612167622666 -0.0843798615026 0.894 1.2141301113e-38
0.0625196403316 -0.0839079383398 0.889 1.48006040633e-38
0.0640205410571 -0.0837191690747 0.887 2.34903753366e-38
0.0656620933919 -0.0837191690747 0.887 1.54578116418e-38
0.0673036457267 -0.0837191690747 0.887 2.3508363805e-38
-0.0017026247441 -0.0851312372049 0.92 1.79394902026e-38
0.0 -0.0851312372049 0.92 1.74857441547e-38
0.00170817678131 -0.0854088390653 0.923 1.72091362456e-38
0.00341635356261 -0.0854088390653 0.923 1.74892838346e-38
0.00513563441834 -0.0855939069723 0.925 1.53684858712e-38
0.00684751255778 -0.0855939069723 0.925 1.647192013e-38
0.00858715088327 -0.0858715088327 0.928 1.57325684356e-38
0.0103045810599 -0.0858715088327 0.928 1.56425266014e-38
0.0120220112366 -0.0858715088327 0.928 1.53677375778e-38
0.0137690522784 -0.0860565767397 0.93 1.46309012141e-38
0.015540152148 -0.0863341786002 0.933 1.44465127569e-38
0.01726683572 -0.0863341786002 0.933 1.41702888037e-38
0.018993519292 -0.0863341786002 0.933 1.43546772608e-38
0.020720202864 -0.0863341786002 0.933 1.46298250169e-38
0.022446886436 -0.0863341786002 0.933 1.44465239673e-38
0.024225389022 -0.0865192465071 0.935 1.38025880866e-38
0.0259557739521 -0.0865192465071 0.935 1.35249432167e-38
0.0276861588823 -0.0865192465071 0.935 1.35242117389e-38
0.0294165438124 -0.0865192465071 0.935 1.35256466685e-38
0.0311469287426 -0.0865192465071 0.935 1.33419756762e-38
0.0328773136727 -0.0865192465071 0.935 1.29735574944e-38
0.0346076986028 -0.0865192465071 0.935 1.2880645801e-38
0.036338083533 -0.0865192465071 0.935 1.31579459515e-38
0.0380684684631 -0.0865192465071 0.935 1.3155793557e-38
0.0397137221561 -0.0863341786002 0.933 1.28777759417e-38
0.0414404057281 -0.0863341786002 0.933 1.29703289027e-38
0.0430282883699 -0.0860565767397 0.93 1.3155793557e-38
0.044653184593 -0.0858715088327 0.928 1.3155793557e-38
0.0463706147697 -0.0858715088327 0.928 1.35234942741e-38
0.0479325879045 -0.0855939069723 0.925 1.28802870686e-38
0.0495371266579 -0.0854088390653 0.923 1.31561522894e-38
0.0510787423229 -0.0851312372049 0.92 1.26051393125e-38
0.0526666249647 -0.0849461692979 0.918 1.33434610526e-38
0.0543655483507 -0.0849461692979 0.918 1.30661104553e-38
0.0558812545087 -0.0846685674374 0.915 1.32487052504e-38
0.0574487796807 -0.0844834995305 0.913 1.30654154113e-38
0.0591384496713 -0.0844834995305 0.913 1.30657517229e-38
0.0604949974294 -0.0840208297631 0.908 1.16821208296e-38
0.0621754140247 -0.0840208297631 0.908 1.03838682492e-38
0.0638558306199 -0.0840208297631 0.908 2.34860943698e-38
0.0655362472152 -0.0840208297631 0.908 1.97052804105e-38
-0.00170817678131 -0.083700662284 0.923 2.2193135895e-38
0.0 -0.083700662284 0.923 1.58215340725e-38
0.00170817678131 -0.083700662284 0.923 1.72084131756e-38
0.00342375627889 -0.0838820288328 0.925 1.62889623986e-38
0.00515229052996 -0.0841540786561 0.928 1.59187729755e-38
0.00686972070662 -0.0841540786561 0.928 1.58276325234e-38
0.00860565767397 -0.0843354452049 0.93 1.60105860509e-38
0.0103267892088 -0.0843354452049 0.93 1.52748258844e-38
0.012086785004 -0.0846074950282 0.933 1.49074838998e-38
0.013813468576 -0.0846074950282 0.933 1.46319774113e-38
0.015540152148 -0.0846074950282 0.933 1.44468714894e-38
0.0431670893001 -0.0846074950282 0.933 1.33401820142e-38
0.0447494199046 -0.0843354452049 0.93 1.32476290532e-38
0.0464705514394 -0.0843354452049 0.93 1.33391058169e-38
0.0480880449463 -0.0841540786561 0.928 1.28788535402e-38
0.0495371266579 -0.083700662284 0.923 1.3155793557e-38
0.0510787423229 -0.0834286124608 0.92 1.22374385955e-38
0.052781367067 -0.0834286124608 0.92 1.25125863515e-38
0.0543655483507 -0.0832472459119 0.918 1.3248346518e-38
0.0558812545087 -0.0829751960887 0.915 1.29703289027e-38
0.0575746258575 -0.0829751960887 0.915 1.34305825807e-38
0.0591384496713 -0.0827938295399 0.913 1.17725213962e-38
0.0608281196619 -0.0827938295399 0.913 1.04728338861e-38
0.0623123642758 -0.0825217797166 0.91 2.34852325713e-38
0.0639964822292 -0.0825217797166 0.91 2.34867347632e-38
0.0656806001826 -0.0825217797166 0.91 4.95911679253e-39
-0.00171187813945 -0.0821701506934 0.925 2.34982254106e-38
0.0 -0.0821701506934 0.925 2.24719102115e-38
0.00171187813945 -0.0821701506934 0.925 1.55510498377e-38
0.00343486035331 -0.0824366484794 0.928 1.55485387108e-38
0.00515229052996 -0.0824366484794 0.928 1.61953374443e-38
0.00686972070662 -0.0824366484794 0.928 1.59194680195e-38
0.00860565767397 -0.0826143136701 0.93 1.54602905388e-38
0.0480880449463 -0.0824366484794 0.928 1.34305825807e-38
0.0496444660439 -0.0821701506934 0.925 1.28810045334e-38
0.0512453034392 -0.0819924855027 0.923 1.27902452344e-38
0.052781367067 -0.0817259877167 0.92 1.27902452344e-38
0.0543655483507 -0.081548322526 0.918 1.30661104553e-38
0.0560644717366 -0.081548322526 0.918 1.31565110219e-38
0.0575746258575 -0.08128182474 0.915 1.14044619467e-38
0.0592679972062 -0.08128182474 0.915 1.15791646289e-38
0.0608281196619 -0.0811041595493 0.913 2.34899045003e-38
0.0625177896526 -0.0811041595493 0.913 2.34903557184e-38
0.0642074596432 -0.0811041595493 0.913 6.88945587388e-39
0.0 -0.0804582725539 0.925 2.34910227365e-38
0.00171187813945 -0.0804582725539 0.925 2.34907494833e-38
0.00343486035331 -0.0807192183028 0.928 1.72119808815e-38
0.00516339460438 -0.0808931821353 0.93 1.55359830766e-38
0.00688452613918 -0.0808931821353 0.93 1.56414504042e-38
0.0480880449463 -0.0807192183028 0.928 1.3432030122e-38
0.0496444660439 -0.0804582725539 0.925 1.29728400295e-38
0.0512453034392 -0.0802843087214 0.923 1.25143800136e-38
0.052781367067 -0.0800233629726 0.92 1.26051393125e-38
0.0543655483507 -0.07984939914 0.918 1.26026281856e-38
0.0560644717366 -0.07984939914 0.918 1.05718440304e-38
0.0577633951226 -0.07984939914 0.918 1.59033432781e-38
0.0592679972062 -0.0795884533912 0.915 2.34941784607e-38
0.060961368555 -0.0795884533912 0.915 2.31183305944e-38
0.0626547399037 -0.0795884533912 0.915 6.61681924466e-39
0.0 -0.0743195700798 0.873 7.62234618111e-39
0.0480880449463 -0.0790017881261 0.928 1.2880645801e-38
0.049805475123 -0.0790017881261 0.928 1.26051393125e-38
0.0512453034392 -0.0785761319401 0.923 1.2514738746e-38
0.0529534802205 -0.0785761319401 0.923 1.1127879261e-38
0.0543655483507 -0.0781504757541 0.918 1.15752185724e-38
0.0560644717366 -0.0781504757541 0.918 2.06210780024e-38
0.0577633951226 -0.0781504757541 0.918 2.34957451123e-38
0.0592679972062 -0.0778950820425 0.915 1.86900620939e-38
0.060961368555 -0.0778950820425 0.915 5.23462328101e-39
0.0626547399037 -0.0778950820425 0.915 1.55483102992e-38
-0.00647737674385 -0.0728704883683 0.875 1.40680584755e-38
-0.00485803255789 -0.0728704883683 0.875 1.46169358736e-38
-0.00323868837192 -0.0728704883683 0.875 1.840590539e-38
-0.00161564282782 -0.072703927252 0.873 1.53613182295e-38
0.0 -0.072703927252 0.873 5.23462328101e-39
0.00161564282782 -0.072703927252 0.873 7.25500419648e-39
0.049805475123 -0.0772843579495 0.928 1.15874154742e-38
0.0512453034392 -0.0768679551588 0.923 1.05661043119e-38
0.0529534802205 -0.0768679551588 0.923 1.84938368686e-38
0.0543655483507 -0.0764515523681 0.918 2.34918495026e-38
0.0560644717366 -0.0764515523681 0.918 2.29346539968e-38
0.0577633951226 -0.0764515523681 0.918 1.09492305224e-38
0.0594623185085 -0.0764515523681 0.918 7.25500419648e-39
0.0611612418945 -0.0764515523681 0.918 1.5643026865e-38
-0.00649958489268 -0.0714954338195 0.878 9.92827809246e-39
-0.00485803255789 -0.0712511441823 0.875 1.83075706715e-38
-0.00323868837192 -0.0712511441823 0.875 1.00151025453e-38
-0.00161564282782 -0.0710882844242 0.873 1.86753792886e-38
0.0 -0.0710882844242 0.873 1.52709400838e-38
0.00161564282782 -0.0710882844242 0.873 9.00992313088e-39
0.00323128565565 -0.0710882844242 0.873 3.94893894648e-39
0.0513563441834 -0.0753226381356 0.925 2.34978330471e-38
0.0529534802205 -0.0751597783775 0.923 2.33959698591e-38
0.0543655483507 -0.0747526289822 0.918 1.38941166984e-38
0.0560644717366 -0.0747526289822 0.918 7.62234618111e-39
0.0577633951226 -0.0747526289822 0.918 7.26330128469e-39
0.0594623185085 -0.0747526289822 0.918 1.59195044533e-38
0.0611612418945 -0.0747526289822 0.918 2.34637030217e-38
-0.00649958489268 -0.0698705375964 0.878 1.09474368604e-38
-0.00485803255789 -0.0696317999964 0.875 2.04223374464e-38
-0.00323868837192 -0.0696317999964 0.875 1.43442992444e-38
-0.00161934418596 -0.0696317999964 0.875 1.00136564053e-38
0.0 -0.0694726415964 0.873 1.79395714779e-38
0.00161194146968 -0.0693134831964 0.871 1.6834239861e-38
0.00322388293937 -0.0693134831964 0.871 1.29678177758e-38
0.00483582440905 -0.0693134831964 0.871 6.97951592489e-39
0.0435224196815 -0.0693134831964 0.871 2.34935282582e-38
0.0451343611511 -0.0693134831964 0.871 2.34946563034e-38
0.0467463026208 -0.0693134831964 0.871 1.90678003118e-38
0.0483582440905 -0.0693134831964 0.871 1.06687312075e-38
0.0498554434579 -0.0691543247964 0.869 6.70399121953e-39
0.0514636835694 -0.0691543247964 0.869 7.16567982717e-39
0.053071923681 -0.0691543247964 0.869 1.19544729953e-38
0.0546801637925 -0.0691543247964 0.869 1.79420896113e-38
0.056288403904 -0.0691543247964 0.869 2.29101691088e-38
0.0577633951226 -0.0689951663964 0.867 2.15286639853e-38
-0.00649958489268 -0.0682456413732 0.878 1.80512073214e-38
-0.00487468866951 -0.0682456413732 0.878 1.26732984698e-38
-0.00324979244634 -0.0682456413732 0.878 1.96883961653e-38
-0.00161934418596 -0.0680124558104 0.875 1.3330143112e-38
0.0 -0.0678569987686 0.873 1.04750129052e-38
0.00161194146968 -0.0677015417267 0.871 1.42550155127e-38
0.00322388293937 -0.0677015417267 0.871 1.81250193167e-38
0.00483582440905 -0.0677015417267 0.871 1.52662163066e-38
0.00644776587873 -0.0677015417267 0.871 1.01076442959e-38
0.0434224830117 -0.0675460846849 0.869 1.28731306373e-38
0.0450307231232 -0.0675460846849 0.869 7.25500419648e-39
0.0466389632348 -0.0675460846849 0.869 5.60196526564e-39
0.0483582440905 -0.0677015417267 0.871 7.99076436297e-39
0.0498554434579 -0.0675460846849 0.869 1.08470800682e-38
0.0514636835694 -0.0675460846849 0.869 1.77576240827e-38
0.053071923681 -0.0675460846849 0.869 1.94100324293e-38
0.0546801637925 -0.0675460846849 0.869 2.34568702903e-38
0.0561588563692 -0.067390627643 0.867 2.15286401632e-38
0.0577633951226 -0.067390627643 0.867 1.29692933431e-38
0.059367933876 -0.067390627643 0.867 1.40727850552e-38
-0.00651439032524 -0.0667725008337 0.88 2.34875166878e-38
-0.00487468866951 -0.06662074515 0.878 8.81621744026e-39
-0.00324979244634 -0.06662074515 0.878 1.46276838328e-38
-0.00161934418596 -0.0663931116244 0.875 1.90472909075e-38
0.0 -0.0662413559407 0.873 1.52654988418e-38
0.00161194146968 -0.066089600257 0.871 6.24481373874e-39
0.00322388293937 -0.066089600257 0.871 1.2512273862e-38
0.00483582440905 -0.066089600257 0.871 1.80356374941e-38
0.00644776587873 -0.066089600257 0.871 1.77540255483e-38
0.0383756811887 -0.065558455364 0.864 7.53051068496e-39
0.0399746679049 -0.065558455364 0.864 5.05095228869e-39
0.0415736546211 -0.065558455364 0.864 5.14278778485e-39
0.0434224830117 -0.0659378445733 0.869 7.08030151434e-39
0.0450307231232 -0.0659378445733 0.869 6.43498535464e-39
0.0466389632348 -0.0659378445733 0.869 1.30594164526e-38
0.0483582440905 -0.066089600257 0.871 1.71073178992e-38
0.0498554434579 -0.0659378445733 0.869 1.98684167751e-38
0.0514636835694 -0.0659378445733 0.869 2.2259763433e-38
0.053071923681 -0.0659378445733 0.869 2.34561388125e-38
0.0543655483507 -0.065558455364 0.864 1.99605885829e-38
0.0559645350669 -0.065558455364 0.864 1.25093927923e-38
0.0577633951226 -0.0657860888896 0.867 1.16861831939e-38
0.059367933876 -0.0657860888896 0.867 2.04277044195e-38
-0.00651439032524 -0.0651439032524 0.88 2.35008360297e-38
-0.00488579274393 -0.0651439032524 0.88 1.42517883223e-38
-0.00324979244634 -0.0649958489268 0.878 8.90804312733e-39
-0.00162489622317 -0.0649958489268 0.878 1.51830954856e-38
0.0 -0.0647737674385 0.875 1.79392183507e-38
0.00161564282782 -0.0646257131129 0.873 1.68317245302e-38
0.00322388293937 -0.0644776587873 0.871 7.4386751888e-39
0.00483582440905 -0.0644776587873 0.871 9.55629780991e-39
0.00644776587873 -0.0644776587873 0.871 1.44408262878e-38
0.0367766944725 -0.0639594686478 0.864 6.62008006619e-39
0.0383756811887 -0.0639594686478 0.864 7.44801764566e-39
0.0399746679049 -0.0639594686478 0.864 8.36459155689e-39
0.0415736546211 -0.0639594686478 0.864 1.23124753256e-38
0.0433225463419 -0.0641815501362 0.867 1.65494918091e-38
0.0450307231232 -0.0643296044618 0.869 1.77561779427e-38
0.0466389632348 -0.0643296044618 0.869 2.06077600618e-38
0.0482472033463 -0.0643296044618 0.869 2.17972985061e-38
0.0498554434579 -0.0643296044618 0.869 2.20699351353e-38
0.0514636835694 -0.0643296044618 0.869 2.13388384901e-38
0.053071923681 -0.0643296044618 0.869 1.7286601426e-38
0.0543655483507 -0.0639594686478 0.864 1.2139197764e-38
0.0559645350669 -0.0639594686478 0.864 1.01227474907e-38
0.0577633951226 -0.0641815501362 0.867 2.04357156428e-38
0.059367933876 -0.0641815501362 0.867 1.92274390355e-38
-0.00651439032524 -0.0635153056711 0.88 2.35004772973e-38
-0.00488579274393 -0.0635153056711 0.88 9.83249653982e-39
-0.00325719516262 -0.0635153056711 0.88 1.66484669209e-38
-0.00162489622317 -0.0633709527037 0.878 7.25500419648e-39
0.0 -0.0631544232525 0.875 1.47199719484e-38
0.00161934418596 -0.0631544232525 0.875 1.80295586614e-38
0.00323128565565 -0.0630100702851 0.873 1.77518829629e-38
0.00483582440905 -0.0628657173177 0.871 1.22263178908e-38
0.00644776587873 -0.0628657173177 0.871 5.60198768641e-39
0.00804120055772 -0.0627213643502 0.869 1.10342963457e-38
0.00959392029717 -0.0623604819316 0.864 1.59984283854e-38
0.0111929070134 -0.0623604819316 0.864 1.83984014367e-38
0.0127918937296 -0.0623604819316 0.864 1.90364939028e-38
0.0143908804458 -0.0623604819316 0.864 1.82993338392e-38
0.0208590037943 -0.0625770113828 0.867 1.39722881332e-38
0.0224635425477 -0.0625770113828 0.867 1.26804955387e-38
0.0256726200545 -0.0625770113828 0.867 1.28623504482e-38
0.0272771588079 -0.0625770113828 0.867 1.14833830762e-38
0.0288816975613 -0.0625770113828 0.867 1.20358309828e-38
0.0304862363147 -0.0625770113828 0.867 1.12104241484e-38
0.0320907750681 -0.0625770113828 0.867 1.13883189884e-38
0.0335787210401 -0.0623604819316 0.864 1.46072500986e-38
0.0351777077563 -0.0623604819316 0.864 1.49793144591e-38
0.0366915632353 -0.0622161289642 0.862 1.64611889864e-38
0.0382868485934 -0.0622161289642 0.862 1.67424001609e-38
0.0399746679049 -0.0623604819316 0.864 1.86760098729e-38
0.0417180075885 -0.0625770113828 0.867 2.08807512195e-38
0.0433225463419 -0.0625770113828 0.867 2.06913264957e-38
0.0450307231232 -0.0627213643502 0.869 2.26249081817e-38
0.0466389632348 -0.0627213643502 0.869 2.20717287973e-38
0.0482472033463 -0.0627213643502 0.869 2.18931501236e-38
0.0498554434579 -0.0627213643502 0.869 1.76596789253e-38
0.0514636835694 -0.0627213643502 0.869 1.32419131568e-38
0.053071923681 -0.0627213643502 0.869 1.12241008214e-38
0.0546801637925 -0.0627213643502 0.869 8.92496801018e-39
0.056288403904 -0.0627213643502 0.869 1.94197434276e-38
-0.00488579274393 -0.0618867080898 0.88 6.98380249689e-39
-0.00325719516262 -0.0618867080898 0.88 1.99613761126e-38
-0.00162489622317 -0.0617460564805 0.878 1.3790424816e-38
0.0 -0.0617460564805 0.878 6.61215852597e-39
0.00161934418596 -0.0615350790666 0.875 1.38022966165e-38
0.00323128565565 -0.0613944274573 0.873 1.82132100355e-38
0.00484692848347 -0.0613944274573 0.873 1.87613853831e-38
0.00644776587873 -0.061253775848 0.871 1.59991066139e-38
0.00804120055772 -0.0611131242387 0.869 8.5460821288e-39
0.00959392029717 -0.0607614952154 0.864 8.08726338041e-39
0.0111929070134 -0.0607614952154 0.864 1.11239514214e-38
0.0127918937296 -0.0607614952154 0.864 1.41617002454e-38
0.0143908804458 -0.0607614952154 0.864 1.8032401896e-38
0.015989867162 -0.0607614952154 0.864 1.85769576896e-38
0.0175888538782 -0.0607614952154 0.864 1.930733687e-38
0.0191878405943 -0.0607614952154 0.864 1.93094892644e-38
