# .PCD v0.7 - Point Cloud Data file format
VERSION 0.7
FIELDS x y z rgb
SIZE 4 4 4 4
TYPE F F F F
COUNT 1 1 1 1
WIDTH 859
HEIGHT 1
VIEWPOINT 0 0 0 1 0 0 0
POINTS 859
DATA ascii
0.00715842664149 -0.14316853283 0.967 1.76860317442e-38
0.00894803330186 -0.14316853283 0.967 1.74083532431e-38
0.0107376399622 -0.14316853283 0.967 1.9161457496e-38
0.0125272466226 -0.14316853283 0.967 1.75005488729e-38
0.014316853283 -0.14316853283 0.967 1.71324950287e-38
0.0161064599433 -0.14316853283 0.967 1.81473574155e-38
0.0178960666037 -0.14316853283 0.967 1.82395376311e-38
0.0196856732641 -0.14316853283 0.967 1.71332237039e-38
0.0214752799245 -0.14316853283 0.967 1.71317439327e-38
0.0232648865848 -0.14316853283 0.967 1.8145195212e-38
0.0250544932452 -0.14316853283 0.967 1.6674360114e-38
0.0268440999056 -0.14316853283 0.967 1.64906947268e-38
0.028633706566 -0.14316853283 0.967 1.66725608467e-38
0.0304233132263 -0.14316853283 0.967 1.75008767768e-38
0.0322129198867 -0.14316853283 0.967 1.63949397989e-38
0.0340025265471 -0.14316853283 0.967 1.62105317236e-38
0.0356810924633 -0.142724369853 0.964 1.6947005151e-38
0.0373874185655 -0.142428261202 0.962 1.56573593457e-38
0.0391677718305 -0.142428261202 0.962 1.63959571416e-38
0.0408204282397 -0.141984098225 0.959 1.57495339561e-38
0.0424619805745 -0.141539935248 0.956 1.5658017956e-38
0.0442312297651 -0.141539935248 0.956 1.5384326149e-38
0.0460004789557 -0.141539935248 0.956 1.4093221592e-38
0.0476697914766 -0.141243826597 0.954 1.48264846446e-38
0.0494353393091 -0.141243826597 0.954 1.33477602363e-38
0.0512008871415 -0.141243826597 0.954 1.56562453134e-38
0.0530774757182 -0.141539935248 0.956 1.91647239227e-38
-0.00534105979507 -0.140647907937 0.962 1.87912652703e-38
-0.00356070653005 -0.140647907937 0.962 1.97143384038e-38
-0.00178035326502 -0.140647907937 0.962 1.88852783842e-38
0.0 -0.14094031523 0.964 1.87927128116e-38
0.00178405462316 -0.14094031523 0.964 1.87934302764e-38
0.00356810924633 -0.14094031523 0.964 1.92554706099e-38
0.00536881998112 -0.141378926169 0.967 1.79643786646e-38
0.00715842664149 -0.141378926169 0.967 1.86086564622e-38
0.00894803330186 -0.141378926169 0.967 1.80558512245e-38
0.0107376399622 -0.141378926169 0.967 1.79640311426e-38
0.0125272466226 -0.141378926169 0.967 1.81466371481e-38
0.014316853283 -0.141378926169 0.967 1.81477385687e-38
0.0161064599433 -0.141378926169 0.967 1.68566185974e-38
0.0178960666037 -0.141378926169 0.967 1.75023411337e-38
0.0196856732641 -0.141378926169 0.967 1.58428408156e-38
0.0214752799245 -0.141378926169 0.967 1.76845127366e-38
0.0232648865848 -0.141378926169 0.967 1.75930724066e-38
0.0250544932452 -0.141378926169 0.967 1.6577520581e-38
0.0268440999056 -0.141378926169 0.967 1.65775359953e-38
0.028633706566 -0.141378926169 0.967 1.78696620988e-38
0.0304233132263 -0.141378926169 0.967 1.75937604442e-38
0.0322129198867 -0.141378926169 0.967 1.68555101703e-38
0.0340025265471 -0.141378926169 0.967 1.69477086028e-38
0.0357921332074 -0.141378926169 0.967 1.65796323378e-38
0.0374651470864 -0.14094031523 0.964 1.59357272856e-38
0.0392492017096 -0.14094031523 0.964 1.61197429974e-38
0.0409481250955 -0.140647907937 0.962 1.55633462317e-38
0.0425952294675 -0.140209296997 0.959 1.64874479183e-38
0.0443700306954 -0.140209296997 0.959 1.56591151727e-38
0.0460004789557 -0.139770686058 0.956 1.53836072829e-38
0.0476697914766 -0.139478278765 0.954 1.51041911717e-38
0.0494353393091 -0.139478278765 0.954 1.45492139214e-38
0.0513082265276 -0.139770686058 0.956 1.28900387046e-38
0.0530774757182 -0.139770686058 0.956 1.49200479418e-38
0.0548467249088 -0.139770686058 0.956 1.56591894415e-38
0.0566159740994 -0.139770686058 0.956 2.33114099046e-38
-0.0106154951436 -0.138001436867 0.956 2.12856522069e-38
-0.00884624595303 -0.138001436867 0.956 1.96227985816e-38
-0.00709920491126 -0.13843449577 0.959 1.8884925257e-38
-0.00534105979507 -0.138867554672 0.962 1.96221371687e-38
-0.00356070653005 -0.138867554672 0.962 1.87012626725e-38
-0.00178035326502 -0.138867554672 0.962 1.90703913127e-38
0.0 -0.139156260607 0.964 1.84239527129e-38
0.00178405462316 -0.139156260607 0.964 1.86079684246e-38
0.00356810924633 -0.139156260607 0.964 1.88834454858e-38
0.00536881998112 -0.139589319509 0.967 1.85161077051e-38
0.00715842664149 -0.139589319509 0.967 1.84246141258e-38
0.00894803330186 -0.139589319509 0.967 1.79643786646e-38
0.0107376399622 -0.139589319509 0.967 1.84246687764e-38
0.0125272466226 -0.139589319509 0.967 1.75016180637e-38
0.014316853283 -0.139589319509 0.967 1.79629465376e-38
0.0161064599433 -0.139589319509 0.967 1.72246626326e-38
0.0178960666037 -0.139589319509 0.967 1.75005110379e-38
0.0196856732641 -0.139589319509 0.967 1.7042464405e-38
0.0214752799245 -0.139589319509 0.967 1.81451924094e-38
0.0232648865848 -0.139589319509 0.967 1.76863666545e-38
0.0250544932452 -0.139589319509 0.967 1.70384819147e-38
0.0268440999056 -0.139589319509 0.967 1.6209068768e-38
0.028633706566 -0.139589319509 0.967 1.68565064935e-38
0.0304233132263 -0.139589319509 0.967 1.66732671012e-38
0.0322129198867 -0.139589319509 0.967 1.57499081028e-38
0.0340025265471 -0.139589319509 0.967 1.65792792106e-38
0.0357921332074 -0.139589319509 0.967 1.63041314545e-38
0.0375817398678 -0.139589319509 0.967 1.59360930245e-38
0.0392492017096 -0.139156260607 0.964 1.55655546781e-38
0.0409481250955 -0.138867554672 0.962 1.68551388262e-38
0.0425952294675 -0.13843449577 0.959 1.50120053509e-38
0.0443700306954 -0.13843449577 0.959 1.55658657664e-38
0.0460004789557 -0.138001436867 0.956 1.46442387729e-38
0.0477697281463 -0.138001436867 0.956 1.52896081819e-38
0.049538977337 -0.138001436867 0.956 1.50134122546e-38
0.0513082265276 -0.138001436867 0.956 1.43676799092e-38
0.0530774757182 -0.138001436867 0.956 1.39985344535e-38
0.0548467249088 -0.138001436867 0.956 1.19680305579e-38
0.0566159740994 -0.138001436867 0.956 1.72250535949e-38
0.0582630784714 -0.137712730932 0.954 2.331250572e-38
-0.0106154951436 -0.136232187677 0.956 1.990152105e-38
-0.00884624595303 -0.136232187677 0.956 1.96235314607e-38
-0.00709920491126 -0.136659694542 0.959 1.90693067077e-38
-0.00534105979507 -0.137087201407 0.962 1.93466166673e-38
-0.00356810924633 -0.137372205984 0.964 1.93473327308e-38
-0.00178405462316 -0.137372205984 0.964 1.83328080569e-38
0.0 -0.137372205984 0.964 1.86072621702e-38
0.00178960666037 -0.137799712849 0.967 1.84232282416e-38
0.00357921332074 -0.137799712849 0.967 1.82395404337e-38
0.00536881998112 -0.137799712849 0.967 1.78689628509e-38
0.00715842664149 -0.137799712849 0.967 1.75016026494e-38
0.00894803330186 -0.137799712849 0.967 1.78703851688e-38
0.0107376399622 -0.137799712849 0.967 1.75930724066e-38
0.0125661108831 -0.138227219714 0.97 1.81469776636e-38
0.0143612695806 -0.138227219714 0.97 1.75023215155e-38
0.0161564282782 -0.138227219714 0.97 1.72246654352e-38
0.0179515869758 -0.138227219714 0.97 1.70399042327e-38
0.0196856732641 -0.137799712849 0.967 1.73193651854e-38
0.0214752799245 -0.137799712849 0.967 1.70399042327e-38
0.0232648865848 -0.137799712849 0.967 1.71306551238e-38
0.0251322217661 -0.138227219714 0.97 1.722321369e-38
0.0269273804637 -0.138227219714 0.97 1.73157624471e-38
0.0287225391613 -0.138227219714 0.97 1.67654599284e-38
0.0305176978589 -0.138227219714 0.97 1.73197127074e-38
0.0323128565565 -0.138227219714 0.97 1.56577096703e-38
0.0340025265471 -0.137799712849 0.967 1.53828814103e-38
0.0357921332074 -0.137799712849 0.967 1.63047970713e-38
0.0375817398678 -0.137799712849 0.967 1.59349930052e-38
0.0393713465282 -0.137799712849 0.967 1.47375512376e-38
0.0410332563327 -0.137372205984 0.964 1.56583556689e-38
0.0427284783606 -0.137087201407 0.962 1.53821779585e-38
0.0443700306954 -0.136659694542 0.959 1.57513150064e-38
0.0461448319232 -0.136659694542 0.959 1.49208312676e-38
0.047919633151 -0.136659694542 0.959 1.4827594473e-38
0.049538977337 -0.136232187677 0.956 1.42765885026e-38
0.0513082265276 -0.136232187677 0.956 1.45531529714e-38
0.0530774757182 -0.136232187677 0.956 1.46442415755e-38
0.0547319828065 -0.1359471831 0.954 1.21546120471e-38
0.0564975306389 -0.1359471831 0.954 1.2244971976e-38
0.0582630784714 -0.1359471831 0.954 1.71354181373e-38
-0.0141539935248 -0.134462938486 0.956 2.35066247936e-38
-0.0123847443342 -0.134462938486 0.956 1.94421025459e-38
-0.0106154951436 -0.134462938486 0.956 1.8978215301e-38
-0.00884624595303 -0.134462938486 0.956 1.94377290934e-38
-0.00709920491126 -0.134884893314 0.959 1.90700227712e-38
-0.00534105979507 -0.135306848142 0.962 1.90700101595e-38
-0.00356070653005 -0.135306848142 0.962 1.86998557688e-38
-0.00178405462316 -0.13558815136 0.964 1.92536909609e-38
0.0 -0.13558815136 0.964 1.94362843547e-38
0.00178960666037 -0.136010106188 0.967 1.87001458376e-38
0.00357921332074 -0.136010106188 0.967 1.87937637854e-38
0.00536881998112 -0.136010106188 0.967 1.85160880869e-38
0.00715842664149 -0.136010106188 0.967 1.74097209104e-38
0.00894803330186 -0.136010106188 0.967 1.8791249856e-38
0.0107709521855 -0.136432061016 0.97 1.722321369e-38
0.0125661108831 -0.136432061016 0.97 1.80533330912e-38
0.0143612695806 -0.136432061016 0.97 1.70406174936e-38
0.0161564282782 -0.136432061016 0.97 1.79625653844e-38
0.0179515869758 -0.136432061016 0.97 1.73161183769e-38
0.0197467456734 -0.136432061016 0.97 1.70395328886e-38
0.021541904371 -0.136432061016 0.97 1.69477058002e-38
0.0233370630686 -0.136432061016 0.97 1.75001158717e-38
0.0251322217661 -0.136432061016 0.97 1.62101225444e-38
0.0269273804637 -0.136432061016 0.97 1.6946963112e-38
0.0287225391613 -0.136432061016 0.97 1.60264907885e-38
0.0305176978589 -0.136432061016 0.97 1.63963467025e-38
0.0323128565565 -0.136432061016 0.97 1.64881920078e-38
0.034108015254 -0.136432061016 0.97 1.60289907049e-38
0.0359031739516 -0.136432061016 0.97 1.61215969152e-38
0.0375817398678 -0.136010106188 0.967 1.67647564766e-38
0.0393713465282 -0.136010106188 0.967 1.51978063169e-38
0.0411609531886 -0.136010106188 0.967 1.56587634467e-38
0.0427284783606 -0.135306848142 0.962 1.48300971921e-38
0.0445088316256 -0.135306848142 0.962 1.48293517013e-38
0.0461448319232 -0.134884893314 0.959 1.55661726507e-38
0.047919633151 -0.134884893314 0.959 1.59349831961e-38
0.0496944343788 -0.134884893314 0.959 1.40918287013e-38
0.0513082265276 -0.134462938486 0.956 1.44598881508e-38
0.0530774757182 -0.134462938486 0.956 1.45513396912e-38
0.0547319828065 -0.134181635267 0.954 1.45509753536e-38
0.0564975306389 -0.134181635267 0.954 1.20635248444e-38
0.0582630784714 -0.134181635267 0.954 1.21571301805e-38
-0.0159232427154 -0.132693689295 0.956 2.35070003416e-38
-0.0141539935248 -0.132693689295 0.956 2.22079364093e-38
-0.0123847443342 -0.132693689295 0.956 1.86072313416e-38
-0.0106154951436 -0.132693689295 0.956 1.98973003391e-38
-0.00884624595303 -0.132693689295 0.956 2.04533075437e-38
-0.00709920491126 -0.133110092086 0.959 1.97164641735e-38
-0.00534105979507 -0.133526494877 0.962 1.94387828698e-38
-0.00356070653005 -0.133526494877 0.962 1.8976755148e-38
-0.00178405462316 -0.133804096737 0.964 1.9254020266e-38
0.0 -0.133804096737 0.964 1.8332442318e-38
0.00178960666037 -0.134220499528 0.967 1.80551421675e-38
0.00357921332074 -0.134220499528 0.967 1.7869681717e-38
0.00536881998112 -0.134220499528 0.967 1.79615088054e-38
0.00715842664149 -0.134220499528 0.967 1.79629339259e-38
0.00894803330186 -0.134220499528 0.967 1.86075844689e-38
0.0107709521855 -0.134636902319 0.97 1.75005544781e-38
0.0125661108831 -0.134636902319 0.97 1.72228605628e-38
0.0143612695806 -0.134636902319 0.97 1.66715042677e-38
0.0161564282782 -0.134636902319 0.97 1.65785743574e-38
0.0179515869758 -0.134636902319 0.97 1.83288451848e-38
0.0197467456734 -0.134636902319 0.97 1.74079230445e-38
0.021541904371 -0.134636902319 0.97 1.63938103523e-38
0.0233370630686 -0.134636902319 0.97 1.66700427134e-38
0.0251322217661 -0.134636902319 0.97 1.59364307375e-38
0.0269273804637 -0.134636902319 0.97 1.71356745749e-38
0.0287225391613 -0.134636902319 0.97 1.63048797479e-38
0.0305176978589 -0.134636902319 0.97 1.64885297207e-38
0.0323128565565 -0.134636902319 0.97 1.54740176585e-38
0.034108015254 -0.134636902319 0.97 1.60250264316e-38
0.0359031739516 -0.134636902319 0.97 1.54718344355e-38
0.0376983326492 -0.134636902319 0.97 1.61193870676e-38
0.0393713465282 -0.134220499528 0.967 1.5381471704e-38
0.0411609531886 -0.134220499528 0.967 1.49208663001e-38
0.0427284783606 -0.133526494877 0.962 1.54762134932e-38
0.0445088316256 -0.133526494877 0.962 1.39996330715e-38
0.0461448319232 -0.133110092086 0.959 1.51967119028e-38
0.047919633151 -0.133110092086 0.959 1.49212026117e-38
0.0496944343788 -0.133110092086 0.959 1.42758724391e-38
0.0513082265276 -0.132693689295 0.956 1.41829285158e-38
0.0530774757182 -0.132693689295 0.956 1.40903825613e-38
0.0547319828065 -0.132416087435 0.954 1.3996396072e-38
0.0563198654482 -0.131999684644 0.951 1.42765534701e-38
0.0578966440156 -0.131583281854 0.948 1.10522077426e-38
0.0596510877736 -0.131583281854 0.948 1.75020762883e-38
-0.0159232427154 -0.130924440105 0.956 2.35055457938e-38
-0.0141539935248 -0.130924440105 0.956 2.1375989715e-38
-0.0123847443342 -0.130924440105 0.956 1.97147279647e-38
-0.0106154951436 -0.130924440105 0.956 2.04504404871e-38
-0.00887400613907 -0.131335290858 0.959 1.89774557972e-38
-0.00709920491126 -0.131335290858 0.959 1.96228308114e-38
-0.00534105979507 -0.131746141612 0.962 1.89767313259e-38
-0.00356070653005 -0.131746141612 0.962 1.90703604841e-38
-0.00178405462316 -0.132020042114 0.964 1.87923442701e-38
0.0 -0.132020042114 0.964 1.90692646687e-38
0.00178960666037 -0.132430892868 0.967 1.83317094389e-38
0.00357921332074 -0.132430892868 0.967 1.76849205145e-38
0.00536881998112 -0.132430892868 0.967 1.8422488356e-38
0.00715842664149 -0.132430892868 0.967 1.82402817206e-38
0.0089757934879 -0.132841743621 0.97 1.72239199444e-38
0.0107709521855 -0.132841743621 0.97 1.76827723239e-38
0.0125661108831 -0.132841743621 0.97 1.7039553908e-38
0.0143612695806 -0.132841743621 0.97 1.71320998625e-38
0.0161564282782 -0.132841743621 0.97 1.69473078314e-38
0.0179515869758 -0.132841743621 0.97 1.69473344561e-38
0.0197467456734 -0.132841743621 0.97 1.67625956744e-38
0.021541904371 -0.132841743621 0.97 1.66704378796e-38
0.0233370630686 -0.132841743621 0.97 1.74083112041e-38
0.0251322217661 -0.132841743621 0.97 1.57516835479e-38
0.0269273804637 -0.132841743621 0.97 1.52903676857e-38
0.0287225391613 -0.132841743621 0.97 1.60264879859e-38
0.0305176978589 -0.132841743621 0.97 1.54736673339e-38
0.0323128565565 -0.132841743621 0.97 1.63019678497e-38
0.034108015254 -0.132841743621 0.97 1.60243075655e-38
0.0359031739516 -0.132841743621 0.97 1.63002232331e-38
0.0376983326492 -0.132841743621 0.97 1.60268256988e-38
0.0394934913468 -0.132841743621 0.97 1.47371406571e-38
0.0411609531886 -0.132430892868 0.967 1.43680456481e-38
0.0428173109559 -0.132020042114 0.964 1.52906647609e-38
0.0445088316256 -0.131746141612 0.962 1.4736102295e-38
0.0461448319232 -0.131335290858 0.959 1.49190460134e-38
0.047919633151 -0.131335290858 0.959 1.43662253614e-38
0.0496944343788 -0.131335290858 0.959 1.40914363378e-38
0.0513082265276 -0.130924440105 0.956 1.39985190392e-38
0.0530774757182 -0.130924440105 0.956 1.4090367147e-38
0.054559869653 -0.130239688849 0.951 1.39989268171e-38
0.0563198654482 -0.130239688849 0.951 1.31691072937e-38
0.0578966440156 -0.129828838096 0.948 1.123374736e-38
0.0596510877736 -0.129828838096 0.948 1.64860984679e-38
0.0614055315317 -0.129828838096 0.948 2.35030262592e-38
-0.019258166399 -0.127804195193 0.946 2.35098856151e-38
-0.0175074239991 -0.127804195193 0.946 2.35098856151e-38
-0.0158899304922 -0.12888499177 0.954 2.3509086875e-38
-0.0141539935248 -0.129155190914 0.956 1.80595240278e-38
-0.0123847443342 -0.129155190914 0.956 1.99909266947e-38
-0.0106154951436 -0.129155190914 0.956 1.99905469428e-38
-0.00887400613907 -0.12956048963 0.959 2.01756472595e-38
-0.00712141306009 -0.129965788347 0.962 1.87012150283e-38
-0.00534105979507 -0.129965788347 0.962 1.89749530782e-38
-0.00356810924633 -0.130235987491 0.964 1.88849098427e-38
-0.00178960666037 -0.130641286207 0.967 1.8423615e-38
0.0 -0.130641286207 0.967 1.85153622143e-38
0.00178960666037 -0.130641286207 0.967 1.82398515219e-38
0.00357921332074 -0.130641286207 0.967 1.7501229904e-38
0.00536881998112 -0.130641286207 0.967 1.77771133418e-38
0.00718063479032 -0.131046584923 0.97 1.71320970599e-38
0.0089757934879 -0.131046584923 0.97 1.68551444314e-38
0.0107709521855 -0.131046584923 0.97 1.72232164926e-38
0.0126049751435 -0.13145188364 0.973 1.71307069719e-38
0.0144056858783 -0.13145188364 0.973 1.6947352673e-38
0.0162063966131 -0.13145188364 0.973 1.68573052337e-38
0.0180071073479 -0.13145188364 0.973 1.60271914377e-38
0.0198078180827 -0.13145188364 0.973 1.64885297207e-38
0.0216085288175 -0.13145188364 0.973 1.54718568563e-38
0.0234092395523 -0.13145188364 0.973 1.58413806626e-38
0.0252099502871 -0.13145188364 0.973 1.61172234627e-38
0.0270106610218 -0.13145188364 0.973 1.59335706873e-38
0.0288113717566 -0.13145188364 0.973 1.55658503521e-38
0.0306120824914 -0.13145188364 0.973 1.63952508871e-38
0.0324127932262 -0.13145188364 0.973 1.54725434925e-38
0.034213503961 -0.13145188364 0.973 1.43662309666e-38
0.0360142146958 -0.13145188364 0.973 1.6390916671e-38
0.0376983326492 -0.131046584923 0.97 1.51052449481e-38
0.0394934913468 -0.131046584923 0.97 1.54729512704e-38
0.0412886500444 -0.131046584923 0.97 1.59339420314e-38
0.0429505598489 -0.130641286207 0.967 1.47339372889e-38
0.0445088316256 -0.129965788347 0.962 1.49197802938e-38
0.0461448319232 -0.12956048963 0.959 1.48279349885e-38
0.047919633151 -0.12956048963 0.959 1.43669708522e-38
0.0496944343788 -0.12956048963 0.959 1.40900112172e-38
0.0513082265276 -0.129155190914 0.956 1.34467984065e-38
0.052966434974 -0.12888499177 0.954 1.48285964014e-38
0.054559869653 -0.128479693054 0.951 1.34446572225e-38
0.0561422002575 -0.128074394338 0.948 1.3630127482e-38
0.057774499197 -0.127804195193 0.946 1.05887436899e-38
0.0595252415969 -0.127804195193 0.946 1.63949299898e-38
0.0612759839968 -0.127804195193 0.946 2.35019150295e-38
-0.019258166399 -0.126053452793 0.946 2.35098856151e-38
-0.0175074239991 -0.126053452793 0.946 2.35098856151e-38
-0.0158899304922 -0.127119443938 0.954 2.30399041232e-38
-0.0141539935248 -0.127385941724 0.956 2.14689462499e-38
-0.0123847443342 -0.127385941724 0.956 2.0910698369e-38
-0.0106154951436 -0.127385941724 0.956 1.98997862425e-38
-0.00887400613907 -0.127785688403 0.959 1.96224748816e-38
-0.00709920491126 -0.127785688403 0.959 1.90689087389e-38
-0.00534105979507 -0.128185435082 0.962 1.90686130649e-38
-0.00356810924633 -0.128451932868 0.964 1.82391901091e-38
-0.00178960666037 -0.128851679547 0.967 1.87015709582e-38
0.0 -0.128851679547 0.967 1.8055830205e-38
0.00178960666037 -0.128851679547 0.967 1.69469897367e-38
0.00357921332074 -0.128851679547 0.967 1.76859925078e-38
0.00538547609274 -0.129251426226 0.97 1.74090118534e-38
0.00718063479032 -0.129251426226 0.97 1.66718601975e-38
0.0089757934879 -0.129251426226 0.97 1.6578924682e-38
0.0107709521855 -0.129251426226 0.97 1.6579276408e-38
0.0126049751435 -0.129651172905 0.973 1.69466071822e-38
0.0144056858783 -0.129651172905 0.973 1.60253585393e-38
0.0162063966131 -0.129651172905 0.973 1.63952508871e-38
0.0180071073479 -0.129651172905 0.973 1.53811031625e-38
0.0198078180827 -0.129651172905 0.973 1.64863913393e-38
0.0216085288175 -0.129651172905 0.973 1.55658531547e-38
0.0234092395523 -0.129651172905 0.973 1.52895969715e-38
0.0252099502871 -0.129651172905 0.973 1.51052421455e-38
0.0270106610218 -0.129651172905 0.973 1.57495339561e-38
0.0288113717566 -0.129651172905 0.973 1.4920828465e-38
0.0306120824914 -0.129651172905 0.973 1.54740050468e-38
0.0324127932262 -0.129651172905 0.973 1.50123038275e-38
0.034213503961 -0.129651172905 0.973 1.52874824121e-38
0.0360142146958 -0.129651172905 0.973 1.53807556405e-38
0.0378149254306 -0.129651172905 0.973 1.46435787613e-38
0.0394934913468 -0.129251426226 0.97 1.44580902849e-38
0.0412886500444 -0.129251426226 0.97 1.53803422575e-38
0.0429505598489 -0.128851679547 0.967 1.43662099472e-38
0.0445088316256 -0.128185435082 0.962 1.51041491327e-38
0.0462891848906 -0.128185435082 0.962 1.40907328859e-38
0.047919633151 -0.127785688403 0.959 1.36308141183e-38
0.0496944343788 -0.127785688403 0.959 1.48279349885e-38
0.0513082265276 -0.127385941724 0.956 1.34468558598e-38
0.052966434974 -0.127119443938 0.954 1.47375316194e-38
0.054559869653 -0.126719697259 0.951 1.28904338707e-38
0.0561422002575 -0.126319950579 0.948 1.31680983589e-38
0.057774499197 -0.126053452793 0.946 9.75830199003e-39
0.0595252415969 -0.126053452793 0.946 1.99881465185e-38
0.0610816626945 -0.125653706114 0.943 2.29436839641e-38
0.0628268530572 -0.125653706114 0.943 2.35098856151e-38
-0.0210533250966 -0.124565506821 0.948 2.35098856151e-38
-0.0192988813385 -0.124565506821 0.948 2.35098856151e-38
-0.0175444375805 -0.124565506821 0.948 2.35098856151e-38
-0.0159232427154 -0.125616692533 0.956 1.14308133643e-38
-0.0141539935248 -0.125616692533 0.956 2.35097903269e-38
-0.0123847443342 -0.125616692533 0.956 1.86072649728e-38
-0.0106488073669 -0.126010887175 0.959 1.95313512451e-38
-0.00887400613907 -0.126010887175 0.959 1.88849098427e-38
-0.00709920491126 -0.126010887175 0.959 1.8332442318e-38
-0.00534105979507 -0.126405081817 0.962 1.92529272532e-38
-0.00356810924633 -0.126667878245 0.964 1.77774832846e-38
-0.00178960666037 -0.127062072886 0.967 1.75930752092e-38
0.0 -0.127062072886 0.967 1.76859869026e-38
0.00179515869758 -0.127456267528 0.97 1.73168638676e-38
0.00359031739516 -0.127456267528 0.97 1.71331690533e-38
0.00538547609274 -0.127456267528 0.97 1.71331564416e-38
0.00718063479032 -0.127456267528 0.97 1.63948851482e-38
0.0089757934879 -0.127456267528 0.97 1.65778470835e-38
0.0107709521855 -0.127456267528 0.97 1.61172192588e-38
0.0126049751435 -0.12785046217 0.973 1.56551691162e-38
0.0144056858783 -0.12785046217 0.973 1.63008874485e-38
0.0162063966131 -0.12785046217 0.973 1.48272035108e-38
0.0180071073479 -0.12785046217 0.973 1.56577152755e-38
0.0198078180827 -0.12785046217 0.973 1.53803997107e-38
0.0216085288175 -0.12785046217 0.973 1.46428318692e-38
0.0234573572081 -0.128113258598 0.975 1.47349728484e-38
0.025261769301 -0.128113258598 0.975 1.55655126391e-38
0.0270106610218 -0.12785046217 0.973 1.49211970065e-38
0.0288113717566 -0.12785046217 0.973 1.49204935547e-38
0.0306120824914 -0.12785046217 0.973 1.43683777559e-38
0.0324127932262 -0.12785046217 0.973 1.58431729234e-38
0.034213503961 -0.12785046217 0.973 1.46446493533e-38
0.0360142146958 -0.12785046217 0.973 1.40907356885e-38
0.0378149254306 -0.12785046217 0.973 1.39974680654e-38
0.0394934913468 -0.127456267528 0.97 1.42761653104e-38
0.0412886500444 -0.127456267528 0.97 1.46430981159e-38
0.0429505598489 -0.127062072886 0.967 1.50122856106e-38
0.0447401665093 -0.127062072886 0.967 1.39974680654e-38
0.0462891848906 -0.126405081817 0.962 1.39059702821e-38
0.047919633151 -0.126010887175 0.959 1.36286631251e-38
0.0496944343788 -0.126010887175 0.959 1.38145061301e-38
0.0513082265276 -0.125616692533 0.956 1.31695052625e-38
0.052966434974 -0.125353896105 0.954 1.33545999741e-38
0.0543877564995 -0.124565506821 0.948 1.30751782577e-38
0.0560237567971 -0.124302710394 0.946 1.21543163732e-38
0.0575912819691 -0.123908515752 0.943 8.46826382118e-39
0.0587072414481 -0.122594533612 0.933 2.34979857886e-38
0.0602396037178 -0.12220033897 0.93 1.91629793061e-38
0.0619607352526 -0.12220033897 0.93 2.35098856151e-38
0.0636818667874 -0.12220033897 0.93 2.35098856151e-38
-0.0192988813385 -0.122811063063 0.948 2.35098856151e-38
-0.0175444375805 -0.122811063063 0.948 2.35098856151e-38
-0.0159232427154 -0.123847443342 0.956 1.38219596366e-39
-0.0141984098225 -0.124236085947 0.959 2.35098856151e-38
-0.0124236085947 -0.124236085947 0.959 2.19327942585e-38
-0.0106488073669 -0.124236085947 0.959 1.97128880599e-38
-0.00890176632512 -0.124624728552 0.962 1.94401925761e-38
-0.00712141306009 -0.124624728552 0.962 1.89778089244e-38
-0.00534105979507 -0.124624728552 0.962 1.74994698731e-38
-0.00356810924633 -0.124883823621 0.964 1.9251517547e-38
-0.00178960666037 -0.125272466226 0.967 1.74086811469e-38
0.0 -0.125272466226 0.967 1.75937758585e-38
0.00179515869758 -0.125661108831 0.97 1.67643907377e-38
0.00359031739516 -0.125661108831 0.97 1.74093874013e-38
0.00538547609274 -0.125661108831 0.97 1.55658531547e-38
0.00718063479032 -0.125661108831 0.97 1.61165200109e-38
0.0089757934879 -0.125661108831 0.97 1.52882068834e-38
0.0107709521855 -0.125661108831 0.97 1.5010540994e-38
0.0126049751435 -0.126049751435 0.973 1.6023601311e-38
0.0144352967434 -0.126308846505 0.975 1.50094465799e-38
0.0162397088364 -0.126308846505 0.975 1.58410051146e-38
0.0180441209293 -0.126308846505 0.975 1.45516928184e-38
0.0198485330222 -0.126308846505 0.975 1.51052183235e-38
0.0216529451152 -0.126308846505 0.975 1.49215473312e-38
0.0234573572081 -0.126308846505 0.975 1.52896109845e-38
0.025261769301 -0.126308846505 0.975 1.47372135247e-38
0.0270661813939 -0.126308846505 0.975 1.4737534422e-38
0.0288705934869 -0.126308846505 0.975 1.43673239794e-38
0.0306750055798 -0.126308846505 0.975 1.45513396912e-38
0.0324794176727 -0.126308846505 0.975 1.37208615576e-38
0.0342838297657 -0.126308846505 0.975 1.46420219187e-38
0.0360882418586 -0.126308846505 0.975 1.39985372561e-38
0.0378149254306 -0.126049751435 0.973 1.38137606393e-38
0.0396156361654 -0.126049751435 0.973 1.37230265637e-38
0.0412886500444 -0.125661108831 0.97 1.38130571874e-38
0.0430838087419 -0.125661108831 0.97 1.39041976396e-38
0.0447401665093 -0.125272466226 0.967 1.37197867617e-38
0.0465297731697 -0.125272466226 0.967 1.4551695621e-38
0.0480695381556 -0.124624728552 0.962 1.31680507147e-38
0.0496944343788 -0.124236085947 0.959 1.33528175224e-38
0.0513082265276 -0.123847443342 0.956 1.31684066445e-38
0.0527998738577 -0.123199705668 0.951 1.25223323823e-38
0.0543877564995 -0.122811063063 0.948 1.36283071953e-38
0.0560237567971 -0.122551967994 0.946 8.37462065e-39
0.0574080647412 -0.121774682784 0.94 2.34954578462e-38
0.0587072414481 -0.12086785004 0.933 2.09153997253e-38
0.0602396037178 -0.120479207436 0.93 2.14754482748e-38
0.0619607352526 -0.120479207436 0.93 2.35098856151e-38
0.0636818667874 -0.120479207436 0.93 2.35098856151e-38
-0.0193599537478 -0.121439709873 0.951 2.35098856151e-38
-0.0175999579526 -0.121439709873 0.951 2.35098856151e-38
-0.0159232427154 -0.122078194152 0.956 5.62029565085e-39
-0.0141984098225 -0.122461284719 0.959 1.83670992316e-40
-0.0124236085947 -0.122461284719 0.959 2.35098309645e-38
-0.0106488073669 -0.122461284719 0.959 2.06359191544e-38
-0.00890176632512 -0.122844375287 0.962 1.82380340378e-38
-0.00712141306009 -0.122844375287 0.962 1.76863820688e-38
-0.00535216386949 -0.123099768998 0.964 1.83306430508e-38
-0.00357921332074 -0.123482859566 0.967 1.75923591457e-38
-0.00178960666037 -0.123482859566 0.967 1.71317635509e-38
0.0 -0.123865950133 0.97 1.65785351211e-38
0.00179515869758 -0.123865950133 0.97 1.63952929261e-38
0.00359031739516 -0.123865950133 0.97 1.51953021966e-38
0.00538547609274 -0.123865950133 0.97 1.54726009458e-38
0.00720284293916 -0.124249040701 0.973 1.52882040808e-38
0.00900355367395 -0.124249040701 0.973 1.55654720015e-38
0.0108042644087 -0.124249040701 0.973 1.44580734693e-38
0.0126308846505 -0.124504434412 0.975 1.53786004435e-38
0.0144352967434 -0.124504434412 0.975 1.51030925537e-38
0.0162397088364 -0.124504434412 0.975 1.45495670486e-38
0.0180441209293 -0.124504434412 0.975 1.48254308682e-38
0.0198485330222 -0.124504434412 0.975 1.46420919836e-38
0.0216529451152 -0.124504434412 0.975 1.44605789909e-38
0.0234573572081 -0.124504434412 0.975 1.49212138221e-38
0.025261769301 -0.124504434412 0.975 1.41857815595e-38
0.0270661813939 -0.124504434412 0.975 1.37226734365e-38
0.0288705934869 -0.124504434412 0.975 1.39981813263e-38
0.0306750055798 -0.124504434412 0.975 1.45499215771e-38
0.0324794176727 -0.124504434412 0.975 1.43662309666e-38
0.0342838297657 -0.124504434412 0.975 1.48282853132e-38
0.0360882418586 -0.124504434412 0.975 1.39074752767e-38
0.0378926539515 -0.124504434412 0.975 1.38148746716e-38
0.0396156361654 -0.124249040701 0.973 1.39070801105e-38
0.0414163469002 -0.124249040701 0.973 1.42746799341e-38
0.0430838087419 -0.123865950133 0.97 1.31687597717e-38
0.0447401665093 -0.123482859566 0.967 1.3538207908e-38
0.0465297731697 -0.123482859566 0.967 1.25248210884e-38
0.047919633151 -0.122461284719 0.959 1.47360420392e-38
0.0496944343788 -0.122461284719 0.959 1.2432284943e-38
0.0513082265276 -0.122078194152 0.956 1.27073906601e-38
0.0527998738577 -0.121439709873 0.951 1.23382718291e-38
0.0543877564995 -0.121056619305 0.948 1.08631347448e-38
0.0558460916064 -0.120418135026 0.943 2.06358462869e-38
0.0572859199226 -0.119779650747 0.938 2.35012396036e-38
0.0587072414481 -0.119141166468 0.933 6.42848473106e-40
0.0602396037178 -0.118758075901 0.93 2.35098856151e-38
0.0619607352526 -0.118758075901 0.93 2.35098856151e-38
0.0636818667874 -0.118758075901 0.93 2.35098856151e-38
0.0654029983222 -0.118758075901 0.93 2.35098856151e-38
-0.0177480122781 -0.120686483491 0.959 2.35098856151e-38
-0.0159732110503 -0.120686483491 0.959 1.83465618013e-38
-0.0141984098225 -0.120686483491 0.959 1.10210022271e-39
-0.0124236085947 -0.120686483491 0.959 5.98009584715e-39
-0.0106488073669 -0.120686483491 0.959 2.35076799714e-38
-0.00890176632512 -0.121064022022 0.962 2.12831480865e-38
-0.00712141306009 -0.121064022022 0.962 1.75912577251e-38
-0.00535216386949 -0.121315714375 0.964 1.84228386806e-38
-0.00357921332074 -0.121693252905 0.967 1.71321138755e-38
-0.00178960666037 -0.121693252905 0.967 1.76852554248e-38
0.0 -0.122070791436 0.97 1.71324123521e-38
0.00179515869758 -0.122070791436 0.97 1.56559132057e-38
0.00359031739516 -0.122070791436 0.97 1.61158193617e-38
0.00540213220437 -0.122448329966 0.973 1.63009140732e-38
0.00720284293916 -0.122448329966 0.973 1.51030897511e-38
0.00902206046465 -0.122700022319 0.975 1.39978155874e-38
0.0108264725576 -0.122700022319 0.975 1.55655000275e-38
0.0126308846505 -0.122700022319 0.975 1.44577399602e-38
0.0144797130411 -0.123077560849 0.978 1.42730151915e-38
0.0162397088364 -0.122700022319 0.975 1.46417682837e-38
0.0180441209293 -0.122700022319 0.975 1.47346953913e-38
0.0198485330222 -0.122700022319 0.975 1.42736766044e-38
0.0216529451152 -0.122700022319 0.975 1.42751087314e-38
0.0235295336918 -0.123077560849 0.978 1.33538712989e-38
0.0253394978219 -0.123077560849 0.978 1.41839878974e-38
0.0271494619521 -0.123077560849 0.978 1.47364400079e-38
0.0289594260822 -0.123077560849 0.978 1.40903643444e-38
0.0307693902124 -0.123077560849 0.978 1.36301106664e-38
0.0324794176727 -0.122700022319 0.975 1.40907174717e-38
0.0342838297657 -0.122700022319 0.975 1.3446767578e-38
0.0360882418586 -0.122700022319 0.975 1.29850943846e-38
0.0378926539515 -0.122700022319 0.975 1.30772886132e-38
0.0396156361654 -0.122448329966 0.973 1.31680507147e-38
0.0414163469002 -0.122448329966 0.973 1.42733262797e-38
0.0430838087419 -0.122070791436 0.97 1.34442914836e-38
0.0447401665093 -0.121693252905 0.967 1.37226580222e-38
0.0465297731697 -0.121693252905 0.967 1.2524851917e-38
0.047919633151 -0.120686483491 0.959 1.24315716821e-38
0.0496944343788 -0.120686483491 0.959 1.34468124195e-38
0.0513082265276 -0.120308944961 0.956 1.10479281771e-38
0.052966434974 -0.120057252608 0.954 9.56783470016e-39
0.0543877564995 -0.119302175547 0.948 2.34934722062e-38
0.0558460916064 -0.118672944664 0.943 2.35041234759e-38
0.0572859199226 -0.11804371378 0.938 4.5917748079e-40
0.0588330876248 -0.11766617525 0.935 4.69228574285e-39
0.0602396037178 -0.117036944366 0.93 2.35098856151e-38
0.0619607352526 -0.117036944366 0.93 2.35098856151e-38
0.0636818667874 -0.117036944366 0.93 2.35098856151e-38
0.0654029983222 -0.117036944366 0.93 2.35098856151e-38
-0.0177480122781 -0.118911682264 0.959 2.35098856151e-38
-0.0159732110503 -0.118911682264 0.959 2.35098856151e-38
-0.0141984098225 -0.118911682264 0.959 4.04083750107e-39
-0.0124236085947 -0.118911682264 0.959 3.49379300137e-39
-0.0106821195901 -0.119283668757 0.962 3.50324616081e-44
-0.00890176632512 -0.119283668757 0.962 2.15604440331e-38
-0.00713621849265 -0.119531659752 0.964 2.31263404164e-38
-0.00535216386949 -0.119531659752 0.964 1.81440629628e-38
-0.00357921332074 -0.119903646245 0.967 1.69448541578e-38
-0.00179515869758 -0.120275632738 0.97 1.55626427799e-38
0.0 -0.120275632738 0.97 1.67618922225e-38
0.00179515869758 -0.120275632738 0.97 1.56573593457e-38
0.00360142146958 -0.120647619231 0.973 1.49176419123e-38
0.00540213220437 -0.120647619231 0.973 1.47328793085e-38
0.00721764837172 -0.120895610226 0.975 1.51959509977e-38
0.00902206046465 -0.120895610226 0.975 1.44602258637e-38
0.0108264725576 -0.120895610226 0.975 1.42758724391e-38
0.0126308846505 -0.120895610226 0.975 1.40900266315e-38
0.0144797130411 -0.121267596719 0.978 1.37216042458e-38
0.0162397088364 -0.120895610226 0.975 1.44584265965e-38
0.0180441209293 -0.120895610226 0.975 1.35357640434e-38
0.0199096054315 -0.121267596719 0.978 1.32598862109e-38
0.0217195695617 -0.121267596719 0.978 1.41818341017e-38
0.0235295336918 -0.121267596719 0.978 1.41825627769e-38
0.0253394978219 -0.121267596719 0.978 1.40911406638e-38
0.0271494619521 -0.121267596719 0.978 1.39052696329e-38
0.0289594260822 -0.121267596719 0.978 1.3442842541e-38
0.0307693902124 -0.121267596719 0.978 1.3353167847e-38
0.0325793543425 -0.121267596719 0.978 1.33538965222e-38
0.0343893184726 -0.121267596719 0.978 1.30777019962e-38
0.0360882418586 -0.120895610226 0.975 1.30776599573e-38
0.0378926539515 -0.120895610226 0.975 1.36304455768e-38
0.0396970660444 -0.120895610226 0.975 1.28003289782e-38
0.0414163469002 -0.120647619231 0.973 1.2429782224e-38
0.0430838087419 -0.120275632738 0.97 1.31680927537e-38
0.0448789674395 -0.120275632738 0.97 1.33528119172e-38
0.0465297731697 -0.119903646245 0.967 1.25219218019e-38
0.0480695381556 -0.119283668757 0.962 1.11397468577e-38
0.0496944343788 -0.118911682264 0.959 1.12297606659e-38
0.0513082265276 -0.118539695771 0.956 1.51921436698e-38
0.052966434974 -0.118291704775 0.954 2.3500513731e-38
0.0543877564995 -0.117547731789 0.948 2.11016056666e-38
0.0561422002575 -0.117547731789 0.948 7.34683969264e-40
0.0602396037178 -0.115315812831 0.93 2.35098856151e-38
0.0619607352526 -0.115315812831 0.93 2.35098856151e-38
-0.0177480122781 -0.117136881036 0.959 2.35098856151e-38
-0.0159732110503 -0.117136881036 0.959 2.35098856151e-38
-0.0141984098225 -0.117136881036 0.959 9.84481675592e-39
-0.0124624728552 -0.117503315492 0.962 8.09489485185e-39
-0.0106821195901 -0.117503315492 0.962 4.8810336395e-39
-0.00892027311581 -0.117747605129 0.964 4.20389539297e-44
-0.00713621849265 -0.117747605129 0.964 1.29776128521e-38
-0.00536881998112 -0.118114039585 0.967 2.31302023949e-38
-0.00357921332074 -0.118114039585 0.967 2.22986242421e-38
-0.00179515869758 -0.11848047404 0.97 1.69438382164e-38
0.0 -0.118846908496 0.973 1.45455999727e-38
0.00180071073479 -0.118846908496 0.973 1.52885389912e-38
0.00360882418586 -0.119091198133 0.975 1.48272315367e-38
0.00541323627879 -0.119091198133 0.975 1.48272441484e-38
0.00723985652055 -0.119457632589 0.978 1.4181877542e-38
0.00902206046465 -0.119091198133 0.975 1.41807803253e-38
0.0108264725576 -0.119091198133 0.975 1.37226734365e-38
0.012669748911 -0.119457632589 0.978 1.3722304895e-38
0.0144797130411 -0.119457632589 0.978 1.30765585367e-38
0.0162896771712 -0.119457632589 0.978 1.39041163643e-38
0.0180996413014 -0.119457632589 0.978 1.33517329174e-38
0.0199096054315 -0.119457632589 0.978 1.29847384548e-38
0.0217195695617 -0.119457632589 0.978 1.35360541122e-38
0.0235295336918 -0.119457632589 0.978 1.35357612408e-38
0.0253394978219 -0.119457632589 0.978 1.25234267964e-38
0.0271494619521 -0.119457632589 0.978 1.27070823745e-38
0.0289594260822 -0.119457632589 0.978 1.31701904975e-38
0.0307693902124 -0.119457632589 0.978 1.21557036586e-38
0.0325793543425 -0.119457632589 0.978 1.25230610575e-38
0.0343893184726 -0.119457632589 0.978 1.25241722872e-38
0.0361992826028 -0.119457632589 0.978 1.27092277624e-38
0.0378926539515 -0.119091198133 0.975 1.24312157523e-38
0.0396970660444 -0.119091198133 0.975 1.31698135482e-38
0.0414163469002 -0.118846908496 0.973 1.18798566546e-38
0.043217057635 -0.118846908496 0.973 1.1786568012e-38
0.0448789674395 -0.11848047404 0.97 9.11144440202e-39
0.0465297731697 -0.118114039585 0.967 1.21452737942e-38
0.0481694748254 -0.117747605129 0.964 1.62065688515e-38
0.0498498914207 -0.117503315492 0.962 2.35030458773e-38
0.0514692356066 -0.117136881036 0.959 2.31316849687e-38
0.0532440368344 -0.117136881036 0.959 1.11427035975e-38
-0.0159732110503 -0.115362079808 0.959 2.35098856151e-38
-0.0141984098225 -0.115362079808 0.959 1.04051749923e-38
-0.0124624728552 -0.115722962227 0.962 1.43569851994e-38
-0.010704327739 -0.115963550506 0.964 8.83532834871e-39
-0.00892027311581 -0.115963550506 0.964 6.26250092796e-39
-0.00715842664149 -0.116324432924 0.967 4.3277897954e-39
-0.00536881998112 -0.116324432924 0.967 0.0
-0.00359031739516 -0.116685315343 0.97 1.25171181508e-38
-0.00179515869758 -0.116685315343 0.97 2.34925711713e-38
0.0 -0.117046197761 0.973 2.20214291889e-38
0.00180441209293 -0.11728678604 0.975 1.9163317019e-38
0.00360882418586 -0.11728678604 0.975 1.74007554028e-38
0.00542989239041 -0.117647668459 0.978 1.52788518149e-38
0.00723985652055 -0.117647668459 0.978 1.23336629584e-38
0.00904982065069 -0.117647668459 0.978 1.2795984953e-38
0.0108597847808 -0.117647668459 0.978 1.40892152797e-38
0.012669748911 -0.117647668459 0.978 1.27074144822e-38
0.0144797130411 -0.117647668459 0.978 1.32599002238e-38
0.0162896771712 -0.117647668459 0.978 1.35368584575e-38
0.0180996413014 -0.117647668459 0.978 1.33528119172e-38
0.0199096054315 -0.117647668459 0.978 1.25234169874e-38
0.0217861940082 -0.118008550878 0.981 1.27992780043e-38
0.0236017101755 -0.118008550878 0.981 1.32577450268e-38
0.0254172263429 -0.118008550878 0.981 1.31669843266e-38
0.0272327425102 -0.118008550878 0.981 1.32598974213e-38
0.0290482586776 -0.118008550878 0.981 1.20624738705e-38
0.0308637748449 -0.118008550878 0.981 1.27975179735e-38
0.0325793543425 -0.117647668459 0.978 1.27049145658e-38
0.0343893184726 -0.117647668459 0.978 1.16014957212e-38
0.0361992826028 -0.117647668459 0.978 1.1784718298e-38
0.0380092467329 -0.117647668459 0.978 1.06794637524e-38
0.039819210863 -0.117647668459 0.978 9.93868133225e-39
0.0415014781374 -0.11728678604 0.975 1.22367211306e-38
0.043217057635 -0.117046197761 0.973 1.5467620731e-38
0.0450177683697 -0.117046197761 0.973 2.16503891777e-38
0.0465297731697 -0.116324432924 0.967 2.27582207111e-38
0.0481694748254 -0.115963550506 0.964 2.34925347376e-38
0.0499535294486 -0.115963550506 0.964 1.38927490311e-38
-0.0142724369853 -0.114179495882 0.964 5.06781551441e-39
-0.0124883823621 -0.114179495882 0.964 1.96884998614e-38
-0.010704327739 -0.114179495882 0.964 1.27906810383e-38
-0.0089757934879 -0.114890156645 0.97 6.53187953825e-39
-0.00718063479032 -0.114890156645 0.97 6.90961775619e-39
-0.00538547609274 -0.114890156645 0.97 3.40838385997e-39
-0.00359031739516 -0.114890156645 0.97 4.14162028792e-39
-0.00179515869758 -0.114890156645 0.97 2.75508730552e-39
0.0 -0.115245487027 0.973 1.02132307339e-38
0.00180441209293 -0.115482373947 0.975 1.78593331279e-38
0.00360882418586 -0.115482373947 0.975 2.30236196337e-38
0.00542989239041 -0.115837704329 0.978 2.34965340434e-38
0.00723985652055 -0.115837704329 0.978 2.23926527703e-38
0.00904982065069 -0.115837704329 0.978 1.99000566931e-38
0.0108597847808 -0.115837704329 0.978 1.69423304193e-38
0.012669748911 -0.115837704329 0.978 1.63870518898e-38
0.0144797130411 -0.115837704329 0.978 1.47282115833e-38
0.0163396455061 -0.11619303471 0.981 1.27928306301e-38
0.0181551616735 -0.11619303471 0.981 1.03038793302e-38
0.0199706778408 -0.11619303471 0.981 1.26069511914e-38
0.0217861940082 -0.11619303471 0.981 1.11361301064e-38
0.0236017101755 -0.11619303471 0.981 1.21473967613e-38
0.0254172263429 -0.11619303471 0.981 1.20566374624e-38
0.0272327425102 -0.11619303471 0.981 1.20573549272e-38
0.0290482586776 -0.11619303471 0.981 1.20566458702e-38
0.0308637748449 -0.11619303471 0.981 1.22406896079e-38
0.0326792910123 -0.11619303471 0.981 1.4268332052e-38
0.0344948071796 -0.11619303471 0.981 1.61086110824e-38
0.0361992826028 -0.115837704329 0.978 1.82309462702e-38
0.0380092467329 -0.115837704329 0.978 2.12794010144e-38
0.039819210863 -0.115837704329 0.978 2.34997416156e-38
0.0415014781374 -0.115482373947 0.975 2.35000933415e-38
0.043217057635 -0.115245487027 0.973 2.20142111005e-38
0.0450177683697 -0.115245487027 0.973 1.96141315506e-38
0.0466741261371 -0.114890156645 0.97 1.68411328481e-38
0.0484692848347 -0.114890156645 0.97 1.87685908598e-38
-0.0136950251156 -0.107848322785 0.925 1.18003217564e-38
-0.0119831469761 -0.107848322785 0.925 1.08475452993e-38
-0.0107709521855 -0.113094997948 0.97 1.61150682657e-38
-0.0089757934879 -0.113094997948 0.97 1.1595715365e-38
-0.00718063479032 -0.113094997948 0.97 6.89886979697e-39
-0.00538547609274 -0.113094997948 0.97 6.54051433939e-39
-0.00359031739516 -0.113094997948 0.97 5.71145992504e-39
-0.00179515869758 -0.113094997948 0.97 3.7750013733e-39
0.0 -0.113444776292 0.973 4.22945507696e-39
0.00180441209293 -0.113677961855 0.975 6.24483195562e-39
0.00360882418586 -0.113677961855 0.975 1.12157967267e-38
0.00542989239041 -0.114027740199 0.978 9.74819442421e-39
0.00723985652055 -0.114027740199 0.978 1.21410530832e-38
0.00904982065069 -0.114027740199 0.978 1.74779529352e-38
0.0108597847808 -0.114027740199 0.978 2.08953219209e-38
0.012669748911 -0.114027740199 0.978 2.11840160293e-38
0.0145241293388 -0.114377518543 0.981 2.20217276655e-38
0.0163396455061 -0.114377518543 0.981 2.21167314975e-38
0.0181551616735 -0.114377518543 0.981 2.19327157858e-38
0.0199706778408 -0.114377518543 0.981 2.28557636959e-38
0.0217861940082 -0.114377518543 0.981 2.30408640126e-38
0.0236017101755 -0.114377518543 0.981 2.26713556206e-38
0.0254172263429 -0.114377518543 0.981 2.23961924502e-38
0.0272327425102 -0.114377518543 0.981 2.23043681645e-38
0.0290482586776 -0.114377518543 0.981 2.23958603425e-38
0.0308637748449 -0.114377518543 0.981 2.22125424774e-38
0.0326792910123 -0.114377518543 0.981 2.08282235466e-38
0.0343893184726 -0.114027740199 0.978 2.06391225227e-38
0.0361992826028 -0.114027740199 0.978 1.77777817611e-38
0.0380092467329 -0.114027740199 0.978 1.40893554096e-38
0.039819210863 -0.114027740199 0.978 1.20603158709e-38
0.0415014781374 -0.113677961855 0.975 1.15016994485e-38
0.0433058902303 -0.113677961855 0.975 1.23249833157e-38
0.0451103023232 -0.113677961855 0.975 1.48178484422e-38
0.0469147144162 -0.113677961855 0.975 1.5462517202e-38
0.0456210897465 -0.106449209408 0.913 1.53710446422e-38
0.0473107597371 -0.106449209408 0.913 1.41721132943e-38
-0.0136950251156 -0.106136444646 0.925 1.86227941624e-38
-0.0119831469761 -0.106136444646 0.925 6.71553371498e-39
-0.0102490606878 -0.105906960441 0.923 7.91984184509e-39
-0.00854088390653 -0.105906960441 0.923 1.14175122393e-38
-0.00683270712523 -0.105906960441 0.923 7.6375096318e-39
-0.00512453034392 -0.105906960441 0.923 5.89729872608e-39
-0.00359031739516 -0.11129983925 0.97 5.71145992504e-39
-0.00180071073479 -0.111644065557 0.973 5.43452271084e-39
0.0 -0.111873549762 0.975 4.88457612202e-39
0.00180441209293 -0.111873549762 0.975 4.69912267806e-39
0.00361992826028 -0.112217776069 0.978 2.02474596019e-39
0.00542989239041 -0.112217776069 0.978 6.25318929966e-39
0.00723985652055 -0.112217776069 0.978 9.65212140149e-39
0.00907758083674 -0.112562002376 0.981 1.33401820142e-38
0.0108930970041 -0.112562002376 0.981 1.32469270027e-38
0.012669748911 -0.112217776069 0.978 1.30600120044e-38
0.0144797130411 -0.112217776069 0.978 1.23217407111e-38
0.0163396455061 -0.112562002376 0.981 1.21291014086e-38
0.0181551616735 -0.112562002376 0.981 1.00100690812e-38
0.0199706778408 -0.112562002376 0.981 1.01019087813e-38
0.0217861940082 -0.112562002376 0.981 7.6223573915e-39
0.0236017101755 -0.112562002376 0.981 7.25502661726e-39
0.0254172263429 -0.112562002376 0.981 2.20408553895e-39
0.0272327425102 -0.112562002376 0.981 6.30584308946e-44
0.0290482586776 -0.112562002376 0.981 1.40129846432e-45
0.0308637748449 -0.112562002376 0.981 5.6051938573e-44
0.0326792910123 -0.112562002376 0.981 2.94272677508e-44
0.0343893184726 -0.112217776069 0.978 0.0
0.0361992826028 -0.112217776069 0.978 3.67350392423e-40
0.0380092467329 -0.112217776069 0.978 1.47050579288e-39
0.0370505949748 -0.104415313111 0.91 2.20699183197e-39
0.0387347129282 -0.104415313111 0.91 4.05158826289e-39
0.0433058902303 -0.111873549762 0.975 6.07702226063e-39
0.0451103023232 -0.111873549762 0.975 5.70931733969e-39
0.0439314197559 -0.104759539418 0.913 5.71072424335e-39
0.0456210897465 -0.104759539418 0.913 5.25013145111e-39
0.0473107597371 -0.104759539418 0.913 6.35612588226e-39
0.0491077691137 -0.104989023622 0.915 8.01314870463e-39
-0.0136950251156 -0.104424566506 0.925 2.35098856151e-38
-0.0119831469761 -0.104424566506 0.925 2.11221641163e-39
-0.0102490606878 -0.10419878366 0.923 8.38585906368e-39
-0.00854088390653 -0.10419878366 0.923 6.81747397437e-39
-0.00683270712523 -0.10419878366 0.923 6.81782710158e-39
-0.00512453034392 -0.10419878366 0.923 6.63378476517e-39
-0.00341635356261 -0.10419878366 0.923 5.98841255353e-39
-0.00170817678131 -0.10419878366 0.923 5.3444920871e-39
0.0 -0.110069137669 0.975 4.883867065e-39
0.00180441209293 -0.110069137669 0.975 4.97606830005e-39
0.00361992826028 -0.110407811938 0.978 5.43452271084e-39
0.00542989239041 -0.110407811938 0.978 3.86936200929e-39
0.00723985652055 -0.110407811938 0.978 4.32996741321e-39
0.00907758083674 -0.110746486208 0.981 2.76446759744e-39
0.0108930970041 -0.110746486208 0.981 5.5166766359e-39
0.012669748911 -0.110407811938 0.978 9.28627600362e-39
0.0144797130411 -0.110407811938 0.978 1.41714644931e-38
0.0163396455061 -0.110746486208 0.981 1.50915682751e-38
0.0181551616735 -0.110746486208 0.981 1.72098368948e-38
0.0199706778408 -0.110746486208 0.981 1.83111706073e-38
0.0217861940082 -0.110746486208 0.981 1.812609131e-38
0.0236017101755 -0.110746486208 0.981 1.66553192704e-38
0.0254172263429 -0.110746486208 0.981 1.65641577988e-38
0.0272327425102 -0.110746486208 0.981 1.41710062685e-38
0.0268866655242 -0.102505412311 0.908 1.43540186505e-38
0.0285670821194 -0.102505412311 0.908 1.13084183513e-38
0.0302474987147 -0.102505412311 0.908 1.10354257922e-38
0.03192791531 -0.102505412311 0.908 9.19403693351e-39
0.033682359068 -0.102731195157 0.91 6.24883126144e-39
0.0353664770214 -0.102731195157 0.91 6.62588144183e-39
0.0370505949748 -0.102731195157 0.91 5.79902426348e-39
0.0387347129282 -0.102731195157 0.91 5.89514773294e-39
0.0405520797746 -0.103069869427 0.913 5.89337228779e-39
0.0422417497652 -0.103069869427 0.913 5.61859587581e-39
0.0439314197559 -0.103069869427 0.913 5.6214377091e-39
0.0456210897465 -0.103069869427 0.913 5.43704084418e-39
0.0473107597371 -0.103069869427 0.913 6.16851724126e-39
0.0490004297277 -0.103069869427 0.913 9.39000992504e-39
-0.0136950251156 -0.102712688367 0.925 2.35098856151e-38
-0.0119831469761 -0.102712688367 0.925 7.72908869033e-39
-0.0102712688367 -0.102712688367 0.925 9.38491200123e-39
-0.00854088390653 -0.102490606878 0.923 7.92419708072e-39
-0.00683270712523 -0.102490606878 0.923 7.09547057021e-39
-0.00512453034392 -0.102490606878 0.923 6.35434763451e-39
-0.00341635356261 -0.102490606878 0.923 5.52745402239e-39
-0.0017026247441 -0.102157484646 0.92 5.25122726651e-39
0.0 -0.101935403157 0.918 4.60692704819e-39
0.00169337134875 -0.101602280925 0.915 4.88387267019e-39
0.0033867426975 -0.101602280925 0.915 5.34232708097e-39
0.00506900997183 -0.101380199437 0.913 4.88135593815e-39
0.00675867996244 -0.101380199437 0.913 4.60692704819e-39
0.00844834995305 -0.101380199437 0.913 5.25194893522e-39
0.0100824995716 -0.100824995716 0.908 4.97606830005e-39
0.0117629161668 -0.100824995716 0.908 4.60692704819e-39
0.0134433327621 -0.100824995716 0.908 2.30309848585e-39
0.0151237493574 -0.100824995716 0.908 4.04977358138e-39
0.0168041659526 -0.100824995716 0.908 7.63175029511e-39
