# .PCD v0.7 - Point Cloud Data file format
VERSION 0.7
FIELDS x y z rgb
SIZE 4 4 4 4
TYPE F F F F
COUNT 1 1 1 1
WIDTH 851
HEIGHT 1
VIEWPOINT 0 0 0 1 0 0 0
POINTS 851
DATA ascii
0.042473084649 -0.108731096701 0.918 1.6471962169e-38
0.0441720080349 -0.108731096701 0.918 1.63801014494e-38
0.0458709314209 -0.108731096701 0.918 1.59183946249e-38
0.047414397765 -0.10837576632 0.915 1.61027802795e-38
0.0491077691137 -0.10837576632 0.915 1.61042152091e-38
0.0508011404625 -0.10837576632 0.915 1.62896798634e-38
0.0523797697089 -0.108138879399 0.913 1.6381874092e-38
0.0538917745088 -0.107783549018 0.91 1.61038564767e-38
0.0555758924622 -0.107783549018 0.91 1.60124105415e-38
0.0571341642389 -0.107546662097 0.908 1.55506911053e-38
0.0586850332993 -0.107309775176 0.906 1.55485387108e-38
0.0601618751969 -0.106954444794 0.903 1.61034977443e-38
0.0614906627689 -0.106362227492 0.898 1.52776957437e-38
0.0630119209642 -0.106125340571 0.896 1.50007543256e-38
0.0646701294106 -0.106125340571 0.896 1.49993193959e-38
0.066328337857 -0.106125340571 0.896 1.29703289027e-38
0.0679865463034 -0.106125340571 0.896 1.78512686552e-38
-0.00500238552532 -0.105050096032 0.901 2.34921157493e-38
-0.00333492368355 -0.105050096032 0.901 1.89565596345e-38
-0.00166746184177 -0.105050096032 0.901 2.01532853386e-38
0.0 -0.105283281595 0.903 2.14479898314e-38
0.00167671523712 -0.105633059939 0.906 1.96065407168e-38
0.00336083319052 -0.105866245501 0.908 2.04334469406e-38
0.0050523538602 -0.106099431064 0.91 1.84977492939e-38
0.0067364718136 -0.106099431064 0.91 1.98838464725e-38
0.00844834995305 -0.106449209408 0.913 1.93303391843e-38
0.0101602280925 -0.106682394971 0.915 1.92391973309e-38
0.0118535994412 -0.106682394971 0.915 1.93321566684e-38
0.0135913870877 -0.107032173315 0.918 1.78584264877e-38
0.0152903104736 -0.107032173315 0.918 1.73020227156e-38
0.0169892338596 -0.107032173315 0.918 1.73009465184e-38
0.0187288721851 -0.107265358878 0.92 1.78551894883e-38
0.0204314969292 -0.107265358878 0.92 1.61020726237e-38
0.022206298157 -0.107615137222 0.923 1.73009815509e-38
0.0239144749383 -0.107615137222 0.923 1.61968018012e-38
0.0256226517196 -0.107615137222 0.923 1.68414229169e-38
0.0273308285009 -0.107615137222 0.923 1.60138146425e-38
0.0291019283706 -0.107848322785 0.925 1.62889623986e-38
0.03081380651 -0.107848322785 0.925 1.61042152091e-38
0.0325256846495 -0.107848322785 0.925 1.6934680731e-38
0.0342375627889 -0.107848322785 0.925 1.61034977443e-38
0.0359494409284 -0.107848322785 0.925 1.62878988131e-38
0.0375798891887 -0.107615137222 0.923 1.56436462389e-38
0.03928806597 -0.107615137222 0.923 1.70236687887e-38
0.0409962427514 -0.107615137222 0.923 1.56425266014e-38
0.0427044195327 -0.107615137222 0.923 1.6287527469e-38
0.0442682433465 -0.107265358878 0.92 1.55532078373e-38
0.0458709314209 -0.107032173315 0.918 1.60131069868e-38
0.0475698548068 -0.107032173315 0.918 1.59209029492e-38
0.0492687781928 -0.107032173315 0.918 1.56439783467e-38
0.0508011404625 -0.106682394971 0.915 1.55503393794e-38
0.0524945118112 -0.106682394971 0.915 1.54585178962e-38
0.0540694396995 -0.106449209408 0.913 1.59180330899e-38
0.0555758924622 -0.106099431064 0.91 1.58269150586e-38
0.0571341642389 -0.105866245501 0.908 1.57354382948e-38
0.0586850332993 -0.105633059939 0.906 1.61031390119e-38
0.0601618751969 -0.105283281595 0.903 1.51815554586e-38
0.0614906627689 -0.104700317688 0.898 1.51862189799e-38
0.0630119209642 -0.104467132125 0.896 1.4448306419e-38
0.0646701294106 -0.104467132125 0.896 1.48163714736e-38
0.066328337857 -0.104467132125 0.896 1.38011601635e-38
0.0679865463034 -0.104467132125 0.896 1.48131372768e-38
0.0696447547499 -0.104467132125 0.896 2.27362525551e-38
-0.0066328337857 -0.102808923678 0.896 2.34853194518e-38
-0.00498572941369 -0.103038407883 0.898 2.34863466035e-38
-0.00332381960913 -0.103038407883 0.898 1.886329061e-38
-0.00166190980456 -0.103038407883 0.898 2.10795198015e-38
0.0 -0.10338263419 0.901 1.96976797676e-38
0.00168041659526 -0.104185828906 0.908 2.08054272231e-38
0.0033682359068 -0.104415313111 0.91 1.94207369482e-38
0.00506900997183 -0.104759539418 0.913 1.97884432705e-38
0.006773485395 -0.104989023622 0.915 1.95143576986e-38
0.00846685674374 -0.104989023622 0.915 1.86856578128e-38
0.0101602280925 -0.104989023622 0.915 1.82222119769e-38
0.0118535994412 -0.104989023622 0.915 1.6748879765e-38
0.0135913870877 -0.105333249929 0.918 1.6932549356e-38
0.0152903104736 -0.105333249929 0.918 1.74856937079e-38
0.017026247441 -0.105562734134 0.92 1.67502922738e-38
0.0187288721851 -0.105562734134 0.92 1.65641101547e-38
0.0204981213757 -0.105906960441 0.923 1.65659038167e-38
0.022206298157 -0.105906960441 0.923 1.60113035157e-38
0.0239144749383 -0.105906960441 0.923 1.62878862014e-38
0.0256781720917 -0.106136444646 0.925 1.60113035157e-38
0.0273900502311 -0.106136444646 0.925 1.67506622166e-38
0.0291019283706 -0.106136444646 0.925 1.54610346282e-38
0.03081380651 -0.106136444646 0.925 1.57357970272e-38
0.0326311733564 -0.106480670953 0.928 1.63815153596e-38
0.0342375627889 -0.106136444646 0.925 1.57372319569e-38
0.0359494409284 -0.106136444646 0.925 1.54599318063e-38
0.0376613190678 -0.106136444646 0.925 1.56432440663e-38
0.0393731972073 -0.106136444646 0.925 1.58261975938e-38
0.0409962427514 -0.105906960441 0.923 1.5919826752e-38
0.0427044195327 -0.105906960441 0.923 1.57354382948e-38
0.0442682433465 -0.105562734134 0.92 1.51851455853e-38
0.0458709314209 -0.105333249929 0.918 1.51844253179e-38
0.0475698548068 -0.105333249929 0.918 1.55517827168e-38
0.0492687781928 -0.105333249929 0.918 1.54595870869e-38
0.0508011404625 -0.104989023622 0.915 1.54595870869e-38
0.0524945118112 -0.104989023622 0.915 1.51819240001e-38
0.0540694396995 -0.104759539418 0.913 1.55506911053e-38
0.0557591096901 -0.104759539418 0.913 1.44468714894e-38
0.0572600104156 -0.104415313111 0.91 1.52755433492e-38
0.0588145808341 -0.104185828906 0.908 1.57354382948e-38
0.0603617485364 -0.103956344702 0.906 1.52748258844e-38
0.0614906627689 -0.103038407883 0.898 1.45405006475e-38
0.0630119209642 -0.102808923678 0.896 1.48152896712e-38
0.0646701294106 -0.102808923678 0.896 1.44472302218e-38
0.066328337857 -0.102808923678 0.896 1.37103938581e-38
0.0678347906197 -0.102579439474 0.894 1.32461941236e-38
0.069489297708 -0.102579439474 0.894 1.99725318497e-38
0.0711438047963 -0.102579439474 0.894 2.34950794956e-38
-0.0066328337857 -0.101150715232 0.896 2.34863914451e-38
-0.00497462533928 -0.101150715232 0.896 2.34838172598e-38
-0.00331641689285 -0.101150715232 0.896 2.01540266255e-38
-0.00166190980456 -0.101376498078 0.898 1.98831402181e-38
0.0 -0.101715172348 0.901 2.03430211507e-38
0.00168041659526 -0.102505412311 0.908 1.97909473908e-38
0.00337933998122 -0.103069869427 0.913 1.98827898935e-38
0.00508011404625 -0.103295652274 0.915 1.87771682077e-38
0.006773485395 -0.103295652274 0.915 1.93303209674e-38
0.00849461692979 -0.103634326543 0.918 1.77615715405e-38
0.0101935403157 -0.103634326543 0.918 1.86831550937e-38
0.0118924637017 -0.103634326543 0.918 1.70265400492e-38
0.0136209979528 -0.10386010939 0.92 1.72105683726e-38
0.0153236226969 -0.10386010939 0.92 1.75804004646e-38
0.017026247441 -0.10386010939 0.92 1.68428900764e-38
0.0187899445944 -0.10419878366 0.923 1.67495776116e-38
0.0204981213757 -0.10419878366 0.923 1.62886036662e-38
0.0222544158128 -0.104424566506 0.925 1.5642167869e-38
0.0239662939522 -0.104424566506 0.925 1.58262017977e-38
0.0256781720917 -0.104424566506 0.925 1.55503323729e-38
0.0273900502311 -0.104424566506 0.925 1.61989205645e-38
0.0291963130031 -0.104763240776 0.928 1.54610080036e-38
0.0309137431798 -0.104763240776 0.928 1.54602905388e-38
0.0326311733564 -0.104763240776 0.928 1.51833491207e-38
0.0343486035331 -0.104763240776 0.928 1.6014896445e-38
0.0360660337097 -0.104763240776 0.928 1.47223779778e-38
0.0376613190678 -0.104424566506 0.925 1.55510498377e-38
0.0393731972073 -0.104424566506 0.925 1.52741084196e-38
0.0410850753467 -0.104424566506 0.925 1.55503323729e-38
0.0427969534861 -0.104424566506 0.925 1.52751846168e-38
0.044412596314 -0.10419878366 0.923 1.51829903882e-38
0.0459708680906 -0.10386010939 0.92 1.61045739415e-38
0.0475698548068 -0.103634326543 0.918 1.54599808518e-38
0.0492687781928 -0.103634326543 0.918 1.48156484036e-38
0.0508011404625 -0.103295652274 0.915 1.46319774113e-38
0.0524945118112 -0.103295652274 0.915 1.50000368607e-38
0.05418788316 -0.103295652274 0.915 1.49082013646e-38
0.0557591096901 -0.103069869427 0.913 1.52776957437e-38
0.0572600104156 -0.102731195157 0.91 1.45408607813e-38
0.0588145808341 -0.102505412311 0.908 1.44461764453e-38
0.0603617485364 -0.102279629464 0.906 1.49993193959e-38
0.0616960881456 -0.101715172348 0.901 1.45397831827e-38
0.0631525725735 -0.101376498078 0.898 1.45398070048e-38
0.0646701294106 -0.101150715232 0.896 1.45397831827e-38
0.066328337857 -0.101150715232 0.896 1.47241716399e-38
0.0678347906197 -0.100924932385 0.894 1.16810460337e-38
0.069489297708 -0.100924932385 0.894 1.78548812026e-38
0.0711438047963 -0.100924932385 0.894 2.3489301942e-38
0.0727983118846 -0.100924932385 0.894 2.35076841753e-38
-0.0066328337857 -0.0994925067855 0.896 2.34881823045e-38
-0.00497462533928 -0.0994925067855 0.896 2.23760571926e-38
-0.00331641689285 -0.0994925067855 0.896 1.97830384623e-38
-0.00166190980456 -0.0997145882739 0.898 2.0158320204e-38
0.0 -0.100047710506 0.901 1.98813633716e-38
0.00168041659526 -0.100824995716 0.908 1.99753582687e-38
0.00337933998122 -0.101380199437 0.913 1.88686631883e-38
0.00508011404625 -0.101602280925 0.915 1.88682820352e-38
0.00679569354383 -0.101935403157 0.918 1.80392500416e-38
0.00849461692979 -0.101935403157 0.918 1.7485022486e-38
0.0101935403157 -0.101935403157 0.918 1.78541385144e-38
0.0119183732087 -0.102157484646 0.92 1.7118016813e-38
0.0136209979528 -0.102157484646 0.92 1.6103857878e-38
0.0153735910318 -0.102490606878 0.923 1.60095238667e-38
0.0170817678131 -0.102490606878 0.923 1.56418161431e-38
0.0187899445944 -0.102490606878 0.923 1.61024383626e-38
0.0204981213757 -0.102490606878 0.923 1.52741098209e-38
0.0222544158128 -0.102712688367 0.925 1.57332859004e-38
0.0239662939522 -0.102712688367 0.925 1.58261975938e-38
0.0256781720917 -0.102712688367 0.925 1.52741084196e-38
0.0274788828265 -0.103045810599 0.928 1.56436027987e-38
0.0291963130031 -0.103045810599 0.928 1.49978844663e-38
0.0309137431798 -0.103045810599 0.928 1.47230954426e-38
0.0326311733564 -0.103045810599 0.928 1.53684550426e-38
0.0343486035331 -0.103045810599 0.928 1.44457952921e-38
0.0360660337097 -0.103045810599 0.928 1.53698955774e-38
0.0377834638864 -0.103045810599 0.928 1.47227367102e-38
0.0395008940631 -0.103045810599 0.928 1.48138701559e-38
0.0410850753467 -0.102712688367 0.925 1.46294957117e-38
0.0427969534861 -0.102712688367 0.925 1.49078426322e-38
0.044412596314 -0.102490606878 0.923 1.49078426322e-38
0.0461207730953 -0.102490606878 0.923 1.46309012141e-38
0.0478289498766 -0.102490606878 0.923 1.4814213474e-38
0.0493761175788 -0.102157484646 0.92 1.47227367102e-38
0.0509677015787 -0.101935403157 0.918 1.45394244503e-38
0.0526666249647 -0.101935403157 0.918 1.44475889542e-38
0.05418788316 -0.101602280925 0.915 1.50007543256e-38
0.0558812545087 -0.101602280925 0.915 1.40773967285e-38
0.0574487796807 -0.101380199437 0.913 1.49075077218e-38
0.058944128369 -0.101047077204 0.91 1.43546772608e-38
0.0604949974294 -0.100824995716 0.908 1.4814213474e-38
0.0616960881456 -0.100047710506 0.901 1.43546772608e-38
0.0631525725735 -0.0997145882739 0.898 1.45394244503e-38
0.0646701294106 -0.0994925067855 0.896 1.45394244503e-38
0.066328337857 -0.0994925067855 0.896 1.45397831827e-38
0.0678347906197 -0.0992704252972 0.894 1.18657960258e-38
0.069489297708 -0.0992704252972 0.894 1.79441831512e-38
0.0711438047963 -0.0992704252972 0.894 2.34892571005e-38
0.0727983118846 -0.0992704252972 0.894 2.35098183528e-38
-0.00661802835314 -0.0976159182089 0.894 2.34867361645e-38
-0.00496352126486 -0.0976159182089 0.894 2.2929959647e-38
-0.00331641689285 -0.0978342983391 0.896 2.03386925397e-38
-0.00166190980456 -0.0980526784693 0.898 2.14501001869e-38
0.0 -0.0983802486646 0.901 1.96976923793e-38
0.0016841179534 -0.0993629592506 0.91 1.9514007374e-38
0.0033867426975 -0.0999089095762 0.915 1.92374401026e-38
0.00508011404625 -0.0999089095762 0.915 1.84091087583e-38
0.00679569354383 -0.100236479772 0.918 1.85952880748e-38
0.00849461692979 -0.100236479772 0.918 1.71180322272e-38
0.0101935403157 -0.100236479772 0.918 1.73942309572e-38
0.0119183732087 -0.100454859902 0.92 1.64722746585e-38
0.0136654142505 -0.100782430097 0.923 1.65648458364e-38
0.0153735910318 -0.100782430097 0.923 1.62868296224e-38
0.0171187813945 -0.101000810227 0.925 1.55521330414e-38
0.0188306595339 -0.101000810227 0.925 1.5552135844e-38
0.0205425376733 -0.101000810227 0.925 1.60152495722e-38
0.0222544158128 -0.101000810227 0.925 1.51808379938e-38
0.0239662939522 -0.101000810227 0.925 1.55485387108e-38
0.0257614526498 -0.101328380423 0.928 1.49978844663e-38
0.0274788828265 -0.101328380423 0.928 1.4353959796e-38
0.0291963130031 -0.101328380423 0.928 1.57372333582e-38
0.0309137431798 -0.101328380423 0.928 1.44490238838e-38
0.0327014991611 -0.101546760553 0.93 1.42628473698e-38
0.0343486035331 -0.101328380423 0.928 1.41681476196e-38
0.0360660337097 -0.101328380423 0.928 1.49982740273e-38
0.0377834638864 -0.101328380423 0.928 1.44468714894e-38
0.0395008940631 -0.101328380423 0.928 1.40784533075e-38
0.0412183242397 -0.101328380423 0.928 1.44458065025e-38
0.0427969534861 -0.101000810227 0.925 1.46294662844e-38
0.0445088316256 -0.101000810227 0.925 1.41677776768e-38
0.0461207730953 -0.100782430097 0.923 1.44475889542e-38
0.0478289498766 -0.100782430097 0.923 1.44465127569e-38
0.0493761175788 -0.100454859902 0.92 1.43547094907e-38
0.0509677015787 -0.100236479772 0.918 1.40780973777e-38
0.0526666249647 -0.100236479772 0.918 1.4908560097e-38
0.0543655483507 -0.100236479772 0.918 1.42624830322e-38
0.0558812545087 -0.0999089095762 0.915 1.42624942426e-38
0.0574487796807 -0.099690529446 0.913 1.42628445672e-38
0.058944128369 -0.0993629592506 0.91 1.42628473698e-38
0.0604949974294 -0.0991445791204 0.908 1.41695713388e-38
0.0618330383968 -0.0985986287949 0.903 1.45401419151e-38
0.0633635499874 -0.0983802486646 0.901 1.41724411981e-38
0.064814482378 -0.0980526784693 0.898 1.48174827033e-38
0.066328337857 -0.0978342983391 0.896 1.41724411981e-38
0.0679865463034 -0.0978342983391 0.896 1.16810446324e-38
0.069489297708 -0.0976159182089 0.894 1.83140544795e-38
0.0709050671963 -0.0972883480135 0.891 2.34874494254e-38
0.0725540222474 -0.0972883480135 0.891 2.35090826711e-38
-0.00661802835314 -0.0959614111206 0.894 2.34863732282e-38
-0.00496352126486 -0.0959614111206 0.894 2.34892528966e-38
-0.00330901417657 -0.0959614111206 0.894 1.89551050867e-38
-0.00168966999061 -0.0980008594554 0.913 2.04348664559e-38
0.0 -0.0980008594554 0.913 1.95125822535e-38
0.00168966999061 -0.0980008594554 0.913 1.95139919597e-38
0.0033867426975 -0.0982155382274 0.915 1.86842663234e-38
0.00508011404625 -0.0982155382274 0.915 1.7394934409e-38
0.00679569354383 -0.0985375563856 0.918 1.75782746949e-38
0.00849461692979 -0.0985375563856 0.918 1.70265400492e-38
0.0102157484646 -0.0987522351576 0.92 1.59201854844e-38
0.0119572374691 -0.0990742533158 0.923 1.67484986118e-38
0.0136654142505 -0.0990742533158 0.923 1.57361557596e-38
0.015406903255 -0.0992889320879 0.925 1.54595730739e-38
0.0171187813945 -0.0992889320879 0.925 1.56439615311e-38
0.0188306595339 -0.0992889320879 0.925 1.45394244503e-38
0.0205425376733 -0.0992889320879 0.925 1.47223779778e-38
0.0223265922965 -0.099610950246 0.928 1.53655851833e-38
0.0240440224732 -0.099610950246 0.928 1.51815554586e-38
0.0257614526498 -0.099610950246 0.928 1.45376307883e-38
0.0274788828265 -0.099610950246 0.928 1.45394244503e-38
0.0292592360915 -0.0998256290181 0.93 1.40798882371e-38
0.0309803676263 -0.0998256290181 0.93 1.42646354267e-38
0.0327014991611 -0.0998256290181 0.93 1.43550359932e-38
0.0344226306959 -0.0998256290181 0.93 1.43543185284e-38
0.0361437622307 -0.0998256290181 0.93 1.38018706218e-38
0.0378648937655 -0.0998256290181 0.93 1.41717237333e-38
0.0395008940631 -0.099610950246 0.928 1.35260054009e-38
0.0412183242397 -0.099610950246 0.928 1.42617655674e-38
0.0429357544164 -0.099610950246 0.928 1.44451072546e-38
0.0445088316256 -0.0992889320879 0.925 1.4168853874e-38
0.046220709765 -0.0992889320879 0.925 1.44472302218e-38
0.0478289498766 -0.0990742533158 0.923 1.37107525905e-38
0.0493761175788 -0.0987522351576 0.92 1.40788190464e-38
0.0510787423229 -0.0987522351576 0.92 1.3801153157e-38
0.0526666249647 -0.0985375563856 0.918 1.4353959796e-38
0.0543655483507 -0.0985375563856 0.918 1.41706475361e-38
0.0560644717366 -0.0985375563856 0.918 1.38947823152e-38
0.0575746258575 -0.0982155382274 0.915 1.40784533075e-38
0.0591384496713 -0.0980008594554 0.913 1.38018986478e-38
0.0604949974294 -0.0974641625252 0.908 1.3893706118e-38
0.0618330383968 -0.096927465595 0.903 1.37103938581e-38
0.0633635499874 -0.0967127868229 0.901 1.47245303723e-38
0.064814482378 -0.0963907686647 0.898 1.36181996295e-38
0.066328337857 -0.0961760898927 0.896 1.39862590789e-38
0.0678347906197 -0.0959614111206 0.894 1.23246105703e-38
0.0692561121452 -0.0956393929625 0.891 1.85899575355e-38
0.0707459087963 -0.0954247141904 0.889 2.34892669095e-38
0.0723911624893 -0.0954247141904 0.889 2.35080274934e-38
0.0740364161822 -0.0954247141904 0.889 2.35026521125e-38
-0.00337933998122 -0.0963111894648 0.913 1.89554287867e-38
-0.00168966999061 -0.0963111894648 0.913 2.00675146622e-38
0.0 -0.0963111894648 0.913 1.90516097093e-38
0.00168966999061 -0.0963111894648 0.913 1.93299888597e-38
0.0033867426975 -0.0965221668787 0.915 1.83183578671e-38
0.00509677015787 -0.0968386329996 0.918 1.78577258385e-38
0.00679569354383 -0.0968386329996 0.918 1.67499335414e-38
0.00851312372049 -0.0970496104135 0.92 1.68403537262e-38
0.0102157484646 -0.0970496104135 0.92 1.66559456508e-38
0.0119572374691 -0.0973660765345 0.923 1.57350795624e-38
0.0136950251156 -0.0975770539484 0.925 1.57347894936e-38
0.015406903255 -0.0975770539484 0.925 1.54584968767e-38
0.0171187813945 -0.0975770539484 0.925 1.56432440663e-38
0.0188306595339 -0.0975770539484 0.925 1.48152896712e-38
0.0206091621199 -0.0978935200693 0.928 1.43536080701e-38
0.0223265922965 -0.0978935200693 0.928 1.46301837493e-38
0.0240440224732 -0.0978935200693 0.928 1.46301837493e-38
0.0257614526498 -0.0978935200693 0.928 1.41695713388e-38
0.0274788828265 -0.0978935200693 0.928 1.4448306419e-38
0.0292592360915 -0.0981044974833 0.93 1.38958697228e-38
0.0309803676263 -0.0981044974833 0.93 1.43546772608e-38
0.0327014991611 -0.0981044974833 0.93 1.38022293542e-38
0.0344226306959 -0.0981044974833 0.93 1.52759020816e-38
0.0361437622307 -0.0981044974833 0.93 1.37093176608e-38
0.0378648937655 -0.0981044974833 0.93 1.38947823152e-38
0.0395860253003 -0.0981044974833 0.93 1.38933473856e-38
0.0412183242397 -0.0978935200693 0.928 1.44457952921e-38
0.0429357544164 -0.0978935200693 0.928 1.39844654169e-38
0.0445088316256 -0.0975770539484 0.925 1.39855416141e-38
0.046220709765 -0.0975770539484 0.925 1.38025880866e-38
0.0479325879045 -0.0975770539484 0.925 1.35267228657e-38
0.0495371266579 -0.0973660765345 0.923 1.36174821647e-38
0.0512453034392 -0.0973660765345 0.923 1.38018706218e-38
0.052781367067 -0.0970496104135 0.92 1.39851828817e-38
0.0544839918111 -0.0970496104135 0.92 1.343345244e-38
0.0560644717366 -0.0968386329996 0.918 1.36171234323e-38
0.0575746258575 -0.0965221668787 0.915 1.38018706218e-38
0.0591384496713 -0.0963111894648 0.913 1.38015118894e-38
0.0604949974294 -0.0957837459299 0.908 1.38018706218e-38
0.0621754140247 -0.0957837459299 0.908 1.3709337279e-38
0.0635042015967 -0.095256302395 0.903 1.38015118894e-38
0.064814482378 -0.0947288588602 0.898 1.32494507412e-38
0.066328337857 -0.0945178814462 0.896 1.39869765438e-38
0.0678347906197 -0.0943069040323 0.894 1.03899667001e-38
0.0692561121452 -0.0939904379114 0.891 2.21787207377e-38
0.0707459087963 -0.0937794604974 0.889 2.34907312664e-38
0.0723911624893 -0.0937794604974 0.889 2.35076757675e-38
-0.00168966999061 -0.0946215194741 0.913 1.9880599664e-38
0.0 -0.0946215194741 0.913 1.99771589372e-38
0.00168966999061 -0.0946215194741 0.913 1.85023763814e-38
0.0033867426975 -0.0948287955299 0.915 1.74860916767e-38
0.00509677015787 -0.0951397096136 0.918 1.70243722405e-38
0.00681049897639 -0.0953469856695 0.92 1.71183699402e-38
0.00854088390653 -0.0956578997532 0.923 1.67485140261e-38
0.0102490606878 -0.0956578997532 0.923 1.62889623986e-38
0.0119831469761 -0.095865175809 0.925 1.61971269025e-38
0.0136950251156 -0.095865175809 0.925 1.53673788454e-38
0.015406903255 -0.095865175809 0.925 1.61042152091e-38
0.0171743017665 -0.0961760898927 0.928 1.5181914191e-38
0.0188917319432 -0.0961760898927 0.928 1.49993193959e-38
0.0206091621199 -0.0961760898927 0.928 1.50021892552e-38
0.0223265922965 -0.0961760898927 0.928 1.426321451e-38
0.0240440224732 -0.0961760898927 0.928 1.46316186789e-38
0.0257614526498 -0.0961760898927 0.928 1.38036642838e-38
0.0275381045567 -0.0963833659485 0.93 1.45412181124e-38
0.0293536207241 -0.0966942800322 0.933 1.38025922905e-38
0.0310803042961 -0.0966942800322 0.933 1.39862590789e-38
0.0327014991611 -0.0963833659485 0.93 1.38947823152e-38
0.0344226306959 -0.0963833659485 0.93 1.43536080701e-38
0.0361437622307 -0.0963833659485 0.93 1.39862590789e-38
0.0378648937655 -0.0963833659485 0.93 1.40773771103e-38
0.0395860253003 -0.0963833659485 0.93 1.3799359495e-38
0.0412183242397 -0.0961760898927 0.928 1.4074507251e-38
0.0429357544164 -0.0961760898927 0.928 1.4074507251e-38
0.044653184593 -0.0961760898927 0.928 1.35252879361e-38
0.046220709765 -0.095865175809 0.925 1.3801153157e-38
0.0479325879045 -0.095865175809 0.925 1.37093176608e-38
0.0495371266579 -0.0956578997532 0.923 1.36167913245e-38
0.0512453034392 -0.0956578997532 0.923 1.38004356922e-38
0.052781367067 -0.0953469856695 0.92 1.35256466685e-38
0.0544839918111 -0.0953469856695 0.92 1.31579459515e-38
0.0561866165552 -0.0953469856695 0.92 1.31579459515e-38
0.0577633951226 -0.0951397096136 0.918 1.34338111724e-38
0.0591384496713 -0.0946215194741 0.913 1.30661188631e-38
0.0606282463224 -0.0943106053904 0.91 1.30661104553e-38
0.0621754140247 -0.0941033293346 0.908 1.35256466685e-38
0.0635042015967 -0.0935851391951 0.903 1.37107525905e-38
0.064814482378 -0.0930669490556 0.898 1.34359635668e-38
0.0664763921826 -0.0930669490556 0.898 1.34348873696e-38
0.0678347906197 -0.092652396944 0.894 1.13076041969e-38
0.0692561121452 -0.0923414828603 0.891 2.32958681033e-38
0.0709050671963 -0.0923414828603 0.891 2.34964611759e-38
-0.00169337134875 -0.0931354241812 0.915 1.90461894869e-38
0.0 -0.0931354241812 0.915 1.8129978512e-38
0.00169337134875 -0.0931354241812 0.915 1.93310272218e-38
0.0033867426975 -0.0931354241812 0.915 1.81321519259e-38
0.00509677015787 -0.0934407862277 0.918 1.67488769624e-38
0.00681049897639 -0.0936443609254 0.92 1.71180196156e-38
0.00854088390653 -0.0939497229719 0.923 1.62879058196e-38
0.0102712688367 -0.0941532976695 0.925 1.71179929909e-38
0.0119831469761 -0.0941532976695 0.925 1.55506911053e-38
0.0137394414132 -0.094458659716 0.928 1.51837260699e-38
0.0154568715899 -0.094458659716 0.928 1.5181914191e-38
0.0171743017665 -0.094458659716 0.928 1.51822729234e-38
0.0188917319432 -0.094458659716 0.928 1.42621453193e-38
0.0206535784175 -0.0946622344137 0.93 1.43543185284e-38
0.0223747099523 -0.0946622344137 0.93 1.44468714894e-38
0.0240958414871 -0.0946622344137 0.93 1.43543185284e-38
0.0258169730219 -0.0946622344137 0.93 1.40795295047e-38
0.027626937152 -0.0949675964602 0.933 1.40795295047e-38
0.0293536207241 -0.0949675964602 0.933 1.39851828817e-38
0.0310803042961 -0.0949675964602 0.933 1.41695713388e-38
0.0328069878681 -0.0949675964602 0.933 1.3248346518e-38
0.0345336714401 -0.0949675964602 0.933 1.40763023144e-38
0.0362603550121 -0.0949675964602 0.933 1.39862590789e-38
0.0379870385841 -0.0949675964602 0.933 1.39869765438e-38
0.0395860253003 -0.0946622344137 0.93 1.4816007136e-38
0.0413071568351 -0.0946622344137 0.93 1.37100351256e-38
0.0429357544164 -0.094458659716 0.928 1.37060890692e-38
0.044653184593 -0.094458659716 0.928 1.36164059675e-38
0.0463706147697 -0.094458659716 0.928 1.36167646999e-38
0.0480880449463 -0.094458659716 0.928 1.29728400295e-38
0.0496444660439 -0.0941532976695 0.925 1.44465127569e-38
0.0512453034392 -0.0939497229719 0.923 1.3155793557e-38
0.0529534802205 -0.0939497229719 0.923 1.34330937075e-38
0.0544839918111 -0.0936443609254 0.92 1.27891690372e-38
0.0561866165552 -0.0936443609254 0.92 1.29731987619e-38
0.0577633951226 -0.0934407862277 0.918 1.40798882371e-38
0.0591384496713 -0.0929318494835 0.913 1.26973335411e-38
0.0606282463224 -0.092626487437 0.91 1.34348873696e-38
0.0621754140247 -0.0924229127394 0.908 1.29739204307e-38
0.0635042015967 -0.0919139759952 0.903 1.3803308354e-38
0.064814482378 -0.0914050392511 0.898 1.38036642838e-38
0.0664763921826 -0.0914050392511 0.898 1.14970149077e-38
0.0679865463034 -0.0912014645534 0.896 1.66495333091e-38
0.0696447547499 -0.0912014645534 0.896 2.34881584825e-38
0.0 -0.0914420528324 0.915 2.02457920567e-38
0.00169337134875 -0.0914420528324 0.915 1.7762287604e-38
0.0033867426975 -0.0914420528324 0.915 1.8409079331e-38
0.00509677015787 -0.0917418628417 0.918 1.69336241519e-38
0.00683270712523 -0.0922415461905 0.923 1.64737095882e-38
0.00855939069723 -0.0924414195301 0.925 1.63801014494e-38
0.0102712688367 -0.0924414195301 0.925 1.59194736247e-38
0.0119831469761 -0.0924414195301 0.925 1.51808379938e-38
0.0137394414132 -0.0927412295394 0.928 1.59227008151e-38
0.0154568715899 -0.0927412295394 0.928 1.51822729234e-38
0.0172113153479 -0.0929411028789 0.93 1.50900786949e-38
0.0189324468827 -0.0929411028789 0.93 1.46309012141e-38
0.0206535784175 -0.0929411028789 0.93 1.47223779778e-38
0.022446886436 -0.0932409128882 0.933 1.46301837493e-38
0.024173570008 -0.0932409128882 0.933 1.44457952921e-38
0.02590025358 -0.0932409128882 0.933 1.43546772608e-38
0.0276861588823 -0.0934407862277 0.935 1.49078426322e-38
0.0294165438124 -0.0934407862277 0.935 1.39862590789e-38
0.0311469287426 -0.0934407862277 0.935 1.38018706218e-38
0.0328773136727 -0.0934407862277 0.935 1.36174919738e-38
0.0346076986028 -0.0934407862277 0.935 1.36178408971e-38
0.036338083533 -0.0934407862277 0.935 1.37093176608e-38
0.0379870385841 -0.0932409128882 0.933 1.27877341076e-38
0.0397137221561 -0.0932409128882 0.933 1.3802946819e-38
0.0413071568351 -0.0929411028789 0.93 1.2880645801e-38
0.0430282883699 -0.0929411028789 0.93 1.37060890692e-38
0.0447494199046 -0.0929411028789 0.93 1.35245704713e-38
0.0463706147697 -0.0927412295394 0.928 1.36171234323e-38
0.0480880449463 -0.0927412295394 0.928 1.3248346518e-38
0.0496444660439 -0.0924414195301 0.925 1.23274804296e-38
0.0513563441834 -0.0924414195301 0.925 1.31572284867e-38
0.0530682223228 -0.0924414195301 0.925 1.28802870686e-38
0.0546616570018 -0.0922415461905 0.923 1.33405407466e-38
0.0561866165552 -0.0919417361813 0.92 1.3340899479e-38
0.0577633951226 -0.0917418628417 0.918 1.28799283362e-38
0.0592679972062 -0.0914420528324 0.915 1.34313000455e-38
0.0608281196619 -0.0912421794929 0.913 1.34330937075e-38
0.0621754140247 -0.0907424961441 0.908 1.27891690372e-38
0.0638558306199 -0.0907424961441 0.908 1.35260054009e-38
0.0651753647966 -0.0902428127953 0.903 1.31572284867e-38
0.0666984736709 -0.0900429394558 0.901 1.02034258485e-38
0.0683659355127 -0.0900429394558 0.901 2.34738862576e-38
0.0700333973545 -0.0900429394558 0.901 2.32954995618e-38
0.00169337134875 -0.0897486814837 0.915 1.81292596458e-38
0.0033867426975 -0.0897486814837 0.915 1.70229499225e-38
0.00509677015787 -0.0900429394558 0.918 1.72098368948e-38
0.00683270712523 -0.0905333694092 0.923 1.66563043832e-38
0.00855939069723 -0.0907295413906 0.925 1.64722746585e-38
0.0103045810599 -0.0910237993627 0.928 1.66566687208e-38
0.0120220112366 -0.0910237993627 0.928 1.49975257339e-38
0.0137690522784 -0.0912199713441 0.93 1.44465127569e-38
0.0154901838131 -0.0912199713441 0.93 1.49971670015e-38
0.0172113153479 -0.0912199713441 0.93 1.49971670015e-38
0.018993519292 -0.0915142293162 0.933 1.4814213474e-38
0.020720202864 -0.0915142293162 0.933 1.45376307883e-38
0.022446886436 -0.0915142293162 0.933 1.44465127569e-38
0.024225389022 -0.0917104012975 0.935 1.42621242998e-38
0.0259557739521 -0.0917104012975 0.935 1.40773771103e-38
0.0276861588823 -0.0917104012975 0.935 1.37089589284e-38
0.0294165438124 -0.0917104012975 0.935 1.3248346518e-38
0.0311469287426 -0.0917104012975 0.935 1.41710062685e-38
0.0329828023797 -0.0920046592696 0.938 1.33419756762e-38
0.034718739347 -0.0920046592696 0.938 1.33419756762e-38
0.036338083533 -0.0917104012975 0.935 1.37114700553e-38
0.0380684684631 -0.0917104012975 0.935 1.33412582114e-38
0.0397988533933 -0.0917104012975 0.935 1.2789886502e-38
0.0414404057281 -0.0915142293162 0.933 1.34327349751e-38
0.0431670893001 -0.0915142293162 0.933 1.30646895387e-38
0.0447494199046 -0.0912199713441 0.93 1.33405407466e-38
0.0464705514394 -0.0912199713441 0.93 1.29724812971e-38
0.0481916829742 -0.0912199713441 0.93 1.3155793557e-38
0.049805475123 -0.0910237993627 0.928 1.28799283362e-38
0.0513563441834 -0.0907295413906 0.925 1.26973335411e-38
0.0530682223228 -0.0907295413906 0.925 1.32479877856e-38
0.0546616570018 -0.0905333694092 0.923 1.35234942741e-38
0.0563698337831 -0.0905333694092 0.923 1.3616047235e-38
0.0578892412993 -0.0902391114372 0.92 1.31579459515e-38
0.0592679972062 -0.0897486814837 0.915 1.35263641333e-38
0.0608281196619 -0.0895525095023 0.913 1.28777759417e-38
0.0623123642758 -0.0892582515302 0.91 1.3156516627e-38
0.0638558306199 -0.0890620795488 0.908 1.25122276191e-38
0.0651753647966 -0.0885716495954 0.903 1.13115502533e-38
0.0666984736709 -0.088375477614 0.901 1.73870829337e-38
0.0683659355127 -0.088375477614 0.901 2.34910787885e-38
0.0700333973545 -0.088375477614 0.901 2.13546955835e-38
0.0 -0.0890176632512 0.925 2.27517144823e-38
0.00169892338596 -0.0883440160698 0.918 1.61917459164e-38
0.00339784677192 -0.0883440160698 0.918 1.85931048518e-38
0.00510787423229 -0.0885364866931 0.92 1.7209828487e-38
0.00684751255778 -0.0890176632512 0.925 1.68407040508e-38
0.00855939069723 -0.0890176632512 0.925 1.60120377961e-38
0.0103045810599 -0.089306369186 0.928 1.5825142416e-38
0.0120479207436 -0.0894988398093 0.93 1.58269402819e-38
0.013813468576 -0.0897875457442 0.933 1.46313131958e-38
0.015540152148 -0.0897875457442 0.933 1.4814213474e-38
0.01726683572 -0.0897875457442 0.933 1.57358040337e-38
0.018993519292 -0.0897875457442 0.933 1.4353959796e-38
0.0207646191617 -0.0899800163674 0.935 1.48149309388e-38
0.0224950040919 -0.0899800163674 0.935 1.41695713388e-38
0.024225389022 -0.0899800163674 0.935 1.39862590789e-38
0.0259557739521 -0.0899800163674 0.935 1.38940648504e-38
0.0276861588823 -0.0899800163674 0.935 1.34330937075e-38
0.029510928445 -0.0902687223023 0.938 1.50925996308e-38
0.0312468654123 -0.0902687223023 0.938 1.32487052504e-38
0.0329828023797 -0.0902687223023 0.938 1.35252879361e-38
0.034718739347 -0.0902687223023 0.938 1.32501513904e-38
0.0364546763144 -0.0902687223023 0.938 1.26984097383e-38
0.0381906132817 -0.0902687223023 0.938 1.27906039668e-38
0.0397988533933 -0.0899800163674 0.935 1.2880645801e-38
0.0415292383234 -0.0899800163674 0.935 1.278809284e-38
0.0431670893001 -0.0897875457442 0.933 1.27877341076e-38
0.0448937728721 -0.0897875457442 0.933 1.2880645801e-38
0.0464705514394 -0.0894988398093 0.93 1.27884515724e-38
0.0481916829742 -0.0894988398093 0.93 1.29742749592e-38
0.049805475123 -0.089306369186 0.928 1.29739162268e-38
0.0515229052996 -0.089306369186 0.928 1.2329632824e-38
0.0530682223228 -0.0890176632512 0.925 1.35281577954e-38
0.0547801004623 -0.0890176632512 0.925 1.30632405961e-38
0.0563698337831 -0.0888251926279 0.923 1.30628818637e-38
0.0578892412993 -0.0885364866931 0.92 1.30657517229e-38
0.0594623185085 -0.0883440160698 0.918 1.33412582114e-38
0.060961368555 -0.0880553101349 0.915 1.3248346518e-38
0.0623123642758 -0.0875741335768 0.91 1.2789886502e-38
0.0638558306199 -0.0873816629536 0.908 1.20534088707e-38
0.0653918942478 -0.0871891923303 0.906 1.20408532365e-38
0.0670686094849 -0.0871891923303 0.906 2.34867866113e-38
0.068745324722 -0.0871891923303 0.906 2.05221435282e-38
-0.00171187813945 -0.0873057851117 0.925 1.30514234461e-38
0.0 -0.0873057851117 0.925 2.34993548572e-38
0.00170817678131 -0.0871170158466 0.923 2.11808154636e-38
0.00341635356261 -0.0871170158466 0.923 1.60963230961e-38
0.00513563441834 -0.0873057851117 0.925 1.64697635317e-38
0.00686972070662 -0.0875889390094 0.928 1.6840709656e-38
0.00858715088327 -0.0875889390094 0.928 1.51822729234e-38
0.010360101432 -0.0880608621722 0.933 1.62886050675e-38
0.012086785004 -0.0880608621722 0.933 1.45380063363e-38
0.0138430794411 -0.0882496314373 0.935 1.47227367102e-38
0.0155734643713 -0.0882496314373 0.935 1.43546772608e-38
0.0173038493014 -0.0882496314373 0.935 1.44461540245e-38
0.0190342342316 -0.0882496314373 0.935 1.41702888037e-38
0.0207646191617 -0.0882496314373 0.935 1.38940648504e-38
0.0224950040919 -0.0882496314373 0.935 1.38011545583e-38
0.024225389022 -0.0882496314373 0.935 1.35245956947e-38
0.0260390545103 -0.0885327853349 0.938 1.3708600196e-38
0.0277749914776 -0.0885327853349 0.938 1.27884515724e-38
0.029510928445 -0.0885327853349 0.938 1.33401820142e-38
0.0312468654123 -0.0885327853349 0.938 1.31554348246e-38
0.0329828023797 -0.0885327853349 0.938 1.29721225647e-38
0.034718739347 -0.0885327853349 0.938 1.2789886502e-38
0.0364546763144 -0.0885327853349 0.938 1.25125863515e-38
0.0381906132817 -0.0885327853349 0.938 1.26029869181e-38
0.0397988533933 -0.0882496314373 0.935 1.38929886532e-38
0.0415292383234 -0.0882496314373 0.935 1.33430532747e-38
0.0431670893001 -0.0880608621722 0.933 1.26962573438e-38
0.0448937728721 -0.0880608621722 0.933 1.26037310075e-38
0.0466204564441 -0.0880608621722 0.933 1.29728400295e-38
0.0481916829742 -0.0877777082745 0.93 1.29739162268e-38
0.049805475123 -0.0875889390094 0.928 1.32490639828e-38
0.0515229052996 -0.0875889390094 0.928 1.26969748087e-38
0.0532403354763 -0.0875889390094 0.928 1.278809284e-38
0.0547801004623 -0.0873057851117 0.925 1.35245704713e-38
0.0563698337831 -0.0871170158466 0.923 1.3155793557e-38
0.0580780105644 -0.0871170158466 0.923 1.38018832335e-38
0.0595918660434 -0.086833861949 0.92 1.28802870686e-38
0.060961368555 -0.0863619387862 0.915 1.36156899039e-38
0.0623123642758 -0.0858900156234 0.91 1.14984498373e-38
0.0638558306199 -0.0857012463583 0.908 9.74030231126e-39
0.0655362472152 -0.0857012463583 0.908 2.34896004186e-38
0.0672166638105 -0.0857012463583 0.908 2.34885592538e-38
-0.00171187813945 -0.0855939069723 0.925 6.33665764269e-39
0.0 -0.0855939069723 0.925 1.43342561383e-38
0.00171187813945 -0.0855939069723 0.925 2.34961066473e-38
0.00342375627889 -0.0855939069723 0.925 2.30221875067e-38
0.00515229052996 -0.0858715088327 0.928 1.52741084196e-38
0.00686972070662 -0.0858715088327 0.928 1.60984754906e-38
0.00860565767397 -0.0860565767397 0.93 1.61027802795e-38
0.010360101432 -0.0863341786002 0.933 1.54602905388e-38
0.012112694511 -0.0865192465071 0.935 1.55528434997e-38
0.0138430794411 -0.0865192465071 0.935 1.53702487046e-38
0.0155734643713 -0.0865192465071 0.935 1.42643089241e-38
0.0173038493014 -0.0865192465071 0.935 1.38018706218e-38
0.0190342342316 -0.0865192465071 0.935 1.41706475361e-38
0.0415292383234 -0.0865192465071 0.935 1.27848642483e-38
0.0432596232536 -0.0865192465071 0.935 1.25100752247e-38
0.0449900081837 -0.0865192465071 0.935 1.29710463675e-38
0.0467203931138 -0.0865192465071 0.935 1.33412582114e-38
0.0483471400161 -0.0863341786002 0.933 1.28802870686e-38
0.049912814509 -0.0860565767397 0.93 1.24200333906e-38
0.0515229052996 -0.0858715088327 0.928 1.30632405961e-38
0.0532403354763 -0.0858715088327 0.928 1.28792108713e-38
0.0547801004623 -0.0855939069723 0.925 1.31554348246e-38
0.0564919786017 -0.0855939069723 0.925 1.28781346741e-38
0.0580780105644 -0.0854088390653 0.923 1.35224180769e-38
0.0595918660434 -0.0851312372049 0.92 1.33380296197e-38
0.0611612418945 -0.0849461692979 0.918 1.08512965753e-38
0.0628601652804 -0.0849461692979 0.918 1.18485726664e-38
0.0662580120524 -0.0849461692979 0.918 2.34882117318e-38
-0.00172113153479 -0.0843354452049 0.93 7.63131869518e-39
0.0 -0.0843354452049 0.93 8.8252151777e-39
0.00172113153479 -0.0843354452049 0.93 1.24896274775e-38
0.00344226306959 -0.0843354452049 0.93 2.34931709271e-38
0.00516339460438 -0.0843354452049 0.93 2.34918298844e-38
0.00688452613918 -0.0843354452049 0.93 1.61960507052e-38
0.00863341786002 -0.0846074950282 0.933 1.61781140849e-38
0.0103823095809 -0.084788861577 0.935 1.41695713388e-38
0.012112694511 -0.084788861577 0.935 1.44465127569e-38
0.0138430794411 -0.084788861577 0.935 1.36167646999e-38
0.0467203931138 -0.084788861577 0.935 1.343345244e-38
0.048450778044 -0.084788861577 0.935 1.278809284e-38
0.0500738235881 -0.0846074950282 0.933 1.26966160762e-38
0.0516339460438 -0.0843354452049 0.93 1.30661104553e-38
0.0532403354763 -0.0841540786561 0.928 1.25133038163e-38
0.0547801004623 -0.0838820288328 0.925 1.27884515724e-38
0.0564919786017 -0.0838820288328 0.925 1.33387470845e-38
0.0582038567412 -0.0838820288328 0.925 1.28792108713e-38
0.0597861873457 -0.083700662284 0.923 1.05718440304e-38
0.0612944907875 -0.0834286124608 0.92 1.66419775077e-38
0.0629971155316 -0.0834286124608 0.92 2.34948833138e-38
-0.00162489622317 -0.0779950187122 0.878 1.14070403359e-38
0.0 -0.0779950187122 0.878 6.99175346438e-39
0.00162489622317 -0.0779950187122 0.878 1.19612706941e-38
0.00323868837192 -0.0777285209262 0.875 1.07483403746e-38
0.00485803255789 -0.0777285209262 0.875 2.16334376701e-38
0.00690673428801 -0.0828808114561 0.933 2.3495424215e-38
0.0500738235881 -0.0828808114561 0.933 1.27877341076e-38
0.0516339460438 -0.0826143136701 0.93 1.29728400295e-38
0.0532403354763 -0.0824366484794 0.928 1.26973335411e-38
0.054957765653 -0.0824366484794 0.928 1.27902452344e-38
0.0564919786017 -0.0821701506934 0.925 1.12215084192e-38
0.0582038567412 -0.0821701506934 0.925 1.15755773048e-38
0.0599157348806 -0.0821701506934 0.925 2.08937020199e-38
0.061494364127 -0.0819924855027 0.923 2.34971926537e-38
0.0632025409083 -0.0819924855027 0.923 1.93332664968e-38
0.0649107176896 -0.0819924855027 0.923 1.06604509349e-38
-0.00162489622317 -0.076370122489 0.878 1.16857782186e-38
0.0 -0.076370122489 0.878 8.65162372523e-39
0.00161934418596 -0.0761091767402 0.875 6.06979296185e-39
0.00323868837192 -0.0761091767402 0.875 1.1592489576e-38
0.00485803255789 -0.0761091767402 0.875 1.1859693371e-38
0.0516339460438 -0.0808931821353 0.93 1.2601193256e-38
0.0532403354763 -0.0807192183028 0.928 1.1126085599e-38
0.054957765653 -0.0807192183028 0.928 1.10224119334e-38
0.0566751958296 -0.0807192183028 0.928 1.90401190619e-38
0.0582038567412 -0.0804582725539 0.925 2.3489343981e-38
0.0599157348806 -0.0804582725539 0.925 2.34899885783e-38
0.06162761302 -0.0804582725539 0.925 8.27165183754e-39
-0.00161564282782 -0.0743195700798 0.873 1.27834923771e-38
0.0 -0.0743195700798 0.873 9.48314442487e-39
0.00161564282782 -0.0743195700798 0.873 8.55942809537e-39
0.00323128565565 -0.0743195700798 0.873 4.59607959678e-39
0.00483582440905 -0.0741493076054 0.871 1.09421161301e-38
0.00644776587873 -0.0741493076054 0.871 1.66531360474e-38
0.00962723252043 -0.0738087826566 0.867 1.51600553363e-38
0.0112317712738 -0.0738087826566 0.867 2.34857356374e-38
0.0532403354763 -0.0790017881261 0.928 2.02486829355e-38
0.054957765653 -0.0790017881261 0.928 2.34942541308e-38
0.0566751958296 -0.0790017881261 0.928 2.34939066088e-38
0.0583926260063 -0.0790017881261 0.928 1.46288525157e-38
0.0599157348806 -0.0787463944145 0.925 7.71418167727e-39
0.06162761302 -0.0787463944145 0.925 7.44157727792e-39
-0.00161564282782 -0.072703927252 0.873 1.36021603673e-38
0.0 -0.072703927252 0.873 9.29840003794e-39
0.00161564282782 -0.072703927252 0.873 8.65234259135e-39
0.00323128565565 -0.072703927252 0.873 8.19240280419e-39
0.00483582440905 -0.0725373661358 0.871 5.5180471058e-39
0.00644776587873 -0.0725373661358 0.871 9.37838615428e-39
0.00805970734842 -0.0725373661358 0.871 1.76615426522e-38
0.00962723252043 -0.0722042439032 0.867 1.45293799429e-38
0.0112317712738 -0.0722042439032 0.867 7.34683969264e-39
0.0128363100272 -0.0722042439032 0.867 1.04717632941e-38
-0.00161194146968 -0.0709254246661 0.871 1.03874807966e-38
0.0 -0.0709254246661 0.871 9.94232050437e-39
0.00161194146968 -0.0709254246661 0.871 8.10024921328e-39
0.00322388293937 -0.0709254246661 0.871 7.54560407071e-39
0.00483582440905 -0.0709254246661 0.871 7.54633554851e-39
0.00644776587873 -0.0709254246661 0.871 5.51697511248e-39
0.00805970734842 -0.0709254246661 0.871 8.72981477824e-39
0.00964944066926 -0.0707625649079 0.869 1.56393540617e-38
0.0112317712738 -0.0705997051498 0.867 1.73938960468e-38
0.0128363100272 -0.0705997051498 0.867 1.23134898657e-38
0.0144408487806 -0.0705997051498 0.867 6.15297824259e-39
0.016045387534 -0.0705997051498 0.867 2.93873587706e-39
0.0430727046675 -0.0701925557545 0.862 2.30276007227e-38
0.0446679900256 -0.0701925557545 0.862 2.03520665323e-38
0.0462632753836 -0.0701925557545 0.862 1.21406270885e-38
-0.00161194146968 -0.0693134831964 0.871 9.09352179466e-39
0.0 -0.0693134831964 0.871 1.04047125638e-38
0.00161194146968 -0.0693134831964 0.871 8.74559480025e-39
0.00322388293937 -0.0693134831964 0.871 8.10237498305e-39
0.00483582440905 -0.0693134831964 0.871 7.08678111844e-39
0.00644776587873 -0.0693134831964 0.871 7.17827329647e-39
0.00805970734842 -0.0693134831964 0.871 7.26761448136e-39
0.00964944066926 -0.0691543247964 0.869 5.05454942185e-39
0.0112317712738 -0.0689951663964 0.867 1.21431480244e-38
0.0128363100272 -0.0689951663964 0.867 1.77536948418e-38
0.0144408487806 -0.0689951663964 0.867 1.51754822311e-38
0.016045387534 -0.0689951663964 0.867 1.26854953716e-38
0.0176499262875 -0.0689951663964 0.867 5.6938007618e-39
0.0319057071611 -0.0685972703964 0.862 2.34658414031e-38
0.0335009925192 -0.0685972703964 0.862 2.21736536424e-38
0.0350962778772 -0.0685972703964 0.862 2.1158117231e-38
0.0367766944725 -0.0687564287964 0.864 1.7653649138e-38
0.0383756811887 -0.0687564287964 0.864 1.39604317469e-38
0.0399746679049 -0.0687564287964 0.864 1.46018438891e-38
0.0414774193095 -0.0685972703964 0.862 1.33161469429e-38
0.0430727046675 -0.0685972703964 0.862 1.16631080121e-38
0.0446679900256 -0.0685972703964 0.862 1.12039305313e-38
0.0462632753836 -0.0685972703964 0.862 1.20304766214e-38
0.0479696014859 -0.0687564287964 0.864 1.50693590958e-38
0.0495685882021 -0.0687564287964 0.864 1.7665448071e-38
0.0515821270299 -0.0693134831964 0.871 1.79402595155e-38
0.0531940684996 -0.0693134831964 0.871 2.17151810148e-38
0.054931856146 -0.0694726415964 0.873 1.93199751808e-38
0.0565474989738 -0.0694726415964 0.873 1.69239187588e-38
0.0 -0.0680124558104 0.875 9.84472146762e-39
0.00161934418596 -0.0680124558104 0.875 9.57428767959e-39
0.00323128565565 -0.0678569987686 0.873 8.19134902775e-39
0.00484692848347 -0.0678569987686 0.873 7.54563209668e-39
0.00644776587873 -0.0677015417267 0.871 7.36230442249e-39
0.00805970734842 -0.0677015417267 0.871 7.17719149406e-39
0.0096716488181 -0.0677015417267 0.871 7.17649084482e-39
0.0112835902878 -0.0677015417267 0.871 5.33150625423e-39
0.0128659208924 -0.0675460846849 0.869 8.73196296879e-39
0.0144741610039 -0.0675460846849 0.869 1.37969058213e-38
0.016045387534 -0.067390627643 0.867 1.74821077852e-38
0.0176499262875 -0.067390627643 0.867 1.51754570077e-38
0.0192544650409 -0.067390627643 0.867 1.10303040464e-38
0.0208590037943 -0.067390627643 0.867 8.08156149696e-39
0.0254653439987 -0.0668465279965 0.86 1.139985728e-38
0.0269940049102 -0.0666910709547 0.858 1.34208968057e-38
0.028581887552 -0.0666910709547 0.858 1.48934933359e-38
0.0302400959984 -0.0668465279965 0.86 1.58111308327e-38
0.0319057071611 -0.0670019850384 0.862 1.8658389946e-38
0.0335009925192 -0.0670019850384 0.862 1.89367662937e-38
0.0350962778772 -0.0670019850384 0.862 1.85740878304e-38
0.0367766944725 -0.0671574420802 0.864 1.9123329566e-38
0.0383756811887 -0.0671574420802 0.864 1.81145516172e-38
0.0399746679049 -0.0671574420802 0.864 1.99598711181e-38
0.0414774193095 -0.0670019850384 0.862 1.87614036e-38
0.0430727046675 -0.0670019850384 0.862 1.90364939028e-38
0.0447716280535 -0.0671574420802 0.864 2.18019788429e-38
0.0463706147697 -0.0671574420802 0.864 1.93167227671e-38
0.0479696014859 -0.0671574420802 0.864 2.0788542978e-38
0.0499701855602 -0.0677015417267 0.871 1.95928878659e-38
0.0515821270299 -0.0677015417267 0.871 2.0062193932e-38
0.0531940684996 -0.0677015417267 0.871 1.45297386753e-38
0.054931856146 -0.0678569987686 0.873 9.82644293046e-39
0.0565474989738 -0.0678569987686 0.873 1.16735112519e-38
0.0 -0.0663931116244 0.875 1.12240433681e-38
0.00161934418596 -0.0663931116244 0.875 8.65162652783e-39
0.00323868837192 -0.0663931116244 0.875 8.46793591734e-39
0.00484692848347 -0.0662413559407 0.873 7.3626575497e-39
0.00646257131129 -0.0662413559407 0.873 7.17827329647e-39
0.00807821413911 -0.0662413559407 0.873 7.1797082261e-39
0.0096716488181 -0.066089600257 0.871 6.53397588075e-39
0.0112835902878 -0.066089600257 0.871 6.25631139264e-39
0.0128955317575 -0.066089600257 0.871 7.17572993976e-39
0.0145074732272 -0.066089600257 0.871 4.50102531805e-39
0.0160824011154 -0.0659378445733 0.869 1.10357396831e-38
0.017690641227 -0.0659378445733 0.869 1.39772921701e-38
0.0192544650409 -0.0657860888896 0.867 1.74796681245e-38
0.0208590037943 -0.0657860888896 0.867 1.42553083841e-38
0.0223858140267 -0.065558455364 0.864 1.21334061975e-38
0.0239292803708 -0.0654066996803 0.862 9.2829184925e-39
0.0254653439987 -0.0652549439966 0.86 7.170402203e-39
0.0269940049102 -0.0651031883129 0.858 6.80701047874e-39
0.028581887552 -0.0651031883129 0.858 6.52821234017e-39
0.0302400959984 -0.0652549439966 0.86 7.90183375852e-39
0.0319057071611 -0.0654066996803 0.862 1.31433135929e-38
0.0335009925192 -0.0654066996803 0.862 1.31457490496e-38
0.0350962778772 -0.0654066996803 0.862 1.46194217771e-38
0.0367766944725 -0.065558455364 0.864 1.48956457303e-38
0.0383756811887 -0.065558455364 0.864 1.53630740565e-38
0.0399746679049 -0.065558455364 0.864 1.6008074924e-38
0.0415736546211 -0.065558455364 0.864 1.49953733395e-38
0.0433225463419 -0.0657860888896 0.867 1.43471438802e-38
0.0449270850953 -0.0657860888896 0.867 1.43421468499e-38
0.0463706147697 -0.065558455364 0.864 1.4340386819e-38
0.0479696014859 -0.065558455364 0.864 1.52637570278e-38
0.0498554434579 -0.0659378445733 0.869 1.27770295886e-38
0.0515821270299 -0.066089600257 0.871 1.04832959804e-38
0.0531940684996 -0.066089600257 0.871 1.03010108723e-38
0.054931856146 -0.0662413559407 0.873 1.65652690285e-38
0.0565474989738 -0.0662413559407 0.873 2.07982848049e-38
0.0 -0.0647737674385 0.875 1.02009217282e-38
0.00161934418596 -0.0647737674385 0.875 9.75509722044e-39
0.00323868837192 -0.0647737674385 0.875 8.46793031214e-39
0.00485803255789 -0.0647737674385 0.875 7.36230722509e-39
0.00647737674385 -0.0647737674385 0.875 7.17756984464e-39
0.00807821413911 -0.0646257131129 0.873 7.17898935999e-39
0.00969385696694 -0.0646257131129 0.873 6.71658749143e-39
0.0113094997948 -0.0646257131129 0.873 6.53577514798e-39
0.0128955317575 -0.0644776587873 0.871 6.34958462103e-39
0.0145074732272 -0.0644776587873 0.871 7.08357214495e-39
0.0160824011154 -0.0643296044618 0.869 6.43785381259e-39
0.017690641227 -0.0643296044618 0.869 4.50246445157e-39
0.0192544650409 -0.0641815501362 0.867 9.74180310191e-39
0.0208590037943 -0.0641815501362 0.867 1.49046140405e-38
0.0223858140267 -0.0639594686478 0.864 1.87685334066e-38
0.0239292803708 -0.0638114143223 0.862 1.71994252472e-38
0.0255245657289 -0.0638114143223 0.862 1.48084737555e-38
0.0270569279986 -0.0636633599967 0.86 1.21362816619e-38
0.0286485119985 -0.0636633599967 0.86 9.36866674813e-39
0.0303104218031 -0.0638114143223 0.862 6.33665904399e-39
0.0319057071611 -0.0638114143223 0.862 6.5271809845e-39
0.0335009925192 -0.0638114143223 0.862 7.35760727004e-39
0.0350962778772 -0.0638114143223 0.862 6.8981116945e-39
