# .PCD v0.7 - Point Cloud Data file format
VERSION 0.7
FIELDS x y z rgb
SIZE 4 4 4 4
TYPE F F F F
COUNT 1 1 1 1
WIDTH 846
HEIGHT 1
VIEWPOINT 0 0 0 1 0 0 0
POINTS 846
DATA ascii
0.0144352967434 -0.111873549762 0.975 1.20587898568e-38
0.0162397088364 -0.111873549762 0.975 1.20580751946e-38
0.0180441209293 -0.111873549762 0.975 1.26119552282e-38
0.0198485330222 -0.111873549762 0.975 1.29814496073e-38
0.0216529451152 -0.111873549762 0.975 1.0768803536e-38
0.0234573572081 -0.111873549762 0.975 1.13208814998e-38
0.025261769301 -0.111873549762 0.975 1.19640845014e-38
0.0270661813939 -0.111873549762 0.975 1.15049070206e-38
0.0288705934869 -0.111873549762 0.975 1.01176888033e-38
0.0306120824914 -0.111644065557 0.973 1.33434610526e-38
0.0324127932262 -0.111644065557 0.973 1.4448719802e-38
0.034108015254 -0.11129983925 0.97 1.70284402099e-38
0.0359031739516 -0.11129983925 0.97 2.07241364979e-38
0.0375817398678 -0.110955612943 0.967 2.12867424171e-38
0.0393713465282 -0.110955612943 0.967 2.12888681868e-38
0.0410332563327 -0.110611386636 0.964 1.29897621098e-38
0.0427284783606 -0.110381902431 0.962 3.58158435016e-39
0.0445088316256 -0.110381902431 0.962 3.94892633479e-39
0.0462891848906 -0.110381902431 0.962 1.30544348365e-38
0.0453712480721 -0.104185828906 0.908 1.46313706491e-38
0.0470516646673 -0.104185828906 0.908 1.78571218789e-38
0.0490004297277 -0.104759539418 0.913 2.02487880329e-38
0.0506900997183 -0.104759539418 0.913 1.92353171354e-38
0.0524945118112 -0.104989023622 0.915 1.37108198528e-38
0.05418788316 -0.104989023622 0.915 2.34969712485e-38
0.0558812545087 -0.104989023622 0.915 2.35098856151e-38
0.0575746258575 -0.104989023622 0.915 2.35098856151e-38
-0.0205425376733 -0.104424566506 0.925 2.35098856151e-38
-0.0187899445944 -0.10419878366 0.923 2.35098856151e-38
-0.0170817678131 -0.10419878366 0.923 4.51144957733e-39
-0.0153735910318 -0.10419878366 0.923 1.6108276172e-38
-0.0136209979528 -0.10386010939 0.92 1.19666853114e-38
-0.0118924637017 -0.103634326543 0.918 7.17725174989e-39
-0.0101602280925 -0.103295652274 0.915 8.28287343565e-39
-0.00846685674374 -0.103295652274 0.915 1.5091290818e-38
-0.00715842664149 -0.109166006283 0.967 1.69337264467e-38
-0.00536881998112 -0.109166006283 0.967 1.29699995975e-38
-0.00359031739516 -0.109504680552 0.97 4.04081648159e-39
-0.00179515869758 -0.109504680552 0.97 3.78350585368e-44
0.0 -0.109843354822 0.973 2.6711551327e-39
0.00180071073479 -0.109843354822 0.973 1.32600375511e-38
0.00360142146958 -0.109843354822 0.973 1.67641132806e-38
0.00540213220437 -0.109843354822 0.973 2.19265626842e-38
0.00720284293916 -0.109843354822 0.973 2.17462323874e-38
0.00902206046465 -0.110069137669 0.975 2.29483152556e-38
0.0108264725576 -0.110069137669 0.975 2.23958575399e-38
0.0126308846505 -0.110069137669 0.975 2.00888662469e-38
0.0144352967434 -0.110069137669 0.975 2.09142884956e-38
0.0162397088364 -0.110069137669 0.975 1.9712466269e-38
0.0180996413014 -0.110407811938 0.978 1.92501008342e-38
0.0199096054315 -0.110407811938 0.978 1.93419405343e-38
0.0217195695617 -0.110407811938 0.978 1.98021549759e-38
0.0235295336918 -0.110407811938 0.978 2.15566843493e-38
0.0253394978219 -0.110407811938 0.978 2.16496983375e-38
0.0271494619521 -0.110407811938 0.978 2.28478729842e-38
0.0288705934869 -0.110069137669 0.975 2.34979129211e-38
0.0306750055798 -0.110069137669 0.975 2.34985967547e-38
0.0324794176727 -0.110069137669 0.975 2.30279902837e-38
0.034108015254 -0.109504680552 0.97 1.8320145924e-38
0.0359031739516 -0.109504680552 0.97 1.1766862953e-38
0.0375817398678 -0.109166006283 0.967 9.09175896119e-39
0.0393713465282 -0.109166006283 0.967 8.908069752e-39
0.0385644504538 -0.102279629464 0.906 1.41646850111e-38
0.0402411656909 -0.102279629464 0.906 1.6568773676e-38
0.0420104148815 -0.102505412311 0.908 1.75783293455e-38
0.0436908314768 -0.102505412311 0.908 1.99678781375e-38
0.0453712480721 -0.102505412311 0.908 2.01533259763e-38
0.0470516646673 -0.102505412311 0.908 1.94179679825e-38
0.0490004297277 -0.103069869427 0.913 1.71191854959e-38
0.0506900997183 -0.103069869427 0.913 1.21482375404e-38
0.0524945118112 -0.103295652274 0.915 8.37294609834e-39
0.05418788316 -0.103295652274 0.915 2.35098856151e-38
0.0558812545087 -0.103295652274 0.915 2.35098856151e-38
0.0575746258575 -0.103295652274 0.915 2.35098856151e-38
-0.0222544158128 -0.102712688367 0.925 2.35098856151e-38
-0.0205425376733 -0.102712688367 0.925 2.35098856151e-38
-0.0187899445944 -0.102490606878 0.923 2.35098856151e-38
-0.0170817678131 -0.102490606878 0.923 1.28126688125e-38
-0.0153236226969 -0.102157484646 0.92 6.06485338476e-39
-0.0136209979528 -0.102157484646 0.92 1.78675293226e-38
-0.0118924637017 -0.101935403157 0.918 1.04840148465e-38
-0.0101602280925 -0.101602280925 0.915 6.34464504394e-39
-0.00844834995305 -0.101380199437 0.913 5.98193154813e-39
-0.00675867996244 -0.101380199437 0.913 1.32581247787e-38
-0.00506900997183 -0.101380199437 0.913 1.67496224532e-38
-0.00360142146958 -0.108042644087 0.973 1.67467091537e-38
-0.00180071073479 -0.108042644087 0.973 1.05747138896e-38
0.0 -0.108042644087 0.973 5.32649661222e-39
0.00180071073479 -0.108042644087 0.973 1.37757167873e-39
0.00360142146958 -0.108042644087 0.973 1.54142831076e-44
0.00540213220437 -0.108042644087 0.973 0.0
0.00721764837172 -0.108264725576 0.975 0.0
0.00902206046465 -0.108264725576 0.975 8.2652086672e-40
0.0108264725576 -0.108264725576 0.975 3.94897257764e-39
0.0126308846505 -0.108264725576 0.975 8.83498082669e-39
0.0144797130411 -0.108597847808 0.978 1.34433400019e-38
0.0162896771712 -0.108597847808 0.978 1.71281888385e-38
0.0180996413014 -0.108597847808 0.978 1.81379869327e-38
0.0199096054315 -0.108597847808 0.978 1.92400114853e-38
0.0217195695617 -0.108597847808 0.978 1.92364255625e-38
0.0235295336918 -0.108597847808 0.978 1.87761872988e-38
0.0253394978219 -0.108597847808 0.978 1.86814749369e-38
0.0271494619521 -0.108597847808 0.978 1.71119435854e-38
0.0289594260822 -0.108597847808 0.978 1.72926998769e-38
0.0307693902124 -0.108597847808 0.978 1.73834731888e-38
0.0324794176727 -0.108264725576 0.975 1.67366940736e-38
0.034213503961 -0.108042644087 0.973 1.84923949325e-38
0.0335343047424 -0.100602914227 0.906 1.8676728739e-38
0.0352110199796 -0.100602914227 0.906 1.84934164791e-38
0.0368877352167 -0.100602914227 0.906 1.87703494894e-38
0.0385644504538 -0.100602914227 0.906 1.94150392687e-38
0.0402411656909 -0.100602914227 0.906 2.01500791677e-38
0.0420104148815 -0.100824995716 0.908 1.90466575206e-38
0.0436908314768 -0.100824995716 0.908 1.74861337156e-38
0.0453712480721 -0.100824995716 0.908 1.42643817916e-38
0.0471553026952 -0.101047077204 0.91 1.21446656306e-38
0.0490004297277 -0.101380199437 0.913 8.83498082669e-39
0.0506900997183 -0.101380199437 0.913 7.18448244997e-39
0.0524945118112 -0.101602280925 0.915 1.70360955034e-38
0.05418788316 -0.101602280925 0.915 2.35098856151e-38
0.0558812545087 -0.101602280925 0.915 2.35098856151e-38
0.0575746258575 -0.101602280925 0.915 2.35098856151e-38
-0.0222544158128 -0.101000810227 0.925 2.35098856151e-38
-0.0205425376733 -0.101000810227 0.925 2.35098856151e-38
-0.0187899445944 -0.100782430097 0.923 2.35098856151e-38
-0.0170817678131 -0.100782430097 0.923 1.99135329805e-38
-0.0153236226969 -0.100454859902 0.92 2.38776774166e-39
-0.0136209979528 -0.100454859902 0.92 1.20650326415e-38
-0.0118924637017 -0.100236479772 0.918 1.6571036773e-38
-0.0101602280925 -0.0999089095762 0.915 9.74432403785e-39
-0.00844834995305 -0.099690529446 0.913 4.31808019834e-39
-0.00675867996244 -0.099690529446 0.913 3.77503920836e-39
-0.00506900997183 -0.099690529446 0.913 1.13205311752e-38
-0.00360142146958 -0.106241933353 0.973 1.59220674282e-38
-0.00180071073479 -0.106241933353 0.973 1.77580865112e-38
0.0 -0.106241933353 0.973 1.57336754614e-38
0.00180071073479 -0.106241933353 0.973 1.06683430478e-38
0.00360142146958 -0.106241933353 0.973 8.45822772158e-39
0.00541323627879 -0.106460313483 0.975 4.3192124475e-39
0.00721764837172 -0.106460313483 0.975 4.23779980932e-39
0.00902206046465 -0.106460313483 0.975 3.86830543025e-39
0.0108264725576 -0.106460313483 0.975 4.69730799655e-39
0.012669748911 -0.106787883678 0.978 3.40768040814e-39
0.0144797130411 -0.106787883678 0.978 6.42904525045e-40
0.0162896771712 -0.106787883678 0.978 2.75512514057e-39
0.0180996413014 -0.106787883678 0.978 5.78567129042e-39
0.0199096054315 -0.106787883678 0.978 9.3697933921e-39
0.0217195695617 -0.106787883678 0.978 1.25026105078e-38
0.0235295336918 -0.106787883678 0.978 1.36164353947e-38
0.0253394978219 -0.106787883678 0.978 1.49096362942e-38
0.0271494619521 -0.106787883678 0.978 1.537134452e-38
0.0289594260822 -0.106787883678 0.978 1.42649941591e-38
0.0285041590311 -0.0989261989902 0.906 1.55532022321e-38
0.0301808742682 -0.0989261989902 0.906 1.68443222034e-38
0.0318575895053 -0.0989261989902 0.906 1.564505034e-38
0.0335343047424 -0.0989261989902 0.906 1.62894052089e-38
0.0352110199796 -0.0989261989902 0.906 1.51862876435e-38
0.0368877352167 -0.0989261989902 0.906 1.50941046254e-38
0.038649581691 -0.0991445791204 0.908 1.46320348645e-38
0.0403299982863 -0.0991445791204 0.908 1.15871380171e-38
0.0420104148815 -0.0991445791204 0.908 1.16775610044e-38
0.0436908314768 -0.0991445791204 0.908 7.81686602614e-39
0.0453712480721 -0.0991445791204 0.908 6.90390466235e-39
0.0471553026952 -0.0993629592506 0.91 6.63302386011e-39
0.0490004297277 -0.099690529446 0.913 8.10821279245e-39
0.0506900997183 -0.099690529446 0.913 1.65772277096e-38
0.0524945118112 -0.0999089095762 0.915 2.06198112286e-38
0.0543655483507 -0.100236479772 0.918 2.35098856151e-38
0.0560644717366 -0.100236479772 0.918 2.35098856151e-38
-0.0205425376733 -0.0992889320879 0.925 2.35098856151e-38
-0.0188306595339 -0.0992889320879 0.925 2.35098856151e-38
-0.0170817678131 -0.0990742533158 0.923 2.35098856151e-38
-0.0153735910318 -0.0990742533158 0.923 2.93880594198e-39
-0.0136654142505 -0.0990742533158 0.923 6.44619293975e-39
-0.0118924637017 -0.0985375563856 0.918 1.57438769142e-38
-0.0101602280925 -0.0982155382274 0.915 1.71173708144e-38
-0.00846685674374 -0.0982155382274 0.915 1.15892890103e-38
-0.006773485395 -0.0982155382274 0.915 7.35947520089e-39
-0.00508011404625 -0.0982155382274 0.915 2.94527853959e-39
-0.0033682359068 -0.0976788412972 0.91 5.69493861615e-39
-0.00168041659526 -0.0974641625252 0.908 1.22364548839e-38
0.0 -0.0974641625252 0.908 1.53699474255e-38
0.00180441209293 -0.10465590139 0.975 1.79452397302e-38
0.00360882418586 -0.10465590139 0.975 1.54574641198e-38
0.00541323627879 -0.10465590139 0.975 1.28810788022e-38
0.00721764837172 -0.10465590139 0.975 1.00241479269e-38
0.00904982065069 -0.104977919548 0.978 8.54367329674e-39
0.0108597847808 -0.104977919548 0.978 4.59293228043e-39
0.012669748911 -0.104977919548 0.978 3.49952571339e-39
0.013413721897 -0.0972494837531 0.906 4.23850326115e-39
0.0150904371341 -0.0972494837531 0.906 4.05485328831e-39
0.0167671523712 -0.0972494837531 0.906 4.33069889101e-39
0.0184438676083 -0.0972494837531 0.906 4.32821298754e-39
0.0201205828455 -0.0972494837531 0.906 3.77468608114e-39
0.0217972980826 -0.0972494837531 0.906 2.48571009652e-39
0.0234740133197 -0.0972494837531 0.906 3.68241758376e-39
0.0251507285568 -0.0972494837531 0.906 3.59061712006e-39
0.026827443794 -0.0972494837531 0.906 5.60959813837e-39
0.0285041590311 -0.0972494837531 0.906 5.14647179851e-39
0.0301808742682 -0.0972494837531 0.906 5.51234802495e-39
0.0318575895053 -0.0972494837531 0.906 5.7886014055e-39
0.0335343047424 -0.0972494837531 0.906 7.44807650019e-39
0.0352110199796 -0.0972494837531 0.906 5.14607663234e-39
0.0369691650957 -0.0974641625252 0.908 6.711594665e-39
0.038649581691 -0.0974641625252 0.908 5.88619063316e-39
0.0403299982863 -0.0974641625252 0.908 7.54709365098e-39
0.0420104148815 -0.0974641625252 0.908 6.90680114628e-39
0.0436908314768 -0.0974641625252 0.908 8.01853389463e-39
0.0454711847418 -0.0976788412972 0.91 6.36042926984e-39
0.0471553026952 -0.0976788412972 0.91 9.48144745243e-39
0.0490004297277 -0.0980008594554 0.913 1.74023402714e-38
0.0508011404625 -0.0982155382274 0.915 2.12666029555e-38
0.0524945118112 -0.0982155382274 0.915 2.0806332462e-38
-0.0206091621199 -0.0978935200693 0.928 2.35098856151e-38
-0.0188306595339 -0.0975770539484 0.925 2.35098856151e-38
-0.0171187813945 -0.0975770539484 0.925 2.35098856151e-38
-0.015406903255 -0.0975770539484 0.925 1.7449669127e-39
-0.0136950251156 -0.0975770539484 0.925 7.73046616673e-39
-0.0118924637017 -0.0968386329996 0.918 1.5649163151e-38
-0.0101935403157 -0.0968386329996 0.918 1.60114366391e-38
-0.00846685674374 -0.0965221668787 0.915 1.72077741835e-38
-0.006773485395 -0.0965221668787 0.915 1.4077789092e-38
-0.00508011404625 -0.0965221668787 0.915 8.55218338231e-39
-0.0033682359068 -0.0959947233438 0.91 4.50250508923e-39
-0.00168041659526 -0.0957837459299 0.908 1.28752003551e-39
0.0 -0.0957837459299 0.908 8.09454172464e-39
0.00168041659526 -0.0957837459299 0.908 1.08588902117e-38
0.00335343047424 -0.095572768516 0.906 1.41725210721e-38
0.00503014571137 -0.095572768516 0.906 1.72992089083e-38
0.00670686094849 -0.095572768516 0.906 1.75704400352e-38
0.00835581599956 -0.095256302395 0.903 1.65626976458e-38
0.0100269791995 -0.095256302395 0.903 1.43568772994e-38
0.0116981423994 -0.095256302395 0.903 1.24254508104e-38
0.013413721897 -0.095572768516 0.906 1.03911535999e-38
0.0150904371341 -0.095572768516 0.906 9.83831052715e-39
0.0167671523712 -0.095572768516 0.906 9.83759166104e-39
0.0184438676083 -0.095572768516 0.906 8.91457177687e-39
0.0201205828455 -0.095572768516 0.906 9.37808067121e-39
0.0217972980826 -0.095572768516 0.906 8.26846808743e-39
0.0234740133197 -0.095572768516 0.906 1.02081482243e-38
0.0251507285568 -0.095572768516 0.906 9.56026348456e-39
0.026827443794 -0.095572768516 0.906 1.0388257116e-38
0.0285041590311 -0.095572768516 0.906 1.06648538146e-38
0.0301808742682 -0.095572768516 0.906 1.07559536291e-38
0.0318575895053 -0.095572768516 0.906 1.24165637756e-38
0.0335343047424 -0.095572768516 0.906 1.33402815064e-38
0.0352110199796 -0.095572768516 0.906 1.60159838526e-38
0.0369691650957 -0.0957837459299 0.908 1.68483495352e-38
0.038649581691 -0.0957837459299 0.908 1.51034050433e-38
0.0403299982863 -0.0957837459299 0.908 6.26034012573e-39
0.0420104148815 -0.0957837459299 0.908 6.07450412728e-39
0.0436908314768 -0.0957837459299 0.908 7.45350372915e-39
0.0454711847418 -0.0959947233438 0.91 1.4731064627e-38
0.0473107597371 -0.0963111894648 0.913 1.92404066514e-38
0.0491077691137 -0.0965221668787 0.915 2.05243113369e-38
0.0508011404625 -0.0965221668787 0.915 1.97878000745e-38
0.0524945118112 -0.0965221668787 0.915 1.95185629953e-38
-0.0206091621199 -0.0961760898927 0.928 2.35098856151e-38
-0.0188917319432 -0.0961760898927 0.928 2.35098856151e-38
-0.0171743017665 -0.0961760898927 0.928 2.35098856151e-38
-0.0154568715899 -0.0961760898927 0.928 1.37754085016e-39
-0.0136950251156 -0.095865175809 0.925 1.41730143292e-38
-0.0119831469761 -0.095865175809 0.925 1.72164243989e-38
-0.0101935403157 -0.0951397096136 0.918 1.71173862287e-38
-0.00846685674374 -0.0948287955299 0.915 1.60099722822e-38
-0.00675867996244 -0.0946215194741 0.913 1.72974642917e-38
-0.00506900997183 -0.0946215194741 0.913 1.64713007561e-38
-0.0033682359068 -0.0943106053904 0.91 1.2327839162e-38
-0.00168041659526 -0.0941033293346 0.908 7.169303585e-39
0.0 -0.0941033293346 0.908 3.67852477663e-39
0.00168041659526 -0.0941033293346 0.908 2.76511079343e-39
0.00336083319052 -0.0941033293346 0.908 5.70355099651e-39
0.00503014571137 -0.0938960532788 0.906 9.6543046245e-39
0.00670686094849 -0.0938960532788 0.906 1.42635648346e-38
0.00835581599956 -0.0935851391951 0.903 1.42628767971e-38
0.0100269791995 -0.0935851391951 0.903 1.80395975636e-38
0.0116981423994 -0.0935851391951 0.903 1.84055116251e-38
0.013413721897 -0.0938960532788 0.906 1.71134051397e-38
0.0150904371341 -0.0938960532788 0.906 1.74829317487e-38
0.0167671523712 -0.0938960532788 0.906 1.72070651265e-38
0.0184438676083 -0.0938960532788 0.906 1.77605527965e-38
0.0201205828455 -0.0938960532788 0.906 1.89586489705e-38
0.0217972980826 -0.0938960532788 0.906 1.72095272079e-38
0.0234740133197 -0.0938960532788 0.906 1.86832728028e-38
0.0251507285568 -0.0938960532788 0.906 1.75740161488e-38
0.026827443794 -0.0938960532788 0.906 1.93257247084e-38
0.0285041590311 -0.0938960532788 0.906 1.90506105835e-38
0.0301808742682 -0.0938960532788 0.906 1.81289821887e-38
0.0318575895053 -0.0938960532788 0.906 1.80382537184e-38
0.0335343047424 -0.0938960532788 0.906 1.65648766649e-38
0.0352110199796 -0.0938960532788 0.906 1.54599318063e-38
0.0369691650957 -0.0941033293346 0.908 1.21420311895e-38
0.038649581691 -0.0941033293346 0.908 4.77550745735e-39
0.0403299982863 -0.0941033293346 0.908 8.82638386062e-39
0.0420104148815 -0.0941033293346 0.908 1.39863725841e-38
0.0436908314768 -0.0941033293346 0.908 1.66589710542e-38
0.0454711847418 -0.0943106053904 0.91 2.00647821302e-38
0.047414397765 -0.0948287955299 0.915 2.09820048426e-38
0.0491077691137 -0.0948287955299 0.915 2.08030253976e-38
0.0508011404625 -0.0948287955299 0.915 8.91420603797e-39
0.0524945118112 -0.0948287955299 0.915 2.34926664596e-38
-0.0171743017665 -0.094458659716 0.928 2.35098856151e-38
-0.0154568715899 -0.094458659716 0.928 5.06458412015e-39
-0.0137394414132 -0.094458659716 0.928 1.1318502095e-38
-0.0119831469761 -0.0941532976695 0.925 1.36283520369e-38
-0.0102490606878 -0.0939497229719 0.923 1.07669944597e-38
-0.00846685674374 -0.0931354241812 0.915 9.19149778069e-39
-0.00675867996244 -0.0929318494835 0.913 1.3617549427e-38
-0.00506900997183 -0.0929318494835 0.913 1.29775960365e-38
-0.0033682359068 -0.092626487437 0.91 1.6571332447e-38
-0.00168041659526 -0.0924229127394 0.908 1.59219791464e-38
0.0 -0.0924229127394 0.908 1.21456030993e-38
0.00168041659526 -0.0924229127394 0.908 9.01284764077e-39
0.00336083319052 -0.0924229127394 0.908 5.42089087938e-39
0.00504124978578 -0.0924229127394 0.908 3.96050106011e-39
0.00670686094849 -0.0922193380417 0.906 4.59536213197e-40
0.00838357618561 -0.0922193380417 0.906 5.06179413491e-39
0.0100602914227 -0.0922193380417 0.906 9.37658548575e-39
0.0117370066599 -0.0922193380417 0.906 1.28796592869e-38
0.013413721897 -0.0922193380417 0.906 1.23285566268e-38
0.0150904371341 -0.0922193380417 0.906 1.41717573645e-38
0.0167671523712 -0.0922193380417 0.906 1.48163812827e-38
0.0184438676083 -0.0922193380417 0.906 1.41717994034e-38
0.0201205828455 -0.0922193380417 0.906 1.57390634539e-38
0.0217972980826 -0.0922193380417 0.906 1.55547100293e-38
0.0234740133197 -0.0922193380417 0.906 1.50944577526e-38
0.0251507285568 -0.0922193380417 0.906 1.53706690942e-38
0.026827443794 -0.0922193380417 0.906 1.44497917954e-38
0.0285041590311 -0.0922193380417 0.906 1.4079624793e-38
0.0301808742682 -0.0922193380417 0.906 1.11282702233e-38
0.03192791531 -0.0924229127394 0.908 9.09432613998e-39
0.0335343047424 -0.0922193380417 0.906 6.80091903431e-39
0.0352110199796 -0.0922193380417 0.906 4.31627952981e-39
0.0369691650957 -0.0924229127394 0.908 1.07556551525e-38
0.038649581691 -0.0924229127394 0.908 1.53698927748e-38
0.0403299982863 -0.0924229127394 0.908 1.84127815615e-38
0.0420104148815 -0.0924229127394 0.908 1.86818028407e-38
0.0436908314768 -0.0924229127394 0.908 2.11645828222e-38
0.0456210897465 -0.0929318494835 0.913 2.11645828222e-38
0.047414397765 -0.0931354241812 0.915 1.7580853084e-38
0.0492687781928 -0.0934407862277 0.918 1.26095912377e-38
0.0509677015787 -0.0934407862277 0.918 3.76566732423e-39
-0.015406903255 -0.0924414195301 0.925 1.27222710485e-38
-0.0136950251156 -0.0924414195301 0.925 7.81506816021e-39
-0.0119831469761 -0.0924414195301 0.925 5.71145992504e-39
-0.0102490606878 -0.0922415461905 0.923 7.27698776679e-39
-0.00849461692979 -0.0917418628417 0.918 4.97176491247e-39
-0.006773485395 -0.0914420528324 0.915 4.78980210298e-39
-0.00506900997183 -0.0912421794929 0.913 4.05014072157e-39
-0.00337933998122 -0.0912421794929 0.913 7.72787236327e-39
-0.0016841179534 -0.0909423694836 0.91 1.18669520971e-38
0.0 -0.0909423694836 0.91 1.46348472706e-38
0.0016841179534 -0.0909423694836 0.91 1.50991114648e-38
0.00336083319052 -0.0907424961441 0.908 1.28882086088e-38
0.00504124978578 -0.0907424961441 0.908 1.10428666871e-38
0.00672166638105 -0.0907424961441 0.908 8.09125988363e-39
0.00840208297631 -0.0907424961441 0.908 5.06033538321e-39
0.0100602914227 -0.0905426228046 0.906 4.60433324474e-39
0.0117370066599 -0.0905426228046 0.906 3.03890349388e-39
0.013413721897 -0.0905426228046 0.906 3.68243019545e-39
0.0150904371341 -0.0905426228046 0.906 4.51221328499e-39
0.0167671523712 -0.0905426228046 0.906 3.49378739618e-39
0.0184438676083 -0.0905426228046 0.906 5.33369227984e-39
0.0201205828455 -0.0905426228046 0.906 4.13303873613e-39
0.0217972980826 -0.0905426228046 0.906 5.42126082217e-39
0.0234740133197 -0.0905426228046 0.906 5.79323129563e-39
0.0252062489289 -0.0907424961441 0.908 4.41212414088e-39
0.0268866655242 -0.0907424961441 0.908 4.32598912687e-39
0.0285670821194 -0.0907424961441 0.908 2.48285004636e-39
0.0302474987147 -0.0907424961441 0.908 6.98965852317e-39
0.03192791531 -0.0907424961441 0.908 1.07588613234e-38
0.0336083319052 -0.0907424961441 0.908 1.40749500613e-38
0.0352887485005 -0.0907424961441 0.908 1.40774093401e-38
0.0369691650957 -0.0907424961441 0.908 1.96915588959e-38
0.038649581691 -0.0907424961441 0.908 1.90451931637e-38
0.0403299982863 -0.0907424961441 0.908 2.11639003898e-38
0.0420104148815 -0.0907424961441 0.908 1.97874469472e-38
0.0437870667884 -0.0909423694836 0.91 1.74850645249e-38
0.0454711847418 -0.0909423694836 0.91 1.45352527848e-38
0.0471553026952 -0.0909423694836 0.91 9.47708801291e-39
-0.015406903255 -0.0907295413906 0.925 2.21262323011e-38
-0.0136950251156 -0.0907295413906 0.925 1.04873191083e-38
-0.0119831469761 -0.0907295413906 0.925 1.29797610427e-38
-0.0102490606878 -0.0905333694092 0.923 1.19638294651e-38
-0.00849461692979 -0.0900429394558 0.918 1.12205387207e-38
-0.006773485395 -0.0897486814837 0.915 7.63065447971e-39
-0.00508011404625 -0.0897486814837 0.915 4.22809301486e-39
-0.0033867426975 -0.0897486814837 0.915 4.14305802015e-39
-0.00168966999061 -0.0895525095023 0.913 3.95691653864e-39
0.0 -0.0895525095023 0.913 3.21715846763e-39
0.00168966999061 -0.0895525095023 0.913 5.97695413599e-39
0.00337933998122 -0.0895525095023 0.913 7.9079672419e-39
0.0050523538602 -0.0892582515302 0.91 1.26956281608e-38
0.0067364718136 -0.0892582515302 0.91 1.27049117632e-38
0.00840208297631 -0.0890620795488 0.908 1.28003289782e-38
0.0100824995716 -0.0890620795488 0.908 1.19655866934e-38
0.0117370066599 -0.0888659075675 0.906 1.1221582688e-38
0.013413721897 -0.0888659075675 0.906 1.02052559443e-38
0.0151237493574 -0.0890620795488 0.908 9.18899786423e-39
0.0168041659526 -0.0890620795488 0.908 9.92442732428e-39
0.0184845825479 -0.0890620795488 0.908 8.36359523368e-39
0.0201205828455 -0.0888659075675 0.906 8.55120807858e-39
0.0217972980826 -0.0888659075675 0.906 8.91959823446e-39
0.0235258323337 -0.0890620795488 0.908 9.2865660724e-39
0.0252062489289 -0.0890620795488 0.908 1.14002230189e-38
0.0268866655242 -0.0890620795488 0.908 1.39809817889e-38
0.0285670821194 -0.0890620795488 0.908 1.4816007136e-38
0.0302474987147 -0.0890620795488 0.908 1.68432277893e-38
0.03192791531 -0.0890620795488 0.908 1.94175307773e-38
0.0336083319052 -0.0890620795488 0.908 1.84901696705e-38
0.0352887485005 -0.0890620795488 0.908 2.10691684097e-38
0.0369691650957 -0.0890620795488 0.908 1.94147015557e-38
0.038649581691 -0.0890620795488 0.908 2.00611121295e-38
0.0404188308816 -0.0892582515302 0.91 1.6289321131e-38
0.0422417497652 -0.0895525095023 0.913 1.22367477553e-38
0.0439314197559 -0.0895525095023 0.913 9.38130225638e-39
0.0456210897465 -0.0895525095023 0.913 7.36489542335e-39
-0.0136950251156 -0.0890176632512 0.925 7.44741508732e-39
-0.0119831469761 -0.0890176632512 0.925 1.74000141159e-38
-0.0102712688367 -0.0890176632512 0.925 1.65652564168e-38
-0.00855939069723 -0.0890176632512 0.925 1.69325661716e-38
-0.00681049897639 -0.0885364866931 0.92 1.48164415385e-38
-0.00509677015787 -0.0883440160698 0.918 1.49136734351e-38
-0.00339784677192 -0.0883440160698 0.918 1.08563300394e-38
-0.00169337134875 -0.0880553101349 0.915 1.04757892245e-38
0.0 -0.0880553101349 0.915 9.46380370347e-39
0.00169337134875 -0.0880553101349 0.915 7.35229494756e-39
0.0033867426975 -0.0880553101349 0.915 6.71014291979e-39
0.00506900997183 -0.0878628395117 0.913 3.39791475914e-39
0.00675867996244 -0.0878628395117 0.913 3.12644961544e-39
0.008420589767 -0.0875741335768 0.91 5.60198628511e-39
0.0100824995716 -0.0873816629536 0.908 1.37018725621e-38
0.0117629161668 -0.0873816629536 0.908 1.88628800296e-38
0.0134433327621 -0.0873816629536 0.908 1.75725658049e-38
0.0151237493574 -0.0873816629536 0.908 1.65580663544e-38
0.0168041659526 -0.0873816629536 0.908 1.73914017356e-38
0.0184845825479 -0.0873816629536 0.908 1.66537932564e-38
0.0201649991431 -0.0873816629536 0.908 1.66545527602e-38
0.0218454157384 -0.0873816629536 0.908 1.70226178148e-38
0.0235258323337 -0.0873816629536 0.908 1.90484399722e-38
0.0252062489289 -0.0873816629536 0.908 1.84037796202e-38
0.0268866655242 -0.0873816629536 0.908 1.98781403852e-38
0.0285670821194 -0.0873816629536 0.908 1.86767679753e-38
0.0303141231612 -0.0875741335768 0.91 1.94120979432e-38
0.0319982411146 -0.0875741335768 0.91 1.83087295454e-38
0.033682359068 -0.0875741335768 0.91 1.73006886795e-38
0.0353664770214 -0.0875741335768 0.91 1.55536576541e-38
0.0370505949748 -0.0875741335768 0.91 1.36178857386e-38
0.038862409784 -0.0878628395117 0.913 1.07552445721e-38
0.0405520797746 -0.0878628395117 0.913 6.98855009609e-39
0.0423342837187 -0.0880553101349 0.915 6.26180027873e-39
0.0440276550675 -0.0880553101349 0.915 6.26389802253e-39
0.0463706147697 -0.089306369186 0.928 9.38955450304e-39
0.0480880449463 -0.089306369186 0.928 1.84149619819e-38
-0.0137394414132 -0.0875889390094 0.928 7.34763843276e-40
-0.0120220112366 -0.0875889390094 0.928 1.08607665503e-38
-0.0102712688367 -0.0873057851117 0.925 1.26105875609e-38
-0.00855939069723 -0.0873057851117 0.925 1.40817729836e-38
-0.00683270712523 -0.0871170158466 0.923 1.5277401471e-38
-0.00510787423229 -0.086833861949 0.92 1.61050167518e-38
-0.00340524948819 -0.086833861949 0.92 1.88665276095e-38
-0.0017026247441 -0.086833861949 0.92 1.69311802874e-38
0.0 -0.0866450926839 0.918 1.7022571572e-38
0.00169892338596 -0.0866450926839 0.918 1.73954024427e-38
0.00339784677192 -0.0866450926839 0.918 1.59223476879e-38
0.00509677015787 -0.0866450926839 0.918 1.36182528788e-38
0.006773485395 -0.0863619387862 0.915 1.4447621184e-38
0.00844834995305 -0.0861731695211 0.913 1.42635592294e-38
0.0101047077204 -0.0858900156234 0.91 1.56447000154e-38
0.0117629161668 -0.0857012463583 0.908 1.80317124571e-38
0.0134433327621 -0.0857012463583 0.908 1.84913355508e-38
0.0151237493574 -0.0857012463583 0.908 1.80317516935e-38
0.0168041659526 -0.0857012463583 0.908 1.84948780334e-38
0.0184845825479 -0.0857012463583 0.908 1.77573522308e-38
0.0201649991431 -0.0857012463583 0.908 1.82143605016e-38
0.0218454157384 -0.0857012463583 0.908 1.78488023699e-38
0.0235258323337 -0.0857012463583 0.908 1.84055914991e-38
0.025261769301 -0.0858900156234 0.91 1.53695844892e-38
0.0269458872544 -0.0858900156234 0.91 1.50943946941e-38
0.0286300052078 -0.0858900156234 0.91 1.51865931266e-38
0.030414059831 -0.0861731695211 0.913 1.25119207348e-38
0.0321037298216 -0.0861731695211 0.913 1.08463738138e-38
0.0337933998122 -0.0861731695211 0.913 8.73881251568e-39
0.0354830698028 -0.0861731695211 0.913 5.062165479e-39
0.0371727397934 -0.0861731695211 0.913 3.86719700316e-39
0.0389475410212 -0.0863619387862 0.915 6.81675791085e-39
0.04064091237 -0.0863619387862 0.915 5.2497783239e-39
0.0423342837187 -0.0863619387862 0.915 7.08292614636e-39
0.0440276550675 -0.0863619387862 0.915 1.59224625944e-38
0.0463706147697 -0.0875889390094 0.928 1.97007065723e-38
0.0480880449463 -0.0875889390094 0.928 2.13550879471e-38
0.049805475123 -0.0875889390094 0.928 1.93264533836e-38
-0.0138430794411 -0.0865192465071 0.935 5.800745058e-39
-0.0120479207436 -0.0860565767397 0.93 6.7167094044e-39
-0.0103267892088 -0.0860565767397 0.93 6.54051714198e-39
-0.00858715088327 -0.0858715088327 0.928 6.62586602755e-39
-0.00684751255778 -0.0855939069723 0.925 8.37291106587e-39
-0.00512453034392 -0.0854088390653 0.923 8.64191693077e-39
-0.00341635356261 -0.0854088390653 0.923 9.55736419804e-39
-0.0017026247441 -0.0851312372049 0.92 1.25072544109e-38
0.0 -0.0851312372049 0.92 1.21456241188e-38
0.00169892338596 -0.0849461692979 0.918 1.25151703459e-38
0.00339784677192 -0.0849461692979 0.918 1.24215229708e-38
0.00509677015787 -0.0849461692979 0.918 1.3712205737e-38
0.006773485395 -0.0846685674374 0.915 1.37096876036e-38
0.00846685674374 -0.0846685674374 0.915 1.33405407466e-38
0.0101380199437 -0.0844834995305 0.913 1.26087504586e-38
0.0117888256738 -0.08420589767 0.91 1.30665462591e-38
0.0134729436272 -0.08420589767 0.91 1.40791931931e-38
0.0151237493574 -0.0840208297631 0.908 1.343489858e-38
0.0168041659526 -0.0840208297631 0.908 1.28827981954e-38
0.0184845825479 -0.0840208297631 0.908 1.17746737906e-38
0.0201649991431 -0.0840208297631 0.908 1.17671712386e-38
0.0218454157384 -0.0840208297631 0.908 9.92759145621e-39
0.0235776513476 -0.08420589767 0.91 7.81396673962e-39
0.025261769301 -0.08420589767 0.91 6.16238656047e-39
0.0269458872544 -0.08420589767 0.91 5.24116594354e-39
0.0287243898404 -0.0844834995305 0.913 4.23418726188e-39
0.030414059831 -0.0844834995305 0.913 5.15610012026e-39
0.0321037298216 -0.0844834995305 0.913 4.51296017707e-39
0.0337933998122 -0.0844834995305 0.913 5.52742739772e-39
0.0354830698028 -0.0844834995305 0.913 3.86865575486e-39
0.0371727397934 -0.0844834995305 0.913 6.62984851779e-39
0.0389475410212 -0.0846685674374 0.915 1.09443273791e-38
0.040774161263 -0.0849461692979 0.918 1.48147137375e-38
0.042473084649 -0.0849461692979 0.918 1.8872642876e-38
0.0445088316256 -0.0855939069723 0.925 2.08022490782e-38
0.046220709765 -0.0855939069723 0.925 2.1995024522e-38
0.0480880449463 -0.0858715088327 0.928 1.98828501493e-38
0.049805475123 -0.0858715088327 0.928 6.06225537741e-39
-0.0138430794411 -0.084788861577 0.935 3.77496634084e-39
-0.012112694511 -0.084788861577 0.935 1.23304834122e-38
-0.010360101432 -0.0846074950282 0.933 8.83923937273e-39
-0.00860565767397 -0.0843354452049 0.93 4.69699971088e-39
-0.00684751255778 -0.0838820288328 0.925 5.80369619256e-39
-0.00513563441834 -0.0838820288328 0.925 4.05053448644e-39
-0.00342375627889 -0.0838820288328 0.925 5.15617298778e-39
-0.00170817678131 -0.083700662284 0.923 4.69590109289e-39
0.0 -0.083700662284 0.923 4.51221328499e-39
0.0017026247441 -0.0834286124608 0.92 4.05229171472e-39
0.00340524948819 -0.0834286124608 0.92 4.5125664122e-39
0.00509677015787 -0.0832472459119 0.918 3.68532948197e-39
0.00679569354383 -0.0832472459119 0.918 4.05229171472e-39
0.00849461692979 -0.0832472459119 0.918 4.23849765595e-39
0.0101602280925 -0.0829751960887 0.915 3.31618823011e-39
0.0118535994412 -0.0829751960887 0.915 3.13142422499e-39
0.0135173599249 -0.0827938295399 0.913 3.59199739905e-39
0.0152070299155 -0.0827938295399 0.913 3.5913135654e-39
0.0168966999061 -0.0827938295399 0.913 4.32637728655e-39
0.0185863698967 -0.0827938295399 0.913 5.79787519874e-39
0.0202760398873 -0.0827938295399 0.913 5.3391096997e-39
0.0219657098779 -0.0827938295399 0.913 5.89192895037e-39
0.0237071988825 -0.0829751960887 0.915 5.61852861349e-39
0.0254005702312 -0.0829751960887 0.915 5.06574019138e-39
0.02709394158 -0.0829751960887 0.915 5.06500450969e-39
0.0287873129287 -0.0829751960887 0.915 4.04943726974e-39
0.0304806842775 -0.0829751960887 0.915 7.08650085874e-39
0.0321740556262 -0.0829751960887 0.915 9.10866142327e-39
0.033867426975 -0.0829751960887 0.915 1.17701251758e-38
0.0355607983237 -0.0829751960887 0.915 1.5274922574e-38
0.0372541696725 -0.0829751960887 0.915 1.84101471204e-38
0.039075237877 -0.0832472459119 0.918 1.99710997227e-38
0.0408629938583 -0.0834286124608 0.92 2.02423014223e-38
0.0427044195327 -0.083700662284 0.923 1.97809925665e-38
0.0445088316256 -0.0838820288328 0.925 2.12593049931e-38
0.046220709765 -0.0838820288328 0.925 1.74864742312e-38
0.0479325879045 -0.0838820288328 0.925 8.1841813861e-39
0.0496444660439 -0.0838820288328 0.925 5.33263570079e-39
-0.0138874957388 -0.0833249744329 0.938 1.73317022171e-38
-0.012112694511 -0.0830584766468 0.935 7.90265491942e-39
-0.0103823095809 -0.0830584766468 0.935 1.54682975582e-38
-0.00863341786002 -0.0828808114561 0.933 1.22407442585e-38
-0.00686972070662 -0.0824366484794 0.928 9.93410329017e-39
-0.00513563441834 -0.0821701506934 0.925 6.98821658705e-39
-0.00342375627889 -0.0821701506934 0.925 5.42268314011e-39
-0.00170817678131 -0.0819924855027 0.923 4.60366622667e-39
0.0 -0.0819924855027 0.923 4.05264203933e-39
0.0017026247441 -0.0817259877167 0.92 3.86930455605e-39
0.00340524948819 -0.0817259877167 0.92 3.7750013733e-39
0.00510787423229 -0.0817259877167 0.92 4.51465434692e-39
0.00679569354383 -0.081548322526 0.918 4.42142455879e-39
0.00849461692979 -0.081548322526 0.918 4.42142455879e-39
0.0101602280925 -0.08128182474 0.915 4.51179990194e-39
0.0118535994412 -0.08128182474 0.915 4.78950362641e-39
0.0135173599249 -0.0811041595493 0.913 3.03705097731e-39
0.0152070299155 -0.0811041595493 0.913 5.43235910601e-39
0.0168966999061 -0.0811041595493 0.913 4.51150703056e-39
0.0185863698967 -0.0811041595493 0.913 5.98552868129e-39
0.0202760398873 -0.0811041595493 0.913 5.70103006057e-39
0.0220138275337 -0.08128182474 0.915 8.181720706e-39
0.0237071988825 -0.08128182474 0.915 1.08510569533e-38
0.0254005702312 -0.08128182474 0.915 1.07591976351e-38
0.02709394158 -0.08128182474 0.915 1.38913281145e-38
0.0288816975613 -0.081548322526 0.918 1.54639479277e-38
0.0305806209472 -0.081548322526 0.918 1.573876778e-38
0.0322795443332 -0.081548322526 0.918 1.87790011061e-38
0.0339784677192 -0.081548322526 0.918 1.94171776501e-38
0.0356773911051 -0.081548322526 0.918 2.00561080927e-38
0.0373763144911 -0.081548322526 0.918 2.02383483593e-38
0.0391603691142 -0.0817259877167 0.92 1.9962499954e-38
0.0409962427514 -0.0819924855027 0.923 2.19929141665e-38
0.0427969534861 -0.0821701506934 0.925 1.81307870612e-38
0.0445088316256 -0.0821701506934 0.925 1.14041032143e-38
0.046220709765 -0.0821701506934 0.925 9.75583990863e-39
0.0479325879045 -0.0821701506934 0.925 6.35579517582e-39
0.0496444660439 -0.0821701506934 0.925 1.6388597522e-38
-0.0138874957388 -0.0815890374655 0.938 2.35098856151e-38
-0.0121515587715 -0.0815890374655 0.938 2.75508029902e-39
-0.0103823095809 -0.0813280917167 0.935 1.06706173552e-38
-0.00863341786002 -0.0811541278841 0.933 1.4266899925e-38
-0.00688452613918 -0.0808931821353 0.93 1.63826602204e-38
-0.00515229052996 -0.0807192183028 0.928 1.47234878062e-38
-0.00343486035331 -0.0807192183028 0.928 1.39888304616e-38
-0.00171187813945 -0.0804582725539 0.925 1.03028381655e-38
0.0 -0.0804582725539 0.925 1.27867574026e-38
0.00170817678131 -0.0802843087214 0.923 1.02045945314e-38
0.00341635356261 -0.0802843087214 0.923 1.31508511774e-38
0.00510787423229 -0.0800233629726 0.92 1.18669619062e-38
0.00681049897639 -0.0800233629726 0.92 1.15896519466e-38
0.00849461692979 -0.07984939914 0.918 1.14974801388e-38
0.0101935403157 -0.07984939914 0.918 1.18604780982e-38
0.0118535994412 -0.0795884533912 0.915 1.30590633253e-38
0.01354697079 -0.0795884533912 0.915 1.28799829868e-38
0.0152070299155 -0.0794144895587 0.913 1.30653929905e-38
0.0168966999061 -0.0794144895587 0.913 1.50951009486e-38
0.0185863698967 -0.0794144895587 0.913 1.50032934784e-38
0.0202760398873 -0.0794144895587 0.913 1.59224177528e-38
0.0220138275337 -0.0795884533912 0.915 1.69329655417e-38
0.0237071988825 -0.0795884533912 0.915 1.85913700443e-38
0.0254005702312 -0.0795884533912 0.915 1.88673109353e-38
0.0271827741753 -0.07984939914 0.918 2.0061870232e-38
0.0288816975613 -0.07984939914 0.918 1.96930835087e-38
0.0305806209472 -0.07984939914 0.918 1.94121455873e-38
0.0322795443332 -0.07984939914 0.918 1.99653740172e-38
0.0339784677192 -0.07984939914 0.918 2.0701051507e-38
0.0356773911051 -0.07984939914 0.918 1.93200298315e-38
0.0374577443701 -0.0800233629726 0.92 1.96905891974e-38
0.03928806597 -0.0802843087214 0.923 1.61028335288e-38
0.0409962427514 -0.0802843087214 0.923 1.27835133966e-38
0.0427969534861 -0.0804582725539 0.925 8.73593004474e-39
0.0445088316256 -0.0804582725539 0.925 8.01566403538e-39
0.046220709765 -0.0804582725539 0.925 5.52642827192e-39
0.0479325879045 -0.0804582725539 0.925 1.88802421175e-38
0.0496444660439 -0.0804582725539 0.925 1.59217451295e-38
-0.0157566815992 -0.0805341503958 0.946 2.35098856151e-38
-0.0139171066039 -0.0800233629726 0.94 2.35098856151e-38
-0.0121774682784 -0.0800233629726 0.94 9.38204074067e-39
-0.0104156218041 -0.0798531004982 0.938 8.45971730184e-39
-0.00863341786002 -0.0794274443121 0.933 6.53477882477e-39
-0.00688452613918 -0.0791720506005 0.93 9.29343804007e-39
-0.00516339460438 -0.0791720506005 0.93 1.43569851994e-38
-0.00343486035331 -0.0790017881261 0.928 1.63819175322e-38
-0.00171743017665 -0.0790017881261 0.928 1.83126321616e-38
0.0 -0.0787463944145 0.925 1.67417737805e-38
0.00171187813945 -0.0787463944145 0.925 1.72937760741e-38
0.00341635356261 -0.0785761319401 0.923 1.87696278207e-38
0.00512453034392 -0.0785761319401 0.923 1.78495240386e-38
0.00681049897639 -0.0783207382285 0.92 1.66534891746e-38
0.00849461692979 -0.0781504757541 0.918 1.68367832177e-38
0.0101935403157 -0.0781504757541 0.918 1.74796681245e-38
0.0118924637017 -0.0781504757541 0.918 1.81242752272e-38
0.01354697079 -0.0778950820425 0.915 1.67420694545e-38
0.0152403421387 -0.0778950820425 0.915 1.81249800803e-38
0.0169337134875 -0.0778950820425 0.915 1.82157141559e-38
0.0186270848362 -0.0778950820425 0.915 1.89526710313e-38
0.020320456185 -0.0778950820425 0.915 1.79373658341e-38
0.0220138275337 -0.0778950820425 0.915 1.95039754783e-38
0.0237849274034 -0.0781504757541 0.918 1.81235521572e-38
0.0254838507894 -0.0781504757541 0.918 1.8306211412e-38
0.0271827741753 -0.0781504757541 0.918 2.03330649251e-38
0.0288816975613 -0.0781504757541 0.918 2.01511301416e-38
0.0305806209472 -0.0781504757541 0.918 1.94150000323e-38
0.0323498701378 -0.0783207382285 0.92 1.85895945992e-38
0.0340524948819 -0.0783207382285 0.92 1.59216988867e-38
0.035755119626 -0.0783207382285 0.92 1.42643089241e-38
0.0375798891887 -0.0785761319401 0.923 9.55991035735e-39
0.03928806597 -0.0785761319401 0.923 7.08181912057e-39
0.0410850753467 -0.0787463944145 0.925 6.72204134505e-39
0.0427969534861 -0.0787463944145 0.925 5.71220121193e-39
0.0445088316256 -0.0787463944145 0.925 1.03082934204e-38
0.046220709765 -0.0787463944145 0.925 1.91518291742e-38
0.0479325879045 -0.0787463944145 0.925 2.04414693743e-38
0.0496444660439 -0.0787463944145 0.925 1.26058665864e-38
-0.0175444375805 -0.0789499691122 0.948 2.35098856151e-38
-0.0157566815992 -0.0787834079959 0.946 2.35098856151e-38
-0.0139615229016 -0.0785335663215 0.943 2.35098856151e-38
-0.0121774682784 -0.0782837246471 0.94 3.67350532553e-39
-0.0104156218041 -0.0781171635308 0.938 1.70241031912e-38
-0.00865192465071 -0.0778673218564 0.935 9.47420133808e-39
-0.00690673428801 -0.0777007607401 0.933 4.68584397381e-39
-0.00516339460438 -0.0774509190657 0.93 2.7569286117e-39
-0.00343486035331 -0.0772843579495 0.928 9.56391106446e-39
-0.00171743017665 -0.0772843579495 0.928 1.30646839335e-38
0.0 -0.0770345162751 0.925 1.50951009486e-38
0.00171187813945 -0.0770345162751 0.925 1.61957606365e-38
0.00341635356261 -0.0768679551588 0.923 1.74807036841e-38
0.00512453034392 -0.0768679551588 0.923 1.87696852739e-38
0.00681049897639 -0.0766181134844 0.92 1.70186759622e-38
0.00851312372049 -0.0766181134844 0.92 1.72945369792e-38
0.0101935403157 -0.0764515523681 0.918 1.81235717754e-38
0.0118924637017 -0.0764515523681 0.918 1.72030980505e-38
0.0135913870877 -0.0764515523681 0.918 1.84933884531e-38
0.0152903104736 -0.0764515523681 0.918 1.72948873038e-38
0.0169337134875 -0.0762017106937 0.915 1.8492707422e-38
0.0186270848362 -0.0762017106937 0.915 1.89529821195e-38
0.0203870806315 -0.0764515523681 0.918 1.89537037882e-38
0.0220860040175 -0.0764515523681 0.918 1.79395714779e-38
0.0237849274034 -0.0764515523681 0.918 1.97870391694e-38
0.0254838507894 -0.0764515523681 0.918 1.66542024356e-38
0.0271827741753 -0.0764515523681 0.918 1.61985744438e-38
0.0289446206497 -0.0766181134844 0.92 1.40802469695e-38
0.0306472453938 -0.0766181134844 0.92 1.18615795188e-38
0.0323498701378 -0.0766181134844 0.92 8.27245338026e-39
0.0341635356261 -0.0768679551588 0.923 5.976123166e-39
0.0358717124074 -0.0768679551588 0.923 5.62073425727e-39
0.0375798891887 -0.0768679551588 0.923 5.80476398199e-39
0.0393731972073 -0.0770345162751 0.925 5.80113742157e-39
0.0412183242397 -0.0772843579495 0.928 6.62517238481e-39
0.0429357544164 -0.0772843579495 0.928 1.40814170538e-38
0.044653184593 -0.0772843579495 0.928 2.108215144e-38
0.0463706147697 -0.0772843579495 0.928 2.11710301964e-38
0.0480880449463 -0.0772843579495 0.928 6.79588416893e-39
0.049805475123 -0.0772843579495 0.928 2.17265665648e-38
-0.0175444375805 -0.0771955253541 0.948 2.35098856151e-38
-0.0157566815992 -0.077032665596 0.946 2.35098856151e-38
-0.0139615229016 -0.0767883759588 0.943 2.35098856151e-38
-0.0121774682784 -0.0765440863216 0.94 2.02109838029e-39
-0.0104378299529 -0.0765440863216 0.94 1.34342918177e-38
-0.00867968483676 -0.0763812265635 0.938 1.7214974055e-38
-0.00690673428801 -0.0759740771681 0.933 1.20510084465e-38
-0.00518005071601 -0.0759740771681 0.933 6.70836747464e-39
-0.00344226306959 -0.0757297875309 0.93 4.04766742978e-39
-0.00171743017665 -0.0755669277728 0.928 2.76089148375e-39
0.0 -0.0753226381356 0.925 3.86612220724e-39
0.00171187813945 -0.0753226381356 0.925 7.17110565483e-39
0.00342375627889 -0.0753226381356 0.925 9.65137731201e-39
0.00512453034392 -0.0751597783775 0.923 1.24150812018e-38
0.00683270712523 -0.0751597783775 0.923 1.26055709124e-38
0.00851312372049 -0.0749154887403 0.92 1.28817668397e-38
0.0102157484646 -0.0749154887403 0.92 1.51872951771e-38
0.0118924637017 -0.0747526289822 0.918 1.42646354267e-38
0.0135913870877 -0.0747526289822 0.918 1.44501673433e-38
0.0152903104736 -0.0747526289822 0.918 1.43561135917e-38
0.0169892338596 -0.0747526289822 0.918 1.5277697145e-38
0.0186881572455 -0.0747526289822 0.918 1.38958585124e-38
0.0203870806315 -0.0747526289822 0.918 1.32494227152e-38
0.0220860040175 -0.0747526289822 0.918 1.22302639473e-38
0.0237849274034 -0.0747526289822 0.918 9.92580339937e-39
0.0254838507894 -0.0747526289822 0.918 9.28621714909e-39
0.0271827741753 -0.0747526289822 0.918 5.24007152943e-39
0.0289446206497 -0.0749154887403 0.92 4.69695767193e-39
0.0306472453938 -0.0749154887403 0.92 6.35430559555e-39
0.0323498701378 -0.0749154887403 0.92 6.90857659143e-39
0.0341635356261 -0.0751597783775 0.923 6.17280801715e-39
0.0358717124074 -0.0751597783775 0.923 4.5140307691e-39
0.0376613190678 -0.0753226381356 0.925 6.53729835941e-39
0.0395008940631 -0.0755669277728 0.928 1.27932594274e-38
0.0412183242397 -0.0755669277728 0.928 2.01640879485e-38
0.0430282883699 -0.0757297875309 0.93 2.13572809792e-38
0.044653184593 -0.0755669277728 0.928 1.98818131884e-38
0.0463706147697 -0.0755669277728 0.928 1.00201654367e-38
0.0480880449463 -0.0755669277728 0.928 6.15305111011e-39
-0.0175444375805 -0.0754410815961 0.948 2.35098856151e-38
-0.0157566815992 -0.0752819231961 0.946 2.35098856151e-38
-0.0139615229016 -0.0750431855961 0.943 2.35098856151e-38
-0.0122163325389 -0.0750431855961 0.943 1.28094472273e-38
-0.0104378299529 -0.0748044479961 0.94 4.68371259885e-39
-0.00867968483676 -0.0746452895961 0.938 1.09586850831e-38
-0.00694374786941 -0.0746452895961 0.938 1.65678123852e-38
-0.00518005071601 -0.0742473935961 0.933 1.55517855194e-38
-0.00344226306959 -0.0740086559961 0.93 1.08510205195e-38
-0.00171743017665 -0.0738494975962 0.928 9.19403693351e-39
0.0 -0.0738494975962 0.928 2.47962425729e-39
0.00171743017665 -0.0738494975962 0.928 4.14490072763e-39
0.00342375627889 -0.0736107599962 0.925 3.50093822224e-39
0.00513563441834 -0.0736107599962 0.925 3.50164167407e-39
0.00684751255778 -0.0736107599962 0.925 3.40913215335e-39
0.00854088390653 -0.0734516015962 0.923 3.68532948197e-39
0.0102490606878 -0.0734516015962 0.923 3.49911793554e-39
0.0119572374691 -0.0734516015962 0.923 4.04907153085e-39
0.0136654142505 -0.0734516015962 0.923 2.66508330645e-39
0.0153236226969 -0.0732128639962 0.92 5.52204921422e-39
0.017026247441 -0.0732128639962 0.92 4.97245575261e-39
0.0187288721851 -0.0732128639962 0.92 3.86684387595e-39
0.0204314969292 -0.0732128639962 0.92 5.52742739772e-39
0.0221341216733 -0.0732128639962 0.92 5.06432768253e-39
0.0238367464174 -0.0732128639962 0.92 5.25052101208e-39
0.0255393711615 -0.0732128639962 0.92 5.43487303545e-39
0.0272419959056 -0.0732128639962 0.92 5.71005021879e-39
0.0290390052822 -0.0734516015962 0.923 5.34055724101e-39
0.0307471820635 -0.0734516015962 0.923 3.6810134827e-39
0.0324553588448 -0.0734516015962 0.923 7.54138896493e-39
0.0342375627889 -0.0736107599962 0.925 1.29729241074e-38
0.0359494409284 -0.0736107599962 0.925 1.46292602936e-38
0.0376613190678 -0.0736107599962 0.925 1.81322514181e-38
0.0395008940631 -0.0738494975962 0.928 2.09845481994e-38
0.0413071568351 -0.0740086559961 0.93 2.12572072493e-38
0.0430282883699 -0.0740086559961 0.93 1.90512313588e-38
0.044653184593 -0.0738494975962 0.928 8.36858806011e-39
0.0463706147697 -0.0738494975962 0.928 6.7191700845e-39
0.0480880449463 -0.0738494975962 0.928 1.85037006085e-38
-0.0175444375805 -0.073686637838 0.948 2.35095254814e-38
-0.0157566815992 -0.0735311807962 0.946 2.35098856151e-38
-0.0139615229016 -0.0732979952334 0.943 2.35098856151e-38
-0.0122163325389 -0.0732979952334 0.943 1.89897788159e-38
-0.0104711421762 -0.0732979952334 0.943 5.96941935415e-39
-0.00869819162745 -0.0730648096706 0.94 4.13950712984e-39
-0.00694374786941 -0.0729093526288 0.938 9.10906639852e-39
-0.00519115479043 -0.072676167066 0.935 1.45402694333e-38
-0.00345336714401 -0.0725207100241 0.933 1.77605752173e-38
-0.00172113153479 -0.0722875244614 0.93 1.56400729278e-38
0.0 -0.0721320674195 0.928 1.37104513113e-38
0.00171743017665 -0.0721320674195 0.928 1.14945037808e-38
0.00343486035331 -0.0721320674195 0.928 8.73159442729e-39
0.00515229052996 -0.0721320674195 0.928 7.26294815748e-39
0.00684751255778 -0.0718988818567 0.925 4.41246185381e-39
0.00855939069723 -0.0718988818567 0.925 3.31295403325e-39
0.0102712688367 -0.0718988818567 0.925 3.5931338521e-39
0.0119831469761 -0.0718988818567 0.925 4.23850326115e-39
0.0136950251156 -0.0718988818567 0.925 5.15939737555e-39
0.0153735910318 -0.0717434248149 0.923 4.78915330179e-39
0.0170817678131 -0.0717434248149 0.923 5.06357238266e-39
0.0187899445944 -0.0717434248149 0.923 4.78880017458e-39
0.0204981213757 -0.0717434248149 0.923 5.06538706417e-39
0.022206298157 -0.0717434248149 0.923 3.58991366823e-39
0.0239144749383 -0.0717434248149 0.923 4.41608981553e-39
0.0256226517196 -0.0717434248149 0.923 8.64594286126e-39
0.0273308285009 -0.0717434248149 0.923 1.07602668258e-38
0.0290390052822 -0.0717434248149 0.923 1.47188579161e-38
0.03081380651 -0.0718988818567 0.925 1.61961137637e-38
0.0325256846495 -0.0718988818567 0.925 1.82265307787e-38
0.0342375627889 -0.0718988818567 0.925 2.02494886821e-38
0.0359494409284 -0.0718988818567 0.925 2.08880211559e-38
0.0377834638864 -0.0721320674195 0.928 2.10710251302e-38
0.0395008940631 -0.0721320674195 0.928 2.05221056931e-38
0.0413071568351 -0.0722875244614 0.93 1.62871827496e-38
0.0430282883699 -0.0722875244614 0.93 6.61974235326e-39
0.0447494199046 -0.0722875244614 0.93 5.61533925818e-39
0.0464705514394 -0.0722875244614 0.93 1.80487424374e-38
0.048450778044 -0.072676167066 0.935 1.82209452031e-38
-0.0175444375805 -0.07193219408 0.948 2.35070059468e-38
-0.0157566815992 -0.0717804383963 0.946 2.35062968898e-38
-0.0139615229016 -0.0715528048707 0.943 2.35098856151e-38
-0.0122163325389 -0.0715528048707 0.943 2.18485664117e-38
-0.0104711421762 -0.0715528048707 0.943 1.20549727198e-38
-0.00869819162745 -0.0713251713451 0.94 7.17578739299e-39
