# .PCD v0.7 - Point Cloud Data file format
VERSION 0.7
FIELDS x y z rgb
SIZE 4 4 4 4
TYPE F F F F
COUNT 1 1 1 1
WIDTH 843
HEIGHT 1
VIEWPOINT 0 0 0 1 0 0 0
POINTS 843
DATA ascii
0.0035088875161 -0.0421066501932 0.948 1.90558654528e-38
0.00527998738577 -0.0422398990862 0.951 1.97920011673e-38
0.00703998318103 -0.0422398990862 0.951 1.9883102383e-38
0.00882773916233 -0.0423731479792 0.954 2.06181689068e-38
0.0105932869948 -0.0423731479792 0.954 2.02511646351e-38
0.0123588348273 -0.0423731479792 0.954 1.96072792011e-38
0.0141539935248 -0.0424619805745 0.956 1.86856536089e-38
0.0159232427154 -0.0424619805745 0.956 1.8870042066e-38
0.0176924919061 -0.0424619805745 0.956 1.89618901739e-38
0.0194617410967 -0.0424619805745 0.956 1.83147243002e-38
0.0212309902873 -0.0424619805745 0.956 1.7853394425e-38
0.0230724159616 -0.0425952294675 0.959 1.77637113232e-38
0.0248472171894 -0.0425952294675 0.959 1.76733107567e-38
0.0266220184172 -0.0425952294675 0.959 1.75803990633e-38
0.028396819645 -0.0425952294675 0.959 1.73027401804e-38
0.0301716208728 -0.0425952294675 0.959 1.76725932919e-38
0.0319464221007 -0.0425952294675 0.959 1.70250812975e-38
0.0337212233285 -0.0425952294675 0.959 1.7303480066e-38
0.0354960245563 -0.0425952294675 0.959 1.7399972077e-38
0.0372708257841 -0.0425952294675 0.959 1.67528034007e-38
0.0390456270119 -0.0425952294675 0.959 1.72116529776e-38
0.0408204282397 -0.0425952294675 0.959 1.70283098892e-38
0.0425952294675 -0.0425952294675 0.959 1.70261743103e-38
0.0442312297651 -0.0424619805745 0.956 1.75796942102e-38
0.0460004789557 -0.0424619805745 0.956 1.71187104557e-38
0.0476697914766 -0.0423731479792 0.954 1.72116221491e-38
0.0492798822672 -0.0422398990862 0.951 1.71197866529e-38
0.0510398780625 -0.0422398990862 0.951 1.67524446683e-38
0.0526333127414 -0.0421066501932 0.948 1.72130598813e-38
0.0543877564995 -0.0421066501932 0.948 1.7027243501e-38
0.0561422002575 -0.0421066501932 0.948 1.62918322579e-38
0.057774499197 -0.0420178175978 0.946 1.56479075875e-38
0.0595252415969 -0.0420178175978 0.946 1.64733690726e-38
0.0612759839968 -0.0420178175978 0.946 1.55506911053e-38
0.0630267263967 -0.0420178175978 0.946 1.53641502537e-38
0.0710771803498 -0.0461041169836 1.038 2.12678571177e-38
0.0727168820055 -0.045926451793 1.034 2.34953779721e-38
-0.00577967073458 -0.0443108089651 1.041 2.35015114555e-38
-0.0035088875161 -0.0403522064351 0.948 2.34950276475e-38
-0.00175444375805 -0.0403522064351 0.948 2.34866857178e-38
0.0 -0.0403522064351 0.948 2.34848808453e-38
0.00175444375805 -0.0403522064351 0.948 1.98784388617e-38
0.0035088875161 -0.0403522064351 0.948 1.87782065699e-38
0.00527998738577 -0.0404799032909 0.951 1.97920039699e-38
0.00703998318103 -0.0404799032909 0.951 2.00678621842e-38
0.00882773916233 -0.0406076001467 0.954 1.99745945611e-38
0.0106154951436 -0.0406927313839 0.956 1.93292279546e-38
0.0123847443342 -0.0406927313839 0.956 1.93310552478e-38
0.0141984098225 -0.0408204282397 0.959 1.87789408503e-38
0.0159732110503 -0.0408204282397 0.959 1.83197465539e-38
0.0177480122781 -0.0408204282397 0.959 1.73056100397e-38
0.019522813506 -0.0408204282397 0.959 1.73960106062e-38
0.0212976147338 -0.0408204282397 0.959 1.7489281032e-38
0.0231445924453 -0.0409481250955 0.962 1.75796815985e-38
0.0249249457103 -0.0409481250955 0.962 1.69336045338e-38
0.0267052989754 -0.0409481250955 0.962 1.71176342585e-38
0.0284856522404 -0.0409481250955 0.962 1.72101872195e-38
0.0302660055054 -0.0409481250955 0.962 1.70279511568e-38
0.0320463587704 -0.0409481250955 0.962 1.6474427053e-38
0.0338267120354 -0.0409481250955 0.962 1.65651863519e-38
0.0356070653005 -0.0409481250955 0.962 1.61049326739e-38
0.0373874185655 -0.0409481250955 0.962 1.69350394634e-38
0.0390456270119 -0.0408204282397 0.959 1.61974856349e-38
0.0408204282397 -0.0408204282397 0.959 1.67506510063e-38
0.0425952294675 -0.0408204282397 0.959 1.66584637842e-38
0.0443700306954 -0.0408204282397 0.959 1.66563043832e-38
0.0460004789557 -0.0406927313839 0.956 1.62868100042e-38
0.0477697281463 -0.0406927313839 0.956 1.69332458014e-38
0.0494353393091 -0.0406076001467 0.954 1.68406928404e-38
0.0510398780625 -0.0404799032909 0.951 1.62871687366e-38
0.0527998738577 -0.0404799032909 0.951 1.66577393129e-38
0.0543877564995 -0.0403522064351 0.948 1.67517272035e-38
0.0561422002575 -0.0403522064351 0.948 1.62911147931e-38
0.057774499197 -0.0402670751979 0.946 1.62907560607e-38
0.0595252415969 -0.0402670751979 0.946 1.6287889004e-38
0.0612759839968 -0.0402670751979 0.946 1.64715642002e-38
0.0630267263967 -0.0402670751979 0.946 1.41699300713e-38
0.0647774687966 -0.0402670751979 0.946 1.64733508557e-38
0.0725059045916 -0.0438851527791 1.031 2.34813103369e-38
-0.00576301462296 -0.042262107235 1.038 2.35008023985e-38
-0.0035088875161 -0.0385977626771 0.948 2.34830325327e-38
-0.00175444375805 -0.0385977626771 0.948 2.34946324814e-38
0.0 -0.0385977626771 0.948 2.16340752609e-38
0.00175444375805 -0.0385977626771 0.948 1.92384770635e-38
0.0035088875161 -0.0385977626771 0.948 2.04373859906e-38
0.00527998738577 -0.0387199074957 0.951 2.01596920752e-38
0.00703998318103 -0.0387199074957 0.951 2.01593557636e-38
0.00882773916233 -0.0388420523143 0.954 1.95146842012e-38
0.0106154951436 -0.0389234821933 0.956 1.93310300244e-38
0.0124236085947 -0.0390456270119 0.959 1.93310132089e-38
0.0141984098225 -0.0390456270119 0.959 1.88693246012e-38
0.0160231793852 -0.0391677718305 0.962 1.77622763936e-38
0.0178035326502 -0.0391677718305 0.962 1.7489281032e-38
0.0196246008548 -0.0392492017096 0.964 1.72126983463e-38
0.021408655478 -0.0392492017096 0.964 1.67502922738e-38
0.0231927101011 -0.0392492017096 0.964 1.65666212815e-38
0.0249767647243 -0.0392492017096 0.964 1.70279693736e-38
0.0267608193474 -0.0392492017096 0.964 1.67495776116e-38
0.0285448739706 -0.0392492017096 0.964 1.68428452348e-38
0.0303289285938 -0.0392492017096 0.964 1.65676974788e-38
0.0320463587704 -0.0391677718305 0.962 1.6474427053e-38
0.0338267120354 -0.0391677718305 0.962 1.6474427053e-38
0.0356070653005 -0.0391677718305 0.962 1.6381874092e-38
0.0373874185655 -0.0391677718305 0.962 1.63815153596e-38
0.0391677718305 -0.0391677718305 0.962 1.62896798634e-38
0.0408204282397 -0.0390456270119 0.959 1.61985618321e-38
0.0425952294675 -0.0390456270119 0.959 1.61992792969e-38
0.0443700306954 -0.0390456270119 0.959 1.62907560607e-38
0.0461448319232 -0.0390456270119 0.959 1.62904043347e-38
0.0477697281463 -0.0389234821933 0.956 1.5921620414e-38
0.049538977337 -0.0389234821933 0.956 1.63822328244e-38
0.0512008871415 -0.0388420523143 0.954 1.69325283365e-38
0.0527998738577 -0.0387199074957 0.951 1.67481398794e-38
0.054559869653 -0.0387199074957 0.951 1.63815153596e-38
0.0561422002575 -0.0385977626771 0.948 1.62914735255e-38
0.057774499197 -0.038516332798 0.946 1.63815461882e-38
0.0595252415969 -0.038516332798 0.946 1.63804517741e-38
0.0612759839968 -0.038516332798 0.946 1.62904043347e-38
0.0630267263967 -0.038516332798 0.946 1.50933072865e-38
0.070392429094 -0.0418549578397 1.028 1.50925898217e-38
0.0722949271776 -0.0418549578397 1.028 1.98809920275e-38
0.0741974252613 -0.0418549578397 1.028 2.34914094949e-38
-0.00770622764611 -0.0404576951421 1.041 2.34989933222e-38
-0.00525222719973 -0.0367655903981 0.946 2.34928738518e-38
-0.00350148479982 -0.0367655903981 0.946 2.34938771815e-38
-0.00175074239991 -0.0367655903981 0.946 2.34805522344e-38
0.0 -0.036843318919 0.948 1.87742605134e-38
0.00175444375805 -0.036843318919 0.948 1.98831402181e-38
0.0035088875161 -0.036843318919 0.948 1.97909081545e-38
0.00526333127414 -0.036843318919 0.948 2.01615095593e-38
0.00703998318103 -0.0369599117004 0.951 1.96998027348e-38
0.00882773916233 -0.0370765044818 0.954 1.92363078534e-38
0.0106154951436 -0.0371542330027 0.956 1.9330295744e-38
0.0124236085947 -0.0372708257841 0.959 1.81314120403e-38
0.0142428261202 -0.0373874185655 0.962 1.79484585128e-38
0.0160564916085 -0.0374651470864 0.964 1.7858779615e-38
0.0178405462316 -0.0374651470864 0.964 1.64701222641e-38
0.0196856732641 -0.0375817398678 0.967 1.71179929909e-38
0.0214752799245 -0.0375817398678 0.967 1.66598917073e-38
0.0232648865848 -0.0375817398678 0.967 1.6474427053e-38
0.0250544932452 -0.0375817398678 0.967 1.62907560607e-38
0.0268440999056 -0.0375817398678 0.967 1.62889722077e-38
0.0285448739706 -0.0374651470864 0.964 1.61967681701e-38
0.0303289285938 -0.0374651470864 0.964 1.61042152091e-38
0.0321129832169 -0.0374651470864 0.964 1.58258388614e-38
0.0338970378401 -0.0374651470864 0.964 1.60120209805e-38
0.0356810924633 -0.0374651470864 0.964 1.59212616816e-38
0.0374651470864 -0.0374651470864 0.964 1.59209029492e-38
0.0392492017096 -0.0374651470864 0.964 1.58283499882e-38
0.0409481250955 -0.0373874185655 0.962 1.60127412479e-38
0.0427284783606 -0.0373874185655 0.962 1.58294261854e-38
0.0445088316256 -0.0373874185655 0.962 1.57361557596e-38
0.0461448319232 -0.0372708257841 0.959 1.58283499882e-38
0.047919633151 -0.0372708257841 0.959 1.56461139255e-38
0.049538977337 -0.0371542330027 0.956 1.5736514492e-38
0.0513082265276 -0.0371542330027 0.956 1.59212616816e-38
0.052966434974 -0.0370765044818 0.954 1.57383081541e-38
0.054559869653 -0.0369599117004 0.951 1.56453964607e-38
0.0563198654482 -0.0369599117004 0.951 1.58261975938e-38
0.0578966440156 -0.036843318919 0.948 1.57332859004e-38
0.0595252415969 -0.0367655903981 0.946 1.59205442168e-38
0.0612759839968 -0.0367655903981 0.946 1.54592143415e-38
0.0628268530572 -0.0366489976167 0.943 1.55553560279e-38
0.0645720434199 -0.0366489976167 0.943 1.43553947256e-38
0.0722949271776 -0.0399524597561 1.028 1.49953733395e-38
0.0741974252613 -0.0399524597561 1.028 2.32054493199e-38
-0.00701777503219 -0.035088875161 0.948 2.34997205961e-38
-0.00525222719973 -0.0350148479982 0.946 2.34859640491e-38
-0.00350148479982 -0.0350148479982 0.946 2.34902800483e-38
-0.00175074239991 -0.0350148479982 0.946 2.08007398798e-38
0.0 -0.035088875161 0.948 2.02508031001e-38
0.00175444375805 -0.035088875161 0.948 2.04373677737e-38
0.0035088875161 -0.035088875161 0.948 2.05288207154e-38
0.00526333127414 -0.035088875161 0.948 2.05288627543e-38
0.00703998318103 -0.0351999159051 0.951 1.96076295257e-38
0.00882773916233 -0.0353109566493 0.954 1.81314120403e-38
0.0106154951436 -0.0353849838121 0.956 1.76711583623e-38
0.0124236085947 -0.0354960245563 0.959 1.78555468194e-38
0.0142428261202 -0.0356070653005 0.962 1.72105459519e-38
0.0160564916085 -0.0356810924633 0.964 1.71179929909e-38
0.0178960666037 -0.0357921332074 0.967 1.6935070292e-38
0.0196856732641 -0.0357921332074 0.967 1.67506510063e-38
0.0214752799245 -0.0357921332074 0.967 1.60120209805e-38
0.0232648865848 -0.0357921332074 0.967 1.5463160398e-38
0.0250544932452 -0.0357921332074 0.967 1.5463160398e-38
0.0268440999056 -0.0357921332074 0.967 1.50904374273e-38
0.028633706566 -0.0357921332074 0.967 1.56439615311e-38
0.0304233132263 -0.0357921332074 0.967 1.58283499882e-38
0.0322129198867 -0.0357921332074 0.967 1.59187505547e-38
0.0340025265471 -0.0357921332074 0.967 1.55514085701e-38
0.0357921332074 -0.0357921332074 0.967 1.50929485541e-38
0.0375817398678 -0.0357921332074 0.967 1.57368732244e-38
0.0393713465282 -0.0357921332074 0.967 1.55514085701e-38
0.0411609531886 -0.0357921332074 0.967 1.54624569462e-38
0.0428173109559 -0.0356810924633 0.964 1.54602905388e-38
0.0446013655791 -0.0356810924633 0.964 1.52776957437e-38
0.0461448319232 -0.0354960245563 0.959 1.52776957437e-38
0.047919633151 -0.0354960245563 0.959 1.50933072865e-38
0.0496944343788 -0.0354960245563 0.959 1.54602905388e-38
0.0514692356066 -0.0354960245563 0.959 1.57357984285e-38
0.0530774757182 -0.0353849838121 0.956 1.52741084196e-38
0.0547319828065 -0.0353109566493 0.954 1.57354382948e-38
0.0563198654482 -0.0351999159051 0.951 1.56432440663e-38
0.0578966440156 -0.035088875161 0.948 1.51847840503e-38
0.0595252415969 -0.0350148479982 0.946 1.49096362942e-38
0.0612759839968 -0.0350148479982 0.946 1.51876539095e-38
0.0628268530572 -0.034903807254 0.943 1.51855015151e-38
0.0643666180432 -0.0347927665098 0.94 1.50925898217e-38
0.0661062563686 -0.0347927665098 0.94 1.55496149081e-38
0.0741974252613 -0.0380499616724 1.028 2.08011084213e-38
0.0760999233449 -0.0380499616724 1.028 2.34982492327e-38
-0.00701777503219 -0.0333344314029 0.948 2.349755559e-38
-0.00525222719973 -0.0332641055983 0.946 2.34884653668e-38
-0.00350148479982 -0.0332641055983 0.946 2.34870234307e-38
-0.00175444375805 -0.0333344314029 0.948 1.93288608144e-38
0.0 -0.0333344314029 0.948 1.99763728088e-38
0.00175444375805 -0.0333344314029 0.948 2.00693139295e-38
0.0035088875161 -0.0333344314029 0.948 1.89604426326e-38
0.00527998738577 -0.0334399201099 0.951 1.94214137754e-38
0.00706219132986 -0.0335454088169 0.954 1.88686197481e-38
0.00884624595303 -0.0336157346215 0.956 1.83158145104e-38
0.0106488073669 -0.0337212233285 0.959 1.83172788673e-38
0.0124624728552 -0.0338267120354 0.962 1.72101872195e-38
0.0142724369853 -0.0338970378401 0.964 1.70275924244e-38
0.0161064599433 -0.0340025265471 0.967 1.63822328244e-38
0.0178960666037 -0.0340025265471 0.967 1.66595357775e-38
0.0196856732641 -0.0340025265471 0.967 1.62871687366e-38
0.021541904371 -0.034108015254 0.97 1.65659038167e-38
0.0233370630686 -0.034108015254 0.97 1.58287087206e-38
0.0251322217661 -0.034108015254 0.97 1.61063676035e-38
0.0269273804637 -0.034108015254 0.97 1.62886078701e-38
0.0287225391613 -0.034108015254 0.97 1.55514085701e-38
0.0305176978589 -0.034108015254 0.97 1.63836747605e-38
0.0323128565565 -0.034108015254 0.97 1.55514085701e-38
0.034108015254 -0.034108015254 0.97 1.57368802309e-38
0.0359031739516 -0.034108015254 0.97 1.54602905388e-38
0.0376983326492 -0.034108015254 0.97 1.53680963102e-38
0.0394934913468 -0.034108015254 0.97 1.49096362942e-38
0.0412886500444 -0.034108015254 0.97 1.50007543256e-38
0.0429505598489 -0.0340025265471 0.967 1.56432440663e-38
0.0447401665093 -0.0340025265471 0.967 1.49078426322e-38
0.0465297731697 -0.0340025265471 0.967 1.49074838998e-38
0.0481694748254 -0.0338970378401 0.964 1.47223779778e-38
0.0498498914207 -0.0338267120354 0.962 1.47227367102e-38
0.0514692356066 -0.0337212233285 0.959 1.51811967262e-38
0.0532440368344 -0.0337212233285 0.959 1.51826316558e-38
0.0548467249088 -0.0336157346215 0.956 1.55532022321e-38
0.0564975306389 -0.0335454088169 0.954 1.54588556091e-38
0.0580798612435 -0.0334399201099 0.951 1.54599318063e-38
0.0595252415969 -0.0332641055983 0.946 1.50925898217e-38
0.0612759839968 -0.0332641055983 0.946 1.53709661694e-38
0.0628268530572 -0.0331586168913 0.943 1.49096362942e-38
0.0643666180432 -0.0330531281843 0.94 1.5461366736e-38
0.0659656047594 -0.0329828023797 0.938 1.40773771103e-38
0.0677015417267 -0.0329828023797 0.938 1.65626752251e-38
0.0760999233449 -0.0361474635888 1.028 2.34809417954e-38
-0.00700296959964 -0.0315133631984 0.946 2.34935632906e-38
-0.00525222719973 -0.0315133631984 0.946 2.34935380673e-38
-0.00350148479982 -0.0315133631984 0.946 2.34794578203e-38
-0.00175444375805 -0.0315799876449 0.948 1.92391777127e-38
0.0 -0.0315799876449 0.948 2.00707194318e-38
0.00175444375805 -0.0315799876449 0.948 2.01600634193e-38
0.00351999159051 -0.0316799243146 0.951 1.94192613809e-38
0.00527998738577 -0.0316799243146 0.951 1.97927494606e-38
0.00707699676242 -0.0318464854309 0.956 1.77629938584e-38
0.00887400613907 -0.0319464221007 0.959 1.76747456863e-38
0.0106488073669 -0.0319464221007 0.959 1.66570218481e-38
0.0124624728552 -0.0320463587704 0.962 1.71151231316e-38
0.0142724369853 -0.0321129832169 0.964 1.6934680731e-38
0.0161064599433 -0.0322129198867 0.967 1.64755032502e-38
0.0179515869758 -0.0323128565565 0.97 1.52759020816e-38
0.0197467456734 -0.0323128565565 0.97 1.59201924908e-38
0.021541904371 -0.0323128565565 0.97 1.56432440663e-38
0.0233370630686 -0.0323128565565 0.97 1.58283499882e-38
0.0251322217661 -0.0323128565565 0.97 1.55514085701e-38
0.0269273804637 -0.0323128565565 0.97 1.55496149081e-38
0.0287225391613 -0.0323128565565 0.97 1.55514085701e-38
0.0305176978589 -0.0323128565565 0.97 1.54595730739e-38
0.0324127932262 -0.0324127932262 0.973 1.55506911053e-38
0.034213503961 -0.0324127932262 0.973 1.56439615311e-38
0.0360142146958 -0.0324127932262 0.973 1.52748258844e-38
0.0378149254306 -0.0324127932262 0.973 1.51829903882e-38
0.0396156361654 -0.0324127932262 0.973 1.5461366736e-38
0.0414163469002 -0.0324127932262 0.973 1.50000368607e-38
0.0430838087419 -0.0323128565565 0.97 1.49978844663e-38
0.0448789674395 -0.0323128565565 0.97 1.49074838998e-38
0.0465297731697 -0.0322129198867 0.967 1.49082013646e-38
0.04831937983 -0.0322129198867 0.967 1.49082013646e-38
0.0499535294486 -0.0321129832169 0.964 1.45397831827e-38
0.0516302446857 -0.0320463587704 0.962 1.4908560097e-38
0.0534105979507 -0.0320463587704 0.962 1.46323361437e-38
0.0550188380623 -0.0319464221007 0.959 1.45401419151e-38
0.0566159740994 -0.0318464854309 0.956 1.45394244503e-38
0.0580798612435 -0.0316799243146 0.951 1.50929485541e-38
0.0596510877736 -0.0315799876449 0.948 1.44468714894e-38
0.0612759839968 -0.0315133631984 0.946 1.4448306419e-38
0.0630267263967 -0.0315133631984 0.946 1.49099950266e-38
0.0643666180432 -0.0313134898588 0.94 1.49096362942e-38
0.0659656047594 -0.0312468654123 0.938 1.47248891047e-38
0.0677015417267 -0.0312468654123 0.938 1.57336446328e-38
0.0758778418565 -0.0341450288354 1.025 2.28330696673e-38
-0.00875371199954 -0.0297626207984 0.946 2.35004492713e-38
-0.00700296959964 -0.0297626207984 0.946 2.34834234949e-38
-0.00525222719973 -0.0297626207984 0.946 2.34935422712e-38
-0.0035088875161 -0.0298255438868 0.948 2.04312455007e-38
-0.00175444375805 -0.0298255438868 0.948 2.05277655376e-38
0.0 -0.0298255438868 0.948 2.04362761622e-38
0.00175444375805 -0.0298255438868 0.948 2.06228534475e-38
0.00351999159051 -0.0299199285194 0.951 1.96080050737e-38
0.00530774757182 -0.0300772362403 0.956 1.91459283064e-38
0.00713621849265 -0.0303289285938 0.964 1.80410226841e-38
0.00892027311581 -0.0303289285938 0.964 1.75811165282e-38
0.010704327739 -0.0303289285938 0.964 1.70272336919e-38
0.0125272466226 -0.0304233132263 0.967 1.69339632662e-38
0.014316853283 -0.0304233132263 0.967 1.69332458014e-38
0.0161564282782 -0.0305176978589 0.97 1.59212616816e-38
0.0180071073479 -0.0306120824914 0.973 1.63826027672e-38
0.0198078180827 -0.0306120824914 0.973 1.61063676035e-38
0.0216085288175 -0.0306120824914 0.973 1.61042152091e-38
0.0234092395523 -0.0306120824914 0.973 1.59194680195e-38
0.0252099502871 -0.0306120824914 0.973 1.65673821866e-38
0.0270106610218 -0.0306120824914 0.973 1.54584968767e-38
0.0288113717566 -0.0306120824914 0.973 1.52751846168e-38
0.0306120824914 -0.0306120824914 0.973 1.51858602475e-38
0.0324794176727 -0.0306750055798 0.975 1.54592143415e-38
0.0342838297657 -0.0306750055798 0.975 1.51855015151e-38
0.0360882418586 -0.0306750055798 0.975 1.48156484036e-38
0.0380092467329 -0.0307693902124 0.978 1.50000368607e-38
0.0396970660444 -0.0306750055798 0.975 1.50904374273e-38
0.0415014781374 -0.0306750055798 0.975 1.51829903882e-38
0.043217057635 -0.0306120824914 0.973 1.49982431987e-38
0.0450177683697 -0.0306120824914 0.973 1.47230954426e-38
0.0466741261371 -0.0305176978589 0.97 1.46312599465e-38
0.04831937983 -0.0304233132263 0.967 1.4816007136e-38
0.0501089864904 -0.0304233132263 0.967 1.40795295047e-38
0.0517375840717 -0.0303289285938 0.964 1.45422943096e-38
0.0534105979507 -0.0302660055054 0.962 1.41727999305e-38
0.0550188380623 -0.0301716208728 0.959 1.42649941591e-38
0.0566159740994 -0.0300772362403 0.956 1.49071251674e-38
0.0582630784714 -0.0300143131519 0.954 1.49971670015e-38
0.0598398570387 -0.0299199285194 0.951 1.49978844663e-38
0.0612759839968 -0.0297626207984 0.946 1.47223779778e-38
0.0628268530572 -0.0296682361659 0.943 1.47263240343e-38
0.0643666180432 -0.0295738515333 0.94 1.42649941591e-38
0.0659656047594 -0.029510928445 0.938 1.44497413486e-38
0.0677015417267 -0.029510928445 0.938 1.50904374273e-38
0.0694374786941 -0.029510928445 0.938 2.09869290054e-38
0.0777747879029 -0.032248082789 1.025 2.35015086529e-38
-0.00875371199954 -0.0280118783985 0.946 2.35008052011e-38
-0.00700296959964 -0.0280118783985 0.946 2.3484146565e-38
-0.00525222719973 -0.0280118783985 0.946 2.34899199146e-38
-0.0035088875161 -0.0280711001288 0.948 2.01550215474e-38
-0.00175444375805 -0.0280711001288 0.948 2.03444560803e-38
0.0 -0.0281599327241 0.951 2.00664174455e-38
0.00175999579526 -0.0281599327241 0.951 1.98813297405e-38
0.00353849838121 -0.0283079870497 0.956 1.84976778277e-38
0.00534105979507 -0.0284856522404 0.962 1.86849571636e-38
0.00713621849265 -0.0285448739706 0.964 1.77644287881e-38
0.00894803330186 -0.028633706566 0.967 1.71176342585e-38
0.0107376399622 -0.028633706566 0.967 1.69328870689e-38
0.0125661108831 -0.0287225391613 0.97 1.69328870689e-38
0.0143612695806 -0.0287225391613 0.97 1.67492160766e-38
0.0162397088364 -0.0288705934869 0.975 1.65655450843e-38
0.0180441209293 -0.0288705934869 0.975 1.64733508557e-38
0.0198485330222 -0.0288705934869 0.975 1.61031390119e-38
0.0217195695617 -0.0289594260822 0.978 1.59212616816e-38
0.0235295336918 -0.0289594260822 0.978 1.52748258844e-38
0.0253394978219 -0.0289594260822 0.978 1.55510498377e-38
0.0272327425102 -0.0290482586776 0.981 1.55506911053e-38
0.0290482586776 -0.0290482586776 0.981 1.52755433492e-38
0.0308637748449 -0.0290482586776 0.981 1.55506911053e-38
0.0326792910123 -0.0290482586776 0.981 1.55506911053e-38
0.0344948071796 -0.0290482586776 0.981 1.49096362942e-38
0.0363103233469 -0.0290482586776 0.981 1.48163658684e-38
0.0381258395143 -0.0290482586776 0.981 1.4816007136e-38
0.0399413556816 -0.0290482586776 0.981 1.44468714894e-38
0.0416291749932 -0.0289594260822 0.978 1.49078426322e-38
0.0434391391233 -0.0289594260822 0.978 1.45397831827e-38
0.0452491032535 -0.0289594260822 0.978 1.41724411981e-38
0.0469147144162 -0.0288705934869 0.975 1.49096783332e-38
0.0487191265091 -0.0288705934869 0.975 1.40773771103e-38
0.0504199005741 -0.0288113717566 0.973 1.45379895207e-38
0.0520596022298 -0.0287225391613 0.97 1.46305424817e-38
0.0535216386949 -0.0285448739706 0.964 1.3988052741e-38
0.0550188380623 -0.028396819645 0.959 1.39887702058e-38
0.0567936392901 -0.028396819645 0.959 1.41720824657e-38
0.0582630784714 -0.0282487653195 0.954 1.34366810316e-38
0.0598398570387 -0.0281599327241 0.951 1.37114700553e-38
0.0612759839968 -0.0280118783985 0.946 1.3248346518e-38
0.0628268530572 -0.0279230458032 0.943 1.44493826162e-38
0.0643666180432 -0.0278342132079 0.94 1.38940648504e-38
0.0659656047594 -0.0277749914776 0.938 1.50933072865e-38
0.0677015417267 -0.0277749914776 0.938 1.37007080831e-38
0.0694374786941 -0.0277749914776 0.938 2.07150462748e-38
0.0709457821358 -0.0276861588823 0.935 2.34950220423e-38
-0.00700296959964 -0.0262611359986 0.946 2.34874017813e-38
-0.00525222719973 -0.0262611359986 0.946 2.34884681694e-38
-0.0035088875161 -0.0263166563707 0.948 2.07993049502e-38
-0.00175444375805 -0.0263166563707 0.948 2.06217394153e-38
0.0 -0.0263999369289 0.951 2.00675118596e-38
0.00175999579526 -0.0263999369289 0.951 1.96069036531e-38
0.00356070653005 -0.0267052989754 0.962 1.90548284919e-38
0.00536881998112 -0.0268440999056 0.967 1.78530356926e-38
0.00715842664149 -0.0268440999056 0.967 1.78559055518e-38
0.0089757934879 -0.0269273804637 0.97 1.71176342585e-38
0.0107709521855 -0.0269273804637 0.97 1.70275924244e-38
0.0126049751435 -0.0270106610218 0.973 1.6474427053e-38
0.0144056858783 -0.0270106610218 0.973 1.66595357775e-38
0.0162896771712 -0.0271494619521 0.978 1.5921620414e-38
0.0180996413014 -0.0271494619521 0.978 1.61052914063e-38
0.0199706778408 -0.0272327425102 0.981 1.59212616816e-38
0.0217861940082 -0.0272327425102 0.981 1.51808379938e-38
0.0236017101755 -0.0272327425102 0.981 1.54563444823e-38
0.0254172263429 -0.0272327425102 0.981 1.60105860509e-38
0.0273160230683 -0.0273160230683 0.984 1.56418091366e-38
0.0290482586776 -0.0272327425102 0.981 1.54610080036e-38
0.0308637748449 -0.0272327425102 0.981 1.47223779778e-38
0.0326792910123 -0.0272327425102 0.981 1.47230954426e-38
0.0344948071796 -0.0272327425102 0.981 1.45397831827e-38
0.0363103233469 -0.0272327425102 0.981 1.47223779778e-38
0.0381258395143 -0.0272327425102 0.981 1.47227367102e-38
0.0399413556816 -0.0272327425102 0.981 1.39851828817e-38
0.041756871849 -0.0272327425102 0.981 1.47245359775e-38
0.0435723880163 -0.0272327425102 0.981 1.36171234323e-38
0.0452491032535 -0.0271494619521 0.978 1.39862590789e-38
0.0470590673836 -0.0271494619521 0.978 1.41702888037e-38
0.0487191265091 -0.0270661813939 0.975 1.39862590789e-38
0.050523538602 -0.0270661813939 0.975 1.41706475361e-38
0.0522206113089 -0.0270106610218 0.973 1.39869765438e-38
0.0538547609274 -0.0269273804637 0.97 1.38025880866e-38
0.0554778064715 -0.0268440999056 0.967 1.40791721736e-38
0.0570897479412 -0.0267608193474 0.964 1.39869765438e-38
0.0585684405179 -0.0266220184172 0.959 1.43550359932e-38
0.0600286263038 -0.026483217487 0.954 1.41706475361e-38
0.0614055315317 -0.0263166563707 0.948 1.47230954426e-38
0.0628268530572 -0.0261778554405 0.943 1.46309012141e-38
0.0643666180432 -0.0260945748824 0.94 1.45397831827e-38
0.0659656047594 -0.0260390545103 0.938 1.45394244503e-38
0.0677015417267 -0.0260390545103 0.938 1.39787256984e-38
0.0694374786941 -0.0260390545103 0.938 1.89611685052e-38
0.0709457821358 -0.0259557739521 0.935 2.34964541694e-38
-0.00700296959964 -0.0245103935987 0.946 2.34837836287e-38
-0.00525222719973 -0.0245103935987 0.946 2.34851961375e-38
-0.0035088875161 -0.0245622126127 0.948 1.91451898221e-38
-0.00175999579526 -0.0246399411336 0.951 2.07139798867e-38
0.0 -0.0247176696545 0.954 1.98827898935e-38
0.00177480122781 -0.0248472171894 0.959 1.88689658688e-38
0.00356810924633 -0.0249767647243 0.964 1.88678896716e-38
0.00536881998112 -0.0250544932452 0.967 1.81306945755e-38
0.00718063479032 -0.0251322217661 0.97 1.73030989128e-38
0.0089757934879 -0.0251322217661 0.97 1.70272336919e-38
0.0108042644087 -0.0252099502871 0.973 1.6474427053e-38
0.0126049751435 -0.0252099502871 0.973 1.62900385958e-38
0.0144797130411 -0.0253394978219 0.978 1.62907560607e-38
0.0163396455061 -0.0254172263429 0.981 1.5921620414e-38
0.0181551616735 -0.0254172263429 0.981 1.60113035157e-38
0.0199706778408 -0.0254172263429 0.981 1.60120209805e-38
0.0218528184547 -0.0254949548638 0.984 1.52776957437e-38
0.0236738866592 -0.0254949548638 0.984 1.51847840503e-38
0.0255726833847 -0.0255726833847 0.987 1.47230954426e-38
0.0273993036265 -0.0255726833847 0.987 1.4908560097e-38
0.0292259238682 -0.0255726833847 0.987 1.45405006475e-38
0.03105254411 -0.0255726833847 0.987 1.42628417646e-38
0.032779227682 -0.0254949548638 0.984 1.38940648504e-38
0.0346002958866 -0.0254949548638 0.984 1.39862590789e-38
0.0364213640911 -0.0254949548638 0.984 1.42628417646e-38
0.0382424322957 -0.0254949548638 0.984 1.36171234323e-38
0.0399413556816 -0.0254172263429 0.981 1.33434106058e-38
0.041756871849 -0.0254172263429 0.981 1.30679041174e-38
0.0435723880163 -0.0254172263429 0.981 1.28774172093e-38
0.0453879041837 -0.0254172263429 0.981 1.34366810316e-38
0.0470590673836 -0.0253394978219 0.978 1.33441280706e-38
0.0488690315137 -0.0253394978219 0.978 1.34373984964e-38
0.050523538602 -0.025261769301 0.975 1.32490639828e-38
0.0522206113089 -0.0252099502871 0.973 1.4168853874e-38
0.0538547609274 -0.0251322217661 0.97 1.38036642838e-38
0.0554778064715 -0.0250544932452 0.967 1.38036642838e-38
0.0570897479412 -0.0249767647243 0.964 1.43553947256e-38
0.0585684405179 -0.0248472171894 0.959 1.43546772608e-38
0.0601544724806 -0.0247694886685 0.956 1.44465127569e-38
0.0612759839968 -0.0245103935987 0.946 1.42621242998e-38
0.0630267263967 -0.0245103935987 0.946 1.37121875201e-38
0.0643666180432 -0.0243549365569 0.94 1.42657116239e-38
0.0659656047594 -0.0243031175429 0.938 1.44493826162e-38
0.0677015417267 -0.0243031175429 0.938 1.3521700612e-38
0.0694374786941 -0.0243031175429 0.938 1.89637300788e-38
0.0709457821358 -0.024225389022 0.935 2.34924983038e-38
-0.00706219132986 -0.0229521218221 0.954 2.34873933735e-38
-0.0052966434974 -0.0229521218221 0.954 2.34855744881e-38
-0.00353109566493 -0.0229521218221 0.954 1.97891144924e-38
-0.00176924919061 -0.0230002394779 0.956 2.00653888925e-38
0.0 -0.0230724159616 0.959 1.97909614038e-38
0.00178035326502 -0.0231445924453 0.962 1.89615188298e-38
0.00357921332074 -0.0232648865848 0.967 1.84083534584e-38
0.00536881998112 -0.0232648865848 0.967 1.78562642842e-38
0.00718063479032 -0.0233370630686 0.97 1.71201453853e-38
0.00900355367395 -0.0234092395523 0.973 1.7393512091e-38
0.0108042644087 -0.0234092395523 0.973 1.73027401804e-38
0.0126308846505 -0.0234573572081 0.975 1.6381874092e-38
0.0144797130411 -0.0235295336918 0.978 1.60138146425e-38
0.0163396455061 -0.0236017101755 0.981 1.57361557596e-38
0.0181551616735 -0.0236017101755 0.981 1.55514085701e-38
0.0200317502501 -0.0236738866592 0.984 1.50000368607e-38
0.0219194429012 -0.0237460631429 0.987 1.47252478371e-38
0.0237460631429 -0.0237460631429 0.987 1.45405006475e-38
0.0256245023987 -0.0237941807988 0.989 1.39851828817e-38
0.0274548239986 -0.0237941807988 0.989 1.39866178113e-38
0.0292851455985 -0.0237941807988 0.989 1.36181996295e-38
0.0311154671984 -0.0237941807988 0.989 1.38036642838e-38
0.0328791643518 -0.0237460631429 0.987 1.39869765438e-38
0.0347057845935 -0.0237460631429 0.987 1.35267228657e-38
0.0365324048353 -0.0237460631429 0.987 1.33419756762e-38
0.0383590250771 -0.0237460631429 0.987 1.34338111724e-38
0.0400635005002 -0.0236738866592 0.984 1.39869765438e-38
0.0418845687048 -0.0236738866592 0.984 1.38947823152e-38
0.0437056369094 -0.0236738866592 0.984 1.39862590789e-38
0.0455267051139 -0.0236738866592 0.984 1.38025880866e-38
0.047203420351 -0.0236017101755 0.981 1.36192758267e-38
0.0488690315137 -0.0235295336918 0.978 1.37114700553e-38
0.0506789956439 -0.0235295336918 0.978 1.38947823152e-38
0.0523279506949 -0.0234573572081 0.975 1.38947823152e-38
0.0540213220437 -0.0234092395523 0.973 1.41706475361e-38
0.055649919625 -0.0233370630686 0.97 1.41706475361e-38
0.0570897479412 -0.0231927101011 0.964 1.36192758267e-38
0.0587516577458 -0.0231445924453 0.962 1.36192758267e-38
0.0601544724806 -0.0230002394779 0.956 1.39869765438e-38
0.0612759839968 -0.0227596511988 0.946 1.41706475361e-38
0.0630267263967 -0.0227596511988 0.946 1.43553947256e-38
0.0643666180432 -0.0226152982314 0.94 1.3988052741e-38
0.0659656047594 -0.0225671805756 0.938 1.44493826162e-38
0.0677015417267 -0.0225671805756 0.938 1.3248346518e-38
0.0694374786941 -0.0225671805756 0.938 1.81299771107e-38
0.0709457821358 -0.0224950040919 0.935 2.34968311187e-38
-0.00526333127414 -0.0210533250966 0.948 2.34866675009e-38
-0.0035088875161 -0.0210533250966 0.948 1.95139667364e-38
-0.00176924919061 -0.0212309902873 0.956 1.96980300922e-38
0.0 -0.0212976147338 0.959 1.96965685379e-38
0.00178035326502 -0.0213642391803 0.962 1.90537172622e-38
0.00357921332074 -0.0214752799245 0.967 1.86856606154e-38
0.00536881998112 -0.0214752799245 0.967 1.74828238487e-38
0.00718063479032 -0.021541904371 0.97 1.7302381448e-38
0.00900355367395 -0.0216085288175 0.973 1.71201804178e-38
0.0108264725576 -0.0216529451152 0.975 1.64722746585e-38
0.012669748911 -0.0217195695617 0.978 1.61967681701e-38
0.0145241293388 -0.0217861940082 0.981 1.59226966112e-38
0.0163396455061 -0.0217861940082 0.981 1.51855015151e-38
0.0182106820456 -0.0218528184547 0.984 1.45379895207e-38
0.0200928226594 -0.0219194429012 0.987 1.45397831827e-38
0.0219194429012 -0.0219194429012 0.987 1.3708600196e-38
0.0237941807988 -0.0219638591989 0.989 1.38018706218e-38
0.0257022309196 -0.0220304836454 0.992 1.45401419151e-38
0.0275381045567 -0.0220304836454 0.992 1.36171234323e-38
0.0293739781938 -0.0220304836454 0.992 1.36185583619e-38
0.0312098518309 -0.0220304836454 0.992 1.34345286372e-38
0.0329457887983 -0.0219638591989 0.989 1.32512163773e-38
0.0347761103982 -0.0219638591989 0.989 1.37107525905e-38
0.0366064319981 -0.0219638591989 0.989 1.38947823152e-38
0.038436753598 -0.0219638591989 0.989 1.38025880866e-38
0.0401856453188 -0.0219194429012 0.987 1.36181996295e-38
0.0420122655606 -0.0219194429012 0.987 1.39869765438e-38
0.0438388858024 -0.0219194429012 0.987 1.36181996295e-38
0.0455267051139 -0.0218528184547 0.984 1.38025880866e-38
0.0473477733185 -0.0218528184547 0.984 1.38940648504e-38
0.0490189365184 -0.0217861940082 0.981 1.40773771103e-38
0.0508344526857 -0.0217861940082 0.981 1.42603306378e-38
0.052488959774 -0.0217195695617 0.978 1.41724411981e-38
0.0541323627879 -0.0216529451152 0.975 1.36192758267e-38
0.0558220327785 -0.0216085288175 0.973 1.38947823152e-38
0.0572674131319 -0.0214752799245 0.967 1.41717237333e-38
0.0587516577458 -0.0213642391803 0.962 1.38025880866e-38
0.0603432417457 -0.0212976147338 0.959 1.42649941591e-38
0.0617941741363 -0.0211865739896 0.954 1.37075239988e-38
0.0631599752897 -0.0210533250966 0.948 1.4448306419e-38
0.0647774687966 -0.0210089087989 0.946 1.41717237333e-38
0.0661062563686 -0.0208756599059 0.94 1.38036642838e-38
0.0678458946941 -0.0208756599059 0.94 1.33387470845e-38
0.0694374786941 -0.0208312436082 0.938 2.05302724606e-38
0.0711734156614 -0.0208312436082 0.938 2.34910591703e-38
-0.00526333127414 -0.0192988813385 0.948 2.34931527102e-38
-0.0035088875161 -0.0192988813385 0.948 1.94153153245e-38
-0.00176924919061 -0.0194617410967 0.956 1.96991020856e-38
0.0 -0.0195838859153 0.962 1.9422890744e-38
0.00178405462316 -0.0196246008548 0.964 1.85931006479e-38
0.00357921332074 -0.0196856732641 0.967 1.79491759776e-38
0.00538547609274 -0.0197467456734 0.97 1.83183298411e-38
0.00720284293916 -0.0198078180827 0.973 1.72094725572e-38
0.00902206046465 -0.0198485330222 0.975 1.66563043832e-38
0.0108597847808 -0.0199096054315 0.978 1.64737193972e-38
0.0127086131714 -0.0199706778408 0.981 1.59201924908e-38
0.0145241293388 -0.0199706778408 0.981 1.48156484036e-38
0.016389613841 -0.0200317502501 0.984 1.39862590789e-38
0.0182106820456 -0.0200317502501 0.984 1.38018706218e-38
0.0200928226594 -0.0200928226594 0.987 1.41695713388e-38
0.0219638591989 -0.020133537599 0.989 1.38025880866e-38
0.0238663572825 -0.0201946100083 0.992 1.33434106058e-38
0.0257022309196 -0.0201946100083 0.992 1.31586634163e-38
0.0275381045567 -0.0201946100083 0.992 1.35260054009e-38
0.0293739781938 -0.0201946100083 0.992 1.36181996295e-38
0.0312098518309 -0.0201946100083 0.992 1.32512163773e-38
0.033045725468 -0.0201946100083 0.992 1.30664691877e-38
0.0348815991052 -0.0201946100083 0.992 1.40773771103e-38
0.0367174727423 -0.0201946100083 0.992 1.39851828817e-38
0.0385533463794 -0.0201946100083 0.992 1.38947823152e-38
0.0402670751979 -0.020133537599 0.989 1.37093176608e-38
0.0420973967978 -0.020133537599 0.989 1.39862590789e-38
0.0439277183977 -0.020133537599 0.989 1.38947823152e-38
0.0456655060441 -0.0200928226594 0.987 1.29724812971e-38
0.0474921262859 -0.0200928226594 0.987 1.34359635668e-38
0.049168841523 -0.0200317502501 0.984 1.38018706218e-38
0.0508344526857 -0.0199706778408 0.981 1.39851828817e-38
0.0526499688531 -0.0199706778408 0.981 1.35260054009e-38
0.0542989239041 -0.0199096054315 0.978 1.38947823152e-38
0.0559367748808 -0.0198485330222 0.975 1.42628417646e-38
0.0574450783226 -0.0197467456734 0.97 1.42621242998e-38
0.0587516577458 -0.0195838859153 0.962 1.41699300713e-38
0.0605320110108 -0.0195838859153 0.962 1.38940648504e-38
0.0619237216712 -0.0194617410967 0.956 1.41713650009e-38
0.0635597219688 -0.0194210261571 0.954 1.33441280706e-38
0.0653252698012 -0.0194210261571 0.954 1.36210694887e-38
0.0670908176337 -0.0194210261571 0.954 1.38036642838e-38
0.0739808958101 -0.0208664065105 1.025 1.22252416936e-38
0.0758778418565 -0.0208664065105 1.025 2.15459083642e-38
0.0777747879029 -0.0208664065105 1.025 2.35007925894e-38
-0.00532440368344 -0.0177480122781 0.959 2.34949421683e-38
-0.00354960245563 -0.0177480122781 0.959 2.01554307266e-38
-0.00177480122781 -0.0177480122781 0.959 1.95150429336e-38
0.0 -0.0178405462316 0.964 1.86853074882e-38
0.00178405462316 -0.0178405462316 0.964 1.85938181127e-38
0.00357921332074 -0.0178960666037 0.967 1.79484585128e-38
0.00538547609274 -0.0179515869758 0.97 1.75789641337e-38
0.00720284293916 -0.0180071073479 0.973 1.70243694379e-38
0.00902206046465 -0.0180441209293 0.975 1.6841057178e-38
0.0108597847808 -0.0180996413014 0.978 1.59183918223e-38
0.0127086131714 -0.0181551616735 0.981 1.52748258844e-38
0.0145685456365 -0.0182106820456 0.984 1.48156484036e-38
0.016389613841 -0.0182106820456 0.984 1.45397831827e-38
0.0182662024177 -0.0182662024177 0.987 1.42599719054e-38
0.020133537599 -0.018303215999 0.989 1.41702888037e-38
0.0220304836454 -0.0183587363711 0.992 1.34345286372e-38
0.0239385337662 -0.0184142567432 0.995 1.38015118894e-38
0.0257799594405 -0.0184142567432 0.995 1.38947823152e-38
0.0276213851148 -0.0184142567432 0.995 1.35260054009e-38
0.0294628107892 -0.0184142567432 0.995 1.38018706218e-38
0.0313042364635 -0.0184142567432 0.995 1.40773771103e-38
0.0331456621378 -0.0184142567432 0.995 1.38018706218e-38
0.0349870878121 -0.0184142567432 0.995 1.35260054009e-38
0.0368285134865 -0.0184142567432 0.995 1.34338111724e-38
0.0386699391608 -0.0184142567432 0.995 1.36178408971e-38
0.0403892200165 -0.0183587363711 0.992 1.35249292037e-38
0.0422250936536 -0.0183587363711 0.992 1.38919124559e-38
0.0440609672907 -0.0183587363711 0.992 1.39844654169e-38
0.0457580399976 -0.018303215999 0.989 1.35260054009e-38
0.0475883615975 -0.018303215999 0.989 1.31586634163e-38
0.0493187465277 -0.0182662024177 0.987 1.33423344086e-38
0.0509899097276 -0.0182106820456 0.984 1.35260054009e-38
0.0526499688531 -0.0181551616735 0.981 1.38025880866e-38
0.0544654850204 -0.0181551616735 0.981 1.35260054009e-38
0.0561088880343 -0.0180996413014 0.978 1.38025880866e-38
0.0574450783226 -0.0179515869758 0.97 1.41702888037e-38
0.0588738025644 -0.0178405462316 0.964 1.41706475361e-38
0.0605320110108 -0.0178035326502 0.962 1.36185583619e-38
0.0619237216712 -0.0176924919061 0.956 1.38947823152e-38
0.0635597219688 -0.0176554783247 0.954 1.38947823152e-38
0.0653252698012 -0.0176554783247 0.954 1.41706475361e-38
0.0670908176337 -0.0176554783247 0.954 1.42624830322e-38
0.0688563654662 -0.0176554783247 0.954 1.43496550071e-38
0.0760999233449 -0.0190249808362 1.028 2.34769971402e-38
0.0780024214285 -0.0190249808362 1.028 2.35014932386e-38
-0.00535216386949 -0.0160564916085 0.964 2.34917121754e-38
-0.00356810924633 -0.0160564916085 0.964 2.13536207876e-38
-0.00178405462316 -0.0160564916085 0.964 1.87742605134e-38
0.0 -0.0161064599433 0.967 1.8778240201e-38
0.00178960666037 -0.0161064599433 0.967 1.85959971319e-38
0.00359031739516 -0.0161564282782 0.97 1.77655049853e-38
0.00540213220437 -0.0162063966131 0.973 1.684212777e-38
0.00721764837172 -0.0162397088364 0.975 1.63790042327e-38
0.00904982065069 -0.0162896771712 0.978 1.5827273791e-38
0.0108930970041 -0.0163396455061 0.981 1.51808379938e-38
0.0127474774319 -0.016389613841 0.984 1.51829903882e-38
0.0145685456365 -0.016389613841 0.984 1.4908560097e-38
0.0164395821759 -0.0164395821759 0.987 1.45397831827e-38
0.0182662024177 -0.0164395821759 0.987 1.40773771103e-38
0.020133537599 -0.0164728943991 0.989 1.42617655674e-38
0.0220304836454 -0.016522862734 0.992 1.39862590789e-38
0.0239385337662 -0.0165728310689 0.995 1.41695713388e-38
0.0258576879614 -0.0166227994038 0.998 1.39851828817e-38
0.027704665673 -0.0166227994038 0.998 1.34338111724e-38
0.0295516433845 -0.0166227994038 0.998 1.31586634163e-38
0.031398621096 -0.0166227994038 0.998 1.30661104553e-38
0.0332455988076 -0.0166227994038 0.998 1.3617845101e-38
0.0350925765191 -0.0166227994038 0.998 1.30664691877e-38
0.0369395542306 -0.0166227994038 0.998 1.29742749592e-38
0.0387865319422 -0.0166227994038 0.998 1.33412582114e-38
0.0405113648351 -0.0165728310689 0.995 1.33419756762e-38
0.0423527905094 -0.0165728310689 0.995 1.28831569278e-38
0.0440609672907 -0.016522862734 0.992 1.29742749592e-38
0.0458968409278 -0.016522862734 0.992 1.31579459515e-38
0.0475883615975 -0.0164728943991 0.989 1.37107525905e-38
0.0494186831974 -0.0164728943991 0.989 1.36181996295e-38
0.0511453667694 -0.0164395821759 0.987 1.34345286372e-38
0.0528109779321 -0.016389613841 0.984 1.35267228657e-38
0.0544654850204 -0.0163396455061 0.981 1.3342693141e-38
0.0561088880343 -0.0162896771712 0.978 1.32512163773e-38
0.0574450783226 -0.0161564282782 0.97 1.39873352762e-38
0.0590570197923 -0.0161064599433 0.967 1.38947823152e-38
0.0605320110108 -0.0160231793852 0.962 1.39869765438e-38
0.0621180429735 -0.0159732110503 0.959 1.39873352762e-38
0.0636929708618 -0.0159232427154 0.956 1.41706475361e-38
0.0654622200524 -0.0159232427154 0.956 1.42621242998e-38
0.067231469243 -0.0159232427154 0.956 1.33412582114e-38
0.0690007184336 -0.0159232427154 0.956 1.57314922383e-38
0.0760999233449 -0.0171224827526 1.028 2.34841970117e-38
-0.00535216386949 -0.0142724369853 0.964 2.34902828509e-38
-0.00356810924633 -0.0142724369853 0.964 2.34787627763e-38
-0.00178405462316 -0.0142724369853 0.964 1.85905895211e-38
0.0 -0.014316853283 0.967 1.87785905256e-38
0.00178960666037 -0.014316853283 0.967 1.79491759776e-38
0.00357921332074 -0.014316853283 0.967 1.75793228661e-38
0.00540213220437 -0.0144056858783 0.973 1.63797216976e-38
0.00721764837172 -0.0144352967434 0.975 1.61038564767e-38
0.00907758083674 -0.0145241293388 0.981 1.60138146425e-38
0.0109264092273 -0.0145685456365 0.984 1.50925898217e-38
0.0127863416924 -0.0146129619341 0.987 1.49089188294e-38
0.0146425727992 -0.0146425727992 0.989 1.39851828817e-38
0.0164728943991 -0.0146425727992 0.989 1.44475889542e-38
0.018303215999 -0.0146425727992 0.989 1.41702888037e-38
0.0201946100083 -0.0146869890969 0.992 1.41695713388e-38
0.0220971080919 -0.0147314053946 0.995 1.38025880866e-38
0.0239385337662 -0.0147314053946 0.995 1.36181996295e-38
0.0258576879614 -0.0147758216923 0.998 1.35260054009e-38
0.027704665673 -0.0147758216923 0.998 1.35249292037e-38
0.0295516433845 -0.0147758216923 0.998 1.34341699048e-38
0.0314930057286 -0.0148202379899 1.001 1.33419756762e-38
0.0333455354773 -0.0148202379899 1.001 1.33419756762e-38
0.0351980652261 -0.0148202379899 1.001 1.30664691877e-38
0.0370505949748 -0.0148202379899 1.001 1.30661104553e-38
0.0389031247236 -0.0148202379899 1.001 1.27884515724e-38
0.0407556544723 -0.0148202379899 1.001 1.33412582114e-38
0.0424804873652 -0.0147758216923 0.998 1.30657517229e-38
0.0440609672907 -0.0146869890969 0.992 1.29753511564e-38
0.0458968409278 -0.0146869890969 0.992 1.29753511564e-38
0.047732714565 -0.0146869890969 0.992 1.29753511564e-38
0.0494186831974 -0.0146425727992 0.989 1.31586634163e-38
0.0512490047973 -0.0146425727992 0.989 1.31579459515e-38
0.0529719870112 -0.0146129619341 0.987 1.39869765438e-38
0.0546320461367 -0.0145685456365 0.984 1.4078112792e-38
0.0562810011878 -0.0145241293388 0.981 1.38947823152e-38
0.0577411869737 -0.0144352967434 0.975 1.38025880866e-38
0.0590570197923 -0.014316853283 0.967 1.40773771103e-38
0.0608466264526 -0.014316853283 0.967 1.43525248663e-38
0.0621180429735 -0.0141984098225 0.959 1.39866178113e-38
0.0636929708618 -0.0141539935248 0.956 1.38947823152e-38
0.0654622200524 -0.0141539935248 0.956 1.36171234323e-38
0.067231469243 -0.0141539935248 0.956 1.33355184929e-38
0.0690007184336 -0.0141539935248 0.956 2.04326804303e-38
0.0760999233449 -0.015219984669 1.028 2.34899703614e-38
0.0777747879029 -0.0151755683713 1.025 2.3509837971e-38
-0.00357921332074 -0.0125272466226 0.967 2.34910115261e-38
-0.00178960666037 -0.0125272466226 0.967 1.91372977091e-38
0.0 -0.0125272466226 0.967 1.83165179622e-38
0.00178960666037 -0.0125272466226 0.967 1.77644287881e-38
0.00357921332074 -0.0125272466226 0.967 1.76733135593e-38
0.00540213220437 -0.0126049751435 0.973 1.64737095882e-38
0.00723985652055 -0.012669748911 0.978 1.59212616816e-38
0.00910534102278 -0.0127474774319 0.984 1.54592143415e-38
0.0109597214506 -0.0127863416924 0.987 1.51829903882e-38
0.0128122511993 -0.0128122511993 0.989 1.49089188294e-38
0.0146425727992 -0.0128122511993 0.989 1.47245303723e-38
0.016522862734 -0.0128511154598 0.992 1.44475889542e-38
0.0183587363711 -0.0128511154598 0.992 1.39866178113e-38
0.0201946100083 -0.0128511154598 0.992 1.38940648504e-38
0.0220971080919 -0.0128899797203 0.995 1.36181996295e-38
0.0240828867336 -0.0129677082412 1.001 1.35260054009e-38
0.0259354164824 -0.0129677082412 1.001 1.38025880866e-38
0.0277879462311 -0.0129677082412 1.001 1.37089589284e-38
0.0296404759799 -0.0129677082412 1.001 1.27884515724e-38
0.0314930057286 -0.0129677082412 1.001 1.26033456505e-38
0.0333455354773 -0.0129677082412 1.001 1.31579459515e-38
0.035303553933 -0.0130065725016 1.004 1.33419756762e-38
0.037161635719 -0.0130065725016 1.004 1.36171234323e-38
0.0390197175049 -0.0130065725016 1.004 1.35249292037e-38
0.0407556544723 -0.0129677082412 1.001 1.35249292037e-38
0.042608184221 -0.0129677082412 1.001 1.32490639828e-38
0.0444607139698 -0.0129677082412 1.001 1.3155793557e-38
0.0461744427883 -0.0129288439807 0.998 1.30657517229e-38
0.0478770675324 -0.0128899797203 0.995 1.33430518734e-38
0.0495685882021 -0.0128511154598 0.992 1.31586634163e-38
0.0512490047973 -0.0128122511993 0.989 1.32512163773e-38
0.0530793263972 -0.0128122511993 0.989 1.33441280706e-38
0.054798607253 -0.0127863416924 0.987 1.35263641333e-38
0.0564531143412 -0.0127474774319 0.984 1.36178408971e-38
0.0579188521644 -0.012669748911 0.978 1.36185583619e-38
0.0590570197923 -0.0125272466226 0.967 1.36192758267e-38
0.0608466264526 -0.0125272466226 0.967 1.39855416141e-38
0.0623123642758 -0.0124624728552 0.962 1.43543185284e-38
0.0638928442013 -0.0124236085947 0.959 1.44454365597e-38
0.0656676454291 -0.0124236085947 0.959 1.40773771103e-38
0.067231469243 -0.0123847443342 0.956 1.34241253974e-38
0.0690007184336 -0.0123847443342 0.956 2.30184950853e-38
0.0760999233449 -0.0133174865854 1.028 2.34907032405e-38
0.0775471543774 -0.0132397580644 1.022 2.35098477801e-38
-0.00359031739516 -0.0107709521855 0.97 2.34888437174e-38
-0.00179515869758 -0.0107709521855 0.97 2.26475797895e-38
0.0 -0.0107709521855 0.97 1.78505245657e-38
0.00179515869758 -0.0107709521855 0.97 1.78562642842e-38
0.00359031739516 -0.0107709521855 0.97 1.71172755261e-38
0.00541323627879 -0.0108264725576 0.975 1.64722746585e-38
0.00726206466939 -0.0108930970041 0.981 1.65648276195e-38
0.00910534102278 -0.0109264092273 0.984 1.55514085701e-38
0.0109597214506 -0.0109597214506 0.987 1.61049536934e-38
0.0128122511993 -0.0109819295994 0.989 1.46309012141e-38
0.0146869890969 -0.0110152418227 0.992 1.47266911745e-38
0.016522862734 -0.0110152418227 0.992 1.32490639828e-38
0.0183587363711 -0.0110152418227 0.992 1.42628417646e-38
0.0202556824175 -0.0110485540459 0.995 1.41717237333e-38
0.0221637325384 -0.0110818662692 0.998 1.35238530065e-38
0.0240828867336 -0.0111151784924 1.001 1.35260054009e-38
0.0259354164824 -0.0111151784924 1.001 1.35267228657e-38
0.0278712267892 -0.0111484907157 1.004 1.43564709228e-38
0.0297293085752 -0.0111484907157 1.004 1.40806183136e-38
0.0315873903611 -0.0111484907157 1.004 1.38025880866e-38
0.0334454721471 -0.0111484907157 1.004 1.41724411981e-38
0.035303553933 -0.0111484907157 1.004 1.38947823152e-38
0.037161635719 -0.0111484907157 1.004 1.36164059675e-38
0.0390197175049 -0.0111484907157 1.004 1.38940648504e-38
0.0408777992909 -0.0111484907157 1.004 1.36185583619e-38
0.042608184221 -0.0111151784924 1.001 1.33419756762e-38
0.0444607139698 -0.0111151784924 1.001 1.35238530065e-38
0.0461744427883 -0.0110818662692 0.998 1.27852229807e-38
0.0480214204998 -0.0110818662692 0.998 1.28810045334e-38
0.0495685882021 -0.0110152418227 0.992 1.26976922735e-38
0.0512490047973 -0.0109819295994 0.989 1.31579459515e-38
0.0530793263972 -0.0109819295994 0.989 1.31583046839e-38
0.054798607253 -0.0109597214506 0.987 1.31586634163e-38
0.0566252274947 -0.0109597214506 0.987 1.39844654169e-38
0.0582741825458 -0.0109264092273 0.984 1.41695713388e-38
0.0597288162946 -0.0108597847808 0.978 1.38018706218e-38
0.0608466264526 -0.0107376399622 0.967 1.39859017478e-38
0.0624419118107 -0.010704327739 0.964 1.38940648504e-38
0.0642259664339 -0.010704327739 0.964 1.39851828817e-38
0.0658730708059 -0.0106821195901 0.962 1.2235286201e-38
0.067442446657 -0.0106488073669 0.959 1.82239650013e-38
0.0692172478848 -0.0106488073669 0.959 2.34878193682e-38
