# .PCD v0.7 - Point Cloud Data file format
VERSION 0.7
FIELDS x y z rgb
SIZE 4 4 4 4
TYPE F F F F
COUNT 1 1 1 1
WIDTH 848
HEIGHT 1
VIEWPOINT 0 0 0 1 0 0 0
POINTS 848
DATA ascii
0.0798531004982 -0.0312468654123 0.938 1.41641903527e-38
0.0815890374655 -0.0312468654123 0.938 2.18221617447e-38
0.0915864057999 -0.034344902175 1.031 2.35072595818e-38
0.00526333127414 -0.0298255438868 0.948 2.34885256227e-38
0.00706219132986 -0.0300143131519 0.954 2.34776641583e-38
0.00882773916233 -0.0300143131519 0.954 2.01589676039e-38
0.0106154951436 -0.0300772362403 0.956 2.08032790326e-38
0.0124236085947 -0.0301716208728 0.959 2.0435909022e-38
0.0141984098225 -0.0301716208728 0.959 1.93310272218e-38
0.0160231793852 -0.0302660055054 0.962 1.83186703567e-38
0.0178960666037 -0.0304233132263 0.967 1.77640700557e-38
0.0196856732641 -0.0304233132263 0.967 1.7302381448e-38
0.021541904371 -0.0305176978589 0.97 1.70286686216e-38
0.0234092395523 -0.0306120824914 0.973 1.71208628501e-38
0.0252099502871 -0.0306120824914 0.973 1.69357569282e-38
0.0270106610218 -0.0306120824914 0.973 1.63822328244e-38
0.0288705934869 -0.0306750055798 0.975 1.58276325234e-38
0.0306750055798 -0.0306750055798 0.975 1.58287087206e-38
0.0325793543425 -0.0307693902124 0.978 1.57357970272e-38
0.0344948071796 -0.0308637748449 0.981 1.52773370113e-38
0.0363103233469 -0.0308637748449 0.981 1.50000368607e-38
0.0382424322957 -0.0309581594775 0.984 1.50007543256e-38
0.0400635005002 -0.0309581594775 0.984 1.46319774113e-38
0.0420122655606 -0.03105254411 0.987 1.46309012141e-38
0.0437056369094 -0.0309581594775 0.984 1.49089202307e-38
0.0455267051139 -0.0309581594775 0.984 1.42621242998e-38
0.0473477733185 -0.0309581594775 0.984 1.42628417646e-38
0.049168841523 -0.0309581594775 0.984 1.35260054009e-38
0.0508344526857 -0.0308637748449 0.981 1.36181996295e-38
0.0526499688531 -0.0308637748449 0.981 1.39869765438e-38
0.0542989239041 -0.0307693902124 0.978 1.39873352762e-38
0.0561088880343 -0.0307693902124 0.978 1.37114700553e-38
0.0579188521644 -0.0307693902124 0.978 1.38036642838e-38
0.0595455990667 -0.0306750055798 0.975 1.38018706218e-38
0.0613500111596 -0.0306750055798 0.975 1.38933473856e-38
0.0630248757176 -0.0306120824914 0.973 1.36185583619e-38
0.0646257131129 -0.0305176978589 0.97 1.42628417646e-38
0.0662154464338 -0.0304233132263 0.967 1.42621242998e-38
0.0676534240709 -0.0302660055054 0.962 1.44465127569e-38
0.0694337773359 -0.0302660055054 0.962 1.42628417646e-38
0.0709920491126 -0.0301716208728 0.959 1.40795295047e-38
0.0723874611311 -0.0300143131519 0.954 1.38947823152e-38
0.073686637838 -0.0298255438868 0.948 1.41702888037e-38
0.0748044479961 -0.0295738515333 0.94 1.38018706218e-38
0.0765440863216 -0.0295738515333 0.94 1.42649941591e-38
0.0782837246471 -0.0295738515333 0.94 1.46326948761e-38
0.0798531004982 -0.029510928445 0.938 1.42563845813e-38
0.0815890374655 -0.029510928445 0.938 2.20965738191e-38
0.0913199080138 -0.0323424674216 1.028 2.35047582641e-38
0.00526333127414 -0.0280711001288 0.948 2.34910115261e-38
0.00706219132986 -0.0282487653195 0.954 2.34780383049e-38
0.00884624595303 -0.0283079870497 0.956 2.04337566276e-38
0.0106154951436 -0.0283079870497 0.956 2.07114183131e-38
0.0124236085947 -0.028396819645 0.959 1.98820303897e-38
0.0141984098225 -0.028396819645 0.959 1.89618901739e-38
0.0160231793852 -0.0284856522404 0.962 1.80417289386e-38
0.0178960666037 -0.028633706566 0.967 1.76729520243e-38
0.0197467456734 -0.0287225391613 0.97 1.76743869539e-38
0.0216085288175 -0.0288113717566 0.973 1.65648276195e-38
0.0234573572081 -0.0288705934869 0.975 1.6474427053e-38
0.025261769301 -0.0288705934869 0.975 1.62889623986e-38
0.0271494619521 -0.0289594260822 0.978 1.59187505547e-38
0.0290482586776 -0.0290482586776 0.981 1.60127636687e-38
0.0309581594775 -0.0291370912729 0.984 1.54602905388e-38
0.0328791643518 -0.0292259238682 0.987 1.51851862229e-38
0.0347057845935 -0.0292259238682 0.987 1.45397831827e-38
0.0366064319981 -0.0292851455985 0.989 1.44468714894e-38
0.038436753598 -0.0292851455985 0.989 1.42624830322e-38
0.0402670751979 -0.0292851455985 0.989 1.39862590789e-38
0.0420973967978 -0.0292851455985 0.989 1.39862590789e-38
0.0439277183977 -0.0292851455985 0.989 1.43546772608e-38
0.0457580399976 -0.0292851455985 0.989 1.39844654169e-38
0.0475883615975 -0.0292851455985 0.989 1.40773771103e-38
0.0494186831974 -0.0292851455985 0.989 1.33405407466e-38
0.0511453667694 -0.0292259238682 0.987 1.38940648504e-38
0.0529719870112 -0.0292259238682 0.987 1.38036642838e-38
0.0544654850204 -0.0290482586776 0.981 1.38047404811e-38
0.0562810011878 -0.0290482586776 0.981 1.3988052741e-38
0.0579188521644 -0.0289594260822 0.978 1.38947823152e-38
0.0597288162946 -0.0289594260822 0.978 1.38025880866e-38
0.0613500111596 -0.0288705934869 0.975 1.39862590789e-38
0.0630248757176 -0.0288113717566 0.973 1.38025880866e-38
0.0646257131129 -0.0287225391613 0.97 1.41702888037e-38
0.0662154464338 -0.028633706566 0.967 1.3801153157e-38
0.0680050530941 -0.028633706566 0.967 1.39862730919e-38
0.0694337773359 -0.0284856522404 0.962 1.35263641333e-38
0.0709920491126 -0.028396819645 0.959 1.41724411981e-38
0.0725392168148 -0.0283079870497 0.956 1.38940648504e-38
0.073686637838 -0.0280711001288 0.948 1.39862590789e-38
0.0750431855961 -0.0279230458032 0.943 1.38036642838e-38
0.0767883759588 -0.0279230458032 0.943 1.37114700553e-38
0.0782837246471 -0.0278342132079 0.94 1.41724411981e-38
0.0800233629726 -0.0278342132079 0.94 1.41641903527e-38
0.0822848927957 -0.0280118783985 0.946 2.17266996881e-38
0.0913199080138 -0.0304399693379 1.028 2.35051155952e-38
0.0052966434974 -0.026483217487 0.954 2.34888577304e-38
0.00706219132986 -0.026483217487 0.954 2.34801878968e-38
0.00882773916233 -0.026483217487 0.954 2.02486507056e-38
0.0106154951436 -0.0265387378591 0.956 2.03444532777e-38
0.0124236085947 -0.0266220184172 0.959 1.95132885079e-38
0.0142428261202 -0.0267052989754 0.962 1.86842242845e-38
0.0160564916085 -0.0267608193474 0.964 1.841158205e-38
0.0179515869758 -0.0269273804637 0.97 1.74889222996e-38
0.0198078180827 -0.0270106610218 0.973 1.7489281032e-38
0.0216529451152 -0.0270661813939 0.975 1.65655450843e-38
0.0235295336918 -0.0271494619521 0.978 1.69336045338e-38
0.0253394978219 -0.0271494619521 0.978 1.65623164926e-38
0.0272327425102 -0.0272327425102 0.981 1.62878862014e-38
0.0291370912729 -0.0273160230683 0.984 1.57361557596e-38
0.03105254411 -0.0273993036265 0.987 1.48156484036e-38
0.0329457887983 -0.0274548239986 0.989 1.46319774113e-38
0.0347761103982 -0.0274548239986 0.989 1.43546772608e-38
0.0366064319981 -0.0274548239986 0.989 1.42621242998e-38
0.038436753598 -0.0274548239986 0.989 1.41706475361e-38
0.0402670751979 -0.0274548239986 0.989 1.36181996295e-38
0.0420973967978 -0.0274548239986 0.989 1.36181996295e-38
0.0439277183977 -0.0274548239986 0.989 1.36164059675e-38
0.0457580399976 -0.0274548239986 0.989 1.36178408971e-38
0.0475883615975 -0.0274548239986 0.989 1.39855640349e-38
0.0494186831974 -0.0274548239986 0.989 1.36185583619e-38
0.0512490047973 -0.0274548239986 0.989 1.36171234323e-38
0.0529719870112 -0.0273993036265 0.987 1.35260054009e-38
0.054798607253 -0.0273993036265 0.987 1.36199932915e-38
0.0566252274947 -0.0273993036265 0.987 1.35260054009e-38
0.0582741825458 -0.0273160230683 0.984 1.36185583619e-38
0.0599120335225 -0.0272327425102 0.981 1.36171234323e-38
0.0615387804247 -0.0271494619521 0.978 1.40777498557e-38
0.0633487445548 -0.0271494619521 0.978 1.38025880866e-38
0.0648255864524 -0.0270106610218 0.973 1.38025880866e-38
0.0666262971872 -0.0270106610218 0.973 1.41695713388e-38
0.0682160305081 -0.0269273804637 0.97 1.39869765438e-38
0.0695781303034 -0.0267608193474 0.964 1.33416169438e-38
0.0712141306009 -0.0267052989754 0.962 1.43550359932e-38
0.0727668503404 -0.0266220184172 0.959 1.41695713388e-38
0.0743084660054 -0.0265387378591 0.956 1.40773771103e-38
0.0756798191961 -0.0263999369289 0.951 1.35267228657e-38
0.0774398149913 -0.0263999369289 0.951 1.38036642838e-38
0.0866950610187 -0.0288983536729 1.041 1.35260054009e-38
0.0807044128702 -0.0263166563707 0.948 1.45344021966e-38
0.0824588566283 -0.0263166563707 0.948 2.18192932868e-38
0.0915864057999 -0.0286207518125 1.031 2.35047526589e-38
0.0052966434974 -0.0247176696545 0.954 2.3488470972e-38
0.00706219132986 -0.0247176696545 0.954 2.34841129338e-38
0.00882773916233 -0.0247176696545 0.954 1.99745791468e-38
0.0106154951436 -0.0247694886685 0.956 1.9976392427e-38
0.0124624728552 -0.0249249457103 0.962 1.93303209674e-38
0.0142724369853 -0.0249767647243 0.964 1.86853200999e-38
0.0161564282782 -0.0251322217661 0.97 1.82264761281e-38
0.0180071073479 -0.0252099502871 0.973 1.748748737e-38
0.0198485330222 -0.025261769301 0.975 1.7396728071e-38
0.0217195695617 -0.0253394978219 0.978 1.65659038167e-38
0.0236017101755 -0.0254172263429 0.981 1.64715571937e-38
0.0254172263429 -0.0254172263429 0.981 1.60091511213e-38
0.0273993036265 -0.0255726833847 0.987 1.50882850328e-38
0.0292851455985 -0.0256245023987 0.989 1.45376307883e-38
0.0311154671984 -0.0256245023987 0.989 1.44475889542e-38
0.0329457887983 -0.0256245023987 0.989 1.43550359932e-38
0.0348815991052 -0.0257022309196 0.992 1.39851828817e-38
0.0367174727423 -0.0257022309196 0.992 1.39866178113e-38
0.0385533463794 -0.0257022309196 0.992 1.38018706218e-38
0.0403892200165 -0.0257022309196 0.992 1.38940648504e-38
0.0422250936536 -0.0257022309196 0.992 1.36167646999e-38
0.0440609672907 -0.0257022309196 0.992 1.39862730919e-38
0.0458968409278 -0.0257022309196 0.992 1.38018706218e-38
0.047732714565 -0.0257022309196 0.992 1.34338111724e-38
0.0494186831974 -0.0256245023987 0.989 1.36181996295e-38
0.0512490047973 -0.0256245023987 0.989 1.35260054009e-38
0.0530793263972 -0.0256245023987 0.989 1.36181996295e-38
0.054798607253 -0.0255726833847 0.987 1.33412582114e-38
0.0566252274947 -0.0255726833847 0.987 1.40791721736e-38
0.0582741825458 -0.0254949548638 0.984 1.36181996295e-38
0.0599120335225 -0.0254172263429 0.981 1.34338111724e-38
0.0617275496898 -0.0254172263429 0.981 1.3801153157e-38
0.0633487445548 -0.0253394978219 0.978 1.37114700553e-38
0.065158708685 -0.0253394978219 0.978 1.35270815981e-38
0.0666262971872 -0.0252099502871 0.973 1.38947823152e-38
0.0682160305081 -0.0251322217661 0.97 1.38036642838e-38
0.0695781303034 -0.0249767647243 0.964 1.39862590789e-38
0.0712141306009 -0.0249249457103 0.962 1.43550359932e-38
0.0727668503404 -0.0248472171894 0.959 1.42628417646e-38
0.0743084660054 -0.0247694886685 0.956 1.42635802489e-38
0.075918556796 -0.0247176696545 0.954 1.37107525905e-38
0.0776841046285 -0.0247176696545 0.954 1.37114700553e-38
0.0864452193443 -0.0268940682405 1.038 1.36181996295e-38
0.0880256992698 -0.0267904302126 1.034 1.53641502537e-38
0.089678355679 -0.0267127016916 1.031 2.28326969219e-38
0.0915864057999 -0.0267127016916 1.031 2.35076071038e-38
0.00706219132986 -0.0229521218221 0.954 2.34934175556e-38
0.00884624595303 -0.0230002394779 0.956 1.98813325431e-38
0.0106154951436 -0.0230002394779 0.956 1.93317306737e-38
0.0124883823621 -0.0231927101011 0.964 1.92388273881e-38
0.014316853283 -0.0232648865848 0.967 1.85931216674e-38
0.0161564282782 -0.0233370630686 0.97 1.79502563787e-38
0.0180441209293 -0.0234573572081 0.975 1.73027401804e-38
0.0199096054315 -0.0235295336918 0.978 1.68432039672e-38
0.0217861940082 -0.0236017101755 0.981 1.57375906893e-38
0.0236738866592 -0.0236738866592 0.984 1.52748258844e-38
0.0254949548638 -0.0236738866592 0.984 1.50904374273e-38
0.0274548239986 -0.0237941807988 0.989 1.47230954426e-38
0.0292851455985 -0.0237941807988 0.989 1.39851828817e-38
0.0312098518309 -0.0238663572825 0.992 1.41699300713e-38
0.033045725468 -0.0238663572825 0.992 1.41706475361e-38
0.0348815991052 -0.0238663572825 0.992 1.39866178113e-38
0.0367174727423 -0.0238663572825 0.992 1.39844654169e-38
0.0385533463794 -0.0238663572825 0.992 1.35260054009e-38
0.0403892200165 -0.0238663572825 0.992 1.36185583619e-38
0.0422250936536 -0.0238663572825 0.992 1.35260054009e-38
0.0440609672907 -0.0238663572825 0.992 1.36167646999e-38
0.0458968409278 -0.0238663572825 0.992 1.33405407466e-38
0.047732714565 -0.0238663572825 0.992 1.36171234323e-38
0.0495685882021 -0.0238663572825 0.992 1.36181996295e-38
0.0514044618392 -0.0238663572825 0.992 1.37093176608e-38
0.0530793263972 -0.0237941807988 0.989 1.38018706218e-38
0.0549096479971 -0.0237941807988 0.989 1.36164059675e-38
0.056739969597 -0.0237941807988 0.989 1.3616047235e-38
0.0584518477365 -0.0237460631429 0.987 1.35245704713e-38
0.0600952507504 -0.0236738866592 0.984 1.35260054009e-38
0.0619163189549 -0.0236738866592 0.984 1.36174821647e-38
0.0635430658572 -0.0236017101755 0.981 1.38947823152e-38
0.0653585820245 -0.0236017101755 0.981 1.36171234323e-38
0.0667632474384 -0.0234573572081 0.975 1.38036642838e-38
0.068427007922 -0.0234092395523 0.973 1.37114700553e-38
0.0697946597545 -0.0232648865848 0.967 1.38940648504e-38
0.0712141306009 -0.0231445924453 0.962 1.41699300713e-38
0.0725392168148 -0.0230002394779 0.956 1.36167646999e-38
0.0739198234008 -0.0228799453383 0.951 1.34341699048e-38
0.0756798191961 -0.0228799453383 0.951 1.40791707723e-38
0.0847685041072 -0.0250452398499 1.041 1.39873352762e-38
0.0864452193443 -0.0249730633661 1.038 1.32490639828e-38
0.0877703055582 -0.0248046515708 1.031 1.5546027584e-38
0.0894174099302 -0.0247324750871 1.028 2.34881865084e-38
0.00715842664149 -0.0214752799245 0.967 2.34924086207e-38
0.00894803330186 -0.0214752799245 0.967 2.07993049502e-38
0.0107376399622 -0.0214752799245 0.967 1.96090518436e-38
0.0125272466226 -0.0214752799245 0.967 1.89622404985e-38
0.014316853283 -0.0214752799245 0.967 1.88707595308e-38
0.0161564282782 -0.021541904371 0.97 1.81339231671e-38
0.0180441209293 -0.0216529451152 0.975 1.65626920406e-38
0.0199706778408 -0.0217861940082 0.981 1.61049326739e-38
0.0217861940082 -0.0217861940082 0.981 1.51855015151e-38
0.0237460631429 -0.0219194429012 0.987 1.50007543256e-38
0.0256245023987 -0.0219638591989 0.989 1.4723454175e-38
0.0275381045567 -0.0220304836454 0.992 1.45394244503e-38
0.0293739781938 -0.0220304836454 0.992 1.42628417646e-38
0.0312098518309 -0.0220304836454 0.992 1.40791707723e-38
0.033045725468 -0.0220304836454 0.992 1.39869765438e-38
0.0349870878121 -0.0220971080919 0.995 1.38018832335e-38
0.0368285134865 -0.0220971080919 0.995 1.37093176608e-38
0.0386699391608 -0.0220971080919 0.995 1.36185583619e-38
0.0405113648351 -0.0220971080919 0.995 1.33419756762e-38
0.0423527905094 -0.0220971080919 0.995 1.36192758267e-38
0.0441942161837 -0.0220971080919 0.995 1.36189170943e-38
0.0461744427883 -0.0221637325384 0.998 1.31586634163e-38
0.0478770675324 -0.0220971080919 0.995 1.35260054009e-38
0.0497184932067 -0.0220971080919 0.995 1.36185583619e-38
0.0514044618392 -0.0220304836454 0.992 1.35260054009e-38
0.0532403354763 -0.0220304836454 0.992 1.33391058169e-38
0.0550762091134 -0.0220304836454 0.992 1.35238530065e-38
0.056739969597 -0.0219638591989 0.989 1.37093176608e-38
0.0585702911969 -0.0219638591989 0.989 1.35260054009e-38
0.0602784679783 -0.0219194429012 0.987 1.36171234323e-38
0.06210508822 -0.0219194429012 0.987 1.3802251775e-38
0.0637373871595 -0.0218528184547 0.984 1.34341699048e-38
0.0653585820245 -0.0217861940082 0.981 1.3708600196e-38
0.0669686728151 -0.0217195695617 0.978 1.39862590789e-38
0.0685676595313 -0.0216529451152 0.975 1.38947823152e-38
0.0700111892057 -0.021541904371 0.97 1.39851828817e-38
0.0712141306009 -0.0213642391803 0.962 1.41702888037e-38
0.0725392168148 -0.0212309902873 0.956 1.42642766943e-38
0.0739198234008 -0.0211199495431 0.951 1.41706475361e-38
0.0754410815961 -0.0210533250966 0.948 1.42646354267e-38
0.0771955253541 -0.0210533250966 0.948 1.38940648504e-38
0.0858622554374 -0.02289660145 1.031 1.28752648149e-38
0.0875149118466 -0.0228299770035 1.028 1.77598717655e-38
0.0894174099302 -0.0228299770035 1.028 2.34943031762e-38
0.00758778418565 -0.0208664065105 1.025 2.34899143094e-38
0.00894803330186 -0.0196856732641 0.967 2.21818792644e-38
0.0107376399622 -0.0196856732641 0.967 1.91459072869e-38
0.0125272466226 -0.0196856732641 0.967 1.90555067204e-38
0.014316853283 -0.0196856732641 0.967 1.85923831831e-38
0.0161564282782 -0.0197467456734 0.97 1.71161993289e-38
0.0180441209293 -0.0198485330222 0.975 1.63790042327e-38
0.0200317502501 -0.0200317502501 0.984 1.57354382948e-38
0.0218528184547 -0.0200317502501 0.984 1.53677375778e-38
0.0237941807988 -0.020133537599 0.989 1.54592143415e-38
0.0257022309196 -0.0201946100083 0.992 1.48156484036e-38
0.0276213851148 -0.0202556824175 0.995 1.50011298735e-38
0.0294628107892 -0.0202556824175 0.995 1.41702888037e-38
0.0313042364635 -0.0202556824175 0.995 1.38951508567e-38
0.0332455988076 -0.0203167548268 0.998 1.38947823152e-38
0.0350925765191 -0.0203167548268 0.998 1.39862590789e-38
0.0369395542306 -0.0203167548268 0.998 1.38018706218e-38
0.0389031247236 -0.0203778272361 1.001 1.39848241493e-38
0.0406335096537 -0.0203167548268 0.998 1.33423344086e-38
0.0424804873652 -0.0203167548268 0.998 1.30657517229e-38
0.0444607139698 -0.0203778272361 1.001 1.343345244e-38
0.0461744427883 -0.0203167548268 0.998 1.31586634163e-38
0.0480214204998 -0.0203167548268 0.998 1.27884515724e-38
0.0498683982114 -0.0203167548268 0.998 1.33412582114e-38
0.051559918881 -0.0202556824175 0.995 1.31565110219e-38
0.0534013445554 -0.0202556824175 0.995 1.33412582114e-38
0.0550762091134 -0.0201946100083 0.992 1.3248346518e-38
0.0569120827505 -0.0201946100083 0.992 1.36185583619e-38
0.0587479563876 -0.0201946100083 0.992 1.38025880866e-38
0.0604006127969 -0.020133537599 0.989 1.33412582114e-38
0.0622309343968 -0.020133537599 0.989 1.33412582114e-38
0.0639317084618 -0.0200928226594 0.987 1.32508576449e-38
0.065558455364 -0.0200317502501 0.984 1.39851828817e-38
0.0671740981918 -0.0199706778408 0.981 1.42614124402e-38
0.0687786369453 -0.0199096054315 0.978 1.38947823152e-38
0.0702277186568 -0.0198078180827 0.973 1.38947823152e-38
0.0713621849265 -0.0196246008548 0.964 1.38947823152e-38
0.0725392168148 -0.0194617410967 0.956 1.38940648504e-38
0.0739198234008 -0.0193599537478 0.951 1.39862590789e-38
0.0754410815961 -0.0192988813385 0.948 1.39869765438e-38
0.0771955253541 -0.0192988813385 0.948 1.41717237333e-38
0.0858622554374 -0.0209885513291 1.031 1.2780200727e-38
0.0875149118466 -0.0209274789198 1.028 2.14533596071e-38
0.0888955184326 -0.0208053341012 1.022 2.35029253657e-38
0.0107709521855 -0.0179515869758 0.97 1.84951667008e-38
0.0125661108831 -0.0179515869758 0.97 1.88686197481e-38
0.0143612695806 -0.0179515869758 0.97 1.8317235427e-38
0.0161564282782 -0.0179515869758 0.97 1.66563043832e-38
0.0180996413014 -0.0180996413014 0.978 1.61971269025e-38
0.0200317502501 -0.0182106820456 0.984 1.60116622481e-38
0.0218528184547 -0.0182106820456 0.984 1.57336446328e-38
0.0238663572825 -0.0183587363711 0.992 1.51826316558e-38
0.0257022309196 -0.0183587363711 0.992 1.45379895207e-38
0.0276213851148 -0.0184142567432 0.995 1.46319774113e-38
0.0295516433845 -0.0184697771153 0.998 1.41706475361e-38
0.031398621096 -0.0184697771153 0.998 1.39866178113e-38
0.0333455354773 -0.0185252974874 1.001 1.43546772608e-38
0.0351980652261 -0.0185252974874 1.001 1.39851828817e-38
0.0370505949748 -0.0185252974874 1.001 1.37093176608e-38
0.0389031247236 -0.0185252974874 1.001 1.35260054009e-38
0.0407556544723 -0.0185252974874 1.001 1.34338111724e-38
0.042608184221 -0.0185252974874 1.001 1.3248346518e-38
0.0444607139698 -0.0185252974874 1.001 1.33419756762e-38
0.0463132437185 -0.0185252974874 1.001 1.33419756762e-38
0.0481657734673 -0.0185252974874 1.001 1.28777759417e-38
0.050018303216 -0.0185252974874 1.001 1.30628818637e-38
0.0518708329647 -0.0185252974874 1.001 1.31565110219e-38
0.0535623536344 -0.0184697771153 0.998 1.29742749592e-38
0.055409331346 -0.0184697771153 0.998 1.31550760922e-38
0.057084195904 -0.0184142567432 0.995 1.29681765082e-38
0.0587479563876 -0.0183587363711 0.992 1.35267228657e-38
0.0605838300248 -0.0183587363711 0.992 1.34363222992e-38
0.0622309343968 -0.018303215999 0.989 1.34345286372e-38
0.0640612559967 -0.018303215999 0.989 1.35260054009e-38
0.0657583287036 -0.0182662024177 0.987 1.39851828817e-38
0.0673795235686 -0.0182106820456 0.984 1.40766596455e-38
0.0689896143592 -0.0181551616735 0.981 1.38947823152e-38
0.0703720716242 -0.0180441209293 0.975 1.39862590789e-38
0.0715842664149 -0.0178960666037 0.967 1.43550359932e-38
0.0733738730752 -0.0178960666037 0.967 1.41706475361e-38
0.0751634797356 -0.0178960666037 0.967 1.41706475361e-38
0.0818074175957 -0.0190249808362 1.028 1.38025880866e-38
0.0837099156794 -0.0190249808362 1.028 1.29685352407e-38
0.085612413763 -0.0190249808362 1.028 1.59134130089e-38
0.087259518135 -0.0189694604641 1.025 2.34856459543e-38
0.00948473023206 -0.0170725144177 1.025 2.34942485256e-38
0.0108042644087 -0.0162063966131 0.973 2.12617110226e-38
0.0126049751435 -0.0162063966131 0.973 1.81306945755e-38
0.0144056858783 -0.0162063966131 0.973 1.81306973781e-38
0.0162063966131 -0.0162063966131 0.973 1.7027243501e-38
0.0180996413014 -0.0162896771712 0.978 1.62893225323e-38
0.0199706778408 -0.0163396455061 0.981 1.60120209805e-38
0.0218528184547 -0.016389613841 0.984 1.57361557596e-38
0.0238663572825 -0.016522862734 0.992 1.50925898217e-38
0.0257799594405 -0.0165728310689 0.995 1.44468714894e-38
0.0276213851148 -0.0165728310689 0.995 1.46326948761e-38
0.0296404759799 -0.0166727677387 1.001 1.40795295047e-38
0.0314930057286 -0.0166727677387 1.001 1.35260054009e-38
0.0333455354773 -0.0166727677387 1.001 1.39862590789e-38
0.035303553933 -0.0167227360735 1.004 1.36171234323e-38
0.037161635719 -0.0167227360735 1.004 1.36185583619e-38
0.0390197175049 -0.0167227360735 1.004 1.35260054009e-38
0.0408777992909 -0.0167227360735 1.004 1.41702888037e-38
0.0427358810768 -0.0167227360735 1.004 1.38018706218e-38
0.0445939628628 -0.0167227360735 1.004 1.38947823152e-38
0.0464520446487 -0.0167227360735 1.004 1.41717237333e-38
0.0483101264347 -0.0167227360735 1.004 1.39862590789e-38
0.0501682082206 -0.0167227360735 1.004 1.41706475361e-38
0.0520262900066 -0.0167227360735 1.004 1.35260054009e-38
0.0537233627135 -0.0166727677387 1.001 1.30664691877e-38
0.0555758924622 -0.0166727677387 1.001 1.32490639828e-38
0.0572563090575 -0.0166227994038 0.998 1.31579459515e-38
0.0589256215783 -0.0165728310689 0.995 1.29742749592e-38
0.0605838300248 -0.016522862734 0.992 1.28810045334e-38
0.0624197036619 -0.016522862734 0.992 1.32490639828e-38
0.0640612559967 -0.0164728943991 0.989 1.30635993285e-38
0.0658915775966 -0.0164728943991 0.989 1.3616047235e-38
0.0677218991965 -0.0164728943991 0.989 1.41692140077e-38
0.0689896143592 -0.0163396455061 0.981 1.38018706218e-38
0.0703720716242 -0.0162397088364 0.975 1.41706475361e-38
0.0720284293916 -0.0162063966131 0.973 1.43550570127e-38
0.0738291401264 -0.0162063966131 0.973 1.42628417646e-38
0.0756298508612 -0.0162063966131 0.973 1.42628417646e-38
0.0818074175957 -0.0171224827526 1.028 1.4353959796e-38
0.0837099156794 -0.0171224827526 1.028 1.19439954866e-38
0.085612413763 -0.0171224827526 1.028 2.136008778e-38
0.087259518135 -0.0170725144177 1.025 2.34823613107e-38
0.0891564641814 -0.0170725144177 1.025 2.35098001359e-38
0.00758778418565 -0.0151755683713 1.025 2.34838705092e-38
0.00948473023206 -0.0151755683713 1.025 2.34826738003e-38
0.0126308846505 -0.0144352967434 0.975 1.73884772257e-38
0.0144352967434 -0.0144352967434 0.975 1.75786054013e-38
0.0162397088364 -0.0144352967434 0.975 1.67506510063e-38
0.0181551616735 -0.0145241293388 0.981 1.62868100042e-38
0.0199706778408 -0.0145241293388 0.981 1.61042152091e-38
0.0219638591989 -0.0146425727992 0.989 1.57372319569e-38
0.0238663572825 -0.0146869890969 0.992 1.5001113058e-38
0.0257799594405 -0.0147314053946 0.995 1.46309180297e-38
0.0276213851148 -0.0147314053946 0.995 1.43546772608e-38
0.0296404759799 -0.0148202379899 1.001 1.39869765438e-38
0.0315873903611 -0.0148646542876 1.004 1.36185583619e-38
0.0334454721471 -0.0148646542876 1.004 1.41695713388e-38
0.035303553933 -0.0148646542876 1.004 1.41695713388e-38
0.0372726764632 -0.0149090705853 1.007 1.49089188294e-38
0.0391363102863 -0.0149090705853 1.007 1.49082013646e-38
0.0409999441095 -0.0149090705853 1.007 1.5001113058e-38
0.0428635779327 -0.0149090705853 1.007 1.47223779778e-38
0.0447272117558 -0.0149090705853 1.007 1.50000368607e-38
0.046590845579 -0.0149090705853 1.007 1.50943834837e-38
0.0484544794021 -0.0149090705853 1.007 1.51869364447e-38
0.0501682082206 -0.0148646542876 1.004 1.45397831827e-38
0.0520262900066 -0.0148646542876 1.004 1.454085938e-38
0.0538843717925 -0.0148646542876 1.004 1.45419355772e-38
0.0557424535785 -0.0148646542876 1.004 1.40802469695e-38
0.057428422211 -0.0148202379899 1.001 1.38947823152e-38
0.059103286769 -0.0147758216923 0.998 1.30664691877e-38
0.0607670472526 -0.0147314053946 0.995 1.30661104553e-38
0.062608472927 -0.0147314053946 0.995 1.31583046839e-38
0.064255577299 -0.0146869890969 0.992 1.28777759417e-38
0.0658915775966 -0.0146425727992 0.989 1.36181996295e-38
0.0677218991965 -0.0146425727992 0.989 1.36164059675e-38
0.0692005917731 -0.0145685456365 0.984 1.3708600196e-38
0.0703720716242 -0.0144352967434 0.975 1.39866178113e-38
0.0720284293916 -0.0144056858783 0.973 1.36185583619e-38
0.0738291401264 -0.0144056858783 0.973 1.38025880866e-38
0.0756298508612 -0.0144056858783 0.973 1.38004356922e-38
0.0815686799958 -0.0151755683713 1.025 1.32454766588e-38
0.0834656260422 -0.0151755683713 1.025 1.60091679368e-38
0.0853625720886 -0.0151755683713 1.025 2.34884975967e-38
0.087259518135 -0.0151755683713 1.025 2.3488564859e-38
0.0888955184326 -0.0151311520736 1.022 2.35098687996e-38
0.00758778418565 -0.0132786223249 1.025 2.34914543364e-38
0.00948473023206 -0.0132786223249 1.025 1.89633124918e-38
0.012669748911 -0.012669748911 0.978 2.19078483432e-38
0.0144797130411 -0.012669748911 0.978 1.64726333909e-38
0.0162896771712 -0.012669748911 0.978 1.67506622166e-38
0.0181551616735 -0.0127086131714 0.981 1.61956919728e-38
0.0200317502501 -0.0127474774319 0.984 1.58265563262e-38
0.0220304836454 -0.0128511154598 0.992 1.52759020816e-38
0.0239385337662 -0.0128899797203 0.995 1.49089188294e-38
0.0257799594405 -0.0128899797203 0.995 1.45394244503e-38
0.027704665673 -0.0129288439807 0.998 1.46309012141e-38
0.0296404759799 -0.0129677082412 1.001 1.44468714894e-38
0.0315873903611 -0.0130065725016 1.004 1.46323361437e-38
0.0334454721471 -0.0130065725016 1.004 1.53663026482e-38
0.03540904264 -0.0130454367621 1.007 1.63822328244e-38
0.0372726764632 -0.0130454367621 1.007 1.64751445178e-38
0.0391363102863 -0.0130454367621 1.007 1.6014173375e-38
0.0409999441095 -0.0130454367621 1.007 1.57397430837e-38
0.0428635779327 -0.0130454367621 1.007 1.54606983166e-38
0.0447272117558 -0.0130454367621 1.007 1.55510498377e-38
0.046590845579 -0.0130454367621 1.007 1.47223779778e-38
0.0484544794021 -0.0130454367621 1.007 1.45405006475e-38
0.0503181132253 -0.0130454367621 1.007 1.46319774113e-38
0.0521817470484 -0.0130454367621 1.007 1.43554073373e-38
0.0540453808716 -0.0130454367621 1.007 1.43553947256e-38
0.0559090146948 -0.0130454367621 1.007 1.43553947256e-38
0.0576005353644 -0.0130065725016 1.004 1.40802469695e-38
0.0592809519597 -0.0129677082412 1.001 1.38947823152e-38
0.0609502644805 -0.0129288439807 0.998 1.33419756762e-38
0.0627972421921 -0.0129288439807 0.998 1.29714050999e-38
0.064255577299 -0.0128511154598 0.992 1.30632405961e-38
0.0660914509361 -0.0128511154598 0.992 1.36174947764e-38
0.0679273245732 -0.0128511154598 0.992 1.3155793557e-38
0.0695522207964 -0.0128122511993 0.989 1.39855640349e-38
0.0705886010754 -0.012669748911 0.978 1.38940648504e-38
0.0721764837172 -0.0126308846505 0.975 1.38947823152e-38
0.0739808958101 -0.0126308846505 0.975 1.39869765438e-38
0.075785307903 -0.0126308846505 0.975 1.3802946819e-38
0.0815686799958 -0.0132786223249 1.025 1.28731124204e-38
0.0834656260422 -0.0132786223249 1.025 2.34831320249e-38
0.0851127304142 -0.0132397580644 1.022 2.34780341011e-38
0.0867487307118 -0.013200893804 1.019 2.35036862707e-38
0.0886345726838 -0.013200893804 1.019 2.35098253593e-38
0.00951249041811 -0.0114149885017 1.028 2.03459582723e-38
0.0127086131714 -0.0108930970041 0.981 2.34953359332e-38
0.0145241293388 -0.0108930970041 0.981 1.87711075918e-38
0.0163396455061 -0.0108930970041 0.981 1.57361557596e-38
0.0181551616735 -0.0108930970041 0.981 1.64737095882e-38
0.0200928226594 -0.0109597214506 0.987 1.58287087206e-38
0.0220971080919 -0.0110485540459 0.995 1.57372319569e-38
0.0239385337662 -0.0110485540459 0.995 1.47223779778e-38
0.0257799594405 -0.0110485540459 0.995 1.48127785444e-38
0.0277879462311 -0.0111151784924 1.001 1.51826316558e-38
0.0297293085752 -0.0111484907157 1.004 1.53663026482e-38
0.0316817749937 -0.011181802939 1.007 1.63822328244e-38
0.0335454088169 -0.011181802939 1.007 1.77669399149e-38
0.035514531347 -0.0112151151622 1.01 1.68453563617e-38
0.0372726764632 -0.011181802939 1.007 1.60148908398e-38
0.0391363102863 -0.011181802939 1.007 1.56446789959e-38
0.0411220889281 -0.0112151151622 1.01 1.54617254684e-38
0.0429912747885 -0.0112151151622 1.01 1.5276622349e-38
0.0449937095418 -0.0112484273855 1.013 1.53677375778e-38
0.0467296465092 -0.0112151151622 1.01 1.49074838998e-38
0.0485988323696 -0.0112151151622 1.01 1.46316186789e-38
0.0504680182299 -0.0112151151622 1.01 1.46309012141e-38
0.0524926611321 -0.0112484273855 1.013 1.43546772608e-38
0.0540453808716 -0.011181802939 1.007 1.44468714894e-38
0.0559090146948 -0.011181802939 1.007 1.43546772608e-38
0.0577726485179 -0.011181802939 1.007 1.42621242998e-38
0.0594586171504 -0.0111484907157 1.004 1.41706475361e-38
0.0611334817084 -0.0111151784924 1.001 1.40813231668e-38
0.0629860114572 -0.0111151784924 1.001 1.36178408971e-38
0.0646442199036 -0.0110818662692 0.998 1.37089589284e-38
0.0662913242756 -0.0110485540459 0.995 1.36167646999e-38
0.0679273245732 -0.0110152418227 0.992 1.32490639828e-38
0.0695522207964 -0.0109819295994 0.989 1.36167646999e-38
0.0710216599777 -0.0109264092273 0.984 1.33412582114e-38
0.0723985652055 -0.0108597847808 0.978 1.38933473856e-38
0.0742085293357 -0.0108597847808 0.978 1.37107525905e-38
0.0760184934658 -0.0108597847808 0.978 1.20487453494e-38
0.0815686799958 -0.0113816762785 1.025 2.09009495356e-38
0.0834656260422 -0.0113816762785 1.025 2.34878025526e-38
0.0851127304142 -0.0113483640552 1.022 2.09848438733e-38
0.0867487307118 -0.011315051832 1.019 2.35098547866e-38
0.00951249041811 -0.00951249041811 1.028 2.34856459543e-38
0.0145241293388 -0.00907758083674 0.981 2.34928163986e-38
0.0163396455061 -0.00907758083674 0.981 1.73877597609e-38
0.0181551616735 -0.00907758083674 0.981 1.59205638349e-38
0.020133537599 -0.00915160799952 0.989 1.63829502892e-38
0.0220971080919 -0.00920712837161 0.995 1.55542784294e-38
0.0240107102499 -0.00923488855766 0.998 1.54606492712e-38
0.0258576879614 -0.00923488855766 0.998 1.55517673025e-38
0.0278712267892 -0.00929040892975 1.004 1.6287527469e-38
0.0297293085752 -0.00929040892975 1.004 1.70257987623e-38
0.0316817749937 -0.00931816911579 1.007 1.79520458369e-38
0.0336453454866 -0.00934592930184 1.01 1.72109046843e-38
0.035514531347 -0.00934592930184 1.01 1.65676974788e-38
0.0373837172074 -0.00934592930184 1.01 1.57411780133e-38
0.0392529030677 -0.00934592930184 1.01 1.6017760699e-38
0.0412442337467 -0.00937368948788 1.013 1.62903973282e-38
0.0431189716443 -0.00937368948788 1.013 1.57354382948e-38
0.0449937095418 -0.00937368948788 1.013 1.57354382948e-38
0.0467296465092 -0.00934592930184 1.01 1.58279912558e-38
0.0485988323696 -0.00934592930184 1.01 1.5274467152e-38
0.0506179232346 -0.00937368948788 1.013 1.50929485541e-38
0.0524926611321 -0.00937368948788 1.013 1.50003955932e-38
0.0542063899507 -0.00934592930184 1.01 1.5001113058e-38
0.056075575811 -0.00934592930184 1.01 1.5001113058e-38
0.0579447616714 -0.00934592930184 1.01 1.49082013646e-38
0.0596362823411 -0.00931816911579 1.007 1.41699300713e-38
0.0613166989363 -0.00929040892975 1.004 1.41702888037e-38
0.0629860114572 -0.0092626487437 1.001 1.39869765438e-38
0.0646442199036 -0.00923488855766 0.998 1.38947823152e-38
0.0662913242756 -0.00920712837161 0.995 1.36171234323e-38
0.0681327499499 -0.00920712837161 0.995 1.30628818637e-38
0.0697631982103 -0.00917936818557 0.992 1.31554348246e-38
0.0713825423963 -0.00915160799952 0.989 1.35267228657e-38
0.0726206466939 -0.00907758083674 0.981 1.29731987619e-38
0.0744361628612 -0.00907758083674 0.981 1.19536812616e-38
0.0762516790286 -0.00907758083674 0.981 1.94229453946e-38
0.0815686799958 -0.00948473023206 1.025 2.34910143287e-38
0.0834656260422 -0.00948473023206 1.025 1.81282983551e-38
0.0851127304142 -0.00945697004602 1.022 2.34882075279e-38
0.0867487307118 -0.00942920985997 1.019 2.35098463788e-38
0.00948473023206 -0.00758778418565 1.025 2.3483503369e-38
0.0127474774319 -0.00728427281823 0.984 1.41620379583e-38
0.0145685456365 -0.00728427281823 0.984 2.3488165489e-38
0.016389613841 -0.00728427281823 0.984 2.34859612465e-38
0.0182106820456 -0.00728427281823 0.984 1.75717894856e-38
0.0202556824175 -0.00736570269729 0.995 1.57357984285e-38
0.0221637325384 -0.00738791084613 0.998 1.59194680195e-38
0.0240828867336 -0.00741011899496 1.001 1.55514085701e-38
0.0260131450033 -0.0074323271438 1.004 1.60127412479e-38
0.0278712267892 -0.0074323271438 1.004 1.84112233176e-38
0.0298181411705 -0.00745453529263 1.007 1.91480596813e-38
0.0317761596263 -0.00747674344147 1.01 1.7856981749e-38
0.0336453454866 -0.00747674344147 1.01 1.72109046843e-38
0.035514531347 -0.00747674344147 1.01 1.72112634167e-38
0.0374947579515 -0.00749895159031 1.013 1.69357569282e-38
0.0393694958491 -0.00749895159031 1.013 1.67510097387e-38
0.0412442337467 -0.00749895159031 1.013 1.65666212815e-38
0.0431189716443 -0.00749895159031 1.013 1.66563043832e-38
0.0449937095418 -0.00749895159031 1.013 1.67506622166e-38
0.0468684474394 -0.00749895159031 1.013 1.63822328244e-38
0.048743185337 -0.00749895159031 1.013 1.61045739415e-38
0.0506179232346 -0.00749895159031 1.013 1.59205442168e-38
0.0524926611321 -0.00749895159031 1.013 1.55514085701e-38
0.0543673990297 -0.00749895159031 1.013 1.50925898217e-38
0.0562421369273 -0.00749895159031 1.013 1.50000368607e-38
0.0579447616714 -0.00747674344147 1.01 1.49078426322e-38
0.0596362823411 -0.00745453529263 1.007 1.44468714894e-38
0.0613166989363 -0.0074323271438 1.004 1.43550359932e-38
0.0631747807223 -0.0074323271438 1.004 1.39869765438e-38
0.0648385412059 -0.00741011899496 1.001 1.41713650009e-38
0.0664911976151 -0.00738791084613 0.998 1.38947823152e-38
0.0681327499499 -0.00736570269729 0.995 1.33412582114e-38
0.0697631982103 -0.00734349454845 0.992 1.3155793557e-38
0.0715990718474 -0.00734349454845 0.992 1.34363222992e-38
0.0734349454845 -0.00734349454845 0.992 1.1491992654e-38
0.0752708191217 -0.00734349454845 0.992 1.98884931782e-38
0.0796717339493 -0.00758778418565 1.025 2.34910563677e-38
0.0815686799958 -0.00758778418565 1.025 2.17249480651e-38
0.0834656260422 -0.00758778418565 1.025 1.57275994312e-38
0.0848628887398 -0.00754336788798 1.019 2.35097973333e-38
0.0203778272361 -0.00555758924622 1.001 1.68328007274e-38
0.0222303569849 -0.00555758924622 1.001 1.49035378433e-38
0.0241550632173 -0.00557424535785 1.004 1.5732579646e-38
0.0260131450033 -0.00557424535785 1.004 1.75779215677e-38
0.0279545073474 -0.00559090146948 1.007 1.9607954627e-38
0.0298181411705 -0.00559090146948 1.007 1.85019826166e-38
0.0317761596263 -0.0056075575811 1.01 1.77640700557e-38
0.0337452821564 -0.00562421369273 1.013 1.78562642842e-38
0.035620020054 -0.00562421369273 1.013 1.74882048348e-38
0.0374947579515 -0.00562421369273 1.013 1.76712284272e-38
0.0393694958491 -0.00562421369273 1.013 1.75786054013e-38
0.0412442337467 -0.00562421369273 1.013 1.74882048348e-38
0.0431189716443 -0.00562421369273 1.013 1.70250812975e-38
0.0449937095418 -0.00562421369273 1.013 1.66570218481e-38
0.0468684474394 -0.00562421369273 1.013 1.62882449338e-38
0.048743185337 -0.00562421369273 1.013 1.63815153596e-38
0.0506179232346 -0.00562421369273 1.013 1.61971269025e-38
0.0524926611321 -0.00562421369273 1.013 1.62886036662e-38
0.0543673990297 -0.00562421369273 1.013 1.5827273791e-38
0.0562421369273 -0.00562421369273 1.013 1.55514085701e-38
0.0579447616714 -0.0056075575811 1.01 1.54602905388e-38
0.0596362823411 -0.00559090146948 1.007 1.50007543256e-38
0.0614999161642 -0.00559090146948 1.007 1.45405006475e-38
0.0631747807223 -0.00557424535785 1.004 1.39866178113e-38
0.0648385412059 -0.00555758924622 1.001 1.41713650009e-38
0.0666910709547 -0.00555758924622 1.001 1.38947823152e-38
0.0683381753267 -0.0055409331346 0.998 1.40773771103e-38
0.0699741756243 -0.00552427702297 0.995 1.29685352407e-38
0.0718156012986 -0.00552427702297 0.995 1.19497352052e-38
0.0736570269729 -0.00552427702297 0.995 2.06246933524e-38
0.0796717339493 -0.00569083813924 1.025 2.11695658395e-38
0.0815686799958 -0.00569083813924 1.025 1.4444381382e-38
0.083221336405 -0.00567418202761 1.022 1.94291363312e-38
0.0848628887398 -0.00565752591598 1.019 2.35098631944e-38
0.0204388996454 -0.0037161635719 1.004 2.3492799583e-38
0.0222969814314 -0.0037161635719 1.004 1.88704007984e-38
0.0242272397011 -0.00372726764632 1.007 1.68385404459e-38
0.0260908735242 -0.00372726764632 1.007 1.88697169648e-38
0.0279545073474 -0.00372726764632 1.007 1.9146278631e-38
0.0299069737659 -0.00373837172074 1.01 1.85945355776e-38
0.0318705442588 -0.00374947579515 1.013 1.80413730088e-38
0.0337452821564 -0.00374947579515 1.013 1.79491759776e-38
0.035620020054 -0.00374947579515 1.013 1.83165179622e-38
0.0374947579515 -0.00374947579515 1.013 1.82243237337e-38
0.0393694958491 -0.00374947579515 1.013 1.77629938584e-38
0.0412442337467 -0.00374947579515 1.013 1.76736694891e-38
0.0431189716443 -0.00374947579515 1.013 1.74882048348e-38
0.0449937095418 -0.00374947579515 1.013 1.76736694891e-38
0.0468684474394 -0.00374947579515 1.013 1.72126983463e-38
0.048743185337 -0.00374947579515 1.013 1.71197866529e-38
0.0506179232346 -0.00374947579515 1.013 1.65648276195e-38
0.0524926611321 -0.00374947579515 1.013 1.70257987623e-38
0.0543673990297 -0.00374947579515 1.013 1.62864512718e-38
0.0562421369273 -0.00374947579515 1.013 1.60095098537e-38
0.0579447616714 -0.00373837172074 1.01 1.55510498377e-38
0.0596362823411 -0.00372726764632 1.007 1.51847840503e-38
0.0614999161642 -0.00372726764632 1.007 1.4816007136e-38
0.0633635499874 -0.00372726764632 1.007 1.45394244503e-38
0.0650328625082 -0.0037161635719 1.004 1.43550359932e-38
0.0666910709547 -0.00370505949748 1.001 1.36185583619e-38
0.0685436007034 -0.00370505949748 1.001 1.33383883521e-38
0.0701851530382 -0.00369395542306 0.998 1.58215340725e-38
0.0720321307497 -0.00369395542306 0.998 2.348201519e-38
0.0738791084613 -0.00369395542306 0.998 2.34918032598e-38
0.0815686799958 -0.00379389209283 1.025 1.47260003344e-38
0.0829770467678 -0.00377168394399 1.019 2.35000681181e-38
0.0204999720547 -0.00186363382316 1.007 2.05303845645e-38
0.0223636058779 -0.00186363382316 1.007 2.34942877619e-38
0.0242272397011 -0.00186363382316 1.007 2.34836995507e-38
0.0260908735242 -0.00186363382316 1.007 2.00660559105e-38
0.0279545073474 -0.00186363382316 1.007 1.80388590793e-38
0.0299069737659 -0.00186918586037 1.01 1.87767716402e-38
0.0318705442588 -0.00187473789758 1.013 1.90547892556e-38
0.0337452821564 -0.00187473789758 1.013 1.90547892556e-38
0.035620020054 -0.00187473789758 1.013 1.85916657183e-38
0.0374947579515 -0.00187473789758 1.013 1.86856578128e-38
0.0393694958491 -0.00187473789758 1.013 1.83168766946e-38
0.0411220889281 -0.00186918586037 1.01 1.80410114738e-38
0.0429912747885 -0.00186918586037 1.01 1.79491759776e-38
0.0448604606488 -0.00186918586037 1.01 1.73052513073e-38
0.0468684474394 -0.00187473789758 1.013 1.72126983463e-38
0.048743185337 -0.00187473789758 1.013 1.76743869539e-38
0.0504680182299 -0.00186918586037 1.01 1.7394934409e-38
0.0523372040903 -0.00186918586037 1.01 1.73020227156e-38
0.0543673990297 -0.00187473789758 1.013 1.6749574809e-38
0.056075575811 -0.00186918586037 1.01 1.64729921233e-38
0.0577726485179 -0.00186363382316 1.007 1.5829067453e-38
0.0596362823411 -0.00186363382316 1.007 1.54595870869e-38
0.0614999161642 -0.00186363382316 1.007 1.50929485541e-38
0.0633635499874 -0.00186363382316 1.007 1.49078426322e-38
0.0650328625082 -0.00185808178595 1.004 1.39851828817e-38
0.0666910709547 -0.00185252974874 1.001 1.25014656469e-38
0.0685436007034 -0.00185252974874 1.001 1.94236362347e-38
0.0701851530382 -0.00184697771153 0.998 2.34881136409e-38
0.0720321307497 -0.00184697771153 0.998 2.34849144765e-38
0.0738791084613 -0.00184697771153 0.998 1.74835413135e-38
0.0794385483866 -0.0018913940092 1.022 1.49111819264e-38
0.0813299423958 -0.0018913940092 1.022 1.63769919681e-38
0.0827327571306 -0.00188028993479 1.016 2.35098015372e-38
0.0204999720547 0.0 1.007 1.28706012936e-38
0.0223636058779 0.0 1.007 1.67528034007e-38
0.0242994161848 0.0 1.01 2.34891912394e-38
0.0261686020451 0.0 1.01 2.34946296788e-38
0.0280377879055 0.0 1.01 2.34801262397e-38
0.0299069737659 0.0 1.01 1.96019066228e-38
0.0318705442588 0.0 1.013 1.86827837496e-38
0.0337452821564 0.0 1.013 1.92377427831e-38
0.035620020054 0.0 1.013 1.95164778632e-38
0.0373837172074 0.0 1.01 1.93310132089e-38
0.0392529030677 0.0 1.01 1.89611685052e-38
0.0411220889281 0.0 1.01 1.85916657183e-38
0.0429912747885 0.0 1.01 1.87767716402e-38
0.0448604606488 0.0 1.01 1.77633525908e-38
0.0467296465092 0.0 1.01 1.7394934409e-38
0.0485988323696 0.0 1.01 1.78580579463e-38
0.0504680182299 0.0 1.01 1.77655049853e-38
0.0523372040903 0.0 1.01 1.73034576452e-38
0.0542063899507 0.0 1.01 1.71187202648e-38
0.056075575811 0.0 1.01 1.68428452348e-38
0.0576005353644 0.0 1.004 1.6474427053e-38
0.0594586171504 0.0 1.004 1.57329299706e-38
0.0613166989363 0.0 1.004 1.49925034802e-38
0.0631747807223 0.0 1.004 1.50829040467e-38
0.0650328625082 0.0 1.004 1.8222888804e-38
0.0668909442942 0.0 1.004 2.34870514567e-38
0.0685436007034 0.0 1.001 2.34921255584e-38
0.0703961304521 0.0 1.001 2.21930504158e-38
0.0722486602009 0.0 1.001 1.51826316558e-38
0.0741011899496 0.0 1.001 1.3715525413e-38
0.0813299423958 0.0 1.022 2.08109623521e-38
0.0824884674934 0.0 1.013 2.35098253593e-38
0.0206221168733 0.00187473789758 1.013 1.70222114383e-38
0.0224968547709 0.00187473789758 1.013 1.48048864314e-38
0.0243715926685 0.00187473789758 1.013 1.15712725159e-38
0.0262463305661 0.00187473789758 1.013 1.77658637177e-38
0.0281210684637 0.00187473789758 1.013 2.34927813661e-38
0.0299958063612 0.00187473789758 1.013 2.34946296788e-38
0.0318705442588 0.00187473789758 1.013 2.34866618957e-38
0.0337452821564 0.00187473789758 1.013 2.1629544863e-38
0.035620020054 0.00187473789758 1.013 1.93277846172e-38
0.0373837172074 0.00186918586037 1.01 1.8773901781e-38
0.0392529030677 0.00186918586037 1.01 1.88675309392e-38
0.0409999441095 0.00186363382316 1.007 1.9235949121e-38
0.0428635779327 0.00186363382316 1.007 1.86831677054e-38
0.0447272117558 0.00186363382316 1.007 1.90537172622e-38
0.0467296465092 0.00186918586037 1.01 1.82232531416e-38
0.0485988323696 0.00186918586037 1.01 1.76718758271e-38
0.0503181132253 0.00186363382316 1.007 1.74853349755e-38
0.0521817470484 0.00186363382316 1.007 1.71176342585e-38
0.0542063899507 0.00186918586037 1.01 1.73030989128e-38
0.0559090146948 0.00186363382316 1.007 1.59191092871e-38
0.0576005353644 0.00185808178595 1.004 1.61928221136e-38
0.0594586171504 0.00185808178595 1.004 1.84934459063e-38
0.0613166989363 0.00185808178595 1.004 2.22802293971e-38
0.0631747807223 0.00185808178595 1.004 2.34910087235e-38
0.0650328625082 0.00185808178595 1.004 2.34924786856e-38
0.0668909442942 0.00185808178595 1.004 2.23781451273e-38
0.0685436007034 0.00185252974874 1.001 1.43435719705e-38
0.0703961304521 0.00185252974874 1.001 1.22349274686e-38
0.0806137295958 0.00187473789758 1.013 2.35001045519e-38
0.0224968547709 0.00374947579515 1.013 1.66519995944e-38
0.0243715926685 0.00374947579515 1.013 1.74799581933e-38
0.0262463305661 0.00374947579515 1.013 1.46161931854e-38
0.0281210684637 0.00374947579515 1.013 1.13876015236e-38
0.0299958063612 0.00374947579515 1.013 1.58251858563e-38
0.0318705442588 0.00374947579515 1.013 2.23792437453e-38
0.0337452821564 0.00374947579515 1.013 2.34913464365e-38
0.035620020054 0.00374947579515 1.013 2.34953471436e-38
0.0373837172074 0.00373837172074 1.01 2.34866534879e-38
0.0392529030677 0.00373837172074 1.01 2.34816564576e-38
0.0409999441095 0.00372726764632 1.007 2.19078315276e-38
0.0428635779327 0.00372726764632 1.007 2.04344740924e-38
0.0447272117558 0.00372726764632 1.007 1.99742204144e-38
0.0464520446487 0.0037161635719 1.004 1.94189026485e-38
0.0483101264347 0.0037161635719 1.004 1.98816926768e-38
0.0503181132253 0.00372726764632 1.007 2.02486605147e-38
0.0521817470484 0.00372726764632 1.007 2.05241964304e-38
0.0540453808716 0.00372726764632 1.007 2.29258916775e-38
0.0559090146948 0.00372726764632 1.007 2.34873499332e-38
0.057428422211 0.00370505949748 1.001 2.34935576854e-38
0.0592809519597 0.00370505949748 1.001 2.34920849208e-38
0.0613166989363 0.0037161635719 1.004 2.34895023277e-38
0.0631747807223 0.0037161635719 1.004 1.86842817377e-38
0.0650328625082 0.0037161635719 1.004 1.31471839793e-38
0.0668909442942 0.0037161635719 1.004 1.15006428694e-38
0.0687490260801 0.0037161635719 1.004 1.27982368396e-38
0.0761813532239 0.0037161635719 1.004 1.60174846432e-38
0.0806137295958 0.00374947579515 1.013 2.35098085437e-38
0.0224302303244 0.0056075575811 1.01 1.31551069208e-38
0.0242994161848 0.0056075575811 1.01 1.49042553081e-38
0.0299958063612 0.00562421369273 1.013 1.54466769242e-38
0.0318705442588 0.00562421369273 1.013 1.11120950351e-38
0.0337452821564 0.00562421369273 1.013 1.11174760212e-38
0.035514531347 0.0056075575811 1.01 1.47177144565e-38
0.0372726764632 0.00559090146948 1.007 1.98842710659e-38
0.0391363102863 0.00559090146948 1.007 2.33922241883e-38
0.0409999441095 0.00559090146948 1.007 2.34884555577e-38
0.0428635779327 0.00559090146948 1.007 2.34949814047e-38
0.0445939628628 0.00557424535785 1.004 2.34935394686e-38
0.0464520446487 0.00557424535785 1.004 2.34938505568e-38
0.0483101264347 0.00557424535785 1.004 2.34928220037e-38
0.0503181132253 0.00559090146948 1.007 2.34938729776e-38
0.0521817470484 0.00559090146948 1.007 2.34924268376e-38
0.0540453808716 0.00559090146948 1.007 2.34887428239e-38
0.0557424535785 0.00557424535785 1.004 1.99771589372e-38
0.057428422211 0.00555758924622 1.001 1.68389692433e-38
0.0592809519597 0.00555758924622 1.001 1.24153768758e-38
0.0650328625082 0.00557424535785 1.004 1.22446720981e-38
0.0666910709547 0.00555758924622 1.001 1.2798234037e-38
0.0685436007034 0.00555758924622 1.001 1.36276317695e-38
0.0780394350099 0.00557424535785 1.004 2.08085128824e-38
0.0798975167958 0.00557424535785 1.004 2.35098281619e-38
0.0224302303244 0.00747674344147 1.01 1.40759463845e-38
0.0242994161848 0.00747674344147 1.01 1.26016052378e-38
0.035514531347 0.00747674344147 1.01 1.63747120555e-38
0.0372726764632 0.00745453529263 1.007 1.40547769686e-38
0.0391363102863 0.00745453529263 1.007 1.2214120989e-38
0.0409999441095 0.00745453529263 1.007 1.1755660973e-38
0.0428635779327 0.00745453529263 1.007 1.20340373208e-38
0.0445939628628 0.0074323271438 1.004 1.12957660274e-38
0.0464520446487 0.0074323271438 1.004 1.11124537675e-38
0.0484544794021 0.00745453529263 1.007 1.15759360372e-38
0.0501682082206 0.0074323271438 1.004 1.07454705153e-38
0.0520262900066 0.0074323271438 1.004 9.27574384436e-39
0.0540453808716 0.00745453529263 1.007 9.64990174473e-39
0.0557424535785 0.0074323271438 1.004 1.1220432222e-38
0.0576005353644 0.0074323271438 1.004 1.15034776962e-38
0.0594586171504 0.0074323271438 1.004 1.1598621658e-38
0.0666910709547 0.00741011899496 1.001 1.34414426438e-38
0.0685436007034 0.00741011899496 1.001 1.38112971566e-38
0.0780394350099 0.0074323271438 1.004 2.34982870678e-38
0.0798975167958 0.0074323271438 1.004 2.35098589905e-38
0.0392529030677 0.00934592930184 1.01 1.94145978597e-38
0.0409999441095 0.00931816911579 1.007 1.86806369604e-38
0.0428635779327 0.00931816911579 1.007 1.91427235368e-38
0.0448604606488 0.00934592930184 1.01 1.868134882e-38
0.046590845579 0.00931816911579 1.007 1.79430775267e-38
0.0484544794021 0.00931816911579 1.007 1.79459473859e-38
