# .PCD v0.7 - Point Cloud Data file format
VERSION 0.7
FIELDS x y z rgb
SIZE 4 4 4 4
TYPE F F F F
COUNT 1 1 1 1
WIDTH 859
HEIGHT 1
VIEWPOINT 0 0 0 1 0 0 0
POINTS 859
DATA ascii
0.0198078180827 -0.138654726579 0.973 1.72246486196e-38
0.0216085288175 -0.138654726579 0.973 1.67647620818e-38
0.0234092395523 -0.138654726579 0.973 1.59342895534e-38
0.0251322217661 -0.138227219714 0.97 1.64860241991e-38
0.0269273804637 -0.138227219714 0.97 1.65785743574e-38
0.0287225391613 -0.138227219714 0.97 1.61190395455e-38
0.0305176978589 -0.138227219714 0.97 1.57495283509e-38
0.0323128565565 -0.138227219714 0.97 1.55633462317e-38
0.034108015254 -0.138227219714 0.97 1.60246354693e-38
0.0357921332074 -0.137799712849 0.967 1.52885726223e-38
0.0375817398678 -0.137799712849 0.967 1.52896712403e-38
0.0393713465282 -0.137799712849 0.967 1.45531529714e-38
0.0409481250955 -0.137087201407 0.962 1.54743707857e-38
0.0425952294675 -0.136659694542 0.959 1.51981566415e-38
0.0443700306954 -0.136659694542 0.959 1.39992659313e-38
0.0461448319232 -0.136659694542 0.959 1.47368309702e-38
0.0477697281463 -0.136232187677 0.956 1.38148872832e-38
0.049538977337 -0.136232187677 0.956 1.4920480943e-38
0.0513082265276 -0.136232187677 0.956 1.30773040275e-38
0.0530774757182 -0.136232187677 0.956 1.17855114329e-38
0.0548467249088 -0.136232187677 0.956 2.05438230167e-38
-0.019522813506 -0.134884893314 0.959 2.29440539069e-38
-0.0177480122781 -0.134884893314 0.959 1.90689269558e-38
-0.0159732110503 -0.134884893314 0.959 1.92540637063e-38
-0.0142428261202 -0.135306848142 0.962 2.0266761087e-38
-0.0124624728552 -0.135306848142 0.962 1.90685738286e-38
-0.0106821195901 -0.135306848142 0.962 1.92540230686e-38
-0.00892027311581 -0.13558815136 0.964 2.0083410992e-38
-0.00713621849265 -0.13558815136 0.964 1.80547820338e-38
-0.00536881998112 -0.136010106188 0.967 1.81469902753e-38
-0.00357921332074 -0.136010106188 0.967 1.80573408048e-38
-0.00179515869758 -0.136432061016 0.97 1.83335143113e-38
0.0 -0.136432061016 0.97 1.87944672372e-38
0.00179515869758 -0.136432061016 0.97 1.75948702726e-38
0.00359031739516 -0.136432061016 0.97 1.76856239663e-38
0.00540213220437 -0.136854015844 0.973 1.75005138405e-38
0.00720284293916 -0.136854015844 0.973 1.74079608795e-38
0.00902206046465 -0.137135319063 0.975 1.77760217303e-38
0.0108264725576 -0.137135319063 0.975 1.71309998432e-38
0.0126308846505 -0.137135319063 0.975 1.69462568576e-38
0.0144797130411 -0.137557273891 0.978 1.6855860495e-38
0.0162896771712 -0.137557273891 0.978 1.69477029976e-38
0.0180996413014 -0.137557273891 0.978 1.69480533222e-38
0.0198485330222 -0.137135319063 0.975 1.61186457807e-38
0.0216529451152 -0.137135319063 0.975 1.56558711667e-38
0.0234092395523 -0.136854015844 0.973 1.64855911978e-38
0.0252099502871 -0.136854015844 0.973 1.61168703355e-38
0.0269273804637 -0.136432061016 0.97 1.60264753742e-38
0.0287225391613 -0.136432061016 0.97 1.61161668837e-38
0.0305176978589 -0.136432061016 0.97 1.61165228135e-38
0.0323128565565 -0.136432061016 0.97 1.55662034793e-38
0.034108015254 -0.136432061016 0.97 1.56580599949e-38
0.0359031739516 -0.136432061016 0.97 1.55651469002e-38
0.0375817398678 -0.136010106188 0.967 1.48279349885e-38
0.0393713465282 -0.136010106188 0.967 1.52896109845e-38
0.0409481250955 -0.135306848142 0.962 1.52892410417e-38
0.0425952294675 -0.134884893314 0.959 1.5290327048e-38
0.0443700306954 -0.134884893314 0.959 1.56601689491e-38
0.0461448319232 -0.134884893314 0.959 1.39070801105e-38
0.0477697281463 -0.134462938486 0.956 1.41826174275e-38
0.049538977337 -0.134462938486 0.956 1.41832844456e-38
0.0513082265276 -0.134462938486 0.956 1.35379150366e-38
0.052966434974 -0.134181635267 0.954 1.06823700455e-38
0.0547319828065 -0.134181635267 0.954 1.77768106613e-38
0.0564975306389 -0.134181635267 0.954 2.35055738198e-38
-0.0212976147338 -0.133110092086 0.959 2.35091485322e-38
-0.019522813506 -0.133110092086 0.959 2.03633175577e-38
-0.0177480122781 -0.133110092086 0.959 1.90685976506e-38
-0.0159732110503 -0.133110092086 0.959 1.98997862425e-38
-0.0142428261202 -0.133526494877 0.962 1.87001640545e-38
-0.0124624728552 -0.133526494877 0.962 1.98061430714e-38
-0.010704327739 -0.133804096737 0.964 1.83320653687e-38
-0.00892027311581 -0.133804096737 0.964 1.8792710009e-38
-0.00715842664149 -0.134220499528 0.967 1.86083187492e-38
-0.00536881998112 -0.134220499528 0.967 1.92540230686e-38
-0.00359031739516 -0.134636902319 0.97 1.73176023519e-38
-0.00179515869758 -0.134636902319 0.97 1.90693011025e-38
0.0 -0.134636902319 0.97 1.75023271207e-38
0.00179515869758 -0.134636902319 0.97 1.83320653687e-38
0.00360142146958 -0.135053305109 0.973 1.67633089353e-38
0.00540213220437 -0.135053305109 0.973 1.78699745884e-38
0.00721764837172 -0.13533090697 0.975 1.67647438649e-38
0.00902206046465 -0.13533090697 0.975 1.7592722082e-38
0.0108597847808 -0.13574730976 0.978 1.62112744118e-38
0.012669748911 -0.13574730976 0.978 1.71317467353e-38
0.0144797130411 -0.13574730976 0.978 1.56577152755e-38
0.0162896771712 -0.13574730976 0.978 1.67629586107e-38
0.0180996413014 -0.13574730976 0.978 1.62105163093e-38
0.0198485330222 -0.13533090697 0.975 1.66732895219e-38
0.0216529451152 -0.13533090697 0.975 1.59339266171e-38
0.0234573572081 -0.13533090697 0.975 1.63041538753e-38
0.0252099502871 -0.135053305109 0.973 1.59364279349e-38
0.0270106610218 -0.135053305109 0.973 1.57516681336e-38
0.0288113717566 -0.135053305109 0.973 1.61193716533e-38
0.0305176978589 -0.134636902319 0.97 1.47342721992e-38
0.0323128565565 -0.134636902319 0.97 1.55625432877e-38
0.034108015254 -0.134636902319 0.97 1.55658825819e-38
0.0359031739516 -0.134636902319 0.97 1.50126961911e-38
0.0375817398678 -0.134220499528 0.967 1.52892732716e-38
0.0393713465282 -0.134220499528 0.967 1.47378847466e-38
0.0409481250955 -0.133526494877 0.962 1.49222563882e-38
0.0425952294675 -0.133110092086 0.959 1.39999819948e-38
0.0443700306954 -0.133110092086 0.959 1.39077891675e-38
0.0461448319232 -0.133110092086 0.959 1.50127088028e-38
0.0477697281463 -0.132693689295 0.956 1.39084772051e-38
0.049538977337 -0.132693689295 0.956 1.3537912234e-38
0.0512008871415 -0.132416087435 0.954 1.4369430131e-38
0.052966434974 -0.132416087435 0.954 1.22479161041e-38
0.0547319828065 -0.132416087435 0.954 1.54723052718e-38
0.0564975306389 -0.132416087435 0.954 2.35005025206e-38
-0.0212976147338 -0.131335290858 0.959 2.35044359654e-38
-0.019522813506 -0.131335290858 0.959 1.87931079777e-38
-0.0177480122781 -0.131335290858 0.959 1.93444614702e-38
-0.0159732110503 -0.131335290858 0.959 1.98997862425e-38
-0.0142428261202 -0.131746141612 0.962 1.90693221219e-38
-0.0124624728552 -0.131746141612 0.962 1.9620678417e-38
-0.010704327739 -0.132020042114 0.964 1.87912680729e-38
-0.00892027311581 -0.132020042114 0.964 1.90689241532e-38
-0.00715842664149 -0.132430892868 0.967 1.94377290934e-38
-0.00538547609274 -0.132841743621 0.97 1.76852736417e-38
-0.00359031739516 -0.132841743621 0.97 1.82362894213e-38
-0.00179515869758 -0.132841743621 0.97 1.77771133418e-38
0.0 -0.133252594374 0.973 1.75019585792e-38
0.00180071073479 -0.133252594374 0.973 1.75008767768e-38
0.00360142146958 -0.133252594374 0.973 1.76859897052e-38
0.00541323627879 -0.133526494877 0.975 1.70402517547e-38
0.00721764837172 -0.133526494877 0.975 1.63945348236e-38
0.00904982065069 -0.13393734563 0.978 1.62090841823e-38
0.0108597847808 -0.13393734563 0.978 1.6393475442e-38
0.012669748911 -0.13393734563 0.978 1.64863773263e-38
0.0144797130411 -0.13393734563 0.978 1.67622397446e-38
0.0162896771712 -0.13393734563 0.978 1.62097848315e-38
0.0180996413014 -0.13393734563 0.978 1.61165200109e-38
0.0198485330222 -0.133526494877 0.975 1.50123430639e-38
0.0216529451152 -0.133526494877 0.975 1.59357020623e-38
0.0234573572081 -0.133526494877 0.975 1.56587634467e-38
0.0252099502871 -0.133252594374 0.973 1.55665832312e-38
0.0270106610218 -0.133252594374 0.973 1.55669363584e-38
0.0288113717566 -0.133252594374 0.973 1.58427805598e-38
0.0306120824914 -0.133252594374 0.973 1.519706503e-38
0.0323128565565 -0.132841743621 0.97 1.57495129366e-38
0.034108015254 -0.132841743621 0.97 1.58431364896e-38
0.0359031739516 -0.132841743621 0.97 1.44587895328e-38
0.0376983326492 -0.132841743621 0.97 1.47357491678e-38
0.0393713465282 -0.132430892868 0.967 1.42758500183e-38
0.0411609531886 -0.132430892868 0.967 1.40003323194e-38
0.0427284783606 -0.131746141612 0.962 1.42747738211e-38
0.0443700306954 -0.131335290858 0.959 1.40910860132e-38
0.0461448319232 -0.131335290858 0.959 1.35358032798e-38
0.0477697281463 -0.130924440105 0.956 1.37216196601e-38
0.049538977337 -0.130924440105 0.956 1.3354266465e-38
0.0512008871415 -0.130650539602 0.954 1.34453662795e-38
0.052966434974 -0.130650539602 0.954 1.14167064927e-38
0.0547319828065 -0.130650539602 0.954 1.69463437381e-38
0.0564975306389 -0.130650539602 0.954 2.35026156787e-38
-0.0212309902873 -0.129155190914 0.956 2.23026894089e-38
-0.0194617410967 -0.129155190914 0.956 2.26685235964e-38
-0.0177480122781 -0.12956048963 0.959 2.00784265734e-38
-0.0159732110503 -0.12956048963 0.959 1.98976478611e-38
-0.0142428261202 -0.129965788347 0.962 1.9161161822e-38
-0.0124883823621 -0.130235987491 0.964 1.89760124598e-38
-0.010704327739 -0.130235987491 0.964 1.91593065028e-38
-0.00894803330186 -0.130641286207 0.967 1.84228526936e-38
-0.00718063479032 -0.131046584923 0.97 1.79611584808e-38
-0.00538547609274 -0.131046584923 0.97 1.81451741925e-38
-0.00360142146958 -0.13145188364 0.973 1.80519079706e-38
-0.00180071073479 -0.13145188364 0.973 1.76849177119e-38
0.0 -0.131722082784 0.975 1.70388476536e-38
0.00180441209293 -0.131722082784 0.975 1.65782240328e-38
0.00360882418586 -0.131722082784 0.975 1.694950787e-38
0.00541323627879 -0.131722082784 0.975 1.66718573949e-38
0.00723985652055 -0.1321273815 0.978 1.65796323378e-38
0.00904982065069 -0.1321273815 0.978 1.61165228135e-38
0.0108597847808 -0.1321273815 0.978 1.60264753742e-38
0.012669748911 -0.1321273815 0.978 1.57488248991e-38
0.0144797130411 -0.1321273815 0.978 1.59335734899e-38
0.0162896771712 -0.1321273815 0.978 1.51038114198e-38
0.0180996413014 -0.1321273815 0.978 1.57484591602e-38
0.0199096054315 -0.1321273815 0.978 1.5288922947e-38
0.0217195695617 -0.1321273815 0.978 1.44580930875e-38
0.0234573572081 -0.131722082784 0.975 1.51949350564e-38
0.025261769301 -0.131722082784 0.975 1.53814562897e-38
0.0270661813939 -0.131722082784 0.975 1.46442794105e-38
0.0288113717566 -0.13145188364 0.973 1.54733142067e-38
0.0306120824914 -0.13145188364 0.973 1.48293545039e-38
0.0324127932262 -0.13145188364 0.973 1.50126933885e-38
0.034213503961 -0.13145188364 0.973 1.52896109845e-38
0.0360142146958 -0.13145188364 0.973 1.41832788404e-38
0.0376983326492 -0.131046584923 0.97 1.49219004584e-38
0.0394934913468 -0.131046584923 0.97 1.36311784559e-38
0.0411609531886 -0.130641286207 0.967 1.46421466343e-38
0.0427284783606 -0.129965788347 0.962 1.42743856614e-38
0.0443700306954 -0.12956048963 0.959 1.28910980862e-38
0.0461448319232 -0.12956048963 0.959 1.3997480677e-38
0.0477697281463 -0.129155190914 0.956 1.2523429599e-38
0.049538977337 -0.129155190914 0.956 1.3445039777e-38
0.0512008871415 -0.12888499177 0.954 1.3354266465e-38
0.052966434974 -0.12888499177 0.954 9.39094879501e-39
0.0542730143972 -0.127804195193 0.946 2.12802165701e-38
0.0560237567971 -0.127804195193 0.946 2.31302430326e-38
0.057774499197 -0.127804195193 0.946 2.35098856151e-38
-0.0212309902873 -0.127385941724 0.956 4.14669999485e-39
-0.0194617410967 -0.127385941724 0.956 2.35098842138e-38
-0.0177480122781 -0.127785688403 0.959 1.79608207678e-38
-0.0159732110503 -0.127785688403 0.959 2.06359163518e-38
-0.0142428261202 -0.128185435082 0.962 1.86076124948e-38
-0.0124883823621 -0.128451932868 0.964 1.89760124598e-38
-0.010704327739 -0.128451932868 0.964 1.9158603051e-38
-0.00894803330186 -0.128851679547 0.967 1.83306822871e-38
-0.00718063479032 -0.129251426226 0.97 1.74083308223e-38
-0.00538547609274 -0.129251426226 0.97 1.79622150598e-38
-0.00360142146958 -0.129651172905 0.973 1.74072616316e-38
-0.00180441209293 -0.129917670691 0.975 1.74998075861e-38
0.0 -0.129917670691 0.975 1.60268383105e-38
0.00180441209293 -0.129917670691 0.975 1.62115700857e-38
0.00360882418586 -0.129917670691 0.975 1.62123029648e-38
0.00542989239041 -0.13031741737 0.978 1.56580656001e-38
0.00723985652055 -0.13031741737 0.978 1.54736673339e-38
0.00904982065069 -0.13031741737 0.978 1.58420785093e-38
0.0108597847808 -0.13031741737 0.978 1.44588161575e-38
0.012669748911 -0.13031741737 0.978 1.57495311535e-38
0.0144797130411 -0.13031741737 0.978 1.50126485469e-38
0.0162896771712 -0.13031741737 0.978 1.52895941689e-38
0.0180996413014 -0.13031741737 0.978 1.43661707108e-38
0.0199096054315 -0.13031741737 0.978 1.56576704339e-38
0.0217195695617 -0.13031741737 0.978 1.38145061301e-38
0.0234573572081 -0.129917670691 0.975 1.47346225238e-38
0.025261769301 -0.129917670691 0.975 1.50123038275e-38
0.0270661813939 -0.129917670691 0.975 1.52892760742e-38
0.0288705934869 -0.129917670691 0.975 1.44601964365e-38
0.0306120824914 -0.129651172905 0.973 1.3813449551e-38
0.0324127932262 -0.129651172905 0.973 1.41825809938e-38
0.034213503961 -0.129651172905 0.973 1.4458795138e-38
0.0360142146958 -0.129651172905 0.973 1.45513424938e-38
0.0376983326492 -0.129251426226 0.97 1.4737506396e-38
0.0394934913468 -0.129251426226 0.97 1.38148270274e-38
0.0411609531886 -0.128851679547 0.967 1.39038024734e-38
0.0427284783606 -0.128185435082 0.962 1.44576334616e-38
0.0443700306954 -0.127785688403 0.959 1.37219125314e-38
0.0461448319232 -0.127785688403 0.959 1.35379094314e-38
0.0477697281463 -0.127385941724 0.956 1.30772914158e-38
0.049538977337 -0.127385941724 0.956 1.38148746716e-38
0.0512008871415 -0.127119443938 0.954 1.16025074587e-38
0.0527998738577 -0.126719697259 0.951 1.27056852799e-38
0.0542730143972 -0.126053452793 0.946 2.34990171443e-38
0.0560237567971 -0.126053452793 0.946 2.23919913574e-38
0.057774499197 -0.126053452793 0.946 2.35098856151e-38
-0.0212976147338 -0.126010887175 0.959 0.0
-0.019522813506 -0.126010887175 0.959 2.00054287325e-38
-0.0177480122781 -0.126010887175 0.959 2.29444448692e-38
-0.0160231793852 -0.126405081817 0.962 1.98972400832e-38
-0.0142724369853 -0.126667878245 0.964 1.85165112791e-38
-0.0124883823621 -0.126667878245 0.964 1.96213818688e-38
-0.010704327739 -0.126667878245 0.964 1.83299367963e-38
-0.00894803330186 -0.127062072886 0.967 1.7501605452e-38
-0.00718063479032 -0.127456267528 0.97 1.74086839495e-38
-0.00540213220437 -0.12785046217 0.973 1.68544353744e-38
-0.00360142146958 -0.12785046217 0.973 1.676290396e-38
-0.00180441209293 -0.128113258598 0.975 1.56580627975e-38
0.0 -0.128113258598 0.975 1.6579999478e-38
0.00180441209293 -0.128113258598 0.975 1.57512701649e-38
0.00360882418586 -0.128113258598 0.975 1.46449856649e-38
0.00542989239041 -0.12850745324 0.978 1.6856194004e-38
0.00723985652055 -0.12850745324 0.978 1.56580207586e-38
0.00904982065069 -0.12850745324 0.978 1.57509380571e-38
0.0108597847808 -0.12850745324 0.978 1.47357519704e-38
0.012669748911 -0.12850745324 0.978 1.4643187799e-38
0.0144797130411 -0.12850745324 0.978 1.56562242939e-38
0.0162896771712 -0.12850745324 0.978 1.4366565877e-38
0.0180996413014 -0.12850745324 0.978 1.51959888328e-38
0.0199096054315 -0.12850745324 0.978 1.44595196093e-38
0.0217195695617 -0.12850745324 0.978 1.44598853482e-38
0.0235295336918 -0.12850745324 0.978 1.56591600142e-38
0.0253394978219 -0.12850745324 0.978 1.42754968911e-38
0.0270661813939 -0.128113258598 0.975 1.3814534156e-38
0.0288705934869 -0.128113258598 0.975 1.49204837456e-38
0.0306750055798 -0.128113258598 0.975 1.41832788404e-38
0.0324794176727 -0.128113258598 0.975 1.36304637937e-38
0.034213503961 -0.12785046217 0.973 1.35361395914e-38
0.0360142146958 -0.12785046217 0.973 1.39052668303e-38
0.0378149254306 -0.12785046217 0.973 1.36287023615e-38
0.0394934913468 -0.127456267528 0.97 1.37202099538e-38
0.0411609531886 -0.127062072886 0.967 1.35357836616e-38
0.0427284783606 -0.126405081817 0.962 1.3720858755e-38
0.0445088316256 -0.126405081817 0.962 1.31687569691e-38
0.0461448319232 -0.126010887175 0.959 1.32598974213e-38
0.0477697281463 -0.125616692533 0.956 1.30772914158e-38
0.049538977337 -0.125616692533 0.956 1.13259584041e-38
0.0512008871415 -0.125353896105 0.954 1.03099693734e-38
0.0527998738577 -0.124959701463 0.951 2.3502992628e-38
0.0541009012437 -0.123908515752 0.943 1.56599209193e-38
0.0558460916064 -0.123908515752 0.943 2.35098856151e-38
0.0575912819691 -0.123908515752 0.943 2.35098856151e-38
-0.0240440224732 -0.120220112366 0.928 2.35098856151e-38
-0.0212976147338 -0.124236085947 0.959 9.67765165822e-39
-0.019522813506 -0.124236085947 0.959 7.56701170735e-44
-0.0177480122781 -0.124236085947 0.959 2.35040015629e-38
-0.0160231793852 -0.124624728552 0.962 2.23887697723e-38
-0.0142724369853 -0.124883823621 0.964 1.84224855534e-38
-0.0124883823621 -0.124883823621 0.964 1.77760595653e-38
-0.0107376399622 -0.125272466226 0.967 1.80519275888e-38
-0.00894803330186 -0.125272466226 0.967 1.83310087896e-38
-0.00718063479032 -0.125661108831 0.97 1.7225368887e-38
-0.00540213220437 -0.126049751435 0.973 1.65782240328e-38
-0.00360882418586 -0.126308846505 0.975 1.62115826974e-38
-0.00180441209293 -0.126308846505 0.975 1.70424195634e-38
0.0 -0.12669748911 0.978 1.52917801945e-38
0.00180996413014 -0.12669748911 0.978 1.5290327048e-38
0.00361992826028 -0.12669748911 0.978 1.56587662493e-38
0.00542989239041 -0.12669748911 0.978 1.55651244795e-38
0.00723985652055 -0.12669748911 0.978 1.4827556638e-38
0.00904982065069 -0.12669748911 0.978 1.46435381236e-38
0.0108930970041 -0.127086131714 0.981 1.49201025924e-38
0.0127086131714 -0.127086131714 0.981 1.34460515144e-38
0.0145241293388 -0.127086131714 0.981 1.50100925785e-38
0.0162896771712 -0.12669748911 0.978 1.41814837771e-38
0.0180996413014 -0.12669748911 0.978 1.4920480943e-38
0.0199096054315 -0.12669748911 0.978 1.40914209235e-38
0.0217195695617 -0.12669748911 0.978 1.36301246794e-38
0.0235295336918 -0.12669748911 0.978 1.39070674988e-38
0.0253394978219 -0.12669748911 0.978 1.39070646962e-38
0.0271494619521 -0.12669748911 0.978 1.39074178234e-38
0.0289594260822 -0.12669748911 0.978 1.41818369043e-38
0.0307693902124 -0.12669748911 0.978 1.39059702821e-38
0.0324794176727 -0.126308846505 0.975 1.36308281313e-38
0.0342838297657 -0.126308846505 0.975 1.39059562691e-38
0.0360142146958 -0.126049751435 0.973 1.40910705989e-38
0.0378149254306 -0.126049751435 0.973 1.20631296782e-38
0.0394934913468 -0.125661108831 0.97 1.33516852733e-38
0.0412886500444 -0.125661108831 0.97 1.32606036757e-38
0.0429505598489 -0.125272466226 0.967 1.31691100963e-38
0.0445088316256 -0.124624728552 0.962 1.31698401728e-38
0.0461448319232 -0.124236085947 0.959 1.31698555871e-38
0.0477697281463 -0.123847443342 0.956 1.05873367862e-38
0.049538977337 -0.123847443342 0.956 1.20548886419e-38
0.0512008871415 -0.123588348273 0.954 2.35047414485e-38
0.0527998738577 -0.123199705668 0.951 1.88871757423e-38
0.0541009012437 -0.122163325389 0.943 1.10425710131e-38
0.0558460916064 -0.122163325389 0.943 2.35098856151e-38
0.0575912819691 -0.122163325389 0.943 2.35098856151e-38
-0.0240440224732 -0.118502682189 0.928 2.35098856151e-38
-0.0223265922965 -0.118502682189 0.928 2.35098856151e-38
-0.0206091621199 -0.118502682189 0.928 2.0651100822e-38
-0.0188306595339 -0.118119591622 0.925 2.66325040806e-39
-0.0171187813945 -0.118119591622 0.925 0.0
-0.0160564916085 -0.123099768998 0.964 2.29454005548e-38
-0.0142724369853 -0.123099768998 0.964 2.34997836545e-38
-0.0125272466226 -0.123482859566 0.967 1.84195344188e-38
-0.0107376399622 -0.123482859566 0.967 1.75909270187e-38
-0.0089757934879 -0.123865950133 0.97 1.72268318426e-38
-0.00720284293916 -0.124249040701 0.973 1.64895989114e-38
-0.00541323627879 -0.124504434412 0.975 1.6395978161e-38
-0.00360882418586 -0.124504434412 0.975 1.60261376612e-38
-0.00180996413014 -0.12488752498 0.978 1.52882194951e-38
0.0 -0.12488752498 0.978 1.53814745066e-38
0.00180996413014 -0.12488752498 0.978 1.52910613284e-38
0.00361992826028 -0.12488752498 0.978 1.46435563405e-38
0.00544654850204 -0.125270615547 0.981 1.48261497343e-38
0.00726206466939 -0.125270615547 0.981 1.49186984914e-38
0.00907758083674 -0.125270615547 0.981 1.48272063133e-38
0.0108930970041 -0.125270615547 0.981 1.44580902849e-38
0.0127086131714 -0.125270615547 0.981 1.51055952728e-38
0.0145241293388 -0.125270615547 0.981 1.48272441484e-38
0.0163396455061 -0.125270615547 0.981 1.44591398574e-38
0.0181551616735 -0.125270615547 0.981 1.35368584575e-38
0.0199096054315 -0.12488752498 0.978 1.35354109162e-38
0.0217195695617 -0.12488752498 0.978 1.46439066651e-38
0.0235295336918 -0.12488752498 0.978 1.46456470778e-38
0.0253394978219 -0.12488752498 0.978 1.36318805064e-38
0.0271494619521 -0.12488752498 0.978 1.35386128832e-38
0.0289594260822 -0.12488752498 0.978 1.38130571874e-38
0.0307693902124 -0.12488752498 0.978 1.34446894523e-38
0.0324794176727 -0.124504434412 0.975 1.33528119172e-38
0.0342838297657 -0.124504434412 0.975 1.3354172578e-38
0.0360882418586 -0.124504434412 0.975 1.33535153691e-38
0.0378149254306 -0.124249040701 0.973 1.33524461783e-38
0.0394934913468 -0.123865950133 0.97 1.31698527845e-38
0.0412886500444 -0.123865950133 0.97 1.30776599573e-38
0.0429505598489 -0.123482859566 0.967 1.31694870456e-38
0.0447401665093 -0.123482859566 0.967 1.23397249756e-38
0.0462891848906 -0.122844375287 0.962 8.00403746202e-39
0.047919633151 -0.122461284719 0.959 1.65663256076e-38
0.049538977337 -0.122078194152 0.956 2.35062324301e-38
0.0512008871415 -0.12182280044 0.954 1.96189155835e-38
0.052966434974 -0.12182280044 0.954 1.54624961825e-38
0.0547319828065 -0.12182280044 0.954 2.02496035886e-38
-0.0240440224732 -0.116785252013 0.928 2.35098856151e-38
-0.0222544158128 -0.116407713482 0.925 2.35098856151e-38
-0.0205425376733 -0.116407713482 0.925 2.35098856151e-38
-0.0188306595339 -0.116407713482 0.925 4.49994912083e-39
-0.0171187813945 -0.116407713482 0.925 6.89096647363e-39
-0.0153735910318 -0.116156021129 0.923 1.40129846432e-45
-0.0136654142505 -0.116156021129 0.923 1.59308073267e-38
-0.0125272466226 -0.121693252905 0.967 2.35055485964e-38
-0.0107376399622 -0.121693252905 0.967 1.92565818396e-38
-0.0089757934879 -0.122070791436 0.97 1.7501577426e-38
-0.00720284293916 -0.122448329966 0.973 1.575026123e-38
-0.00541323627879 -0.122700022319 0.975 1.54740596975e-38
-0.00360882418586 -0.122700022319 0.975 1.49204837456e-38
-0.00180996413014 -0.123077560849 0.978 1.5195285381e-38
0.0 -0.123077560849 0.978 1.53810485119e-38
0.00180996413014 -0.123077560849 0.978 1.33542244261e-38
0.00361992826028 -0.123077560849 0.978 1.51963615782e-38
0.00544654850204 -0.12345509938 0.981 1.42758121832e-38
0.00726206466939 -0.12345509938 0.981 1.45499159719e-38
0.00907758083674 -0.12345509938 0.981 1.34424936176e-38
0.0108930970041 -0.12345509938 0.981 1.5563361646e-38
0.0127086131714 -0.12345509938 0.981 1.33506889501e-38
0.0145241293388 -0.12345509938 0.981 1.38109440294e-38
0.0163396455061 -0.12345509938 0.981 1.3812350933e-38
0.0181551616735 -0.12345509938 0.981 1.39052696329e-38
0.0199706778408 -0.12345509938 0.981 1.29825902643e-38
0.0217861940082 -0.12345509938 0.981 1.33545971715e-38
0.0236017101755 -0.12345509938 0.981 1.22489180325e-38
0.0253394978219 -0.123077560849 0.978 1.28928959521e-38
0.0271494619521 -0.123077560849 0.978 1.33527993055e-38
0.0289594260822 -0.123077560849 0.978 1.28936386403e-38
0.0307693902124 -0.123077560849 0.978 1.29858342702e-38
0.0325793543425 -0.123077560849 0.978 1.33545999741e-38
0.0342838297657 -0.122700022319 0.975 1.30769116639e-38
0.0360882418586 -0.122700022319 0.975 1.28914890485e-38
0.0378149254306 -0.122448329966 0.973 1.32598974213e-38
0.0396156361654 -0.122448329966 0.973 1.24305277148e-38
0.0412886500444 -0.122070791436 0.97 1.21525143033e-38
0.0430838087419 -0.122070791436 0.97 9.29406301919e-39
0.0447401665093 -0.121693252905 0.967 1.36171388466e-38
0.0462891848906 -0.121064022022 0.962 2.34974645056e-38
0.0480695381556 -0.121064022022 0.962 2.35037353162e-38
0.0534105979507 -0.121064022022 0.962 1.6569980194e-38
-0.0239662939522 -0.114695835343 0.925 2.35098856151e-38
-0.0222544158128 -0.114695835343 0.925 2.35098856151e-38
-0.0205425376733 -0.114695835343 0.925 2.35098856151e-38
-0.0187899445944 -0.114447844348 0.923 1.18742374478e-38
-0.0170817678131 -0.114447844348 0.923 1.2678877039e-38
-0.0153236226969 -0.114075857855 0.92 6.24742716038e-39
-0.0136209979528 -0.114075857855 0.92 3.50324616081e-44
-0.0125272466226 -0.119903646245 0.967 1.93616287777e-39
-0.0107376399622 -0.119903646245 0.967 1.85230581455e-38
-0.0089757934879 -0.120275632738 0.97 2.1287775174e-38
-0.00720284293916 -0.120647619231 0.973 1.90697298998e-38
-0.00541323627879 -0.120895610226 0.975 1.62029955404e-38
-0.00360882418586 -0.120895610226 0.975 1.45440879716e-38
-0.00180996413014 -0.121267596719 0.978 1.51930979541e-38
0.0 -0.121267596719 0.978 1.4458086081e-38
0.00181551616735 -0.121639583212 0.981 1.49205131729e-38
0.00363103233469 -0.121639583212 0.981 1.41822278666e-38
0.00544654850204 -0.121639583212 0.981 1.39049024927e-38
0.00726206466939 -0.121639583212 0.981 1.42737018277e-38
0.00907758083674 -0.121639583212 0.981 1.39967772252e-38
0.0108930970041 -0.121639583212 0.981 1.36283380239e-38
0.0127086131714 -0.121639583212 0.981 1.34446628277e-38
0.0145241293388 -0.121639583212 0.981 1.34453901016e-38
0.0163396455061 -0.121639583212 0.981 1.27060103812e-38
0.0181551616735 -0.121639583212 0.981 1.31662780721e-38
0.0199706778408 -0.121639583212 0.981 1.29818685955e-38
0.0217861940082 -0.121639583212 0.981 1.30769509002e-38
0.0236017101755 -0.121639583212 0.981 1.27099466285e-38
0.0254172263429 -0.121639583212 0.981 1.30758550848e-38
0.0271494619521 -0.121267596719 0.978 1.26159181003e-38
0.0289594260822 -0.121267596719 0.978 1.29832937161e-38
0.0307693902124 -0.121267596719 0.978 1.27091717105e-38
0.0325793543425 -0.121267596719 0.978 1.27078012406e-38
0.0343893184726 -0.121267596719 0.978 1.17869211392e-38
0.0360882418586 -0.120895610226 0.975 1.18776299914e-38
0.0378926539515 -0.120895610226 0.975 1.10453862217e-38
0.0396156361654 -0.120647619231 0.973 1.03978952468e-38
0.0414163469002 -0.120647619231 0.973 1.57383473904e-38
0.0430838087419 -0.120275632738 0.97 2.3488926394e-38
0.0448789674395 -0.120275632738 0.97 2.3501584323e-38
0.0465297731697 -0.119903646245 0.967 1.9151476047e-38
0.04831937983 -0.119903646245 0.967 1.43533572376e-38
-0.0239662939522 -0.112983957203 0.925 2.35098856151e-38
-0.0222544158128 -0.112983957203 0.925 2.35098856151e-38
-0.0205425376733 -0.112983957203 0.925 2.35098856151e-38
-0.0187899445944 -0.112739667566 0.923 8.65881378765e-39
-0.0170817678131 -0.112739667566 0.923 1.84005902649e-38
-0.0153236226969 -0.11237323311 0.92 1.19516241555e-38
-0.0136209979528 -0.11237323311 0.92 6.2498682223e-39
-0.0119572374691 -0.112739667566 0.923 4.23744387951e-39
-0.0107709521855 -0.11848047404 0.97 0.0
-0.00900355367395 -0.118846908496 0.973 8.2655730048e-40
-0.00720284293916 -0.118846908496 0.973 1.65772403213e-38
-0.00541323627879 -0.119091198133 0.975 2.34989134482e-38
-0.00361992826028 -0.119457632589 0.978 2.35004590804e-38
-0.00180996413014 -0.119457632589 0.978 1.90707234204e-38
0.0 -0.119824067045 0.981 1.69434290373e-38
0.00181551616735 -0.119824067045 0.981 1.4359744356e-38
0.00363103233469 -0.119824067045 0.981 1.23343692128e-38
0.00544654850204 -0.119824067045 0.981 1.26123658087e-38
0.00726206466939 -0.119824067045 0.981 1.29829433915e-38
0.00907758083674 -0.119824067045 0.981 1.22461168368e-38
0.0108930970041 -0.119824067045 0.981 1.25234113822e-38
0.0127086131714 -0.119824067045 0.981 1.27066689914e-38
0.0145241293388 -0.119824067045 0.981 1.30747704798e-38
0.0163396455061 -0.119824067045 0.981 1.29822217228e-38
0.0181551616735 -0.119824067045 0.981 1.27070823745e-38
0.0199706778408 -0.119824067045 0.981 1.3259839968e-38
0.0217861940082 -0.119824067045 0.981 1.11397734824e-38
0.0236017101755 -0.119824067045 0.981 1.25223351849e-38
0.0254172263429 -0.119824067045 0.981 1.224537555e-38
0.0272327425102 -0.119824067045 0.981 1.14148946138e-38
0.0290482586776 -0.119824067045 0.981 1.16914829047e-38
0.0307693902124 -0.119457632589 0.978 9.57205681244e-39
0.0325793543425 -0.119457632589 0.978 1.03063932597e-38
0.0343893184726 -0.119457632589 0.978 1.45427483303e-38
0.0361992826028 -0.119457632589 0.978 1.500695367e-38
0.0378926539515 -0.119091198133 0.975 2.29403839063e-38
0.0396970660444 -0.119091198133 0.975 2.33160664194e-38
0.0389475410212 -0.111762509017 0.915 2.34964667811e-38
0.04064091237 -0.111762509017 0.915 1.7951074737e-38
0.0423342837187 -0.111762509017 0.915 1.10336139133e-38
0.0466741261371 -0.11848047404 0.97 1.49021575643e-38
-0.0222544158128 -0.111272079064 0.925 2.35098856151e-38
-0.0205425376733 -0.111272079064 0.925 2.35098856151e-38
-0.0188306595339 -0.111272079064 0.925 9.03193192456e-39
-0.0171187813945 -0.111272079064 0.925 1.83054897433e-38
-0.0153735910318 -0.111031490785 0.923 1.78521444667e-38
-0.0136654142505 -0.111031490785 0.923 1.43544166193e-38
-0.0119183732087 -0.110670608366 0.92 8.64186368143e-39
-0.0102157484646 -0.110670608366 0.92 6.06266595786e-39
-0.00900355367395 -0.117046197761 0.973 3.31406246034e-39
-0.00721764837172 -0.11728678604 0.975 0.0
-0.00542989239041 -0.117647668459 0.978 4.06376554654e-44
-0.00361992826028 -0.117647668459 0.978 2.2062337295e-39
-0.00180996413014 -0.117647668459 0.978 1.60223317346e-38
0.0 -0.118008550878 0.981 2.03614230021e-38
0.00181551616735 -0.118008550878 0.981 2.34993884884e-38
0.00363103233469 -0.118008550878 0.981 2.33181739722e-38
0.00546320461367 -0.118369433296 0.984 2.0273953952e-38
0.00728427281823 -0.118369433296 0.984 1.94401715566e-38
0.00910534102278 -0.118369433296 0.984 1.65739206452e-38
0.0109264092273 -0.118369433296 0.984 1.65714053145e-38
0.0127474774319 -0.118369433296 0.984 1.63851965707e-38
0.0145685456365 -0.118369433296 0.984 1.48189890992e-38
0.016389613841 -0.118369433296 0.984 1.36211675796e-38
0.0182106820456 -0.118369433296 0.984 1.43586723627e-38
0.0200317502501 -0.118369433296 0.984 1.40842518805e-38
0.0218528184547 -0.118369433296 0.984 1.47292471429e-38
0.0236738866592 -0.118369433296 0.984 1.62029731197e-38
0.0254172263429 -0.118008550878 0.981 1.64738020739e-38
0.0272327425102 -0.118008550878 0.981 1.88727003292e-38
0.0290482586776 -0.118008550878 0.981 1.98011011995e-38
0.0308637748449 -0.118008550878 0.981 2.26673717291e-38
0.0325793543425 -0.117647668459 0.978 2.35025988631e-38
0.0343893184726 -0.117647668459 0.978 2.35015030477e-38
0.0339784677192 -0.110430020087 0.918 2.01788268057e-38
0.0356773911051 -0.110430020087 0.918 1.35343543372e-38
0.0373763144911 -0.110430020087 0.918 9.48022131628e-39
0.0389475410212 -0.110069137669 0.915 7.90938955984e-39
0.04064091237 -0.110069137669 0.915 1.01985002844e-38
0.0423342837187 -0.110069137669 0.915 6.61868997811e-39
0.0441720080349 -0.110430020087 0.918 7.45960638396e-39
-0.0223265922965 -0.109915531306 0.928 2.35098856151e-38
-0.0205425376733 -0.109560200925 0.925 2.35098856151e-38
-0.0188306595339 -0.109560200925 0.925 1.75160948781e-38
-0.0171187813945 -0.109560200925 0.925 1.16840181877e-38
-0.0153735910318 -0.109323314004 0.923 1.55526066803e-38
-0.0136654142505 -0.109323314004 0.923 1.68346756648e-38
-0.0119183732087 -0.108967983622 0.92 1.54542551463e-38
-0.0102157484646 -0.108967983622 0.92 1.37958548475e-38
-0.00854088390653 -0.109323314004 0.923 9.84006775542e-39
-0.00723985652055 -0.115837704329 0.978 4.95914061461e-39
-0.00542989239041 -0.115837704329 0.978 3.58666685969e-39
-0.00361992826028 -0.115837704329 0.978 3.0370607864e-39
-0.00181551616735 -0.11619303471 0.981 1.26116861789e-44
0.0 -0.11619303471 0.981 0.0
0.00181551616735 -0.11619303471 0.981 0.0
0.00364213640911 -0.116548365092 0.984 7.00649232162e-45
0.00546320461367 -0.116548365092 0.984 7.26586285828e-39
0.00730648096706 -0.116903695473 0.987 1.22441087761e-38
0.00910534102278 -0.116548365092 0.984 1.75892076255e-38
0.0109264092273 -0.116548365092 0.984 1.89763753961e-38
0.0127863416924 -0.116903695473 0.987 1.93455362661e-38
0.0146129619341 -0.116903695473 0.987 2.12852360212e-38
0.016389613841 -0.116548365092 0.984 2.10111504494e-38
0.0182106820456 -0.116548365092 0.984 2.14710538028e-38
0.0200317502501 -0.116548365092 0.984 2.15629145223e-38
0.0218528184547 -0.116548365092 0.984 2.09189548195e-38
0.0236738866592 -0.116548365092 0.984 2.02710672772e-38
0.0254949548638 -0.116548365092 0.984 1.92526582039e-38
0.0272327425102 -0.11619303471 0.981 1.7684204451e-38
0.0290482586776 -0.11619303471 0.981 1.29801716231e-38
0.0308637748449 -0.11619303471 0.981 9.47818242701e-39
0.0326792910123 -0.11619303471 0.981 3.76533661779e-39
0.0322795443332 -0.108731096701 0.918 9.1835496158e-41
0.0339784677192 -0.108731096701 0.918 9.18394197937e-40
0.0356773911051 -0.108731096701 0.918 8.00269641939e-39
0.0373763144911 -0.108731096701 0.918 5.15182756124e-39
0.039075237877 -0.108731096701 0.918 5.52777211715e-39
0.040774161263 -0.108731096701 0.918 6.63380858725e-39
0.042473084649 -0.108731096701 0.918 7.00510783874e-39
0.0441720080349 -0.108731096701 0.918 8.20183634545e-39
0.0493761175788 -0.108967983622 0.92 1.07826049246e-38
-0.0223747099523 -0.108431286692 0.93 2.35084506855e-38
-0.0206091621199 -0.108198101129 0.928 2.35098856151e-38
-0.0188917319432 -0.108198101129 0.928 2.35098856151e-38
-0.0171187813945 -0.107848322785 0.925 1.3775955008e-39
-0.015406903255 -0.107848322785 0.925 1.39967800278e-38
-0.0136950251156 -0.107848322785 0.925 1.62894080115e-38
-0.0119572374691 -0.107615137222 0.923 1.66516843022e-38
-0.0102490606878 -0.107615137222 0.923 1.72927923626e-38
-0.00854088390653 -0.107615137222 0.923 1.72937914884e-38
-0.00683270712523 -0.107615137222 0.923 1.42604035053e-38
-0.00542989239041 -0.114027740199 0.978 1.06637818213e-38
-0.00363103233469 -0.114377518543 0.981 8.90812860653e-39
-0.00181551616735 -0.114377518543 0.981 5.87932847458e-39
0.0 -0.114377518543 0.981 3.681376419e-39
0.00181551616735 -0.114377518543 0.981 4.32709615266e-39
0.00363103233469 -0.114377518543 0.981 3.03747416945e-39
0.00546320461367 -0.114727296887 0.984 3.03993765215e-39
0.00730648096706 -0.115077075231 0.987 9.212570507e-40
0.00913310120883 -0.115077075231 0.987 2.80259692865e-44
0.0109597214506 -0.115077075231 0.987 7.00649232162e-45
0.0127863416924 -0.115077075231 0.987 0.0
0.0146129619341 -0.115077075231 0.987 0.0
0.0164395821759 -0.115077075231 0.987 0.0
0.0182662024177 -0.115077075231 0.987 1.54142831076e-44
0.0200317502501 -0.114727296887 0.984 2.66246708222e-44
0.0218528184547 -0.114727296887 0.984 2.66246708222e-44
0.0236738866592 -0.114727296887 0.984 2.80259692865e-44
0.0254949548638 -0.114727296887 0.984 3.22298646795e-44
0.0272327425102 -0.114377518543 0.981 2.75554132622e-40
0.0290482586776 -0.114377518543 0.981 2.85736247523e-39
0.0288816975613 -0.107032173315 0.918 4.05410639623e-39
0.0305806209472 -0.107032173315 0.918 4.60692704819e-39
0.0322795443332 -0.107032173315 0.918 5.52853582481e-39
0.0339784677192 -0.107032173315 0.918 5.89659947815e-39
0.0356773911051 -0.107032173315 0.918 6.08099073788e-39
0.0373763144911 -0.107032173315 0.918 6.81710963677e-39
0.039075237877 -0.107032173315 0.918 7.0014924887e-39
0.040774161263 -0.107032173315 0.918 7.1898340088e-39
0.042473084649 -0.107032173315 0.918 7.09763837894e-39
0.0441720080349 -0.107032173315 0.918 8.29403197532e-39
0.0459708680906 -0.107265358878 0.92 8.93975170898e-39
0.0476734928347 -0.107265358878 0.92 9.95499244638e-39
0.0493761175788 -0.107265358878 0.92 9.95322540902e-39
0.0512453034392 -0.107615137222 0.923 1.10595323297e-38
-0.0226152982314 -0.10785757618 0.94 2.35098856151e-38
-0.0206535784175 -0.106710155157 0.93 2.35098856151e-38
-0.0188917319432 -0.106480670953 0.928 2.35098856151e-38
-0.0171743017665 -0.106480670953 0.928 2.84690598609e-39
-0.0154568715899 -0.106480670953 0.928 9.20699053651e-39
-0.0136950251156 -0.106136444646 0.925 1.14149885008e-38
-0.0119831469761 -0.106136444646 0.925 1.6474169214e-38
-0.0102712688367 -0.106136444646 0.925 1.60982344672e-38
-0.00854088390653 -0.105906960441 0.923 1.68317791808e-38
-0.00683270712523 -0.105906960441 0.923 1.66495389143e-38
-0.00512453034392 -0.105906960441 0.923 1.79366820005e-38
-0.00363103233469 -0.112562002376 0.981 1.69257922948e-38
-0.00181551616735 -0.112562002376 0.981 1.49961706783e-38
0.0 -0.112562002376 0.981 1.20513181334e-38
0.00181551616735 -0.112562002376 0.981 1.08441653674e-38
0.00363103233469 -0.112562002376 0.981 1.0109865354e-38
0.00546320461367 -0.112906228682 0.984 7.35013975052e-39
0.00730648096706 -0.113250454989 0.987 4.59579933709e-39
0.00913310120883 -0.113250454989 0.987 3.68462603014e-39
0.0109597214506 -0.113250454989 0.987 4.14343076554e-39
0.0127863416924 -0.113250454989 0.987 4.60364520719e-39
0.0146129619341 -0.113250454989 0.987 3.96191076636e-39
0.0164395821759 -0.113250454989 0.987 4.33105201822e-39
0.0182662024177 -0.113250454989 0.987 3.96191076636e-39
0.0200317502501 -0.112906228682 0.984 4.33105201822e-39
0.0218528184547 -0.112906228682 0.984 5.06648428087e-39
0.0236738866592 -0.112906228682 0.984 5.25159580801e-39
0.0235776513476 -0.104415313111 0.91 4.51617895964e-39
0.025261769301 -0.104415313111 0.91 5.52777211715e-39
0.02709394158 -0.104989023622 0.915 5.80365555491e-39
0.0287873129287 -0.104989023622 0.915 5.80582196233e-39
0.0304806842775 -0.104989023622 0.915 5.8980161909e-39
0.0322795443332 -0.105333249929 0.918 5.80652541416e-39
0.0339784677192 -0.105333249929 0.918 5.99021742595e-39
0.0356773911051 -0.105333249929 0.918 6.26715744276e-39
0.0373763144911 -0.105333249929 0.918 7.09476711838e-39
0.039075237877 -0.105333249929 0.918 7.00473929725e-39
0.0408629938583 -0.105562734134 0.92 7.00579867888e-39
0.0425656186024 -0.105562734134 0.92 7.3735204154e-39
0.0442682433465 -0.105562734134 0.92 7.65081215812e-39
0.0459708680906 -0.105562734134 0.92 8.93979094533e-39
0.0476734928347 -0.105562734134 0.92 9.40111801797e-39
0.0495371266579 -0.105906960441 0.923 1.14286833907e-38
0.0512453034392 -0.105906960441 0.923 1.45608755272e-38
-0.0244326650778 -0.106456612125 0.943 2.35098856151e-38
-0.0226152982314 -0.106117937855 0.94 2.35098856151e-38
-0.0207646191617 -0.105553480739 0.935 2.35098856151e-38
-0.018993519292 -0.105327697892 0.933 2.35098856151e-38
-0.0172113153479 -0.104989023622 0.93 1.0036388269e-38
-0.0154568715899 -0.104763240776 0.928 6.98786065724e-39
-0.0137394414132 -0.104763240776 0.928 6.26178486444e-39
-0.0119831469761 -0.104424566506 0.925 9.84911313701e-39
-0.0102712688367 -0.104424566506 0.925 1.5000441836e-38
-0.00854088390653 -0.10419878366 0.923 1.5548210807e-38
-0.00683270712523 -0.10419878366 0.923 1.60963469182e-38
-0.00512453034392 -0.10419878366 0.923 1.80299496237e-38
-0.00342375627889 -0.104424566506 0.925 1.60928296591e-38
-0.00171187813945 -0.104424566506 0.925 1.72891644009e-38
0.0 -0.104424566506 0.925 1.78394543078e-38
0.00182106820456 -0.111085160478 0.984 1.71984135098e-38
0.00364213640911 -0.111085160478 0.984 1.82143212652e-38
0.00546320461367 -0.111085160478 0.984 1.74835749446e-38
0.00730648096706 -0.111423834748 0.987 1.55550253214e-38
0.00913310120883 -0.111423834748 0.987 1.12218671516e-38
0.0109597214506 -0.111423834748 0.987 1.2965734045e-38
0.0127863416924 -0.111423834748 0.987 1.2320364636e-38
0.0135173599249 -0.103069869427 0.913 1.27835077914e-38
0.0152070299155 -0.103069869427 0.913 1.17693614681e-38
0.0169337134875 -0.103295652274 0.915 9.83045905185e-39
0.0185863698967 -0.103069869427 0.913 9.83511276405e-39
0.0202094154408 -0.102731195157 0.91 9.09789524717e-39
0.0218935333942 -0.102731195157 0.91 5.51126622253e-39
0.0235776513476 -0.102731195157 0.91 5.42268314011e-39
0.025261769301 -0.102731195157 0.91 7.2715955703e-39
0.0270347198498 -0.103069869427 0.913 5.24800287874e-39
0.0287873129287 -0.103295652274 0.915 5.89696241445e-39
0.0304806842775 -0.103295652274 0.915 5.89659667555e-39
0.0322795443332 -0.103634326543 0.918 6.08241025322e-39
0.0339784677192 -0.103634326543 0.918 6.08276618303e-39
0.0356773911051 -0.103634326543 0.918 6.7270187572e-39
0.0373763144911 -0.103634326543 0.918 6.63593715961e-39
0.0391603691142 -0.10386010939 0.92 6.82104728545e-39
0.0408629938583 -0.10386010939 0.92 7.09724881796e-39
0.0425656186024 -0.10386010939 0.92 7.55861512696e-39
0.0442682433465 -0.10386010939 0.92 8.11073512969e-39
0.0461207730953 -0.10419878366 0.923 9.1252415867e-39
0.0478289498766 -0.10419878366 0.923 1.00478971333e-38
0.0495371266579 -0.10419878366 0.923 9.85992555596e-39
0.0512453034392 -0.10419878366 0.923 1.92639274462e-38
0.0529534802205 -0.10419878366 0.923 2.35098856151e-38
-0.0244326650778 -0.104711421762 0.943 2.35088094179e-38
-0.0226152982314 -0.104378299529 0.94 2.35098856151e-38
-0.0208312436082 -0.104156218041 0.938 2.35098856151e-38
-0.0190342342316 -0.103823095809 0.935 2.35098856151e-38
-0.01726683572 -0.10360101432 0.933 1.23455445681e-38
-0.0154568715899 -0.103045810599 0.928 1.22368808787e-38
-0.0137394414132 -0.103045810599 0.928 6.71772814838e-39
-0.0119831469761 -0.102712688367 0.925 6.81605165643e-39
-0.0102712688367 -0.102712688367 0.925 5.51739830461e-39
-0.00854088390653 -0.102490606878 0.923 1.24237384237e-38
-0.00683270712523 -0.102490606878 0.923 1.28824436669e-38
-0.00512453034392 -0.102490606878 0.923 1.61949871197e-38
-0.00341635356261 -0.102490606878 0.923 1.68325260729e-38
-0.0017026247441 -0.102157484646 0.92 1.7381027923e-38
0.0 -0.101935403157 0.918 1.70097286715e-38
0.00169892338596 -0.101935403157 0.918 1.73781608664e-38
0.00339784677192 -0.101935403157 0.918 1.93145451493e-38
0.00508011404625 -0.101602280925 0.915 1.76568314868e-38
0.006773485395 -0.101602280925 0.915 1.76589838812e-38
0.00846685674374 -0.101602280925 0.915 1.85802591488e-38
0.0101380199437 -0.101380199437 0.913 1.85816618486e-38
0.0118276899343 -0.101380199437 0.913 1.8213620616e-38
0.0135173599249 -0.101380199437 0.913 1.98742181508e-38
0.0152070299155 -0.101380199437 0.913 1.77551606e-38
0.0168966999061 -0.101380199437 0.913 1.91366503093e-38
0.0185863698967 -0.101380199437 0.913 1.7479637296e-38
0.0202094154408 -0.101047077204 0.91 1.83101308438e-38
0.0218935333942 -0.101047077204 0.91 1.69315123951e-38
0.0235776513476 -0.101047077204 0.91 1.76719346816e-38
0.025261769301 -0.101047077204 0.91 1.6198284375e-38
0.0270347198498 -0.101380199437 0.913 1.60166845018e-38
0.0287873129287 -0.101602280925 0.915 5.88392893744e-39
0.0304806842775 -0.101602280925 0.915 6.91004375092e-39
0.0322795443332 -0.101935403157 0.918 6.54412968942e-39
0.0339784677192 -0.101935403157 0.918 6.72813278948e-39
0.0356773911051 -0.101935403157 0.918 6.82140041267e-39
0.0374577443701 -0.102157484646 0.92 6.4526248997e-39
0.0391603691142 -0.102157484646 0.92 6.91182339997e-39
0.0408629938583 -0.102157484646 0.92 7.46536572065e-39
0.0427044195327 -0.102490606878 0.923 7.64866256627e-39
0.044412596314 -0.102490606878 0.923 8.8483001686e-39
0.0461207730953 -0.102490606878 0.923 8.75680799056e-39
0.0478289498766 -0.102490606878 0.923 9.86170940891e-39
0.0495371266579 -0.102490606878 0.923 5.24655393613e-39
0.0512453034392 -0.102490606878 0.923 2.35098856151e-38
0.0529534802205 -0.102490606878 0.923 2.35098856151e-38
-0.0226152982314 -0.102638661204 0.94 2.35098856151e-38
-0.0208312436082 -0.102420281074 0.938 2.35098856151e-38
-0.0190953066409 -0.102420281074 0.938 2.35098856151e-38
-0.0173593696735 -0.102420281074 0.938 1.00450104584e-38
-0.0154901838131 -0.101546760553 0.93 1.75802491244e-38
-0.0137394414132 -0.101328380423 0.928 1.02110236888e-38
-0.0120220112366 -0.101328380423 0.928 8.10389959578e-39
-0.0102712688367 -0.101000810227 0.925 5.70862790085e-39
-0.00855939069723 -0.101000810227 0.925 5.33875657249e-39
-0.00684751255778 -0.101000810227 0.925 4.69375009975e-39
-0.00513563441834 -0.101000810227 0.925 7.3562732339e-39
-0.00341635356261 -0.100782430097 0.923 1.21391949614e-38
-0.0017026247441 -0.100454859902 0.92 1.39848479714e-38
0.0 -0.100236479772 0.918 1.49068266908e-38
0.00169892338596 -0.100236479772 0.918 1.62847234708e-38
0.00339784677192 -0.100236479772 0.918 1.78487827517e-38
0.00508011404625 -0.0999089095762 0.915 1.84016258245e-38
0.006773485395 -0.0999089095762 0.915 1.81228963495e-38
0.00846685674374 -0.0999089095762 0.915 1.78448815368e-38
0.0101380199437 -0.099690529446 0.913 1.86746183835e-38
0.0118276899343 -0.099690529446 0.913 1.75704834754e-38
0.0135173599249 -0.099690529446 0.913 1.88590292614e-38
0.0152070299155 -0.099690529446 0.913 1.80292685926e-38
0.0168966999061 -0.099690529446 0.913 1.83962378319e-38
0.0185863698967 -0.099690529446 0.913 1.88604207508e-38
0.0202760398873 -0.099690529446 0.913 1.79388133755e-38
0.0219657098779 -0.099690529446 0.913 1.74817994995e-38
0.0236553798685 -0.099690529446 0.913 1.69339912921e-38
0.0253450498591 -0.099690529446 0.913 1.4908560097e-38
0.02709394158 -0.0999089095762 0.915 1.31565110219e-38
0.0287873129287 -0.0999089095762 0.915 8.00224660258e-39
0.0304806842775 -0.0999089095762 0.915 5.71220121193e-39
0.0322795443332 -0.100236479772 0.918 5.98914823523e-39
0.0339784677192 -0.100236479772 0.918 5.62179083631e-39
0.0356773911051 -0.100236479772 0.918 6.17314152619e-39
0.0374577443701 -0.100454859902 0.92 6.72706359875e-39
0.0391603691142 -0.100454859902 0.92 6.4526248997e-39
0.0409962427514 -0.100782430097 0.923 6.82034383362e-39
0.0427044195327 -0.100782430097 0.923 7.64901289089e-39
0.044412596314 -0.100782430097 0.923 8.20253419209e-39
0.0461207730953 -0.100782430097 0.923 9.40252492163e-39
0.0479325879045 -0.101000810227 0.925 9.95426096858e-39
0.0493761175788 -0.100454859902 0.92 6.4490656016e-39
0.0510787423229 -0.100454859902 0.92 2.35098856151e-38
0.052781367067 -0.100454859902 0.92 2.35098856151e-38
-0.0226152982314 -0.100899022878 0.94 2.35098856151e-38
-0.0208756599059 -0.100899022878 0.94 2.35098856151e-38
-0.0191360215804 -0.100899022878 0.94 2.35098856151e-38
-0.0173963832549 -0.100899022878 0.94 1.91756148144e-38
-0.015540152148 -0.100147647176 0.933 1.14917600384e-38
-0.0137690522784 -0.0998256290181 0.93 1.64806992649e-38
-0.0120220112366 -0.099610950246 0.928 8.8302346288e-39
-0.0102712688367 -0.0992889320879 0.925 5.33553218472e-39
-0.00855939069723 -0.0992889320879 0.925 5.61643086968e-39
-0.00684751255778 -0.0992889320879 0.925 5.52601909277e-39
-0.00513563441834 -0.0992889320879 0.925 4.69912267806e-39
-0.00341635356261 -0.0990742533158 0.923 4.42001765513e-39
-0.0017026247441 -0.0987522351576 0.92 2.8533757811e-39
0.0 -0.0987522351576 0.92 5.05890045358e-39
0.00169892338596 -0.0985375563856 0.918 7.35084039975e-39
0.00339784677192 -0.0985375563856 0.918 8.45071115661e-39
0.00509677015787 -0.0985375563856 0.918 9.55701387342e-39
0.006773485395 -0.0982155382274 0.915 1.30572038023e-38
0.00846685674374 -0.0982155382274 0.915 1.12161652682e-38
0.0101602280925 -0.0982155382274 0.915 1.379972103e-38
0.0118535994412 -0.0982155382274 0.915 1.22345687362e-38
0.01354697079 -0.0982155382274 0.915 1.22291877501e-38
0.0152070299155 -0.0980008594554 0.913 1.33355955643e-38
0.0168966999061 -0.0980008594554 0.913 1.16757589346e-38
0.0185863698967 -0.0980008594554 0.913 1.13087714785e-38
0.0202760398873 -0.0980008594554 0.913 8.36069594716e-39
0.0219657098779 -0.0980008594554 0.913 7.71998305291e-39
0.0237071988825 -0.0982155382274 0.915 4.50248967495e-39
0.0254005702312 -0.0982155382274 0.915 4.42072110696e-39
0.02709394158 -0.0982155382274 0.915 4.69801144838e-39
0.0287873129287 -0.0982155382274 0.915 5.34484521431e-39
0.0304806842775 -0.0982155382274 0.915 5.43704644937e-39
0.0322795443332 -0.0985375563856 0.918 6.26572531573e-39
0.0339784677192 -0.0985375563856 0.918 6.26680431554e-39
0.0356773911051 -0.0985375563856 0.918 6.72633071965e-39
0.0374577443701 -0.0987522351576 0.92 6.63416171446e-39
0.03928806597 -0.0990742533158 0.923 7.18803474157e-39
0.0409962427514 -0.0990742533158 0.923 7.64830943906e-39
0.0427044195327 -0.0990742533158 0.923 8.29473262455e-39
0.0445088316256 -0.0992889320879 0.925 9.67731674788e-39
0.046220709765 -0.0992889320879 0.925 9.12449329332e-39
