# .PCD v0.7 - Point Cloud Data file format
VERSION 0.7
FIELDS x y z rgb
SIZE 4 4 4 4
TYPE F F F F
COUNT 1 1 1 1
WIDTH 851
HEIGHT 1
VIEWPOINT 0 0 0 1 0 0 0
POINTS 851
DATA ascii
0.0587072414481 -0.12086785004 0.933 2.35047918952e-38
0.0601100561829 -0.120220112366 0.928 1.84228961339e-38
0.0618274863596 -0.120220112366 0.928 2.35098856151e-38
0.0635449165362 -0.120220112366 0.928 2.35098856151e-38
-0.0176554783247 -0.12182280044 0.954 2.35098856151e-38
-0.0158899304922 -0.12182280044 0.954 6.91320508026e-39
-0.0141243826597 -0.12182280044 0.954 1.00370763065e-38
-0.0123847443342 -0.122078194152 0.956 2.35098337671e-38
-0.0106154951436 -0.122078194152 0.956 1.89748577899e-38
-0.00887400613907 -0.122461284719 0.959 2.03574545249e-38
-0.00712141306009 -0.122844375287 0.962 1.89770634336e-38
-0.00535216386949 -0.123099768998 0.964 1.74994698731e-38
-0.00356810924633 -0.123099768998 0.964 1.83306402482e-38
-0.00178960666037 -0.123482859566 0.967 1.84235547441e-38
0.0 -0.123482859566 0.967 1.65782394471e-38
0.00179515869758 -0.123865950133 0.97 1.74083308223e-38
0.00359031739516 -0.123865950133 0.97 1.59342951586e-38
0.00538547609274 -0.123865950133 0.97 1.59349930052e-38
0.00718063479032 -0.123865950133 0.97 1.54740078494e-38
0.00900355367395 -0.124249040701 0.973 1.56580235612e-38
0.0108042644087 -0.124249040701 0.973 1.48279349885e-38
0.0126308846505 -0.124504434412 0.975 1.51037960055e-38
0.0144352967434 -0.124504434412 0.975 1.47364554222e-38
0.0162397088364 -0.124504434412 0.975 1.51981174052e-38
0.0180071073479 -0.124249040701 0.973 1.51984705324e-38
0.0198078180827 -0.124249040701 0.973 1.41839850948e-38
0.0216085288175 -0.124249040701 0.973 1.42744052796e-38
0.0234092395523 -0.124249040701 0.973 1.57509618792e-38
0.0252099502871 -0.124249040701 0.973 1.41836165534e-38
0.0270106610218 -0.124249040701 0.973 1.45509921691e-38
0.0288113717566 -0.124249040701 0.973 1.4736102295e-38
0.0306120824914 -0.124249040701 0.973 1.45524341053e-38
0.0324127932262 -0.124249040701 0.973 1.44595406288e-38
0.034213503961 -0.124249040701 0.973 1.39985372561e-38
0.0359031739516 -0.123865950133 0.97 1.36290386731e-38
0.0376983326492 -0.123865950133 0.97 1.36290414757e-38
0.0394934913468 -0.123865950133 0.97 1.39070674988e-38
0.0412886500444 -0.123865950133 0.97 1.36297715522e-38
0.0429505598489 -0.123482859566 0.967 1.32609946379e-38
0.0447401665093 -0.123482859566 0.967 1.35368584575e-38
0.0463854202022 -0.123099768998 0.964 1.28007241444e-38
0.047919633151 -0.122461284719 0.959 1.31698555871e-38
0.0496944343788 -0.122461284719 0.959 1.36308309338e-38
0.0513082265276 -0.122078194152 0.956 1.25237981405e-38
0.052966434974 -0.12182280044 0.954 1.33542468469e-38
0.054559869653 -0.121439709873 0.951 1.21553883665e-38
0.0560237567971 -0.120801225594 0.946 1.12340640535e-38
0.0569805578761 -0.119141166468 0.933 2.35026465073e-38
0.0587072414481 -0.119141166468 0.933 1.67648587714e-38
0.0601100561829 -0.118502682189 0.928 1.98105165239e-38
0.0618274863596 -0.118502682189 0.928 2.35098856151e-38
0.0635449165362 -0.118502682189 0.928 2.35098856151e-38
-0.0176924919061 -0.120308944961 0.956 2.35098856151e-38
-0.0159232427154 -0.120308944961 0.956 1.91770469414e-38
-0.0141539935248 -0.120308944961 0.956 1.19391890329e-39
-0.0123847443342 -0.120308944961 0.956 1.51099449032e-38
-0.0106488073669 -0.120686483491 0.959 2.35084170544e-38
-0.00890176632512 -0.121064022022 0.962 1.88841195104e-38
-0.00712141306009 -0.121064022022 0.962 1.86965360928e-38
-0.00535216386949 -0.121315714375 0.964 1.83306430508e-38
-0.00356810924633 -0.121315714375 0.964 1.77792685388e-38
-0.00178960666037 -0.121693252905 0.967 1.72246486196e-38
0.0 -0.121693252905 0.967 1.63023209769e-38
0.00179515869758 -0.122070791436 0.97 1.60261250496e-38
0.00359031739516 -0.122070791436 0.97 1.59353461324e-38
0.00538547609274 -0.122070791436 0.97 1.60278920869e-38
0.00720284293916 -0.122448329966 0.973 1.55655322573e-38
0.00902206046465 -0.122700022319 0.975 1.54736519196e-38
0.0108264725576 -0.122700022319 0.975 1.53814562897e-38
0.0126308846505 -0.122700022319 0.975 1.44573840304e-38
0.0144352967434 -0.122700022319 0.975 1.44595252145e-38
0.0162397088364 -0.122700022319 0.975 1.36311840611e-38
0.0180441209293 -0.122700022319 0.975 1.42747612094e-38
0.0198485330222 -0.122700022319 0.975 1.48282979249e-38
0.0216529451152 -0.122700022319 0.975 1.38127489018e-38
0.0234573572081 -0.122700022319 0.975 1.34442914836e-38
0.025261769301 -0.122700022319 0.975 1.4273679407e-38
0.0270661813939 -0.122700022319 0.975 1.38137760536e-38
0.0288705934869 -0.122700022319 0.975 1.344534526e-38
0.0306750055798 -0.122700022319 0.975 1.51977670806e-38
0.0324127932262 -0.122448329966 0.973 1.31684458809e-38
0.034213503961 -0.122448329966 0.973 1.37219727873e-38
0.0360142146958 -0.122448329966 0.973 1.39059758873e-38
0.0376983326492 -0.122070791436 0.97 1.3352430764e-38
0.0394934913468 -0.122070791436 0.97 1.38137998756e-38
0.0412886500444 -0.122070791436 0.97 1.36290414757e-38
0.0429505598489 -0.121693252905 0.967 1.31666283968e-38
0.0447401665093 -0.121693252905 0.967 1.40907174717e-38
0.0463854202022 -0.121315714375 0.964 1.30769116639e-38
0.047919633151 -0.120686483491 0.959 1.38145061301e-38
0.0496944343788 -0.120686483491 0.959 1.33546125858e-38
0.0513082265276 -0.120308944961 0.956 1.39992799443e-38
0.0530774757182 -0.120308944961 0.956 1.04955209082e-38
0.0547319828065 -0.120057252608 0.954 1.37129708459e-38
0.0560237567971 -0.119050483194 0.946 2.35061399444e-38
0.0569805578761 -0.117414482896 0.933 1.94414061006e-38
0.058518472183 -0.117036944366 0.93 1.68155815719e-44
0.0602396037178 -0.117036944366 0.93 2.35098856151e-38
0.0619607352526 -0.117036944366 0.93 2.35098856151e-38
0.0636818667874 -0.117036944366 0.93 2.35098856151e-38
-0.0176924919061 -0.118539695771 0.956 2.35098856151e-38
-0.0159232427154 -0.118539695771 0.956 2.35098856151e-38
-0.0141539935248 -0.118539695771 0.956 1.10207359804e-39
-0.0124236085947 -0.118911682264 0.959 2.02221521517e-39
-0.0106488073669 -0.118911682264 0.959 1.25216289305e-38
-0.00890176632512 -0.119283668757 0.962 2.35098169515e-38
-0.00712141306009 -0.119283668757 0.962 1.962358471e-38
-0.00535216386949 -0.119531659752 0.964 1.74997501328e-38
-0.00356810924633 -0.119531659752 0.964 1.59339420314e-38
-0.00178960666037 -0.119903646245 0.967 1.63949271872e-38
0.0 -0.120275632738 0.97 1.61186864183e-38
0.00179515869758 -0.120275632738 0.97 1.62119358246e-38
0.00359031739516 -0.120275632738 0.97 1.58434840116e-38
0.00540213220437 -0.120647619231 0.973 1.44609293155e-38
0.00720284293916 -0.120647619231 0.973 1.57488122874e-38
0.00902206046465 -0.120895610226 0.975 1.32599030264e-38
0.0108264725576 -0.120895610226 0.975 1.45481629475e-38
0.0126308846505 -0.120895610226 0.975 1.35364871134e-38
0.0144352967434 -0.120895610226 0.975 1.49200479418e-38
0.0162397088364 -0.120895610226 0.975 1.44594775703e-38
0.0180441209293 -0.120895610226 0.975 1.50108520823e-38
0.0198485330222 -0.120895610226 0.975 1.43662099472e-38
0.0216529451152 -0.120895610226 0.975 1.36297547366e-38
0.0234573572081 -0.120895610226 0.975 1.38137760536e-38
0.025261769301 -0.120895610226 0.975 1.39056227601e-38
0.0270661813939 -0.120895610226 0.975 1.36279568707e-38
0.0288705934869 -0.120895610226 0.975 1.39981715172e-38
0.0306750055798 -0.120895610226 0.975 1.3352430764e-38
0.0324794176727 -0.120895610226 0.975 1.35379150366e-38
0.0342838297657 -0.120895610226 0.975 1.40900140198e-38
0.0360142146958 -0.120647619231 0.973 1.41814655602e-38
0.0378149254306 -0.120647619231 0.973 1.29836412381e-38
0.0394934913468 -0.120275632738 0.97 1.38141235756e-38
0.0412886500444 -0.120275632738 0.97 1.27996255264e-38
0.0430838087419 -0.120275632738 0.97 1.32606036757e-38
0.0447401665093 -0.119903646245 0.967 1.33524489809e-38
0.0463854202022 -0.119531659752 0.964 1.28932056391e-38
0.0480695381556 -0.119283668757 0.962 1.38137087912e-38
0.0496944343788 -0.118911682264 0.959 1.1048321942e-38
0.0513082265276 -0.118539695771 0.956 8.37501721747e-39
0.0530774757182 -0.118539695771 0.956 1.75912451135e-38
0.0547319828065 -0.118291704775 0.954 2.35098127476e-38
0.0560237567971 -0.117299740794 0.946 1.82413382996e-38
0.0571027026947 -0.11593579032 0.935 1.65303893084e-39
0.0583926260063 -0.115067821836 0.928 3.88162757475e-39
0.0601100561829 -0.115067821836 0.928 2.35098856151e-38
0.0618274863596 -0.115067821836 0.928 2.35098856151e-38
0.0635449165362 -0.115067821836 0.928 2.35098856151e-38
-0.0160231793852 -0.117503315492 0.962 2.35098856151e-38
-0.0142428261202 -0.117503315492 0.962 4.13273885825e-39
-0.0124624728552 -0.117503315492 0.962 8.92789532267e-39
-0.010704327739 -0.117747605129 0.964 4.50719383389e-39
-0.00892027311581 -0.117747605129 0.964 8.36783135894e-39
-0.00713621849265 -0.117747605129 0.964 2.22032644803e-38
-0.00535216386949 -0.117747605129 0.964 2.21107409466e-38
-0.00356810924633 -0.117747605129 0.964 1.667446381e-38
-0.00178960666037 -0.118114039585 0.967 1.6765800444e-38
0.0 -0.11848047404 0.97 1.42744052796e-38
0.00179515869758 -0.11848047404 0.97 1.45520445443e-38
0.00360142146958 -0.118846908496 0.973 1.56577152755e-38
0.00540213220437 -0.118846908496 0.973 1.47356917145e-38
0.00721764837172 -0.119091198133 0.975 1.54747084987e-38
0.00902206046465 -0.119091198133 0.975 1.4460241278e-38
0.0108264725576 -0.119091198133 0.975 1.41825781912e-38
0.012669748911 -0.119457632589 0.978 1.38152221936e-38
0.0144797130411 -0.119457632589 0.978 1.38159074285e-38
0.0162896771712 -0.119457632589 0.978 1.28000389094e-38
0.0180996413014 -0.119457632589 0.978 1.38098313984e-38
0.0199096054315 -0.119457632589 0.978 1.32584386696e-38
0.0217195695617 -0.119457632589 0.978 1.36300546145e-38
0.0235295336918 -0.119457632589 0.978 1.29843881302e-38
0.0253394978219 -0.119457632589 0.978 1.43655064953e-38
0.0271494619521 -0.119457632589 0.978 1.32584540838e-38
0.0289594260822 -0.119457632589 0.978 1.2428697619e-38
0.0307693902124 -0.119457632589 0.978 1.32601846874e-38
0.0324794176727 -0.119091198133 0.975 1.27999814562e-38
0.0342838297657 -0.119091198133 0.975 1.31677003901e-38
0.0360882418586 -0.119091198133 0.975 1.27985745525e-38
0.0378149254306 -0.118846908496 0.973 1.1877003611e-38
0.0396156361654 -0.118846908496 0.973 1.49197340509e-38
0.0414163469002 -0.118846908496 0.973 1.31698373702e-38
0.0430838087419 -0.11848047404 0.97 1.38145033275e-38
0.0447401665093 -0.118114039585 0.967 1.18780728017e-38
0.0463854202022 -0.117747605129 0.964 1.08642361653e-38
0.0480695381556 -0.117503315492 0.962 8.92600216844e-39
0.0496944343788 -0.117136881036 0.959 1.62915786228e-38
0.0514692356066 -0.117136881036 0.959 2.35026787371e-38
0.0530774757182 -0.11677044658 0.956 2.34061488911e-38
0.0547319828065 -0.116526156943 0.954 8.65412924689e-39
0.0560237567971 -0.115548998394 0.946 5.14286345496e-39
0.057774499197 -0.115548998394 0.946 6.72782170122e-39
0.0583926260063 -0.113350391659 0.928 1.66684452331e-38
0.0601100561829 -0.113350391659 0.928 2.35098856151e-38
0.0618274863596 -0.113350391659 0.928 2.35098856151e-38
-0.014316853283 -0.116324432924 0.967 8.01453599011e-39
-0.0125272466226 -0.116324432924 0.967 9.38814900068e-39
-0.0107376399622 -0.116324432924 0.967 7.46354683524e-39
-0.00894803330186 -0.116324432924 0.967 3.12678452577e-39
-0.00715842664149 -0.116324432924 0.967 5.97361344045e-39
-0.00536881998112 -0.116324432924 0.967 1.59210739076e-38
-0.00357921332074 -0.116324432924 0.967 2.11901495126e-38
-0.00178960666037 -0.116324432924 0.967 2.06417289378e-38
0.0 -0.116685315343 0.97 2.04555356083e-38
0.00179515869758 -0.116685315343 0.97 1.54725561042e-38
0.00360142146958 -0.117046197761 0.973 1.48203665755e-38
0.00541323627879 -0.11728678604 0.975 1.35353955019e-38
0.00721764837172 -0.11728678604 0.975 1.52874557875e-38
0.00904982065069 -0.117647668459 0.978 1.37230265637e-38
0.0108597847808 -0.117647668459 0.978 1.34464592923e-38
0.012669748911 -0.117647668459 0.978 1.3815928448e-38
0.0144797130411 -0.117647668459 0.978 1.28013659391e-38
0.0162896771712 -0.117647668459 0.978 1.31695052625e-38
0.0180996413014 -0.117647668459 0.978 1.38145005249e-38
0.0199096054315 -0.117647668459 0.978 1.28921925003e-38
0.0217195695617 -0.117647668459 0.978 1.32602505485e-38
0.0235295336918 -0.117647668459 0.978 1.37216168575e-38
0.0253394978219 -0.117647668459 0.978 1.26141636746e-38
0.0271494619521 -0.117647668459 0.978 1.32580407008e-38
0.0289594260822 -0.117647668459 0.978 1.32584512812e-38
0.0307693902124 -0.117647668459 0.978 1.27992723991e-38
0.0325793543425 -0.117647668459 0.978 1.28914736342e-38
0.0343893184726 -0.117647668459 0.978 1.23386669952e-38
0.0360882418586 -0.11728678604 0.975 1.20631549016e-38
0.0378926539515 -0.11728678604 0.975 1.27989220745e-38
0.0396970660444 -0.11728678604 0.975 1.16914590826e-38
0.0414163469002 -0.117046197761 0.973 1.12308732968e-38
0.0430838087419 -0.116685315343 0.97 8.6465440183e-39
0.0448789674395 -0.116685315343 0.97 1.41750966587e-38
0.0463854202022 -0.115963550506 0.964 1.57495549756e-38
0.0480695381556 -0.115722962227 0.962 2.24852435663e-38
0.0496944343788 -0.115362079808 0.959 2.33120531006e-38
0.0514692356066 -0.115362079808 0.959 1.17816256323e-38
0.0530774757182 -0.115001197389 0.956 2.75513354836e-39
0.0548467249088 -0.115001197389 0.956 3.13112154452e-39
0.0601100561829 -0.111632961483 0.928 2.35098856151e-38
0.0618274863596 -0.111632961483 0.928 2.35098856151e-38
-0.014316853283 -0.114534826264 0.967 6.17455403504e-39
-0.0125272466226 -0.114534826264 0.967 1.00335646526e-38
-0.0107376399622 -0.114534826264 0.967 7.74050787152e-39
-0.00894803330186 -0.114534826264 0.967 6.35541962783e-39
-0.00715842664149 -0.114534826264 0.967 4.14339012788e-39
-0.00536881998112 -0.114534826264 0.967 6.25094441952e-39
-0.00357921332074 -0.114534826264 0.967 9.46808046638e-39
-0.00178960666037 -0.114534826264 0.967 1.37029081217e-38
0.0 -0.114890156645 0.97 1.83199371305e-38
0.00179515869758 -0.114890156645 0.97 2.34931919465e-38
0.00360142146958 -0.115245487027 0.973 2.34068145079e-38
0.00541323627879 -0.115482373947 0.975 1.9624936963e-38
0.00721764837172 -0.115482373947 0.975 1.73113861919e-38
0.00904982065069 -0.115837704329 0.978 1.53735809924e-38
0.0108597847808 -0.115837704329 0.978 1.34374125094e-38
0.012669748911 -0.115837704329 0.978 1.27038005335e-38
0.0145241293388 -0.11619303471 0.981 1.242937865e-38
0.0163396455061 -0.11619303471 0.981 1.16936479108e-38
0.0180996413014 -0.115837704329 0.978 1.27992780043e-38
0.0199096054315 -0.115837704329 0.978 1.26141804902e-38
0.0217861940082 -0.11619303471 0.981 1.23375739824e-38
0.0236017101755 -0.11619303471 0.981 1.26137881266e-38
0.0254172263429 -0.11619303471 0.981 1.15074405683e-38
0.0272327425102 -0.11619303471 0.981 1.19683892903e-38
0.0290482586776 -0.11619303471 0.981 1.25190561465e-38
0.0308637748449 -0.11619303471 0.981 1.15981774464e-38
0.0325793543425 -0.115837704329 0.978 1.15992536436e-38
0.0343893184726 -0.115837704329 0.978 1.07691468542e-38
0.0361992826028 -0.115837704329 0.978 1.12265306729e-38
0.0380092467329 -0.115837704329 0.978 1.31627201753e-38
0.0396970660444 -0.115482373947 0.975 1.48222246973e-38
0.0415014781374 -0.115482373947 0.975 1.84192261332e-38
0.043217057635 -0.115245487027 0.973 2.34989568884e-38
0.0448789674395 -0.114890156645 0.97 2.35026338956e-38
0.0465297731697 -0.114534826264 0.967 1.95396357216e-38
0.04831937983 -0.114534826264 0.967 8.84353295122e-39
0.0501089864904 -0.114534826264 0.967 1.01028294344e-39
0.0518985931508 -0.114534826264 0.967 6.52935159582e-39
-0.0136950251156 -0.107848322785 0.925 1.48427761406e-38
-0.0119831469761 -0.107848322785 0.925 7.81977512175e-39
-0.0102490606878 -0.107615137222 0.923 6.81853055341e-39
-0.00854088390653 -0.107615137222 0.923 8.10892184948e-39
-0.00683270712523 -0.107615137222 0.923 6.81673408878e-39
-0.00536881998112 -0.112745219603 0.967 5.70968728249e-39
-0.00357921332074 -0.112745219603 0.967 3.86361948818e-39
-0.00178960666037 -0.112745219603 0.967 7.90509317875e-39
0.0 -0.113094997948 0.97 1.23264042324e-38
0.00179515869758 -0.113094997948 0.97 1.22295464825e-38
0.00360142146958 -0.113444776292 0.973 1.02895216262e-38
0.00541323627879 -0.113677961855 0.975 1.63769975733e-38
0.00723985652055 -0.114027740199 0.978 1.75820652072e-38
0.00904982065069 -0.114027740199 0.978 2.27573322879e-38
0.0108597847808 -0.114027740199 0.978 2.27625170922e-38
0.012669748911 -0.114027740199 0.978 2.23029430439e-38
0.0145241293388 -0.114377518543 0.981 1.9444563226e-38
0.0163396455061 -0.114377518543 0.981 1.84271112396e-38
0.0181551616735 -0.114377518543 0.981 1.78657020294e-38
0.0199706778408 -0.114377518543 0.981 1.7861042712e-38
0.0217861940082 -0.114377518543 0.981 1.8044740329e-38
0.0236017101755 -0.114377518543 0.981 1.7489412754e-38
0.0254172263429 -0.114377518543 0.981 1.72132168267e-38
0.0272327425102 -0.114377518543 0.981 1.84127969758e-38
0.0290482586776 -0.114377518543 0.981 1.84142459184e-38
0.0308637748449 -0.114377518543 0.981 2.03528274373e-38
0.0325793543425 -0.114027740199 0.978 2.22020929947e-38
0.0343893184726 -0.114027740199 0.978 2.34972080679e-38
0.0360882418586 -0.113677961855 0.975 2.35025904553e-38
0.0378926539515 -0.113677961855 0.975 2.34954172085e-38
0.0396970660444 -0.113677961855 0.975 2.348967749e-38
0.0414163469002 -0.113444776292 0.973 1.78602719978e-38
0.043217057635 -0.113444776292 0.973 1.23131815801e-38
0.0450177683697 -0.113444776292 0.973 1.05610820582e-38
0.0468184791045 -0.113444776292 0.973 1.16710519731e-38
0.0486191898393 -0.113444776292 0.973 1.48171744176e-38
0.0504199005741 -0.113444776292 0.973 1.61096830757e-38
-0.0153735910318 -0.105906960441 0.923 2.35098856151e-38
-0.0136654142505 -0.105906960441 0.923 2.20340352699e-38
-0.0119572374691 -0.105906960441 0.923 8.28506927034e-39
-0.0102490606878 -0.105906960441 0.923 8.20253419209e-39
-0.00854088390653 -0.105906960441 0.923 7.37351481021e-39
-0.00681049897639 -0.105562734134 0.92 6.6352182935e-39
-0.00510787423229 -0.105562734134 0.92 5.80404371458e-39
-0.00339784677192 -0.105333249929 0.918 5.25013145111e-39
-0.00169892338596 -0.105333249929 0.918 4.69766112376e-39
0.0 -0.104989023622 0.915 1.6538054411e-39
0.00169337134875 -0.104989023622 0.915 1.02135782559e-38
0.00360882418586 -0.111873549762 0.975 1.36207107563e-38
0.00541323627879 -0.111873549762 0.975 1.49085839191e-38
0.00723985652055 -0.112217776069 0.978 1.28770584769e-38
0.00904982065069 -0.112217776069 0.978 8.44886564654e-39
0.0108930970041 -0.112562002376 0.981 9.55089160043e-39
0.0127086131714 -0.112562002376 0.981 6.06114274643e-39
0.0145241293388 -0.112562002376 0.981 7.81295500213e-39
0.0163396455061 -0.112562002376 0.981 1.11376813438e-38
0.0181551616735 -0.112562002376 0.981 1.55587205455e-38
0.0199706778408 -0.112562002376 0.981 1.6849456561e-38
0.0217861940082 -0.112562002376 0.981 1.73122353788e-38
0.0236017101755 -0.112562002376 0.981 1.94337662213e-38
0.0254172263429 -0.112562002376 0.981 1.72221893408e-38
0.0272327425102 -0.112562002376 0.981 1.82348895241e-38
0.0289594260822 -0.112217776069 0.978 1.96195812003e-38
0.0307693902124 -0.112217776069 0.978 1.92457638155e-38
0.0325793543425 -0.112217776069 0.978 1.78578071138e-38
0.0342838297657 -0.111873549762 0.975 1.6104660822e-38
0.0360882418586 -0.111873549762 0.975 1.68374838669e-38
0.0378149254306 -0.111644065557 0.973 1.7752977377e-38
0.0396156361654 -0.111644065557 0.973 1.74692606808e-38
0.0414163469002 -0.111644065557 0.973 1.92227671064e-38
0.0404188308816 -0.104415313111 0.91 1.96880458407e-38
0.042102948835 -0.104415313111 0.91 1.93213540585e-38
0.0437870667884 -0.104415313111 0.91 2.15332882702e-38
0.0454711847418 -0.104415313111 0.91 1.8497439607e-38
0.0473107597371 -0.104759539418 0.913 2.06124866415e-38
-0.0153735910318 -0.10419878366 0.923 2.35098856151e-38
-0.0136654142505 -0.10419878366 0.923 2.35098856151e-38
-0.0119572374691 -0.10419878366 0.923 2.84693821596e-39
-0.0102490606878 -0.10419878366 0.923 8.66208581957e-39
-0.00854088390653 -0.10419878366 0.923 7.64936321551e-39
-0.00681049897639 -0.10386010939 0.92 7.28094082976e-39
-0.00510787423229 -0.10386010939 0.92 6.0809669158e-39
-0.00339784677192 -0.103634326543 0.918 7.09474750021e-39
-0.00169892338596 -0.103634326543 0.918 4.97642142727e-39
0.0 -0.103295652274 0.915 4.79167143513e-39
0.00168966999061 -0.103069869427 0.913 4.51362018865e-39
0.00337933998122 -0.103069869427 0.913 1.93003499959e-39
0.0050523538602 -0.102731195157 0.91 9.66006956638e-39
0.0067364718136 -0.102731195157 0.91 1.36189941657e-38
0.00907758083674 -0.110746486208 0.981 1.61063676035e-38
0.0108930970041 -0.110746486208 0.981 1.8955092475e-38
0.0127086131714 -0.110746486208 0.981 1.49021029137e-38
0.0145241293388 -0.110746486208 0.981 1.36164564142e-38
0.0163396455061 -0.110746486208 0.981 9.7418185162e-39
0.0181551616735 -0.110746486208 0.981 6.79584913647e-39
0.0199706778408 -0.110746486208 0.981 1.92854541932e-39
0.0217861940082 -0.110746486208 0.981 0.0
0.0236017101755 -0.110746486208 0.981 1.96181785005e-44
0.0254172263429 -0.110746486208 0.981 2.80259692865e-45
0.0272327425102 -0.110746486208 0.981 3.36311631438e-44
0.0289594260822 -0.110407811938 0.978 1.19386145005e-39
0.0307693902124 -0.110407811938 0.978 6.06231002805e-39
0.0325793543425 -0.110407811938 0.978 1.03871458863e-38
0.0342838297657 -0.110069137669 0.975 1.23224805967e-38
0.0360882418586 -0.110069137669 0.975 1.29742861696e-38
0.0378149254306 -0.109843354822 0.973 1.53709661694e-38
0.0369691650957 -0.102505412311 0.908 1.49096362942e-38
0.038649581691 -0.102505412311 0.908 1.4356504554e-38
0.0404188308816 -0.102731195157 0.91 1.56464992826e-38
0.042102948835 -0.102731195157 0.91 1.43561135917e-38
0.0437870667884 -0.102731195157 0.91 1.46327761514e-38
0.0456210897465 -0.103069869427 0.913 1.46334824058e-38
0.0473107597371 -0.103069869427 0.913 1.34317792896e-38
0.0491077691137 -0.103295652274 0.915 1.15918645968e-38
-0.015406903255 -0.102712688367 0.925 2.35098856151e-38
-0.0136950251156 -0.102712688367 0.925 2.35098856151e-38
-0.0119831469761 -0.102712688367 0.925 6.99294036418e-39
-0.0102712688367 -0.102712688367 0.925 9.0193903033e-39
-0.00854088390653 -0.102490606878 0.923 7.46389996245e-39
-0.00683270712523 -0.102490606878 0.923 6.81676071345e-39
-0.00510787423229 -0.102157484646 0.92 6.35503427075e-39
-0.00339784677192 -0.101935403157 0.918 5.52847556897e-39
-0.00169892338596 -0.101935403157 0.918 5.52994553106e-39
0.0 -0.101602280925 0.915 5.89514773294e-39
0.00168966999061 -0.101380199437 0.913 5.71185088731e-39
0.00337933998122 -0.101380199437 0.913 5.71145992504e-39
0.0050523538602 -0.101047077204 0.91 4.69480667879e-39
0.0067364718136 -0.101047077204 0.91 1.19387826564e-39
0.008420589767 -0.101047077204 0.91 6.15695372633e-39
0.0100824995716 -0.100824995716 0.908 1.20494824324e-38
0.0117370066599 -0.100602914227 0.906 1.47252478371e-38
0.013413721897 -0.100602914227 0.906 1.69329375157e-38
0.0150904371341 -0.100602914227 0.906 1.83101742841e-38
0.0167671523712 -0.100602914227 0.906 1.73917730797e-38
0.0184438676083 -0.100602914227 0.906 1.52773860567e-38
0.0201205828455 -0.100602914227 0.906 1.03921527257e-38
0.0217972980826 -0.100602914227 0.906 1.06640873044e-38
0.0254172263429 -0.108930970041 0.981 7.54025391318e-39
0.0272327425102 -0.108930970041 0.981 4.87955106573e-39
0.0289594260822 -0.108597847808 0.978 4.51291673682e-39
0.0307693902124 -0.108597847808 0.978 4.69699690829e-39
0.0325793543425 -0.108597847808 0.978 4.69590389549e-39
0.0342838297657 -0.108264725576 0.975 4.6054654939e-39
0.0360142146958 -0.108042644087 0.973 4.88205798868e-39
0.0353664770214 -0.101047077204 0.91 4.1448376692e-39
0.0369691650957 -0.100824995716 0.908 4.51291673682e-39
0.038649581691 -0.100824995716 0.908 5.15074295623e-39
0.0404188308816 -0.101047077204 0.91 7.08650085874e-39
0.042102948835 -0.101047077204 0.91 6.90389205066e-39
0.0439314197559 -0.101380199437 0.913 5.43416958362e-39
0.0456210897465 -0.101380199437 0.913 5.8965546366e-39
0.047414397765 -0.101602280925 0.915 5.89407854221e-39
0.0491077691137 -0.101602280925 0.915 7.09547337281e-39
0.0509677015787 -0.101935403157 0.918 7.73978620281e-39
0.0526666249647 -0.101935403157 0.918 1.2981969489e-38
-0.0136950251156 -0.101000810227 0.925 2.35098856151e-38
-0.0119831469761 -0.101000810227 0.925 1.25310302419e-38
-0.0102712688367 -0.101000810227 0.925 1.24133982423e-38
-0.00854088390653 -0.100782430097 0.923 6.81570133181e-39
-0.00683270712523 -0.100782430097 0.923 7.8319622145e-39
-0.00510787423229 -0.100454859902 0.92 6.44902496395e-39
-0.00339784677192 -0.100236479772 0.918 5.16009942608e-39
-0.00169892338596 -0.100236479772 0.918 5.5267183407e-39
0.0 -0.0999089095762 0.915 4.7909707859e-39
0.00169337134875 -0.0999089095762 0.915 4.5140307691e-39
0.00337933998122 -0.099690529446 0.913 5.15793582125e-39
0.0050523538602 -0.0993629592506 0.91 4.60728017541e-39
0.0067364718136 -0.0993629592506 0.91 5.25013145111e-39
0.008420589767 -0.0993629592506 0.91 5.15828614586e-39
0.0100824995716 -0.0991445791204 0.908 3.96191076636e-39
0.0117370066599 -0.0989261989902 0.906 4.14308604612e-39
0.013413721897 -0.0989261989902 0.906 6.80270709115e-39
0.0150904371341 -0.0989261989902 0.906 1.17719272456e-38
0.0167671523712 -0.0989261989902 0.906 1.45415796474e-38
0.0184438676083 -0.0989261989902 0.906 1.58315939941e-38
0.0201205828455 -0.0989261989902 0.906 1.80371551004e-38
0.0217972980826 -0.0989261989902 0.906 1.78531421912e-38
0.0235258323337 -0.0991445791204 0.908 1.54592339597e-38
0.0272327425102 -0.107115453873 0.981 1.36182332607e-38
0.0290482586776 -0.107115453873 0.981 1.05740552794e-38
0.0307693902124 -0.106787883678 0.978 9.1018763361e-39
0.0325793543425 -0.106787883678 0.978 5.78930765993e-39
0.0319982411146 -0.0993629592506 0.91 4.87238202278e-39
0.0336083319052 -0.0991445791204 0.908 5.339472636e-39
0.0352887485005 -0.0991445791204 0.908 4.78915330179e-39
0.0370505949748 -0.0993629592506 0.91 4.69695767193e-39
0.0387347129282 -0.0993629592506 0.91 4.0480149518e-39
0.0404188308816 -0.0993629592506 0.91 4.78594853221e-39
0.042102948835 -0.0993629592506 0.91 5.61607914377e-39
0.0439314197559 -0.099690529446 0.913 4.51151263576e-39
0.0456210897465 -0.099690529446 0.913 8.92934426528e-39
0.047414397765 -0.0999089095762 0.915 9.93339983834e-39
0.0491077691137 -0.0999089095762 0.915 1.53718854212e-38
0.0509677015787 -0.100236479772 0.918 1.62094765458e-38
0.0526666249647 -0.100236479772 0.918 1.43655247122e-38
-0.0137394414132 -0.099610950246 0.928 2.35098856151e-38
-0.0120220112366 -0.099610950246 0.928 1.33636747829e-38
-0.0102712688367 -0.0992889320879 0.925 1.57366868518e-38
-0.00855939069723 -0.0992889320879 0.925 8.83462489688e-39
-0.00683270712523 -0.0990742533158 0.923 6.81672848359e-39
-0.00510787423229 -0.0987522351576 0.92 6.35684895226e-39
-0.00339784677192 -0.0985375563856 0.918 5.52710369778e-39
-0.00169892338596 -0.0985375563856 0.918 5.2508741393e-39
0.0 -0.0985375563856 0.918 5.25123006911e-39
0.00169337134875 -0.0982155382274 0.915 5.15867991073e-39
0.00337933998122 -0.0980008594554 0.913 5.066090516e-39
0.00506900997183 -0.0980008594554 0.913 4.97642142727e-39
0.0067364718136 -0.0976788412972 0.91 4.33105201822e-39
0.008420589767 -0.0976788412972 0.91 4.3328064439e-39
0.0100824995716 -0.0974641625252 0.908 4.33284147636e-39
0.0117629161668 -0.0974641625252 0.908 4.51543346886e-39
0.0134433327621 -0.0974641625252 0.908 4.79167704033e-39
0.0151237493574 -0.0974641625252 0.908 4.23668297444e-39
0.0168041659526 -0.0974641625252 0.908 2.11552207471e-39
0.0184845825479 -0.0974641625252 0.908 7.17405678939e-39
0.0201649991431 -0.0974641625252 0.908 1.0760633966e-38
0.0218454157384 -0.0974641625252 0.908 1.31612432068e-38
0.0235258323337 -0.0974641625252 0.908 1.65691394149e-38
0.0252062489289 -0.0974641625252 0.908 1.83180649957e-38
0.0268866655242 -0.0974641625252 0.908 1.74818051047e-38
0.0285670821194 -0.0974641625252 0.908 1.79441985655e-38
0.0302474987147 -0.0974641625252 0.908 1.48138673533e-38
0.0319982411146 -0.0976788412972 0.91 1.50926402685e-38
0.0336083319052 -0.0974641625252 0.908 1.44469177322e-38
0.0352887485005 -0.0974641625252 0.908 1.43536711285e-38
0.0370505949748 -0.0976788412972 0.91 1.33388325637e-38
0.0387347129282 -0.0976788412972 0.91 1.40764032078e-38
0.0405520797746 -0.0980008594554 0.913 1.4445921409e-38
0.0422417497652 -0.0980008594554 0.913 1.56455211763e-38
0.0439314197559 -0.0980008594554 0.913 1.6662153403e-38
0.0456210897465 -0.0980008594554 0.913 1.77684631263e-38
0.047414397765 -0.0982155382274 0.915 1.94261529668e-38
0.0491077691137 -0.0982155382274 0.915 1.77688316678e-38
0.0509677015787 -0.0985375563856 0.918 7.81897638163e-39
0.0526666249647 -0.0985375563856 0.918 1.36251879049e-38
0.0543655483507 -0.0985375563856 0.918 1.73104347103e-38
-0.0137394414132 -0.0978935200693 0.928 2.35098856151e-38
-0.0120220112366 -0.0978935200693 0.928 1.4842773338e-38
-0.0103045810599 -0.0978935200693 0.928 1.74862360104e-38
-0.00858715088327 -0.0978935200693 0.928 1.3345669499e-38
-0.00683270712523 -0.0973660765345 0.923 7.45448744067e-39
-0.00512453034392 -0.0973660765345 0.923 6.91182339997e-39
-0.00340524948819 -0.0970496104135 0.92 5.52745682499e-39
-0.00169892338596 -0.0968386329996 0.918 5.62000838466e-39
0.0 -0.0968386329996 0.918 5.16009942608e-39
0.00169337134875 -0.0965221668787 0.915 4.79167704033e-39
0.0033867426975 -0.0965221668787 0.915 4.88387267019e-39
0.00506900997183 -0.0963111894648 0.913 4.88457612202e-39
0.00675867996244 -0.0963111894648 0.913 5.62214116093e-39
0.008420589767 -0.0959947233438 0.91 4.97715710896e-39
0.0101047077204 -0.0959947233438 0.91 4.42685038644e-39
0.0117629161668 -0.0957837459299 0.908 4.60872491412e-39
0.0134433327621 -0.0957837459299 0.908 4.69877515604e-39
0.0151237493574 -0.0957837459299 0.908 4.97606830005e-39
0.0168041659526 -0.0957837459299 0.908 4.79241972851e-39
0.0184845825479 -0.0957837459299 0.908 4.33143177011e-39
0.0201649991431 -0.0957837459299 0.908 4.60692704819e-39
0.0218454157384 -0.0957837459299 0.908 3.31724480915e-39
0.0235258323337 -0.0957837459299 0.908 5.51736747605e-39
0.0252062489289 -0.0957837459299 0.908 1.11276424416e-38
0.0268866655242 -0.0957837459299 0.908 1.33446157225e-38
0.0285670821194 -0.0957837459299 0.908 1.63862349328e-38
0.0302474987147 -0.0957837459299 0.908 1.83144524483e-38
0.0319982411146 -0.0959947233438 0.91 1.84938396712e-38
0.033682359068 -0.0959947233438 0.91 1.93203255055e-38
0.0353664770214 -0.0959947233438 0.91 1.94107807226e-38
0.0370505949748 -0.0959947233438 0.91 1.97794959798e-38
0.038862409784 -0.0963111894648 0.913 1.85798429632e-38
0.04064091237 -0.0965221668787 0.915 1.95050600833e-38
0.0423342837187 -0.0965221668787 0.915 2.07017521563e-38
0.0440276550675 -0.0965221668787 0.915 2.0982753136e-38
0.0457210264162 -0.0965221668787 0.915 1.69343444193e-38
0.047414397765 -0.0965221668787 0.915 1.2881434732e-38
0.0492687781928 -0.0968386329996 0.918 5.88507099568e-39
0.0509677015787 -0.0968386329996 0.918 1.28883669555e-38
0.0526666249647 -0.0968386329996 0.918 1.92461505739e-38
0.0543655483507 -0.0968386329996 0.918 2.47955839627e-39
-0.013813468576 -0.0966942800322 0.933 2.35098856151e-38
-0.0120479207436 -0.0963833659485 0.93 2.27712457803e-38
-0.0103267892088 -0.0963833659485 0.93 9.47386082255e-39
-0.00858715088327 -0.0961760898927 0.928 1.80472808831e-38
-0.00684751255778 -0.095865175809 0.925 7.81756947797e-39
-0.00512453034392 -0.0956578997532 0.923 6.16921789049e-39
-0.00341635356261 -0.0956578997532 0.923 6.63451764427e-39
-0.0017026247441 -0.0953469856695 0.92 5.15903023535e-39
0.0 -0.0953469856695 0.92 4.88387267019e-39
0.00169892338596 -0.0951397096136 0.918 5.1608028779e-39
0.0033867426975 -0.0948287955299 0.915 4.60728017541e-39
0.00508011404625 -0.0948287955299 0.915 4.05590426216e-39
0.00675867996244 -0.0946215194741 0.913 4.79167143513e-39
0.00844834995305 -0.0946215194741 0.913 4.69947580527e-39
0.0101047077204 -0.0943106053904 0.91 5.25264958445e-39
0.0117629161668 -0.0941033293346 0.908 5.15939457295e-39
0.0134433327621 -0.0941033293346 0.908 5.25267480782e-39
0.0151237493574 -0.0941033293346 0.908 5.52924207923e-39
0.0168041659526 -0.0941033293346 0.908 5.25052101208e-39
0.0184845825479 -0.0941033293346 0.908 5.52777211715e-39
0.0201649991431 -0.0941033293346 0.908 5.16045255329e-39
0.0218454157384 -0.0941033293346 0.908 5.34342289637e-39
0.0235258323337 -0.0941033293346 0.908 5.2508741393e-39
0.025261769301 -0.0943106053904 0.91 4.14630763128e-39
0.0269458872544 -0.0943106053904 0.91 2.39599476494e-39
0.0286300052078 -0.0943106053904 0.91 4.60188797892e-39
0.0303141231612 -0.0943106053904 0.91 9.56535860578e-39
0.0321037298216 -0.0946215194741 0.913 1.34360532499e-38
0.0337933998122 -0.0946215194741 0.913 1.68400762691e-38
0.0354830698028 -0.0946215194741 0.913 1.86753190327e-38
0.0371727397934 -0.0946215194741 0.913 2.08879398806e-38
0.038862409784 -0.0946215194741 0.913 2.02421991275e-38
0.04064091237 -0.0948287955299 0.915 1.96902122481e-38
0.0423342837187 -0.0948287955299 0.915 1.59198842052e-38
0.0440276550675 -0.0948287955299 0.915 1.14027243366e-38
0.0457210264162 -0.0948287955299 0.915 7.2651117623e-39
0.0475698548068 -0.0951397096136 0.918 4.69695767193e-39
0.0492687781928 -0.0951397096136 0.918 1.59302916489e-38
0.0509677015787 -0.0951397096136 0.918 1.933477009e-38
0.0526666249647 -0.0951397096136 0.918 1.08560399706e-38
-0.013813468576 -0.0949675964602 0.933 2.35098856151e-38
-0.012086785004 -0.0949675964602 0.933 2.35098856151e-38
-0.0103267892088 -0.0946622344137 0.93 9.18413816115e-40
-0.00860565767397 -0.0946622344137 0.93 1.58389171799e-38
-0.00686972070662 -0.094458659716 0.928 1.53725258146e-38
-0.00513563441834 -0.0941532976695 0.925 5.87964376673e-39
-0.00341635356261 -0.0939497229719 0.923 6.08099073788e-39
-0.00170817678131 -0.0939497229719 0.923 5.43704644937e-39
0.0 -0.0939497229719 0.923 5.52745682499e-39
0.0017026247441 -0.0936443609254 0.92 5.25122446391e-39
0.00339784677192 -0.0934407862277 0.918 4.883867065e-39
0.00509677015787 -0.0934407862277 0.918 4.60833395185e-39
0.006773485395 -0.0931354241812 0.915 5.34342289637e-39
0.00846685674374 -0.0931354241812 0.915 4.883867065e-39
0.0101380199437 -0.0929318494835 0.913 4.97642142727e-39
0.0117888256738 -0.092626487437 0.91 4.69947580527e-39
0.0134729436272 -0.092626487437 0.91 5.06714289115e-39
0.0151570615806 -0.092626487437 0.91 4.9771248791e-39
0.016841179534 -0.092626487437 0.91 4.97642142727e-39
0.0185252974874 -0.092626487437 0.91 5.34232708097e-39
0.0202094154408 -0.092626487437 0.91 4.69912267806e-39
0.0218935333942 -0.092626487437 0.91 5.5281826976e-39
0.0235776513476 -0.092626487437 0.91 5.89624354834e-39
0.025261769301 -0.092626487437 0.91 4.883867065e-39
0.0269458872544 -0.092626487437 0.91 5.34519553893e-39
0.0287243898404 -0.0929318494835 0.913 5.43739116879e-39
0.030414059831 -0.0929318494835 0.913 5.34484521431e-39
0.0321037298216 -0.0929318494835 0.913 3.50324616081e-44
0.0337933998122 -0.0929318494835 0.913 1.40754012794e-38
0.0354830698028 -0.0929318494835 0.913 2.07965415896e-38
0.0372541696725 -0.0931354241812 0.915 2.02437083259e-38
0.0389475410212 -0.0931354241812 0.915 1.72960167504e-38
0.04064091237 -0.0931354241812 0.915 1.13098855108e-38
0.0423342837187 -0.0931354241812 0.915 6.98171456218e-39
0.0440276550675 -0.0931354241812 0.915 5.80227107202e-39
0.0458709314209 -0.0934407862277 0.918 8.83392144505e-39
0.0475698548068 -0.0934407862277 0.918 1.57445509387e-38
0.0492687781928 -0.0934407862277 0.918 2.00748014142e-38
0.0509677015787 -0.0934407862277 0.918 1.07662896066e-38
0.0526666249647 -0.0934407862277 0.918 8.01061515701e-39
-0.0138430794411 -0.0934407862277 0.935 2.35098856151e-38
-0.012112694511 -0.0934407862277 0.935 2.35098856151e-38
-0.010360101432 -0.0932409128882 0.933 1.92863930631e-39
-0.00860565767397 -0.0929411028789 0.93 9.84913275519e-39
-0.00686972070662 -0.0927412295394 0.928 1.57466991293e-38
-0.00513563441834 -0.0924414195301 0.925 6.52895362706e-39
-0.00342375627889 -0.0924414195301 0.925 6.08099073788e-39
-0.00170817678131 -0.0922415461905 0.923 5.25264958445e-39
0.0 -0.0922415461905 0.923 5.34519553893e-39
0.0017026247441 -0.0919417361813 0.92 4.883867065e-39
0.00340524948819 -0.0919417361813 0.92 5.16115600512e-39
0.00509677015787 -0.0917418628417 0.918 4.69982612989e-39
0.00679569354383 -0.0917418628417 0.918 4.05590986735e-39
0.00849461692979 -0.0917418628417 0.918 4.51688241147e-39
0.0101602280925 -0.0914420528324 0.915 4.79202175975e-39
0.0118535994412 -0.0914420528324 0.915 5.15867710813e-39
0.0135173599249 -0.0912421794929 0.913 5.16045255329e-39
0.0152070299155 -0.0912421794929 0.913 4.97821088541e-39
0.0168966999061 -0.0912421794929 0.913 4.79167704033e-39
0.0185863698967 -0.0912421794929 0.913 5.15793582125e-39
0.0202760398873 -0.0912421794929 0.913 4.60728017541e-39
0.0219657098779 -0.0912421794929 0.913 5.25264958445e-39
0.0236553798685 -0.0912421794929 0.913 4.69947580527e-39
0.0253450498591 -0.0912421794929 0.913 5.52848117417e-39
0.0270347198498 -0.0912421794929 0.913 5.71110960043e-39
0.0287243898404 -0.0912421794929 0.913 5.89801899349e-39
0.030414059831 -0.0912421794929 0.913 3.50093261705e-39
0.0321740556262 -0.0914420528324 0.915 7.9055065618e-39
0.033867426975 -0.0914420528324 0.915 1.90517218132e-38
0.0355607983237 -0.0914420528324 0.915 1.95049984262e-38
0.0372541696725 -0.0914420528324 0.915 1.54517412168e-38
0.0389475410212 -0.0914420528324 0.915 4.86730511845e-39
0.040774161263 -0.0917418628417 0.918 5.15617859297e-39
0.042473084649 -0.0917418628417 0.918 6.16736397262e-39
0.0441720080349 -0.0917418628417 0.918 1.2607075907e-38
0.0458709314209 -0.0917418628417 0.918 2.03413522042e-38
0.0475698548068 -0.0917418628417 0.918 1.96076323283e-38
0.0493761175788 -0.0919417361813 0.92 9.20005270781e-39
0.0510787423229 -0.0919417361813 0.92 4.88064688113e-39
0.052781367067 -0.0919417361813 0.92 1.54730507626e-38
-0.010360101432 -0.0915142293162 0.933 2.20656303464e-39
-0.00863341786002 -0.0915142293162 0.933 8.10282900375e-39
-0.00686972070662 -0.0910237993627 0.928 8.47587707573e-39
-0.00515229052996 -0.0910237993627 0.928 6.26320718239e-39
-0.00343486035331 -0.0910237993627 0.928 6.5408674666e-39
-0.00171187813945 -0.0907295413906 0.925 5.16009942608e-39
0.0 -0.0907295413906 0.925 5.34232708097e-39
0.00170817678131 -0.0905333694092 0.923 4.60837458951e-39
0.00341635356261 -0.0905333694092 0.923 4.42749638503e-39
0.00510787423229 -0.0902391114372 0.92 4.70232744765e-39
0.00681049897639 -0.0902391114372 0.92 4.7012736712e-39
0.00851312372049 -0.0902391114372 0.92 5.07040651527e-39
0.0101935403157 -0.0900429394558 0.918 4.97677175188e-39
0.0118924637017 -0.0900429394558 0.918 4.51652928426e-39
0.01354697079 -0.0897486814837 0.915 4.97677175188e-39
0.0152403421387 -0.0897486814837 0.915 4.88457612202e-39
0.0169337134875 -0.0897486814837 0.915 5.25122726651e-39
0.0186270848362 -0.0897486814837 0.915 5.16045255329e-39
0.020320456185 -0.0897486814837 0.915 4.97677175188e-39
0.0220138275337 -0.0897486814837 0.915 5.25229645724e-39
0.0237071988825 -0.0897486814837 0.915 5.16009942608e-39
0.0254005702312 -0.0897486814837 0.915 5.98699303819e-39
0.02709394158 -0.0897486814837 0.915 5.52923647404e-39
0.0287873129287 -0.0897486814837 0.915 3.40873698718e-39
0.0304806842775 -0.0897486814837 0.915 8.6491027893e-39
0.0321740556262 -0.0897486814837 0.915 1.91463781232e-38
0.033867426975 -0.0897486814837 0.915 1.87735710745e-38
0.0356773911051 -0.0900429394558 0.918 1.25994500407e-38
0.0373763144911 -0.0900429394558 0.918 6.06652373253e-39
0.039075237877 -0.0900429394558 0.918 4.6054654939e-39
0.040774161263 -0.0900429394558 0.918 1.19641825923e-38
0.0425656186024 -0.0902391114372 0.92 1.69376612928e-38
0.0442682433465 -0.0902391114372 0.92 2.20908355019e-38
0.0459708680906 -0.0902391114372 0.92 1.71119856244e-38
0.0476734928347 -0.0902391114372 0.92 8.55152196943e-39
0.0493761175788 -0.0902391114372 0.92 6.07452234416e-39
0.0510787423229 -0.0902391114372 0.92 1.59294102321e-38
0.052781367067 -0.0902391114372 0.92 2.02542124592e-38
-0.0103823095809 -0.0899800163674 0.935 6.63484134421e-39
-0.00863341786002 -0.0897875457442 0.933 8.93010236775e-39
-0.00688452613918 -0.0894988398093 0.93 7.83446353226e-39
-0.00515229052996 -0.089306369186 0.928 6.44761525769e-39
-0.00343486035331 -0.089306369186 0.928 6.4508074156e-39
-0.00171743017665 -0.089306369186 0.928 5.24943080188e-39
0.0 -0.089306369186 0.928 5.43487303545e-39
0.00171187813945 -0.0890176632512 0.925 4.88457612202e-39
0.00342375627889 -0.0890176632512 0.925 4.9771248791e-39
0.00512453034392 -0.0888251926279 0.923 5.16045255329e-39
0.00681049897639 -0.0885364866931 0.92 4.97642142727e-39
0.00851312372049 -0.0885364866931 0.92 4.60798362724e-39
0.0102157484646 -0.0885364866931 0.92 4.69947580527e-39
0.0118924637017 -0.0883440160698 0.918 5.34484521431e-39
0.0135913870877 -0.0883440160698 0.918 5.52745402239e-39
0.0152903104736 -0.0883440160698 0.918 5.34519553893e-39
0.0169337134875 -0.0880553101349 0.915 4.97642142727e-39
0.0186270848362 -0.0880553101349 0.915 4.79167704033e-39
0.020320456185 -0.0880553101349 0.915 5.3444920871e-39
0.0220138275337 -0.0880553101349 0.915 5.3444920871e-39
0.0237071988825 -0.0880553101349 0.915 5.43634299754e-39
0.0254005702312 -0.0880553101349 0.915 6.2650218639e-39
0.02709394158 -0.0880553101349 0.915 4.70162399582e-39
0.0287873129287 -0.0880553101349 0.915 5.98875026646e-39
0.0304806842775 -0.0880553101349 0.915 1.57459998813e-38
0.0322795443332 -0.0883440160698 0.918 1.59259784522e-38
0.0339784677192 -0.0883440160698 0.918 6.80120770179e-39
0.0356773911051 -0.0883440160698 0.918 3.30610168376e-39
0.0373763144911 -0.0883440160698 0.918 1.19581457985e-38
0.039075237877 -0.0883440160698 0.918 1.71213112657e-38
0.0408629938583 -0.0885364866931 0.92 2.01561944342e-38
0.0427044195327 -0.0888251926279 0.923 1.91424278628e-38
0.044412596314 -0.0888251926279 0.923 1.31515392149e-38
0.0461207730953 -0.0888251926279 0.923 7.99871392915e-39
0.0478289498766 -0.0888251926279 0.923 5.7115005627e-39
0.0495371266579 -0.0888251926279 0.923 1.48233387296e-38
0.0513563441834 -0.0890176632512 0.925 2.03414250717e-38
-0.0104156218041 -0.0885327853349 0.938 1.42899540873e-38
-0.00865192465071 -0.0882496314373 0.935 7.54106246239e-39
-0.00690673428801 -0.0880608621722 0.933 7.28058770254e-39
-0.00516339460438 -0.0877777082745 0.93 6.2646589276e-39
-0.00344226306959 -0.0877777082745 0.93 5.98763623418e-39
-0.00171743017665 -0.0875889390094 0.928 5.89620431198e-39
0.0 -0.0875889390094 0.928 4.97677175188e-39
0.00171743017665 -0.0875889390094 0.928 5.52742739772e-39
0.00342375627889 -0.0873057851117 0.925 5.43452271084e-39
0.00513563441834 -0.0873057851117 0.925 4.88316641577e-39
0.00683270712523 -0.0871170158466 0.923 5.15832678352e-39
0.00854088390653 -0.0871170158466 0.923 4.60616614313e-39
0.0102157484646 -0.086833861949 0.92 4.69947580527e-39
0.0119183732087 -0.086833861949 0.92 4.79167143513e-39
0.0135913870877 -0.0866450926839 0.918 4.60872491412e-39
0.0152903104736 -0.0866450926839 0.918 4.97677175188e-39
0.0169892338596 -0.0866450926839 0.918 5.1608028779e-39
0.0186270848362 -0.0863619387862 0.915 4.97606830005e-39
0.020320456185 -0.0863619387862 0.915 5.25264958445e-39
0.0220138275337 -0.0863619387862 0.915 4.97642142727e-39
0.0237071988825 -0.0863619387862 0.915 5.34484521431e-39
0.0254005702312 -0.0863619387862 0.915 5.98839994185e-39
0.02709394158 -0.0863619387862 0.915 4.97642142727e-39
0.0288816975613 -0.0866450926839 0.918 6.44832151212e-39
0.0305806209472 -0.0866450926839 0.918 6.16597668714e-39
0.0322795443332 -0.0866450926839 0.918 1.92854541932e-39
0.0339784677192 -0.0866450926839 0.918 1.12277133688e-38
0.035755119626 -0.086833861949 0.92 1.58327808939e-38
0.0374577443701 -0.086833861949 0.92 2.08958824403e-38
0.0391603691142 -0.086833861949 0.92 2.08887554363e-38
0.0408629938583 -0.086833861949 0.92 1.67460631551e-38
0.0427044195327 -0.0871170158466 0.923 7.90610351495e-39
0.044412596314 -0.0871170158466 0.923 6.43970913176e-39
0.046220709765 -0.0873057851117 0.925 4.23601455508e-39
0.0479325879045 -0.0873057851117 0.925 1.46367586417e-38
0.0496444660439 -0.0873057851117 0.925 2.1998038715e-38
0.0513563441834 -0.0873057851117 0.925 2.10774248603e-38
0.0530682223228 -0.0873057851117 0.925 5.41830127981e-39
-0.0104378299529 -0.0869819162745 0.94 2.14808600894e-38
-0.00867968483676 -0.0867968483676 0.938 1.83674635692e-39
-0.00692153972057 -0.0865192465071 0.935 7.92124594615e-39
-0.00519115479043 -0.0865192465071 0.935 6.63486516629e-39
-0.00345336714401 -0.0863341786002 0.933 6.5408674666e-39
-0.00172113153479 -0.0860565767397 0.93 5.62179083631e-39
0.0 -0.0858715088327 0.928 5.16115600512e-39
0.00171743017665 -0.0858715088327 0.928 4.79167143513e-39
0.00343486035331 -0.0858715088327 0.928 4.78950362641e-39
0.00513563441834 -0.0855939069723 0.925 4.88457612202e-39
0.00684751255778 -0.0855939069723 0.925 4.69912267806e-39
0.00854088390653 -0.0854088390653 0.923 4.60798362724e-39
0.0102490606878 -0.0854088390653 0.923 4.14701108311e-39
0.0119572374691 -0.0854088390653 0.923 4.24026048942e-39
0.0135913870877 -0.0849461692979 0.918 4.60763050002e-39
0.0152903104736 -0.0849461692979 0.918 4.60728017541e-39
0.0169892338596 -0.0849461692979 0.918 4.33175547005e-39
0.0186881572455 -0.0849461692979 0.918 4.97677175188e-39
0.0203870806315 -0.0849461692979 0.918 5.43522616267e-39
0.0220860040175 -0.0849461692979 0.918 5.43557648728e-39
0.0237849274034 -0.0849461692979 0.918 5.34232708097e-39
0.0254838507894 -0.0849461692979 0.918 5.71110960043e-39
0.0271827741753 -0.0849461692979 0.918 5.24943080188e-39
0.0288816975613 -0.0849461692979 0.918 1.93325378216e-39
0.0305806209472 -0.0849461692979 0.918 1.05801943679e-38
0.0322795443332 -0.0849461692979 0.918 1.46332007449e-38
0.0339784677192 -0.0849461692979 0.918 2.02498698353e-38
0.035755119626 -0.0851312372049 0.92 1.95097894656e-38
0.0374577443701 -0.0851312372049 0.92 1.61024411652e-38
0.0391603691142 -0.0851312372049 0.92 1.11246506694e-38
0.0409962427514 -0.0854088390653 0.923 6.33671369463e-39
0.0427044195327 -0.0854088390653 0.923 5.89801899349e-39
0.0445088316256 -0.0855939069723 0.925 5.70499573523e-39
0.046220709765 -0.0855939069723 0.925 1.62051591453e-38
0.0479325879045 -0.0855939069723 0.925 2.20904851773e-38
0.0496444660439 -0.0855939069723 0.925 2.1074611053e-38
0.0513563441834 -0.0855939069723 0.925 1.27846078107e-38
0.0530682223228 -0.0855939069723 0.925 8.91853885282e-39
-0.0141984098225 -0.0869652601629 0.959 2.35098856151e-38
-0.0123847443342 -0.0866932103397 0.956 2.35098856151e-38
-0.0104711421762 -0.0855143277723 0.943 2.35098856151e-38
-0.00869819162745 -0.085242277949 0.94 1.28578803061e-39
-0.00694374786941 -0.0850609114002 0.938 7.36805675269e-39
-0.00520781090205 -0.0850609114002 0.938 7.64901008829e-39
-0.00346076986028 -0.084788861577 0.935 6.17316394696e-39
-0.001726683572 -0.0846074950282 0.933 5.71216337687e-39
0.0 -0.0843354452049 0.93 3.87146816088e-39
0.00172113153479 -0.0843354452049 0.93 4.14700547792e-39
0.00343486035331 -0.0841540786561 0.928 4.79091613526e-39
0.00515229052996 -0.0841540786561 0.928 4.69947580527e-39
0.00684751255778 -0.0838820288328 0.925 3.96335550508e-39
0.00855939069723 -0.0838820288328 0.925 4.79237488696e-39
0.0102712688367 -0.0838820288328 0.925 4.79202175975e-39
0.0119831469761 -0.0838820288328 0.925 4.70092054399e-39
0.0136654142505 -0.083700662284 0.923 4.79202175975e-39
0.0153735910318 -0.083700662284 0.923 4.97677175188e-39
0.017026247441 -0.0834286124608 0.92 5.25264958445e-39
0.0187288721851 -0.0834286124608 0.92 4.70092054399e-39
0.0204314969292 -0.0834286124608 0.92 5.25264958445e-39
0.0221341216733 -0.0834286124608 0.92 4.79167143513e-39
0.0238367464174 -0.0834286124608 0.92 4.88134893166e-39
0.0255393711615 -0.0834286124608 0.92 1.28572497218e-39
0.0272419959056 -0.0834286124608 0.92 1.06695327502e-38
0.0288816975613 -0.0832472459119 0.918 1.39871110684e-38
0.0305806209472 -0.0832472459119 0.918 2.00647022562e-38
0.0323498701378 -0.0834286124608 0.92 1.96937687436e-38
0.0340524948819 -0.0834286124608 0.92 1.67478077717e-38
