# .PCD v0.7 - Point Cloud Data file format
VERSION 0.7
FIELDS x y z rgb
SIZE 4 4 4 4
TYPE F F F F
COUNT 1 1 1 1
WIDTH 855
HEIGHT 1
VIEWPOINT 0 0 0 1 0 0 0
POINTS 855
DATA ascii
-0.0230002394779 -0.134462938486 0.956 2.17407869416e-38
-0.0212976147338 -0.134884893314 0.959 1.82388369819e-38
-0.019522813506 -0.134884893314 0.959 1.87959764357e-38
-0.0177480122781 -0.134884893314 0.959 1.95317239905e-38
-0.0159732110503 -0.134884893314 0.959 1.90693039051e-38
-0.0141984098225 -0.134884893314 0.959 1.98990575673e-38
-0.0124236085947 -0.134884893314 0.959 1.90678549624e-38
-0.0106488073669 -0.134884893314 0.959 1.88845567155e-38
-0.00890176632512 -0.135306848142 0.962 1.93462215011e-38
-0.00713621849265 -0.13558815136 0.964 1.87934134608e-38
-0.00536881998112 -0.136010106188 0.967 1.79629521428e-38
-0.00357921332074 -0.136010106188 0.967 1.79622304741e-38
-0.00178960666037 -0.136010106188 0.967 1.83302871209e-38
0.0 -0.136010106188 0.967 1.75001579107e-38
0.00179515869758 -0.136432061016 0.97 1.75001607133e-38
0.00359031739516 -0.136432061016 0.97 1.76834729732e-38
0.00538547609274 -0.136432061016 0.97 1.80522582952e-38
0.00718063479032 -0.136432061016 0.97 1.70373973097e-38
0.0089757934879 -0.136432061016 0.97 1.76827499032e-38
0.0107709521855 -0.136432061016 0.97 1.73150435809e-38
0.0125661108831 -0.136432061016 0.97 1.67626082861e-38
0.0143612695806 -0.136432061016 0.97 1.5933555273e-38
0.0161564282782 -0.136432061016 0.97 1.72231828614e-38
0.0179515869758 -0.136432061016 0.97 1.67629586107e-38
0.0196856732641 -0.136010106188 0.967 1.64852857148e-38
0.0214752799245 -0.136010106188 0.967 1.63009168758e-38
0.0232648865848 -0.136010106188 0.967 1.71310432835e-38
0.0249767647243 -0.13558815136 0.964 1.56588419195e-38
0.0267608193474 -0.13558815136 0.964 1.5934292356e-38
0.0285448739706 -0.13558815136 0.964 1.49208312676e-38
0.0303289285938 -0.13558815136 0.964 1.55665888364e-38
0.0321129832169 -0.13558815136 0.964 1.47375694545e-38
0.0338970378401 -0.13558815136 0.964 1.55665692182e-38
0.0356070653005 -0.135306848142 0.962 1.51055532338e-38
0.0372708257841 -0.134884893314 0.959 1.46449604416e-38
0.0390456270119 -0.134884893314 0.959 1.46435563405e-38
0.0409481250955 -0.135306848142 0.962 1.47371812948e-38
0.0427284783606 -0.135306848142 0.962 1.3816318009e-38
0.0445088316256 -0.135306848142 0.962 1.39070674988e-38
-0.0247694886685 -0.132693689295 0.956 2.15604188098e-38
-0.0230002394779 -0.132693689295 0.956 1.79601047043e-38
-0.0212976147338 -0.133110092086 0.959 2.02675065778e-38
-0.019522813506 -0.133110092086 0.959 2.01774773553e-38
-0.0177480122781 -0.133110092086 0.959 1.91618680764e-38
-0.0159732110503 -0.133110092086 0.959 1.98986764142e-38
-0.0141984098225 -0.133110092086 0.959 1.87920093597e-38
-0.0124624728552 -0.133526494877 0.962 1.98057927467e-38
-0.0106821195901 -0.133526494877 0.962 1.87923442701e-38
-0.00890176632512 -0.133526494877 0.962 1.87005115765e-38
-0.00713621849265 -0.133804096737 0.964 1.83320891908e-38
-0.00536881998112 -0.134220499528 0.967 1.79629521428e-38
-0.00357921332074 -0.134220499528 0.967 1.86072341442e-38
-0.00178960666037 -0.134220499528 0.967 1.85161455402e-38
0.0 -0.134636902319 0.97 1.74083532431e-38
0.00179515869758 -0.134636902319 0.97 1.76859925078e-38
0.00359031739516 -0.134636902319 0.97 1.67622397446e-38
0.00538547609274 -0.134636902319 0.97 1.81444343069e-38
0.00718063479032 -0.134636902319 0.97 1.80536806132e-38
0.0089757934879 -0.134636902319 0.97 1.68551542405e-38
0.0107709521855 -0.134636902319 0.97 1.71317439327e-38
0.0125661108831 -0.134636902319 0.97 1.66732895219e-38
0.0143612695806 -0.134636902319 0.97 1.59350238338e-38
0.0161564282782 -0.134636902319 0.97 1.63012643978e-38
0.0179515869758 -0.134636902319 0.97 1.63034350092e-38
0.0196856732641 -0.134220499528 0.967 1.63037825312e-38
0.0214752799245 -0.134220499528 0.967 1.63034350092e-38
0.0232648865848 -0.134220499528 0.967 1.52889257496e-38
0.0250544932452 -0.134220499528 0.967 1.45523822572e-38
0.0267608193474 -0.133804096737 0.964 1.5843175726e-38
0.0285448739706 -0.133804096737 0.964 1.63966872181e-38
0.0303289285938 -0.133804096737 0.964 1.46449884675e-38
0.0321129832169 -0.133804096737 0.964 1.50134556948e-38
0.0338970378401 -0.133804096737 0.964 1.53832737739e-38
0.0356070653005 -0.133526494877 0.962 1.43673239794e-38
0.0373874185655 -0.133526494877 0.962 1.4643187799e-38
0.0391677718305 -0.133526494877 0.962 1.43676799092e-38
0.0406927313839 -0.132693689295 0.956 1.41836347702e-38
0.0420178175978 -0.131305679993 0.946 1.40918146884e-38
0.0437685599977 -0.131305679993 0.946 1.4183281643e-38
0.0455193023976 -0.131305679993 0.946 1.29854867482e-38
0.0472700447975 -0.131305679993 0.946 9.66575603555e-39
-0.026483217487 -0.130650539602 0.954 2.35087687803e-38
-0.0247176696545 -0.130650539602 0.954 1.93466446932e-38
-0.0229521218221 -0.130650539602 0.954 2.02671562531e-38
-0.0212309902873 -0.130924440105 0.956 1.9897985574e-38
-0.019522813506 -0.131335290858 0.959 1.90689535804e-38
-0.0177480122781 -0.131335290858 0.959 1.92522658403e-38
-0.0159732110503 -0.131335290858 0.959 1.97139460402e-38
-0.0142428261202 -0.131746141612 0.962 1.91618652738e-38
-0.0124624728552 -0.131746141612 0.962 1.98075906127e-38
-0.0106821195901 -0.131746141612 0.962 1.78700894949e-38
-0.00892027311581 -0.132020042114 0.964 1.87916436208e-38
-0.00715842664149 -0.132430892868 0.967 1.88827392314e-38
-0.00536881998112 -0.132430892868 0.967 1.78696620988e-38
-0.00359031739516 -0.132841743621 0.97 1.79607787289e-38
-0.00179515869758 -0.132841743621 0.97 1.87908967288e-38
0.0 -0.132841743621 0.97 1.84239106739e-38
0.00179515869758 -0.132841743621 0.97 1.73182861856e-38
0.00359031739516 -0.132841743621 0.97 1.81466245364e-38
0.00538547609274 -0.132841743621 0.97 1.63023910418e-38
0.00718063479032 -0.132841743621 0.97 1.76842142601e-38
0.0089757934879 -0.132841743621 0.97 1.61193926727e-38
0.0108042644087 -0.133252594374 0.973 1.63041314545e-38
0.0125661108831 -0.132841743621 0.97 1.54744128247e-38
0.0143612695806 -0.132841743621 0.97 1.61201773999e-38
0.0161564282782 -0.132841743621 0.97 1.66706859094e-38
0.0179515869758 -0.132841743621 0.97 1.53821723533e-38
0.0197467456734 -0.132841743621 0.97 1.63034350092e-38
0.0214752799245 -0.132430892868 0.967 1.54736547222e-38
0.0232648865848 -0.132430892868 0.967 1.63948851482e-38
0.0250544932452 -0.132430892868 0.967 1.45521019975e-38
0.0268440999056 -0.132430892868 0.967 1.5935390974e-38
0.028633706566 -0.132430892868 0.967 1.50126961911e-38
0.0303289285938 -0.132020042114 0.964 1.51056078844e-38
0.0321129832169 -0.132020042114 0.964 1.59364251323e-38
0.0338970378401 -0.132020042114 0.964 1.46450052831e-38
0.0356810924633 -0.132020042114 0.964 1.52889257496e-38
0.0373874185655 -0.131746141612 0.962 1.41822278666e-38
0.0391677718305 -0.131746141612 0.962 1.5474358174e-38
0.0406927313839 -0.130924440105 0.956 1.39059562691e-38
0.0420178175978 -0.129554937593 0.946 1.37223203093e-38
0.0437685599977 -0.129554937593 0.946 1.35368584575e-38
0.0455193023976 -0.129554937593 0.946 1.34446628277e-38
0.0472700447975 -0.129554937593 0.946 1.04015049916e-38
-0.0263999369289 -0.128479693054 0.951 2.35073100286e-38
-0.0246399411336 -0.128479693054 0.951 1.76885905152e-38
-0.0229521218221 -0.12888499177 0.954 1.98980037909e-38
-0.0212309902873 -0.129155190914 0.956 1.99912531972e-38
-0.0194617410967 -0.129155190914 0.956 1.92529692922e-38
-0.0177480122781 -0.12956048963 0.959 1.91607568467e-38
-0.0160231793852 -0.129965788347 0.962 1.94377108765e-38
-0.0142724369853 -0.130235987491 0.964 1.86072649728e-38
-0.0124883823621 -0.130235987491 0.964 1.97142935622e-38
-0.010704327739 -0.130235987491 0.964 1.83313829363e-38
-0.00892027311581 -0.130235987491 0.964 1.83295836691e-38
-0.00715842664149 -0.130641286207 0.967 1.71317467353e-38
-0.00538547609274 -0.131046584923 0.97 1.80551323584e-38
-0.00359031739516 -0.131046584923 0.97 1.83306374456e-38
-0.00179515869758 -0.131046584923 0.97 1.74079776951e-38
0.0 -0.131046584923 0.97 1.72242996963e-38
0.00180071073479 -0.13145188364 0.973 1.74090342741e-38
0.00360142146958 -0.13145188364 0.973 1.68558632976e-38
0.00540213220437 -0.13145188364 0.973 1.64888828479e-38
0.00720284293916 -0.13145188364 0.973 1.6855860495e-38
0.00900355367395 -0.13145188364 0.973 1.65771254148e-38
0.0108264725576 -0.131722082784 0.975 1.69480589274e-38
0.0126049751435 -0.13145188364 0.973 1.56580627975e-38
0.0144056858783 -0.13145188364 0.973 1.63009322901e-38
0.0162063966131 -0.13145188364 0.973 1.657713102e-38
0.0179515869758 -0.131046584923 0.97 1.63963495051e-38
0.0197467456734 -0.131046584923 0.97 1.54736701365e-38
0.0214752799245 -0.130641286207 0.967 1.55651595119e-38
0.0232648865848 -0.130641286207 0.967 1.55655126391e-38
0.0250544932452 -0.130641286207 0.967 1.54733198119e-38
0.0268440999056 -0.130641286207 0.967 1.56587844662e-38
0.028633706566 -0.130641286207 0.967 1.4827594473e-38
0.0304233132263 -0.130641286207 0.967 1.48279476002e-38
0.0322129198867 -0.130641286207 0.967 1.42765338519e-38
0.0338970378401 -0.130235987491 0.964 1.48268503835e-38
0.0356810924633 -0.130235987491 0.964 1.45506418445e-38
0.0374651470864 -0.130235987491 0.964 1.39056227601e-38
0.0390456270119 -0.12956048963 0.959 1.44573321824e-38
0.0406076001467 -0.12888499177 0.954 1.43655121005e-38
0.0421066501932 -0.128074394338 0.948 1.39063262119e-38
0.0436297590675 -0.127398896477 0.943 1.31694996573e-38
0.0452305964628 -0.126993597761 0.94 1.31695206768e-38
0.0468702981185 -0.126723398617 0.938 1.06798673264e-38
0.0486062350858 -0.126723398617 0.938 1.9894060537e-38
0.0503421720532 -0.126723398617 0.938 2.35098856151e-38
-0.0281599327241 -0.126719697259 0.951 1.83469303428e-38
-0.0263999369289 -0.126719697259 0.951 2.35087449582e-38
-0.0246399411336 -0.126719697259 0.951 1.97139670597e-38
-0.0229521218221 -0.127119443938 0.954 1.93459132154e-38
-0.0212309902873 -0.127385941724 0.956 1.999090007e-38
-0.0194617410967 -0.127385941724 0.956 1.87919939455e-38
-0.0177480122781 -0.127785688403 0.959 1.93447571442e-38
-0.0160231793852 -0.128185435082 0.962 2.05444521997e-38
-0.0142724369853 -0.128451932868 0.964 1.83313829363e-38
-0.0124883823621 -0.128451932868 0.964 1.84246407504e-38
-0.010704327739 -0.128451932868 0.964 1.84235575467e-38
-0.00892027311581 -0.128451932868 0.964 1.83313563117e-38
-0.00715842664149 -0.128851679547 0.967 1.86097102386e-38
-0.00538547609274 -0.129251426226 0.97 1.70427334543e-38
-0.00359031739516 -0.129251426226 0.97 1.65782268354e-38
-0.00179515869758 -0.129251426226 0.97 1.68544535913e-38
0.0 -0.129651172905 0.973 1.64860270017e-38
0.00180071073479 -0.129651172905 0.973 1.63041356584e-38
0.00360142146958 -0.129651172905 0.973 1.69498539907e-38
0.00540213220437 -0.129651172905 0.973 1.63966605934e-38
0.00721764837172 -0.129917670691 0.975 1.5935348935e-38
0.00902206046465 -0.129917670691 0.975 1.68551416288e-38
0.0108264725576 -0.129917670691 0.975 1.62097694172e-38
0.0126308846505 -0.129917670691 0.975 1.59331783237e-38
0.0144056858783 -0.129651172905 0.973 1.60236041136e-38
0.0162063966131 -0.129651172905 0.973 1.61165200109e-38
0.0179515869758 -0.129251426226 0.97 1.44588343743e-38
0.0197467456734 -0.129251426226 0.97 1.55665860338e-38
0.021541904371 -0.129251426226 0.97 1.51973957365e-38
0.0233370630686 -0.129251426226 0.97 1.53789535707e-38
0.0250544932452 -0.128851679547 0.967 1.54708156915e-38
0.0268440999056 -0.128851679547 0.967 1.43659198784e-38
0.028633706566 -0.128851679547 0.967 1.45495824629e-38
0.0304233132263 -0.128851679547 0.967 1.43669736548e-38
0.0322129198867 -0.128851679547 0.967 1.45516788054e-38
0.0338970378401 -0.128451932868 0.964 1.3998165912e-38
0.0356810924633 -0.128451932868 0.964 1.48279069626e-38
0.0374651470864 -0.128451932868 0.964 1.39985344535e-38
0.0390456270119 -0.127785688403 0.959 1.41829159041e-38
0.0406076001467 -0.127119443938 0.954 1.38152376079e-38
0.0421066501932 -0.126319950579 0.948 1.33538937196e-38
0.0436297590675 -0.125653706114 0.943 1.28940043792e-38
0.0452305964628 -0.125253959435 0.94 1.39074332377e-38
0.0468702981185 -0.124987461649 0.938 7.45338321748e-39
0.048450778044 -0.12458771497 0.935 2.32171459582e-38
0.0501811629741 -0.12458771497 0.935 2.35098856151e-38
0.0519115479043 -0.12458771497 0.935 2.35098856151e-38
-0.0281599327241 -0.124959701463 0.951 1.78859521935e-38
-0.0263999369289 -0.124959701463 0.951 2.35090280205e-38
-0.0246399411336 -0.124959701463 0.951 1.89807516512e-38
-0.0229521218221 -0.125353896105 0.954 1.99001113438e-38
-0.0212309902873 -0.125616692533 0.956 2.13737966829e-38
-0.0194617410967 -0.125616692533 0.956 2.00841396672e-38
-0.0177480122781 -0.126010887175 0.959 1.89774614024e-38
-0.0160564916085 -0.126667878245 0.964 1.84239372986e-38
-0.0142724369853 -0.126667878245 0.964 1.91596778469e-38
-0.0124883823621 -0.126667878245 0.964 1.76852680365e-38
-0.010704327739 -0.126667878245 0.964 1.8054426104e-38
-0.00894803330186 -0.127062072886 0.967 1.65778737082e-38
-0.00718063479032 -0.127456267528 0.97 1.67647620818e-38
-0.00538547609274 -0.127456267528 0.97 1.70417034999e-38
-0.00359031739516 -0.127456267528 0.97 1.63009294875e-38
-0.00179515869758 -0.127456267528 0.97 1.80529771613e-38
0.0 -0.12785046217 0.973 1.62101407613e-38
0.00180071073479 -0.12785046217 0.973 1.73161155743e-38
0.00360142146958 -0.12785046217 0.973 1.55665538039e-38
0.00540213220437 -0.12785046217 0.973 1.51973985391e-38
0.00721764837172 -0.128113258598 0.975 1.51967091002e-38
0.00902206046465 -0.128113258598 0.975 1.5473982626e-38
0.0108264725576 -0.128113258598 0.975 1.4737881944e-38
0.0126308846505 -0.128113258598 0.975 1.51037749861e-38
0.0144352967434 -0.128113258598 0.975 1.52878383419e-38
0.0162063966131 -0.12785046217 0.973 1.51055686481e-38
0.0180071073479 -0.12785046217 0.973 1.57491247769e-38
0.0198078180827 -0.12785046217 0.973 1.53832569583e-38
0.021541904371 -0.127456267528 0.97 1.47368449832e-38
0.0233370630686 -0.127456267528 0.97 1.49190712368e-38
0.0251322217661 -0.127456267528 0.97 1.51045358911e-38
0.0268440999056 -0.127062072886 0.967 1.45528054494e-38
0.028633706566 -0.127062072886 0.967 1.47368309702e-38
0.0304233132263 -0.127062072886 0.967 1.40910832106e-38
0.0322129198867 -0.127062072886 0.967 1.46452505104e-38
0.0338970378401 -0.126667878245 0.964 1.3446767578e-38
0.0356810924633 -0.126667878245 0.964 1.36294086159e-38
0.0373874185655 -0.126405081817 0.962 1.36283674511e-38
0.0390456270119 -0.126010887175 0.959 1.33528119172e-38
0.0406076001467 -0.125353896105 0.954 1.36314769324e-38
0.0421066501932 -0.124565506821 0.948 1.3815928448e-38
0.0436297590675 -0.123908515752 0.943 1.22493258103e-38
0.0452305964628 -0.12351432111 0.94 1.13251820848e-38
0.0468702981185 -0.123251524682 0.938 1.71281762268e-38
0.048450778044 -0.12285733004 0.935 2.3501142914e-38
0.0501811629741 -0.12285733004 0.935 2.35098856151e-38
0.0519115479043 -0.12285733004 0.935 2.35098856151e-38
-0.0263166563707 -0.122811063063 0.948 1.99061719596e-38
-0.0245622126127 -0.122811063063 0.948 2.26739858578e-38
-0.0228799453383 -0.123199705668 0.951 1.96213608494e-38
-0.0212309902873 -0.123847443342 0.956 1.89771082752e-38
-0.019522813506 -0.124236085947 0.959 1.98064737778e-38
-0.0178035326502 -0.124624728552 0.962 1.87937693906e-38
-0.0160564916085 -0.124883823621 0.964 1.77778364118e-38
-0.0142724369853 -0.124883823621 0.964 1.93430139289e-38
-0.0125272466226 -0.125272466226 0.967 1.79615088054e-38
-0.0107376399622 -0.125272466226 0.967 1.70413685896e-38
-0.00894803330186 -0.125272466226 0.967 1.75016026494e-38
-0.00718063479032 -0.125661108831 0.97 1.69495008635e-38
-0.00538547609274 -0.125661108831 0.97 1.68576611635e-38
-0.00359031739516 -0.125661108831 0.97 1.64863745237e-38
-0.00180071073479 -0.126049751435 0.973 1.63927369577e-38
0.0 -0.126049751435 0.973 1.62094218952e-38
0.00180441209293 -0.126308846505 0.975 1.5655191537e-38
0.00360882418586 -0.126308846505 0.975 1.5934292356e-38
0.00541323627879 -0.126308846505 0.975 1.53832317349e-38
0.00721764837172 -0.126308846505 0.975 1.49212138221e-38
0.00902206046465 -0.126308846505 0.975 1.50126961911e-38
0.0108264725576 -0.126308846505 0.975 1.50134122546e-38
0.0126308846505 -0.126308846505 0.975 1.59357020623e-38
0.0144352967434 -0.126308846505 0.975 1.35379570755e-38
0.0162063966131 -0.126049751435 0.973 1.49197802938e-38
0.0180071073479 -0.126049751435 0.973 1.44591398574e-38
0.0198078180827 -0.126049751435 0.973 1.48264846446e-38
0.021541904371 -0.125661108831 0.97 1.50122982223e-38
0.0233370630686 -0.125661108831 0.97 1.5475071435e-38
0.0251322217661 -0.125661108831 0.97 1.3721957373e-38
0.0269273804637 -0.125661108831 0.97 1.50130437131e-38
0.0287225391613 -0.125661108831 0.97 1.33542496495e-38
0.0304233132263 -0.125272466226 0.967 1.36304581885e-38
0.0322129198867 -0.125272466226 0.967 1.39981533003e-38
0.0340025265471 -0.125272466226 0.967 1.33538712989e-38
0.0356810924633 -0.124883823621 0.964 1.42736822096e-38
0.0373874185655 -0.124624728552 0.962 1.27999968705e-38
0.0390456270119 -0.124236085947 0.959 1.32609974405e-38
0.0406076001467 -0.123588348273 0.954 1.35379150366e-38
0.0422398990862 -0.123199705668 0.951 1.3262051217e-38
0.0437685599977 -0.122551967994 0.946 1.11422958196e-38
0.0453749494302 -0.122163325389 0.943 1.14159413837e-38
0.0468702981185 -0.121515587715 0.938 2.35069526975e-38
0.048450778044 -0.12112694511 0.935 7.36451707277e-39
0.0501811629741 -0.12112694511 0.935 2.35098856151e-38
0.0519115479043 -0.12112694511 0.935 2.35098856151e-38
-0.0261778554405 -0.120418135026 0.943 4.62428493227e-44
-0.0244326650778 -0.120418135026 0.943 2.35098702009e-38
-0.0228799453383 -0.121439709873 0.951 2.10086323161e-38
-0.0212309902873 -0.122078194152 0.956 1.86976473225e-38
-0.019522813506 -0.122461284719 0.959 1.88841643519e-38
-0.0178035326502 -0.122844375287 0.962 1.96220825181e-38
-0.0160564916085 -0.123099768998 0.964 1.98993756621e-38
-0.0142724369853 -0.123099768998 0.964 1.79626228377e-38
-0.0125272466226 -0.123482859566 0.967 1.70413475701e-38
-0.0107376399622 -0.123482859566 0.967 1.73190092556e-38
-0.0089757934879 -0.123865950133 0.97 1.67658130556e-38
-0.00718063479032 -0.123865950133 0.97 1.64899548413e-38
-0.00538547609274 -0.123865950133 0.97 1.60257691197e-38
-0.00359031739516 -0.123865950133 0.97 1.63941971107e-38
-0.00180071073479 -0.124249040701 0.973 1.61186682014e-38
0.0 -0.124249040701 0.973 1.51949350564e-38
0.00180441209293 -0.124504434412 0.975 1.47353988432e-38
0.00360882418586 -0.124504434412 0.975 1.4827594473e-38
0.00541323627879 -0.124504434412 0.975 1.46435563405e-38
0.00721764837172 -0.124504434412 0.975 1.51041589418e-38
0.00902206046465 -0.124504434412 0.975 1.46446353403e-38
0.0108264725576 -0.124504434412 0.975 1.46446521559e-38
0.0126308846505 -0.124504434412 0.975 1.49201306184e-38
0.0144352967434 -0.124504434412 0.975 1.48286538547e-38
0.0162397088364 -0.124504434412 0.975 1.33524461783e-38
0.0180071073479 -0.124249040701 0.973 1.5195285381e-38
0.0198078180827 -0.124249040701 0.973 1.42740143173e-38
0.021541904371 -0.123865950133 0.97 1.46434988873e-38
0.0233370630686 -0.123865950133 0.97 1.44598306976e-38
0.0251322217661 -0.123865950133 0.97 1.40907174717e-38
0.0269273804637 -0.123865950133 0.97 1.34442970888e-38
0.0287225391613 -0.123865950133 0.97 1.36283128005e-38
0.0304233132263 -0.123482859566 0.967 1.3537912234e-38
0.0322129198867 -0.123482859566 0.967 1.37223259145e-38
0.0340025265471 -0.123482859566 0.967 1.38145061301e-38
0.0356810924633 -0.123099768998 0.964 1.34432405097e-38
0.0373874185655 -0.122844375287 0.962 1.27081767886e-38
0.0390456270119 -0.122461284719 0.959 1.28929534054e-38
0.0406927313839 -0.122078194152 0.956 1.28907701824e-38
0.0423731479792 -0.12182280044 0.954 1.05855459268e-38
0.0438610939512 -0.121056619305 0.948 1.2424702517e-38
0.0455193023976 -0.120801225594 0.946 2.35082937401e-38
0.0469702347883 -0.120035044459 0.94 1.88918056325e-38
0.0487098731137 -0.120035044459 0.94 1.75348400477e-39
0.0504495114392 -0.120035044459 0.94 2.35098856151e-38
-0.0261778554405 -0.118672944664 0.943 2.75514756135e-39
-0.0244326650778 -0.118672944664 0.943 5.60196526564e-39
-0.0228799453383 -0.119679714077 0.951 2.35098393723e-38
-0.0212309902873 -0.120308944961 0.956 2.14656700141e-38
-0.019522813506 -0.120686483491 0.959 1.89698887855e-38
-0.0178035326502 -0.121064022022 0.962 1.8607965622e-38
-0.0160564916085 -0.121315714375 0.964 1.7961511608e-38
-0.0142724369853 -0.121315714375 0.964 1.7226481518e-38
-0.0125272466226 -0.121693252905 0.967 1.72268108231e-38
-0.0107376399622 -0.121693252905 0.967 1.71331564416e-38
-0.0089757934879 -0.122070791436 0.97 1.67654599284e-38
-0.00718063479032 -0.122070791436 0.97 1.49219004584e-38
-0.00538547609274 -0.122070791436 0.97 1.60254187951e-38
-0.00360142146958 -0.122448329966 0.973 1.575026123e-38
-0.00180071073479 -0.122448329966 0.973 1.52896235962e-38
0.0 -0.122700022319 0.975 1.50123458665e-38
0.00180441209293 -0.122700022319 0.975 1.44595252145e-38
0.00360882418586 -0.122700022319 0.975 1.52882012782e-38
0.00541323627879 -0.122700022319 0.975 1.47364400079e-38
0.00721764837172 -0.122700022319 0.975 1.51951900927e-38
0.00904982065069 -0.123077560849 0.978 1.36279596733e-38
0.0108597847808 -0.123077560849 0.978 1.47353960406e-38
0.0126308846505 -0.122700022319 0.975 1.51045386937e-38
0.0144352967434 -0.122700022319 0.975 1.41832788404e-38
0.0162397088364 -0.122700022319 0.975 1.39070282625e-38
0.0180071073479 -0.122448329966 0.973 1.45531431623e-38
0.0198078180827 -0.122448329966 0.973 1.39059758873e-38
0.0216085288175 -0.122448329966 0.973 1.35360961512e-38
0.0233370630686 -0.122070791436 0.97 1.48282979249e-38
0.0251322217661 -0.122070791436 0.97 1.28933065326e-38
0.0269273804637 -0.122070791436 0.97 1.31673794927e-38
0.0287225391613 -0.122070791436 0.97 1.35372087821e-38
0.0304233132263 -0.121693252905 0.967 1.30769116639e-38
0.0322129198867 -0.121693252905 0.967 1.37215145627e-38
0.0340025265471 -0.121693252905 0.967 1.27999786536e-38
0.0356810924633 -0.121315714375 0.964 1.27989220745e-38
0.0373874185655 -0.121064022022 0.962 1.27070669602e-38
0.0390456270119 -0.120686483491 0.959 1.22478418353e-38
0.0406927313839 -0.120308944961 0.956 1.01284563807e-38
0.0423731479792 -0.120057252608 0.954 1.45373028845e-38
0.0439998948814 -0.119679714077 0.951 2.35094119763e-38
0.0456155377093 -0.119302175547 0.948 2.10094086354e-38
0.0473699814673 -0.119302175547 0.948 0.0
0.0491244252253 -0.119302175547 0.948 1.30878992451e-38
-0.0246399411336 -0.117919718282 0.951 5.69387923451e-39
-0.0228799453383 -0.117919718282 0.951 1.285705354e-39
-0.0212309902873 -0.118539695771 0.956 2.35044051369e-38
-0.019522813506 -0.118911682264 0.959 2.20160271834e-38
-0.0178035326502 -0.119283668757 0.962 1.88798287345e-38
-0.0160564916085 -0.119531659752 0.964 1.83302324703e-38
-0.014316853283 -0.119903646245 0.967 1.722827518e-38
-0.0125272466226 -0.119903646245 0.967 1.59350210312e-38
-0.0107709521855 -0.120275632738 0.97 1.69477086028e-38
-0.0089757934879 -0.120275632738 0.97 1.61197373922e-38
-0.00720284293916 -0.120647619231 0.973 1.59353461324e-38
-0.00540213220437 -0.120647619231 0.973 1.49197494652e-38
-0.00360142146958 -0.120647619231 0.973 1.53811059651e-38
-0.00180441209293 -0.120895610226 0.975 1.46435563405e-38
0.0 -0.120895610226 0.975 1.4919424364e-38
0.00180441209293 -0.120895610226 0.975 1.51052183235e-38
0.00360882418586 -0.120895610226 0.975 1.37208615576e-38
0.00541323627879 -0.120895610226 0.975 1.45484740358e-38
0.00721764837172 -0.120895610226 0.975 1.48278929496e-38
0.00904982065069 -0.121267596719 0.978 1.39059758873e-38
0.0108597847808 -0.121267596719 0.978 1.35372115847e-38
0.012669748911 -0.121267596719 0.978 1.28918421757e-38
0.0144352967434 -0.120895610226 0.975 1.35364871134e-38
0.0162397088364 -0.120895610226 0.975 1.42750891132e-38
0.0180441209293 -0.120895610226 0.975 1.39063037912e-38
0.0198485330222 -0.120895610226 0.975 1.29843853276e-38
0.0216085288175 -0.120647619231 0.973 1.31680507147e-38
0.0234092395523 -0.120647619231 0.973 1.33535181717e-38
0.0251322217661 -0.120275632738 0.97 1.3169136721e-38
0.0269273804637 -0.120275632738 0.97 1.35375619094e-38
0.0287225391613 -0.120275632738 0.97 1.27095836922e-38
0.0305176978589 -0.120275632738 0.97 1.41832844456e-38
0.0322129198867 -0.119903646245 0.967 1.22471706133e-38
0.0340025265471 -0.119903646245 0.967 1.28914862459e-38
0.0356810924633 -0.119531659752 0.964 1.26130818722e-38
0.0373874185655 -0.119283668757 0.962 1.08616998151e-38
0.0390456270119 -0.118911682264 0.959 1.17807820506e-38
0.0408204282397 -0.118911682264 0.959 1.95327567475e-38
0.0424619805745 -0.118539695771 0.956 2.35077150038e-38
0.0441386958117 -0.118291704775 0.954 1.44624090867e-38
0.0459042436441 -0.118291704775 0.954 1.01019045774e-39
0.0476697914766 -0.118291704775 0.954 3.95908154476e-39
-0.0230002394779 -0.11677044658 0.956 5.05243906636e-39
-0.0212309902873 -0.11677044658 0.956 1.37753804756e-39
-0.019522813506 -0.117136881036 0.959 2.00756001544e-38
-0.0178405462316 -0.117747605129 0.964 2.34011014141e-38
-0.0161064599433 -0.118114039585 0.967 1.85194245786e-38
-0.014316853283 -0.118114039585 0.967 1.63052482894e-38
-0.0125661108831 -0.11848047404 0.97 1.70392007808e-38
-0.0107709521855 -0.11848047404 0.97 1.55655154417e-38
-0.00900355367395 -0.118846908496 0.973 1.53793459343e-38
-0.00721764837172 -0.119091198133 0.975 1.61190241313e-38
-0.00541323627879 -0.119091198133 0.975 1.50126513495e-38
-0.00360882418586 -0.119091198133 0.975 1.51048918209e-38
-0.00180996413014 -0.119457632589 0.978 1.46414277681e-38
0.0 -0.119457632589 0.978 1.45488635968e-38
0.00180996413014 -0.119457632589 0.978 1.39971177407e-38
0.00361992826028 -0.119457632589 0.978 1.4365171585e-38
0.00542989239041 -0.119457632589 0.978 1.32598834083e-38
0.00723985652055 -0.119457632589 0.978 1.39056199575e-38
0.00904982065069 -0.119457632589 0.978 1.33542496495e-38
0.0108597847808 -0.119457632589 0.978 1.3079104696e-38
0.012669748911 -0.119457632589 0.978 1.37226734365e-38
0.0144797130411 -0.119457632589 0.978 1.12315963669e-38
0.0162896771712 -0.119457632589 0.978 1.31669983396e-38
0.0180441209293 -0.119091198133 0.975 1.30755047602e-38
0.0198485330222 -0.119091198133 0.975 1.36304609911e-38
0.0216529451152 -0.119091198133 0.975 1.31698373702e-38
0.0234092395523 -0.118846908496 0.973 1.40903643444e-38
0.0252099502871 -0.118846908496 0.973 1.30762054095e-38
0.0270106610218 -0.118846908496 0.973 1.18758923813e-38
0.0287225391613 -0.11848047404 0.97 1.24297247707e-38
0.0305176978589 -0.11848047404 0.97 1.1968791463e-38
0.0322129198867 -0.118114039585 0.967 1.1692165337e-38
0.0340025265471 -0.118114039585 0.967 1.04925669711e-38
0.0356810924633 -0.117747605129 0.964 1.36171388466e-38
0.0373874185655 -0.117503315492 0.962 1.89778089244e-38
0.0390456270119 -0.117136881036 0.959 2.33135749107e-38
0.0408204282397 -0.117136881036 0.959 2.20253794493e-38
0.0424619805745 -0.11677044658 0.956 2.85048770497e-39
0.0442312297651 -0.11677044658 0.956 3.21759146886e-39
0.0460004789557 -0.11677044658 0.956 5.06506196293e-39
0.0477697281463 -0.11677044658 0.956 1.80470006234e-38
-0.021408655478 -0.115963550506 0.964 3.76707562918e-39
-0.0196246008548 -0.115963550506 0.964 8.26565708271e-40
-0.0178405462316 -0.115963550506 0.964 8.00740758483e-39
-0.0161064599433 -0.116324432924 0.967 1.88842035883e-38
-0.0143612695806 -0.116685315343 0.97 2.35003721999e-38
-0.0125661108831 -0.116685315343 0.97 2.17437114515e-38
-0.0107709521855 -0.116685315343 0.97 1.86056997224e-38
-0.00900355367395 -0.117046197761 0.973 1.52842930568e-38
-0.00721764837172 -0.11728678604 0.975 1.36254233231e-38
-0.00542989239041 -0.117647668459 0.978 1.5104849782e-38
-0.00361992826028 -0.117647668459 0.978 1.32616532482e-38
-0.00180996413014 -0.117647668459 0.978 1.45491718824e-38
0.0 -0.117647668459 0.978 1.40900322367e-38
0.00180996413014 -0.117647668459 0.978 1.33542608598e-38
0.00361992826028 -0.117647668459 0.978 1.39978155874e-38
0.00542989239041 -0.117647668459 0.978 1.35371709471e-38
0.00723985652055 -0.117647668459 0.978 1.38141530028e-38
0.00904982065069 -0.117647668459 0.978 1.25244861781e-38
0.0108597847808 -0.117647668459 0.978 1.32616980898e-38
0.012669748911 -0.117647668459 0.978 1.27992780043e-38
0.0144797130411 -0.117647668459 0.978 1.36290526861e-38
0.0162896771712 -0.117647668459 0.978 1.28925848639e-38
0.0180996413014 -0.117647668459 0.978 1.31687415548e-38
0.0199096054315 -0.117647668459 0.978 1.24304884784e-38
0.0217195695617 -0.117647668459 0.978 1.25219680447e-38
0.0234573572081 -0.11728678604 0.975 1.18762455085e-38
0.025261769301 -0.11728678604 0.975 1.17843595656e-38
0.0270661813939 -0.11728678604 0.975 1.15988949112e-38
0.0288113717566 -0.117046197761 0.973 1.03063820493e-38
0.0306120824914 -0.117046197761 0.973 1.17800659871e-38
0.0323128565565 -0.116685315343 0.97 1.59256827782e-38
0.0340025265471 -0.116324432924 0.967 2.34932101634e-38
0.0356810924633 -0.115963550506 0.964 2.24830967771e-38
0.0373874185655 -0.115722962227 0.962 2.04620054033e-38
0.0390456270119 -0.115362079808 0.959 8.2903059227e-39
0.0408204282397 -0.115362079808 0.959 8.26565708271e-40
0.0425952294675 -0.115362079808 0.959 4.60663137422e-39
0.0443700306954 -0.115362079808 0.959 9.29814640291e-39
0.0461448319232 -0.115362079808 0.959 1.80432605578e-38
-0.0276213851148 -0.117851243157 0.995 2.35098856151e-38
-0.021408655478 -0.114179495882 0.964 1.30730679022e-38
-0.0196246008548 -0.114179495882 0.964 6.80913064331e-39
-0.0178405462316 -0.114179495882 0.964 0.0
-0.0161064599433 -0.114534826264 0.967 5.8825906974e-39
-0.0143612695806 -0.114890156645 0.97 1.12125723389e-38
-0.0125661108831 -0.114890156645 0.97 1.62869599431e-38
-0.0107709521855 -0.114890156645 0.97 2.09038362104e-38
-0.00900355367395 -0.115245487027 0.973 2.34964934057e-38
-0.00721764837172 -0.115482373947 0.975 2.34999910467e-38
-0.00542989239041 -0.115837704329 0.978 1.87001037987e-38
-0.00361992826028 -0.115837704329 0.978 1.77713932414e-38
-0.00180996413014 -0.115837704329 0.978 1.62023047003e-38
0.0 -0.115837704329 0.978 1.40838342936e-38
0.00180996413014 -0.115837704329 0.978 1.21520911112e-38
0.00361992826028 -0.115837704329 0.978 1.13205185635e-38
0.00542989239041 -0.115837704329 0.978 1.23371788163e-38
0.00723985652055 -0.115837704329 0.978 1.10472247253e-38
0.00904982065069 -0.115837704329 0.978 1.205844794e-38
0.0108597847808 -0.115837704329 0.978 1.21502666206e-38
0.0127086131714 -0.11619303471 0.981 1.20591499905e-38
0.0145241293388 -0.11619303471 0.981 1.21509966971e-38
0.0162896771712 -0.115837704329 0.978 1.0676254779e-38
0.0180996413014 -0.115837704329 0.978 1.10450148776e-38
0.0199096054315 -0.115837704329 0.978 1.18729804831e-38
0.0217195695617 -0.115837704329 0.978 1.24257731091e-38
0.0235295336918 -0.115837704329 0.978 1.52795524641e-38
0.025261769301 -0.115482373947 0.975 1.601648832e-38
0.0270661813939 -0.115482373947 0.975 1.97071455387e-38
0.0288705934869 -0.115482373947 0.975 2.34989638949e-38
0.0306750055798 -0.115482373947 0.975 2.31334393944e-38
0.0324127932262 -0.115245487027 0.973 1.91661588523e-38
0.034108015254 -0.114890156645 0.97 1.19699447316e-38
0.0357921332074 -0.114534826264 0.967 5.79392914227e-39
0.0374651470864 -0.114179495882 0.964 7.14662216806e-44
0.0392492017096 -0.114179495882 0.964 4.05666796982e-39
0.0410332563327 -0.114179495882 0.964 5.33805031806e-39
0.040774161263 -0.108731096701 0.918 1.26027697168e-38
0.042473084649 -0.108731096701 0.918 1.99733446028e-38
0.0441720080349 -0.108731096701 0.918 2.10778578615e-38
-0.0276213851148 -0.116009817482 0.995 2.35098856151e-38
-0.0257799594405 -0.116009817482 0.995 3.12250916416e-39
-0.0239385337662 -0.116009817482 0.995 9.84769081907e-39
-0.0220971080919 -0.116009817482 0.995 1.50995346569e-38
-0.0201946100083 -0.115660039138 0.992 1.40814226589e-38
-0.0181551616735 -0.114377518543 0.981 1.02099040513e-38
-0.0162896771712 -0.114027740199 0.978 2.84694662375e-39
-0.0144352967434 -0.113677961855 0.975 7.91589578861e-39
-0.0126049751435 -0.113444776292 0.973 5.32647839534e-39
-0.0108042644087 -0.113444776292 0.973 8.26522828538e-39
-0.00900355367395 -0.113444776292 0.973 9.46124353118e-39
-0.00720284293916 -0.113444776292 0.973 1.37947534269e-38
-0.00540213220437 -0.113444776292 0.973 1.77667787656e-38
-0.00361992826028 -0.114027740199 0.978 2.0812732192e-38
-0.00180996413014 -0.114027740199 0.978 2.34877731254e-38
0.0 -0.114027740199 0.978 2.3495757724e-38
0.00180996413014 -0.114027740199 0.978 2.34975387744e-38
0.00363103233469 -0.114377518543 0.981 2.30351355045e-38
0.00544654850204 -0.114377518543 0.981 2.10065233619e-38
0.00726206466939 -0.114377518543 0.981 1.97142935622e-38
0.00907758083674 -0.114377518543 0.981 1.98036375497e-38
0.0108930970041 -0.114377518543 0.981 2.07262987015e-38
0.0127086131714 -0.114377518543 0.981 1.96213944805e-38
0.0145241293388 -0.114377518543 0.981 2.05437053077e-38
0.0162896771712 -0.114027740199 0.978 2.12844975369e-38
0.0180996413014 -0.114027740199 0.978 2.18416369908e-38
0.0199096054315 -0.114027740199 0.978 2.21200119372e-38
0.0217195695617 -0.114027740199 0.978 2.20278036957e-38
0.0235295336918 -0.114027740199 0.978 2.03647300665e-38
0.025261769301 -0.113677961855 0.975 1.89777486686e-38
0.0270661813939 -0.113677961855 0.975 1.39031410605e-38
0.0288705934869 -0.113677961855 0.975 5.32719305756e-39
0.0306750055798 -0.113677961855 0.975 1.37756046834e-39
0.0324127932262 -0.113444776292 0.973 3.64337600724e-44
0.034108015254 -0.113094997948 0.97 3.31658199498e-39
0.0357921332074 -0.112745219603 0.967 3.22186963307e-39
0.0356773911051 -0.107032173315 0.918 4.51291673682e-39
0.0373763144911 -0.107032173315 0.918 1.05805264757e-38
0.039075237877 -0.107032173315 0.918 1.61046496116e-38
0.040774161263 -0.107032173315 0.918 2.05199953377e-38
0.042473084649 -0.107032173315 0.918 2.11628676328e-38
0.0441720080349 -0.107032173315 0.918 2.13504566557e-38
-0.0276213851148 -0.114168391808 0.995 2.35098856151e-38
-0.0257799594405 -0.114168391808 0.995 1.17001779616e-38
-0.0239385337662 -0.114168391808 0.995 9.38350790017e-39
-0.0206091621199 -0.106480670953 0.928 9.66976094656e-39
-0.0188306595339 -0.106136444646 0.925 1.42676061794e-38
-0.0171187813945 -0.106136444646 0.925 1.59213065231e-38
-0.0153735910318 -0.105906960441 0.923 1.26058791981e-38
-0.0136654142505 -0.105906960441 0.923 1.16886270584e-38
-0.0126308846505 -0.111873549762 0.975 4.86732894052e-39
-0.0108042644087 -0.111644065557 0.973 4.13843093262e-39
-0.00900355367395 -0.111644065557 0.973 8.26540484899e-40
-0.00720284293916 -0.111644065557 0.973 1.7448758283e-39
-0.00540213220437 -0.111644065557 0.973 4.59181404426e-39
-0.00361992826028 -0.112217776069 0.978 4.95911679253e-39
-0.00180996413014 -0.112217776069 0.978 6.88766221185e-39
0.0 -0.112217776069 0.978 7.25500419648e-39
0.00180996413014 -0.112217776069 0.978 8.81733847903e-39
0.00363103233469 -0.112562002376 0.981 9.09500436844e-39
0.00544654850204 -0.112562002376 0.981 1.06698858774e-38
0.00726206466939 -0.112562002376 0.981 1.25187997089e-38
0.00907758083674 -0.112562002376 0.981 1.27939446624e-38
0.0108930970041 -0.112562002376 0.981 1.26095688169e-38
0.0127086131714 -0.112562002376 0.981 1.20585614452e-38
0.0145241293388 -0.112562002376 0.981 1.0767117774e-38
0.0163396455061 -0.112562002376 0.981 8.00486422811e-39
0.0180996413014 -0.112217776069 0.978 4.86984987646e-39
0.0199096054315 -0.112217776069 0.978 1.65306695681e-39
0.0216529451152 -0.111873549762 0.975 2.94272677508e-44
0.0234573572081 -0.111873549762 0.975 2.66246708222e-44
0.025261769301 -0.111873549762 0.975 3.67360201512e-40
0.0270661813939 -0.111873549762 0.975 3.13107670297e-39
0.0288705934869 -0.111873549762 0.975 4.78880017458e-39
0.0306750055798 -0.111873549762 0.975 4.96961672192e-39
0.0324794176727 -0.111873549762 0.975 3.12998228887e-39
0.0323498701378 -0.105562734134 0.92 5.97838065783e-39
0.0340524948819 -0.105562734134 0.92 1.18648417416e-38
0.0356773911051 -0.105333249929 0.918 1.58274111182e-38
0.0373763144911 -0.105333249929 0.918 1.87733398603e-38
0.039075237877 -0.105333249929 0.918 2.07011664135e-38
0.040774161263 -0.105333249929 0.918 2.22666732358e-38
0.042473084649 -0.105333249929 0.918 2.16234352017e-38
0.0441720080349 -0.105333249929 0.918 1.37955045229e-38
0.0461207730953 -0.105906960441 0.923 1.71218227396e-38
-0.027704665673 -0.112665640403 0.998 2.35098856151e-38
-0.0258576879614 -0.112665640403 0.998 1.33658103618e-38
-0.0240107102499 -0.112665640403 0.998 1.35236820481e-38
-0.0206091621199 -0.104763240776 0.928 7.18124264792e-39
-0.0188306595339 -0.104424566506 0.925 8.46727310316e-39
-0.0171187813945 -0.104424566506 0.925 1.20574516168e-38
-0.0153236226969 -0.10386010939 0.92 1.49118615562e-38
-0.0135913870877 -0.103634326543 0.918 1.63827176737e-38
-0.0118535994412 -0.103295652274 0.915 1.38940998828e-38
-0.0101380199437 -0.103069869427 0.913 1.02109606304e-38
-0.00844834995305 -0.103069869427 0.913 1.09421189327e-38
-0.00675867996244 -0.103069869427 0.913 7.25504063024e-39
-0.00544654850204 -0.110746486208 0.981 4.31850339048e-39
-0.00361992826028 -0.110407811938 0.978 3.12820404112e-39
-0.00180996413014 -0.110407811938 0.978 3.86322572331e-39
0.0 -0.110746486208 0.981 2.76089148375e-39
0.00181551616735 -0.110746486208 0.981 2.85089968671e-39
0.00363103233469 -0.110746486208 0.981 3.77215253352e-39
0.00544654850204 -0.110746486208 0.981 3.0385251433e-39
0.00726206466939 -0.110746486208 0.981 1.38223099612e-39
0.00907758083674 -0.110746486208 0.981 1.75277074385e-39
0.0108930970041 -0.110746486208 0.981 2.67045588476e-39
0.0127086131714 -0.110746486208 0.981 2.39315573425e-39
0.0145241293388 -0.110746486208 0.981 3.68389455234e-39
0.0162896771712 -0.110407811938 0.978 3.40838385997e-39
0.0180996413014 -0.110407811938 0.978 4.69766112376e-39
0.0199096054315 -0.110407811938 0.978 4.60622639896e-39
0.0216529451152 -0.110069137669 0.975 4.7909735885e-39
0.0234573572081 -0.110069137669 0.975 4.51578659607e-39
0.025261769301 -0.110069137669 0.975 3.31759513377e-39
0.0270661813939 -0.110069137669 0.975 4.33069889101e-39
0.0289594260822 -0.110407811938 0.978 7.4488037741e-39
0.0307693902124 -0.110407811938 0.978 1.27818136216e-38
0.0305806209472 -0.103634326543 0.918 1.48097040955e-38
0.0322795443332 -0.103634326543 0.918 1.72091936988e-38
0.0340524948819 -0.10386010939 0.92 2.07068500801e-38
0.035755119626 -0.10386010939 0.92 1.95022280591e-38
0.0374577443701 -0.10386010939 0.92 2.12514268932e-38
0.0391603691142 -0.10386010939 0.92 2.02383483593e-38
0.0408629938583 -0.10386010939 0.92 2.08880491819e-38
0.0425656186024 -0.10386010939 0.92 1.42561393541e-38
0.044412596314 -0.10419878366 0.923 9.75693992792e-39
0.0461207730953 -0.10419878366 0.923 2.04574315651e-38
-0.02590025358 -0.10360101432 0.933 2.35098856151e-38
-0.024173570008 -0.10360101432 0.933 1.73320525417e-38
-0.0223265922965 -0.103045810599 0.928 1.56477534447e-38
-0.0206091621199 -0.103045810599 0.928 1.34386260339e-38
-0.0188306595339 -0.102712688367 0.925 6.81165438185e-39
-0.0171187813945 -0.102712688367 0.925 4.42005549019e-39
-0.0153236226969 -0.102157484646 0.92 7.82010302559e-39
-0.0135913870877 -0.101935403157 0.918 1.33446003082e-38
-0.0118535994412 -0.101602280925 0.915 1.46323669723e-38
-0.0101380199437 -0.101380199437 0.913 1.67457002188e-38
-0.00844834995305 -0.101380199437 0.913 1.72055236982e-38
-0.00675867996244 -0.101380199437 0.913 1.56421860859e-38
-0.00506900997183 -0.101380199437 0.913 1.36174919738e-38
-0.00363103233469 -0.108930970041 0.981 1.14959891572e-38
-0.00181551616735 -0.108930970041 0.981 9.46345337885e-39
0.0 -0.108597847808 0.978 8.82166008349e-39
0.00180996413014 -0.108597847808 0.978 7.62778602175e-39
0.00363103233469 -0.108930970041 0.981 5.32902315335e-39
0.00544654850204 -0.108930970041 0.981 4.51004827886e-39
0.00726206466939 -0.108930970041 0.981 1.84034068748e-39
0.00907758083674 -0.108930970041 0.981 4.05410639623e-39
0.0108930970041 -0.108930970041 0.981 4.0519385875e-39
0.0127086131714 -0.108930970041 0.981 3.95974295764e-39
0.0145241293388 -0.108930970041 0.981 4.14126716071e-39
0.0162896771712 -0.108597847808 0.978 5.51953528477e-39
0.0180996413014 -0.108597847808 0.978 5.4255249734e-39
0.0184845825479 -0.100824995716 0.908 8.0905634383e-39
0.0201649991431 -0.100824995716 0.908 9.55920690552e-39
0.0218454157384 -0.100824995716 0.908 1.25062272591e-38
0.0235258323337 -0.100824995716 0.908 1.47217544e-38
0.025261769301 -0.101047077204 0.91 1.56453964607e-38
0.0270347198498 -0.101380199437 0.913 1.73017676793e-38
0.0287243898404 -0.101380199437 0.913 1.9872707551e-38
0.0304806842775 -0.101602280925 0.915 1.97762589803e-38
0.0322795443332 -0.101935403157 0.918 1.98699217697e-38
0.0340524948819 -0.102157484646 0.92 2.05134807011e-38
0.035755119626 -0.102157484646 0.92 1.96848242555e-38
0.0374577443701 -0.102157484646 0.92 2.11606171475e-38
0.0391603691142 -0.102157484646 0.92 1.74829093279e-38
0.0408629938583 -0.102157484646 0.92 1.15900288959e-38
0.0427044195327 -0.102490606878 0.923 1.01293448039e-38
0.044412596314 -0.102490606878 0.923 5.62035870928e-39
0.0461207730953 -0.102490606878 0.923 2.35098856151e-38
-0.02590025358 -0.101874330748 0.933 2.35098856151e-38
-0.024173570008 -0.101874330748 0.933 2.35095268827e-38
-0.0223265922965 -0.101328380423 0.928 1.23320080249e-38
-0.0206091621199 -0.101328380423 0.928 1.62919835981e-38
-0.0188306595339 -0.101000810227 0.925 1.53710474448e-38
-0.0171187813945 -0.101000810227 0.925 9.19655646814e-39
-0.0153236226969 -0.100454859902 0.92 5.60204654095e-39
-0.0135913870877 -0.100236479772 0.918 4.78307727165e-39
-0.0118535994412 -0.0999089095762 0.915 7.73289461696e-39
-0.0101380199437 -0.099690529446 0.913 1.19565861533e-38
-0.00844834995305 -0.099690529446 0.913 1.35285165278e-38
-0.0067364718136 -0.0993629592506 0.91 1.58272934092e-38
-0.0050523538602 -0.0993629592506 0.91 1.7385248634e-38
-0.0033682359068 -0.0993629592506 0.91 1.80314013689e-38
-0.0016841179534 -0.0993629592506 0.91 1.77573129945e-38
0.0 -0.0991445791204 0.908 1.67450135825e-38
0.00168041659526 -0.0991445791204 0.908 1.51816311287e-38
0.00336083319052 -0.0991445791204 0.908 1.49079239075e-38
0.00544654850204 -0.107115453873 0.981 1.44473255101e-38
0.00726206466939 -0.107115453873 0.981 1.33406472453e-38
0.00907758083674 -0.107115453873 0.981 1.36186648606e-38
0.0100824995716 -0.0991445791204 0.908 1.4078915736e-38
0.0117629161668 -0.0991445791204 0.908 1.38930825401e-38
0.0134433327621 -0.0991445791204 0.908 1.46313734517e-38
0.0151237493574 -0.0991445791204 0.908 1.40767507299e-38
0.0168041659526 -0.0991445791204 0.908 1.57357984285e-38
0.0184845825479 -0.0991445791204 0.908 1.78538428405e-38
0.0201649991431 -0.0991445791204 0.908 1.86799951657e-38
0.0218454157384 -0.0991445791204 0.908 1.91380796337e-38
0.0235258323337 -0.0991445791204 0.908 1.90405114255e-38
0.025261769301 -0.0993629592506 0.91 1.89461900259e-38
0.0270347198498 -0.099690529446 0.913 1.91283938587e-38
0.0287243898404 -0.099690529446 0.913 2.06031301716e-38
0.0304806842775 -0.0999089095762 0.915 1.98678128155e-38
0.0322795443332 -0.100236479772 0.918 1.9775562535e-38
0.0339784677192 -0.100236479772 0.918 2.01457996022e-38
0.035755119626 -0.100454859902 0.92 1.90462763674e-38
0.0374577443701 -0.100454859902 0.92 1.41653520292e-38
0.0391603691142 -0.100454859902 0.92 9.19620053834e-39
0.0408629938583 -0.100454859902 0.92 9.49080252098e-39
0.0425656186024 -0.100454859902 0.92 7.83452098549e-39
0.044412596314 -0.100782430097 0.923 1.32607410029e-38
0.0461207730953 -0.100782430097 0.923 2.35098856151e-38
-0.0259557739521 -0.100362325948 0.935 2.35098856151e-38
-0.024225389022 -0.100362325948 0.935 2.35098856151e-38
-0.0223747099523 -0.0998256290181 0.93 3.7653226048e-39
-0.0206091621199 -0.099610950246 0.928 1.51849353905e-38
-0.0188306595339 -0.0992889320879 0.925 1.62869094964e-38
-0.0171187813945 -0.0992889320879 0.925 1.66563982702e-38
-0.0153236226969 -0.0987522351576 0.92 1.40799302761e-38
-0.0135913870877 -0.0985375563856 0.918 1.00284695314e-38
-0.0118535994412 -0.0982155382274 0.915 4.50610502498e-39
-0.0101380199437 -0.0980008594554 0.913 2.29736997773e-39
-0.00844834995305 -0.0980008594554 0.913 2.20627016326e-39
-0.0067364718136 -0.0976788412972 0.91 8.453642673e-39
-0.0050523538602 -0.0976788412972 0.91 1.37994225534e-38
-0.0033682359068 -0.0976788412972 0.91 1.4080267989e-38
-0.0016841179534 -0.0976788412972 0.91 1.46316845399e-38
0.0 -0.0974641625252 0.908 1.63787071575e-38
0.00168041659526 -0.0974641625252 0.908 1.81268157813e-38
0.00336083319052 -0.0974641625252 0.908 1.73870619142e-38
0.0050523538602 -0.0976788412972 0.91 1.77529941926e-38
0.00672166638105 -0.0974641625252 0.908 1.82132520745e-38
0.00840208297631 -0.0974641625252 0.908 1.7843788524e-38
0.0100824995716 -0.0974641625252 0.908 1.94088833645e-38
0.0117629161668 -0.0974641625252 0.908 1.92263250032e-38
0.0134433327621 -0.0974641625252 0.908 1.83943993283e-38
0.0151237493574 -0.0974641625252 0.908 1.89482709541e-38
0.0168041659526 -0.0974641625252 0.908 1.94102930708e-38
0.0184845825479 -0.0974641625252 0.908 1.85802563462e-38
0.0201649991431 -0.0974641625252 0.908 1.91315677997e-38
0.0218935333942 -0.0976788412972 0.91 1.88553592607e-38
0.0235776513476 -0.0976788412972 0.91 2.06986258594e-38
0.025261769301 -0.0976788412972 0.91 1.90376850065e-38
0.0269458872544 -0.0976788412972 0.91 1.93138935455e-38
0.0287243898404 -0.0980008594554 0.913 2.00525179661e-38
0.030414059831 -0.0980008594554 0.913 1.95025405487e-38
0.0321740556262 -0.0982155382274 0.915 1.61014294277e-38
0.0339784677192 -0.0985375563856 0.918 1.3246271195e-38
0.0356773911051 -0.0985375563856 0.918 9.93049074273e-39
0.0374577443701 -0.0987522351576 0.92 8.65488314546e-39
0.0391603691142 -0.0987522351576 0.92 8.38621499349e-39
0.0408629938583 -0.0987522351576 0.92 6.81818303139e-39
0.0425656186024 -0.0987522351576 0.92 1.16030357482e-38
0.0442682433465 -0.0987522351576 0.92 2.11726472948e-38
-0.0259557739521 -0.0986319410181 0.935 2.35098856151e-38
-0.024225389022 -0.0986319410181 0.935 2.35098856151e-38
-0.0223747099523 -0.0981044974833 0.93 1.46940437229e-39
-0.0206535784175 -0.0981044974833 0.93 1.20546251978e-38
-0.0188917319432 -0.0978935200693 0.928 1.41761518364e-38
-0.0171187813945 -0.0975770539484 0.925 1.59209590011e-38
-0.0153735910318 -0.0973660765345 0.923 1.50879683394e-38
-0.0135913870877 -0.0968386329996 0.918 1.70233633056e-38
-0.0118535994412 -0.0965221668787 0.915 1.35267564969e-38
-0.0101380199437 -0.0963111894648 0.913 1.13119328078e-38
-0.00844834995305 -0.0963111894648 0.913 8.91632900514e-39
-0.0067364718136 -0.0959947233438 0.91 5.69388063581e-39
-0.0050523538602 -0.0959947233438 0.91 3.03173304964e-39
-0.0033682359068 -0.0959947233438 0.91 2.4796144482e-39
-0.0016841179534 -0.0959947233438 0.91 5.60705898556e-39
0.0 -0.0959947233438 0.91 8.27387569821e-39
0.0016841179534 -0.0959947233438 0.91 1.0109865354e-38
0.0033682359068 -0.0959947233438 0.91 1.31527064965e-38
0.0050523538602 -0.0959947233438 0.91 1.42660703563e-38
0.00672166638105 -0.0957837459299 0.908 1.41739153641e-38
0.00840208297631 -0.0957837459299 0.908 1.65637514223e-38
0.0100824995716 -0.0957837459299 0.908 1.6375470158e-38
0.0117629161668 -0.0957837459299 0.908 1.68328735949e-38
0.0134729436272 -0.0959947233438 0.91 1.87700355985e-38
0.0151570615806 -0.0959947233438 0.91 1.79410358348e-38
0.016841179534 -0.0959947233438 0.91 1.94153923959e-38
0.0185252974874 -0.0959947233438 0.91 1.7388154927e-38
0.0202094154408 -0.0959947233438 0.91 1.91384481752e-38
0.0218935333942 -0.0959947233438 0.91 1.77580164463e-38
0.0235776513476 -0.0959947233438 0.91 1.75740007346e-38
0.025261769301 -0.0959947233438 0.91 1.7393140747e-38
0.0269458872544 -0.0959947233438 0.91 1.44475889542e-38
0.0287243898404 -0.0963111894648 0.913 1.25083502263e-38
0.030414059831 -0.0963111894648 0.913 1.13988007009e-38
0.0321740556262 -0.0965221668787 0.915 6.80378749227e-39
0.0339784677192 -0.0968386329996 0.918 6.72346366299e-39
0.0356773911051 -0.0968386329996 0.918 6.81567470714e-39
0.0374577443701 -0.0970496104135 0.92 7.92525646236e-39
0.0391603691142 -0.0970496104135 0.92 5.80580654805e-39
