# .PCD v0.7 - Point Cloud Data file format
VERSION 0.7
FIELDS x y z rgb
SIZE 4 4 4 4
TYPE F F F F
COUNT 1 1 1 1
WIDTH 845
HEIGHT 1
VIEWPOINT 0 0 0 1 0 0 0
POINTS 845
DATA ascii
0.0152070299155 -0.101380199437 0.913 5.79576204066e-39
0.0168966999061 -0.101380199437 0.913 5.34342569897e-39
0.0185863698967 -0.101380199437 0.913 5.25229645724e-39
0.0202094154408 -0.101047077204 0.91 5.16009942608e-39
0.0218935333942 -0.101047077204 0.91 5.16009942608e-39
0.0235776513476 -0.101047077204 0.91 5.71075647321e-39
0.025261769301 -0.101047077204 0.91 5.89192334517e-39
0.0270347198498 -0.101380199437 0.913 5.80546883512e-39
0.0287243898404 -0.101380199437 0.913 5.98804681463e-39
0.0304806842775 -0.101602280925 0.915 5.99057055317e-39
0.0321740556262 -0.101602280925 0.915 5.89907136864e-39
0.0339784677192 -0.101935403157 0.918 6.44867463933e-39
0.0356773911051 -0.101935403157 0.918 6.08169418971e-39
0.0373763144911 -0.101935403157 0.918 6.8178130886e-39
0.039075237877 -0.101935403157 0.918 6.6355840324e-39
0.040774161263 -0.101935403157 0.918 6.91324291532e-39
0.042473084649 -0.101935403157 0.918 7.09799430875e-39
0.0442682433465 -0.102157484646 0.92 7.74155884537e-39
0.0459708680906 -0.102157484646 0.92 7.83376008043e-39
0.0475698548068 -0.101935403157 0.918 8.84650230267e-39
0.0492687781928 -0.101935403157 0.918 9.1252415867e-39
0.0509677015787 -0.101935403157 0.918 9.95282463765e-39
0.0526666249647 -0.101935403157 0.918 1.43703661984e-38
0.0543655483507 -0.101935403157 0.918 2.35098856151e-38
0.0560644717366 -0.101935403157 0.918 2.35098856151e-38
0.0577633951226 -0.101935403157 0.918 2.35098856151e-38
-0.0154901838131 -0.101546760553 0.93 2.33247684828e-38
-0.0137690522784 -0.101546760553 0.93 1.18745303192e-38
-0.0120479207436 -0.101546760553 0.93 9.57465341849e-39
-0.0103045810599 -0.101328380423 0.928 7.55541035737e-39
-0.00855939069723 -0.101000810227 0.925 6.26430580038e-39
-0.00683270712523 -0.100782430097 0.923 5.71075647321e-39
-0.00510787423229 -0.100454859902 0.92 4.78915330179e-39
-0.00340524948819 -0.100454859902 0.92 3.681376419e-39
-0.0017026247441 -0.100454859902 0.92 5.88581228257e-39
0.0 -0.100236479772 0.918 7.90686582131e-39
0.00169892338596 -0.100236479772 0.918 1.1308013376e-38
0.00339784677192 -0.100236479772 0.918 1.37057401459e-38
0.00508011404625 -0.0999089095762 0.915 1.31572929464e-38
0.006773485395 -0.0999089095762 0.915 1.46316214815e-38
0.00846685674374 -0.0999089095762 0.915 1.49075245374e-38
0.0101380199437 -0.099690529446 0.913 1.59198295545e-38
0.0118276899343 -0.099690529446 0.913 1.6749269326e-38
0.0135173599249 -0.099690529446 0.913 1.4267195599e-38
0.0152070299155 -0.099690529446 0.913 4.96815236503e-39
0.0168966999061 -0.099690529446 0.913 4.5136636289e-39
0.0185863698967 -0.099690529446 0.913 5.34484521431e-39
0.0202760398873 -0.099690529446 0.913 5.43487303545e-39
0.0218935333942 -0.0993629592506 0.91 5.25264958445e-39
0.0235776513476 -0.0993629592506 0.91 5.71110960043e-39
0.0253450498591 -0.099690529446 0.913 5.25118522756e-39
0.0270347198498 -0.099690529446 0.913 5.71145431985e-39
0.0287873129287 -0.0999089095762 0.915 5.80470933135e-39
0.0304806842775 -0.0999089095762 0.915 5.34484521431e-39
0.0321740556262 -0.0999089095762 0.915 5.80439964439e-39
0.0339784677192 -0.100236479772 0.918 5.62179083631e-39
0.0356773911051 -0.100236479772 0.918 7.37063374056e-39
0.0373763144911 -0.100236479772 0.918 6.35788170923e-39
0.039075237877 -0.100236479772 0.918 6.45119137138e-39
0.040774161263 -0.100236479772 0.918 6.45119137138e-39
0.042473084649 -0.100236479772 0.918 7.46464124934e-39
0.0442682433465 -0.100454859902 0.92 7.37422106463e-39
0.0459708680906 -0.100454859902 0.92 8.47807010783e-39
0.0475698548068 -0.100236479772 0.918 8.75464158314e-39
0.0492687781928 -0.100236479772 0.918 9.49222203633e-39
0.0509677015787 -0.100236479772 0.918 8.66173549495e-39
0.0526666249647 -0.100236479772 0.918 2.14672632904e-38
0.0543655483507 -0.100236479772 0.918 2.35098856151e-38
0.0560644717366 -0.100236479772 0.918 2.35098856151e-38
-0.0154901838131 -0.0998256290181 0.93 2.35098856151e-38
-0.0137690522784 -0.0998256290181 0.93 4.77589421572e-39
-0.0120479207436 -0.0998256290181 0.93 1.63899049335e-38
-0.0103045810599 -0.099610950246 0.928 9.66222616472e-39
-0.00855939069723 -0.0992889320879 0.925 5.88690669667e-39
-0.00683270712523 -0.0990742533158 0.923 5.52745962759e-39
-0.00510787423229 -0.0987522351576 0.92 5.5267183407e-39
-0.00340524948819 -0.0987522351576 0.92 5.25013145111e-39
-0.0017026247441 -0.0987522351576 0.92 4.5140279665e-39
0.0 -0.0985375563856 0.918 4.05410639623e-39
0.00169892338596 -0.0985375563856 0.918 4.23739203147e-39
0.00339784677192 -0.0985375563856 0.918 2.7623109991e-39
0.00509677015787 -0.0985375563856 0.918 4.05158826289e-39
0.00679569354383 -0.0985375563856 0.918 4.69080877427e-39
0.00846685674374 -0.0982155382274 0.915 6.89957605139e-39
0.0101602280925 -0.0982155382274 0.915 5.51880520827e-39
0.0118535994412 -0.0982155382274 0.915 6.06980837613e-39
0.01354697079 -0.0982155382274 0.915 4.4185785216e-39
0.0152403421387 -0.0982155382274 0.915 4.97642142727e-39
0.0169337134875 -0.0982155382274 0.915 5.52742179253e-39
0.0186270848362 -0.0982155382274 0.915 5.34484521431e-39
0.0202760398873 -0.0980008594554 0.913 5.34484521431e-39
0.0219657098779 -0.0980008594554 0.913 5.3444920871e-39
0.0236553798685 -0.0980008594554 0.913 5.43704084418e-39
0.0253450498591 -0.0980008594554 0.913 5.98769649002e-39
0.02709394158 -0.0982155382274 0.915 5.25264958445e-39
0.0287873129287 -0.0982155382274 0.915 5.80330523029e-39
0.0304806842775 -0.0982155382274 0.915 6.4479711875e-39
0.0321740556262 -0.0982155382274 0.915 6.08063761066e-39
0.0339784677192 -0.0985375563856 0.918 6.72778246486e-39
0.0356773911051 -0.0985375563856 0.918 6.72633632485e-39
0.0373763144911 -0.0985375563856 0.918 6.72779507655e-39
0.039075237877 -0.0985375563856 0.918 6.63343444056e-39
0.0408629938583 -0.0987522351576 0.92 6.54268495071e-39
0.0425656186024 -0.0987522351576 0.92 7.65116808793e-39
0.0442682433465 -0.0987522351576 0.92 7.64936321551e-39
0.0461207730953 -0.0990742533158 0.923 7.55791167513e-39
0.0476734928347 -0.0987522351576 0.92 8.29403197532e-39
0.0492687781928 -0.0985375563856 0.918 8.38587447797e-39
0.0509677015787 -0.0985375563856 0.918 4.41995739929e-39
0.0526666249647 -0.0985375563856 0.918 2.35055808263e-38
0.0543655483507 -0.0985375563856 0.918 2.35098856151e-38
-0.0154901838131 -0.0981044974833 0.93 2.35098856151e-38
-0.0137690522784 -0.0981044974833 0.93 1.46943239826e-39
-0.0120479207436 -0.0981044974833 0.93 1.22433044308e-38
-0.0103045810599 -0.0978935200693 0.928 1.69394619613e-38
-0.00855939069723 -0.0975770539484 0.925 1.32483941622e-38
-0.00684751255778 -0.0975770539484 0.925 9.10861938431e-39
-0.00512453034392 -0.0973660765345 0.923 5.24655954132e-39
-0.00341635356261 -0.0973660765345 0.923 3.96226109098e-39
-0.00170817678131 -0.0973660765345 0.923 4.69841922623e-39
0.0 -0.0970496104135 0.92 4.88387267019e-39
0.0017026247441 -0.0970496104135 0.92 4.69947580527e-39
0.00339784677192 -0.0968386329996 0.918 4.60692704819e-39
0.00509677015787 -0.0968386329996 0.918 5.25048177573e-39
0.00679569354383 -0.0968386329996 0.918 4.97385985367e-39
0.00849461692979 -0.0968386329996 0.918 4.51508314425e-39
0.0101602280925 -0.0965221668787 0.915 5.25229645724e-39
0.0118535994412 -0.0965221668787 0.915 4.97677175188e-39
0.01354697079 -0.0965221668787 0.915 4.60763050002e-39
0.0152403421387 -0.0965221668787 0.915 5.34484521431e-39
0.0169337134875 -0.0965221668787 0.915 5.15903023535e-39
0.0186270848362 -0.0965221668787 0.915 4.883867065e-39
0.020320456185 -0.0965221668787 0.915 4.79202175975e-39
0.0220138275337 -0.0965221668787 0.915 5.34554866614e-39
0.0237071988825 -0.0965221668787 0.915 5.71184808472e-39
0.0254005702312 -0.0965221668787 0.915 5.25229645724e-39
0.02709394158 -0.0965221668787 0.915 5.43704644937e-39
0.0287873129287 -0.0965221668787 0.915 4.60728017541e-39
0.0304806842775 -0.0965221668787 0.915 5.4388415127e-39
0.0322795443332 -0.0968386329996 0.918 4.97750743358e-39
0.0339784677192 -0.0968386329996 0.918 5.7154255997e-39
0.0356773911051 -0.0968386329996 0.918 6.54227437026e-39
0.0373763144911 -0.0968386329996 0.918 7.09512304819e-39
0.0391603691142 -0.0970496104135 0.92 7.00292741833e-39
0.0408629938583 -0.0970496104135 0.92 6.81999070641e-39
0.0425656186024 -0.0970496104135 0.92 7.28095344144e-39
0.044412596314 -0.0973660765345 0.923 7.64936321551e-39
0.046220709765 -0.0975770539484 0.925 8.38587447797e-39
0.0479325879045 -0.0975770539484 0.925 9.30818530511e-39
0.0492687781928 -0.0968386329996 0.918 9.21598967525e-39
0.0509677015787 -0.0968386329996 0.918 8.93080441828e-39
0.0526666249647 -0.0968386329996 0.918 2.35098856151e-38
-0.013813468576 -0.0966942800322 0.933 5.52628814207e-39
-0.012086785004 -0.0966942800322 0.933 7.82656861671e-39
-0.0103267892088 -0.0963833659485 0.93 1.1971388069e-38
-0.00858715088327 -0.0961760898927 0.928 1.78556967583e-38
-0.00684751255778 -0.095865175809 0.925 1.47209430482e-38
-0.00513563441834 -0.095865175809 0.925 1.32516171486e-38
-0.00341635356261 -0.0956578997532 0.923 9.10429777985e-39
-0.00170817678131 -0.0956578997532 0.923 6.24812780961e-39
0.0 -0.0956578997532 0.923 3.49701178394e-39
0.0017026247441 -0.0953469856695 0.92 4.5122006733e-39
0.00340524948819 -0.0953469856695 0.92 4.51473141833e-39
0.00509677015787 -0.0951397096136 0.918 4.69660454472e-39
0.00679569354383 -0.0951397096136 0.918 4.51221328499e-39
0.00849461692979 -0.0951397096136 0.918 4.23779980932e-39
0.0101602280925 -0.0948287955299 0.915 4.60622359637e-39
0.0118535994412 -0.0948287955299 0.915 5.06574019138e-39
0.01354697079 -0.0948287955299 0.915 4.51578659607e-39
0.0152403421387 -0.0948287955299 0.915 5.34484521431e-39
0.0169337134875 -0.0948287955299 0.915 5.16045255329e-39
0.0186270848362 -0.0948287955299 0.915 5.52994553106e-39
0.020320456185 -0.0948287955299 0.915 5.16115600512e-39
0.0220138275337 -0.0948287955299 0.915 5.25264958445e-39
0.0237071988825 -0.0948287955299 0.915 4.97606830005e-39
0.0254005702312 -0.0948287955299 0.915 5.34484521431e-39
0.02709394158 -0.0948287955299 0.915 5.80546883512e-39
0.0288816975613 -0.0951397096136 0.918 5.8980161909e-39
0.0305806209472 -0.0951397096136 0.918 5.71612905153e-39
0.0322795443332 -0.0951397096136 0.918 5.43954216194e-39
0.0339784677192 -0.0951397096136 0.918 5.99201529188e-39
0.0356773911051 -0.0951397096136 0.918 6.63378196258e-39
0.0374577443701 -0.0953469856695 0.92 7.00184561592e-39
0.0391603691142 -0.0953469856695 0.92 6.6352182935e-39
0.0409962427514 -0.0956578997532 0.923 7.46350479629e-39
0.0427044195327 -0.0956578997532 0.923 8.20218386747e-39
0.0445088316256 -0.095865175809 0.925 7.9263102388e-39
0.046220709765 -0.095865175809 0.925 8.2936788481e-39
0.0479325879045 -0.095865175809 0.925 7.92454740533e-39
0.0496444660439 -0.095865175809 0.925 8.01745209222e-39
0.0513563441834 -0.095865175809 0.925 1.57457098126e-38
0.0530682223228 -0.095865175809 0.925 2.35098856151e-38
-0.010360101432 -0.0949675964602 0.933 5.52637221998e-39
-0.00863341786002 -0.0949675964602 0.933 1.13256655328e-38
-0.00686972070662 -0.094458659716 0.928 1.60132120842e-38
-0.00513563441834 -0.0941532976695 0.925 1.62818872427e-38
-0.00342375627889 -0.0941532976695 0.925 1.74800156465e-38
-0.00171187813945 -0.0941532976695 0.925 1.4170703588e-38
0.0 -0.0939497229719 0.923 1.28835156602e-38
0.00170817678131 -0.0939497229719 0.923 1.07562829342e-38
0.00340524948819 -0.0936443609254 0.92 1.01030284187e-38
0.00510787423229 -0.0936443609254 0.92 9.00495692912e-39
0.00681049897639 -0.0936443609254 0.92 6.70766402281e-39
0.00849461692979 -0.0934407862277 0.918 7.170402203e-39
0.0101935403157 -0.0934407862277 0.918 6.53041518135e-39
0.0118924637017 -0.0934407862277 0.918 4.78232057048e-39
0.01354697079 -0.0931354241812 0.915 4.69660454472e-39
0.0152403421387 -0.0931354241812 0.915 4.51291673682e-39
0.0169337134875 -0.0931354241812 0.915 4.05445672084e-39
0.0186270848362 -0.0931354241812 0.915 3.96226109098e-39
0.020320456185 -0.0931354241812 0.915 4.33175547005e-39
0.0220138275337 -0.0931354241812 0.915 5.34484521431e-39
0.0237071988825 -0.0931354241812 0.915 5.16045255329e-39
0.0254838507894 -0.0934407862277 0.918 5.34554586355e-39
0.0271827741753 -0.0934407862277 0.918 5.80404371458e-39
0.0288816975613 -0.0934407862277 0.918 5.52923647404e-39
0.0305806209472 -0.0934407862277 0.918 5.80762403216e-39
0.0322795443332 -0.0934407862277 0.918 6.26786369718e-39
0.0339784677192 -0.0934407862277 0.918 6.26716024535e-39
0.035755119626 -0.0936443609254 0.92 6.45119137138e-39
0.0374577443701 -0.0936443609254 0.92 6.91182059737e-39
0.03928806597 -0.0939497229719 0.923 6.54376395053e-39
0.0409962427514 -0.0939497229719 0.923 7.09584191431e-39
0.0427044195327 -0.0939497229719 0.923 7.37243020519e-39
0.0445088316256 -0.0941532976695 0.925 7.28094082976e-39
0.046220709765 -0.0941532976695 0.925 8.84685262728e-39
0.0479325879045 -0.0941532976695 0.925 8.20253419209e-39
0.0496444660439 -0.0941532976695 0.925 1.44603533819e-38
0.0513563441834 -0.0941532976695 0.925 1.1871618421e-38
0.0530682223228 -0.0941532976695 0.925 2.35098856151e-38
-0.0121515587715 -0.093740596237 0.938 6.25459480202e-39
-0.0103823095809 -0.0934407862277 0.935 8.20218386747e-39
-0.00863341786002 -0.0932409128882 0.933 4.05626019197e-39
-0.00686972070662 -0.0927412295394 0.928 9.57355480049e-39
-0.00515229052996 -0.0927412295394 0.928 1.54618137502e-38
-0.00342375627889 -0.0924414195301 0.925 1.64698335966e-38
-0.00171187813945 -0.0924414195301 0.925 1.64662210492e-38
0.0 -0.0924414195301 0.925 1.72934804002e-38
0.00170817678131 -0.0922415461905 0.923 1.83986676834e-38
0.00341635356261 -0.0922415461905 0.923 1.83100916075e-38
0.00510787423229 -0.0919417361813 0.92 1.56404078382e-38
0.00681049897639 -0.0919417361813 0.92 1.63787099601e-38
0.00851312372049 -0.0919417361813 0.92 1.56425770482e-38
0.0101935403157 -0.0917418628417 0.918 1.38937635712e-38
0.0118924637017 -0.0917418628417 0.918 1.35242425675e-38
0.0135913870877 -0.0917418628417 0.918 1.34327854219e-38
0.0152903104736 -0.0917418628417 0.918 1.32476879077e-38
0.0169892338596 -0.0917418628417 0.918 1.17693642707e-38
0.0186881572455 -0.0917418628417 0.918 1.28728573841e-38
0.0203870806315 -0.0917418628417 0.918 8.64161004641e-39
0.0220860040175 -0.0917418628417 0.918 5.8871589304e-39
0.0237849274034 -0.0917418628417 0.918 5.52924207923e-39
0.0254838507894 -0.0917418628417 0.918 6.07953899267e-39
0.0271827741753 -0.0917418628417 0.918 6.26467434188e-39
0.0289446206497 -0.0919417361813 0.92 5.25264958445e-39
0.0306472453938 -0.0919417361813 0.92 5.43954776713e-39
0.0323498701378 -0.0919417361813 0.92 6.08241025322e-39
0.0340524948819 -0.0919417361813 0.92 6.17531494011e-39
0.035755119626 -0.0919417361813 0.92 6.08346402967e-39
0.0374577443701 -0.0919417361813 0.92 6.26751056997e-39
0.03928806597 -0.0922415461905 0.923 7.00325111828e-39
0.0410850753467 -0.0924414195301 0.925 7.00364067925e-39
0.0427969534861 -0.0924414195301 0.925 7.28058770254e-39
0.0445088316256 -0.0924414195301 0.925 8.01565002239e-39
0.0463706147697 -0.0927412295394 0.928 7.27917799629e-39
0.0480880449463 -0.0927412295394 0.928 1.07786294409e-38
0.049805475123 -0.0927412295394 0.928 1.59371916425e-38
0.0515229052996 -0.0927412295394 0.928 1.8137382973e-38
-0.0121515587715 -0.0920046592696 0.938 1.83674775822e-39
-0.0104156218041 -0.0920046592696 0.938 7.09689849335e-39
-0.00865192465071 -0.0917104012975 0.935 7.00473929725e-39
-0.00688452613918 -0.0912199713441 0.93 4.51365802371e-39
-0.00515229052996 -0.0910237993627 0.928 5.98228187275e-39
-0.00343486035331 -0.0910237993627 0.928 1.01184595174e-38
-0.00171743017665 -0.0910237993627 0.928 1.29764567809e-38
0.0 -0.0910237993627 0.928 1.44494386681e-38
0.00171187813945 -0.0907295413906 0.925 1.51830352298e-38
0.00342375627889 -0.0907295413906 0.925 1.67442330593e-38
0.00512453034392 -0.0905333694092 0.923 1.80321048207e-38
0.00683270712523 -0.0905333694092 0.923 1.72031008531e-38
0.00854088390653 -0.0905333694092 0.923 1.84890976772e-38
0.0102157484646 -0.0902391114372 0.92 1.82128989473e-38
0.0119183732087 -0.0902391114372 0.92 1.76604258173e-38
0.0135913870877 -0.0900429394558 0.918 1.95962005354e-38
0.0152903104736 -0.0900429394558 0.918 1.83976475381e-38
0.0169892338596 -0.0900429394558 0.918 1.92274012004e-38
0.0186881572455 -0.0900429394558 0.918 1.88604179482e-38
0.0203870806315 -0.0900429394558 0.918 1.8035322202e-38
0.0220860040175 -0.0900429394558 0.918 1.08502540093e-38
0.0237849274034 -0.0900429394558 0.918 5.69886785704e-39
0.0254838507894 -0.0900429394558 0.918 5.06899961161e-39
0.0271827741753 -0.0900429394558 0.918 5.80546883512e-39
0.0289446206497 -0.0902391114372 0.92 4.97821088541e-39
0.0306472453938 -0.0902391114372 0.92 5.62354806458e-39
0.0323498701378 -0.0902391114372 0.92 5.89907136864e-39
0.0340524948819 -0.0902391114372 0.92 6.45154169599e-39
0.0358717124074 -0.0905333694092 0.923 6.17460588308e-39
0.0375798891887 -0.0905333694092 0.923 7.09691110503e-39
0.0393731972073 -0.0907295413906 0.925 7.00434973627e-39
0.0410850753467 -0.0907295413906 0.925 7.46606917248e-39
0.0429357544164 -0.0910237993627 0.928 7.65006666733e-39
0.0447494199046 -0.0912199713441 0.93 6.72741672596e-39
0.0466204564441 -0.0915142293162 0.933 9.30243858011e-39
0.0483471400161 -0.0915142293162 0.933 1.64007047408e-38
0.0501811629741 -0.0917104012975 0.935 5.891166644e-39
0.0519115479043 -0.0917104012975 0.935 2.11881358467e-38
-0.0140355500644 -0.0912310754185 0.948 2.35098856151e-38
-0.0122551967994 -0.0910386047953 0.946 8.26579721256e-40
-0.0104156218041 -0.0902687223023 0.938 7.09656078042e-39
-0.00867968483676 -0.0902687223023 0.938 7.00327774295e-39
-0.00690673428801 -0.0897875457442 0.933 5.34374939891e-39
-0.00516339460438 -0.0894988398093 0.93 4.883867065e-39
-0.00344226306959 -0.0894988398093 0.93 4.23849765595e-39
-0.00172113153479 -0.0894988398093 0.93 2.57932524173e-39
0.0 -0.089306369186 0.928 3.67956313879e-39
0.00171743017665 -0.089306369186 0.928 6.3399310759e-39
0.00342375627889 -0.0890176632512 0.925 1.02921238374e-38
0.00513563441834 -0.0890176632512 0.925 1.3150811941e-38
0.00684751255778 -0.0890176632512 0.925 1.47270821368e-38
0.00855939069723 -0.0890176632512 0.925 1.40792534489e-38
0.0102490606878 -0.0888251926279 0.923 1.66538338941e-38
0.0119572374691 -0.0888251926279 0.923 1.75725517919e-38
0.0136209979528 -0.0885364866931 0.92 1.79380650821e-38
0.0153236226969 -0.0885364866931 0.92 1.80295866874e-38
0.0169892338596 -0.0883440160698 0.918 1.86749560964e-38
0.0186881572455 -0.0883440160698 0.918 1.80292111394e-38
0.0203870806315 -0.0883440160698 0.918 1.92263278058e-38
0.0220860040175 -0.0883440160698 0.918 2.18098737585e-38
0.0237849274034 -0.0883440160698 0.918 1.02052195106e-38
0.0255393711615 -0.0885364866931 0.92 6.53186272267e-39
0.0272419959056 -0.0885364866931 0.92 5.4388415127e-39
0.0290390052822 -0.0888251926279 0.923 5.34664588284e-39
0.0307471820635 -0.0888251926279 0.923 5.71577592431e-39
0.0324553588448 -0.0888251926279 0.923 5.80797155418e-39
0.0341635356261 -0.0888251926279 0.923 6.91431911254e-39
0.0359494409284 -0.0890176632512 0.925 6.26934346836e-39
0.0376613190678 -0.0890176632512 0.925 6.26715464016e-39
0.0395008940631 -0.089306369186 0.928 7.00290079366e-39
0.0412183242397 -0.089306369186 0.928 6.72633352225e-39
0.0431670893001 -0.0897875457442 0.933 6.35931523756e-39
0.0449900081837 -0.0899800163674 0.935 8.10856872226e-39
0.0467203931138 -0.0899800163674 0.935 1.57531857399e-38
0.048450778044 -0.0899800163674 0.935 1.04969684495e-38
0.0503421720532 -0.0902687223023 0.938 1.05917172452e-38
0.0520781090205 -0.0902687223023 0.938 2.3502710967e-38
-0.0140355500644 -0.0894766316605 0.948 2.35098856151e-38
-0.0122551967994 -0.0892878623953 0.946 8.40779078595e-44
-0.0104378299529 -0.0887215546 0.94 6.91147307536e-39
-0.00867968483676 -0.0885327853349 0.938 6.72633071965e-39
-0.00694374786941 -0.0885327853349 0.938 6.81851373783e-39
-0.00518005071601 -0.0880608621722 0.933 4.33140234284e-39
-0.00345336714401 -0.0880608621722 0.933 6.08164934815e-39
-0.001726683572 -0.0880608621722 0.933 4.23920671298e-39
0.0 -0.0880608621722 0.933 4.60763050002e-39
0.00172113153479 -0.0877777082745 0.93 4.60763050002e-39
0.00343486035331 -0.0875889390094 0.928 3.96191076636e-39
0.00515229052996 -0.0875889390094 0.928 3.59243040028e-39
0.00686972070662 -0.0875889390094 0.928 2.20624634119e-39
0.00855939069723 -0.0873057851117 0.925 3.40440417233e-39
0.0102712688367 -0.0873057851117 0.925 6.98456620455e-39
0.0119831469761 -0.0873057851117 0.925 9.64636066351e-39
0.0136654142505 -0.0871170158466 0.923 1.13073911995e-38
0.0153735910318 -0.0871170158466 0.923 1.34292331303e-38
0.0170817678131 -0.0871170158466 0.923 1.38004567117e-38
0.0187288721851 -0.086833861949 0.92 1.77608456679e-38
0.0204314969292 -0.086833861949 0.92 1.85845723455e-38
0.0221341216733 -0.086833861949 0.92 1.85867009178e-38
0.0238367464174 -0.086833861949 0.92 8.91772890231e-39
0.0255393711615 -0.086833861949 0.92 6.8992075099e-39
0.0272419959056 -0.086833861949 0.92 5.52923927664e-39
0.0290390052822 -0.0871170158466 0.923 6.72780068174e-39
0.03081380651 -0.0873057851117 0.925 5.80761842696e-39
0.0325256846495 -0.0873057851117 0.925 5.7154227971e-39
0.0342375627889 -0.0873057851117 0.925 6.08491717617e-39
0.0360660337097 -0.0875889390094 0.928 5.9923628139e-39
0.0377834638864 -0.0875889390094 0.928 6.63703437631e-39
0.0395008940631 -0.0875889390094 0.928 6.91253946349e-39
0.0413071568351 -0.0877777082745 0.93 6.54413529462e-39
0.0431670893001 -0.0880608621722 0.933 9.85378226349e-39
0.0449900081837 -0.0882496314373 0.935 1.42784087893e-38
0.0467203931138 -0.0882496314373 0.935 1.08682592932e-38
0.048450778044 -0.0882496314373 0.935 8.93293859584e-39
0.0503421720532 -0.0885327853349 0.938 2.84944513891e-39
0.0520781090205 -0.0885327853349 0.938 2.35098856151e-38
-0.0140355500644 -0.0877221879024 0.948 2.35098856151e-38
-0.0122551967994 -0.0875371199954 0.946 1.74666808904e-39
-0.0104711421762 -0.087259518135 0.943 8.65847327213e-39
-0.00869819162745 -0.0869819162745 0.94 6.45013339103e-39
-0.00695855330196 -0.0869819162745 0.94 6.53979547327e-39
-0.00520781090205 -0.0867968483676 0.938 5.89550086015e-39
-0.0034718739347 -0.0867968483676 0.938 4.79202175975e-39
-0.00173038493014 -0.0865192465071 0.935 4.60763050002e-39
0.0 -0.0863341786002 0.933 4.60798362724e-39
0.001726683572 -0.0863341786002 0.933 5.06679396783e-39
0.00345336714401 -0.0863341786002 0.933 5.06749601836e-39
0.00516339460438 -0.0860565767397 0.93 4.14701108311e-39
0.00688452613918 -0.0860565767397 0.93 5.34232708097e-39
0.00858715088327 -0.0858715088327 0.928 4.60728017541e-39
0.0103045810599 -0.0858715088327 0.928 4.14630202609e-39
0.0119831469761 -0.0855939069723 0.925 4.14448734458e-39
0.0136950251156 -0.0855939069723 0.925 4.05158826289e-39
0.0153735910318 -0.0854088390653 0.923 4.05264203933e-39
0.0170817678131 -0.0854088390653 0.923 3.4090873118e-39
0.0187288721851 -0.0851312372049 0.92 6.99030732436e-39
0.0204314969292 -0.0851312372049 0.92 1.25991025187e-38
0.0221341216733 -0.0851312372049 0.92 7.16748890349e-39
0.0239144749383 -0.0854088390653 0.923 5.520235934e-39
0.0256226517196 -0.0854088390653 0.923 5.16009942608e-39
0.0273308285009 -0.0854088390653 0.923 5.80365555491e-39
0.0291019283706 -0.0855939069723 0.925 5.80582196233e-39
0.03081380651 -0.0855939069723 0.925 5.89801899349e-39
0.0325256846495 -0.0855939069723 0.925 5.98949855984e-39
0.0343486035331 -0.0858715088327 0.928 6.5419618807e-39
0.0360660337097 -0.0858715088327 0.928 6.72633632485e-39
0.0377834638864 -0.0858715088327 0.928 5.52601909277e-39
0.0395860253003 -0.0860565767397 0.93 8.47048908314e-39
0.0413071568351 -0.0860565767397 0.93 1.12334544886e-38
0.0431670893001 -0.0863341786002 0.933 1.35336508853e-38
0.0449900081837 -0.0865192465071 0.935 9.76082012337e-39
0.0468702981185 -0.0867968483676 0.938 8.29401375844e-39
0.0486062350858 -0.0867968483676 0.938 5.15936794828e-39
0.0504495114392 -0.0869819162745 0.94 1.78558144674e-38
0.0521891497647 -0.0869819162745 0.94 2.35098856151e-38
-0.0140355500644 -0.0859677441444 0.948 2.35098856151e-38
-0.0122551967994 -0.0857863775955 0.946 8.10960288053e-39
-0.0104711421762 -0.0855143277723 0.943 4.608743131e-39
-0.0087259518135 -0.0855143277723 0.943 6.44941872882e-39
-0.00695855330196 -0.085242277949 0.94 6.53944514866e-39
-0.00521891497647 -0.085242277949 0.94 6.17136187714e-39
-0.0034718739347 -0.0850609114002 0.938 5.71110960043e-39
-0.00173593696735 -0.0850609114002 0.938 4.79167143513e-39
0.0 -0.084788861577 0.935 4.33140234284e-39
0.00173038493014 -0.084788861577 0.935 4.33175547005e-39
0.00346076986028 -0.084788861577 0.935 4.33069889101e-39
0.00519115479043 -0.084788861577 0.935 4.69912267806e-39
0.00690673428801 -0.0846074950282 0.933 4.33213802453e-39
0.00860565767397 -0.0843354452049 0.93 4.42363300517e-39
0.0103267892088 -0.0843354452049 0.93 4.33069889101e-39
0.0120220112366 -0.0841540786561 0.928 4.79167704033e-39
0.0137394414132 -0.0841540786561 0.928 4.88387267019e-39
0.015406903255 -0.0838820288328 0.925 4.33213802453e-39
0.0171187813945 -0.0838820288328 0.925 4.7012736712e-39
0.0188306595339 -0.0838820288328 0.925 4.69947580527e-39
0.0205425376733 -0.0838820288328 0.925 5.15898959769e-39
0.0222544158128 -0.0838820288328 0.925 5.3444920871e-39
0.0240440224732 -0.0841540786561 0.928 5.80439964439e-39
0.0257614526498 -0.0841540786561 0.928 5.80582196233e-39
0.0274788828265 -0.0841540786561 0.928 5.34484521431e-39
0.0291963130031 -0.0841540786561 0.928 5.62179083631e-39
0.0309137431798 -0.0841540786561 0.928 6.26572531573e-39
0.0326311733564 -0.0841540786561 0.928 6.08134386509e-39
0.0344226306959 -0.0843354452049 0.93 5.71220121193e-39
0.0361437622307 -0.0843354452049 0.93 8.56516360998e-39
0.0378648937655 -0.0843354452049 0.93 1.04051203417e-38
0.0395860253003 -0.0843354452049 0.93 1.21593932775e-38
0.0414404057281 -0.0846074950282 0.933 1.03139967051e-38
0.0432596232536 -0.084788861577 0.935 8.28682649861e-39
0.0451343611511 -0.0850609114002 0.938 7.65011150889e-39
0.0468702981185 -0.0850609114002 0.938 7.09693492711e-39
0.0486062350858 -0.0850609114002 0.938 1.62081327006e-38
0.0506105205183 -0.0855143277723 0.943 1.85918604988e-38
-0.0140355500644 -0.0842133003863 0.948 2.35098856151e-38
-0.0122811063063 -0.0842133003863 0.948 1.59491208963e-38
-0.0105044543995 -0.0840356351956 0.946 6.44228752093e-39
-0.00875371199954 -0.0840356351956 0.946 7.18553622641e-39
-0.0069807614508 -0.0837691374096 0.943 6.35433362152e-39
-0.00521891497647 -0.0835026396236 0.94 5.71075647321e-39
-0.00347927665098 -0.0835026396236 0.94 4.79202175975e-39
-0.00173593696735 -0.0833249744329 0.938 5.06574019138e-39
0.0 -0.0833249744329 0.938 4.05445672084e-39
0.00173593696735 -0.0833249744329 0.938 4.05264203933e-39
0.00346076986028 -0.0830584766468 0.935 4.23850326115e-39
0.00519115479043 -0.0830584766468 0.935 3.96155763915e-39
0.00692153972057 -0.0830584766468 0.935 4.33210579467e-39
0.00863341786002 -0.0828808114561 0.933 4.79202175975e-39
0.0103267892088 -0.0826143136701 0.93 4.60798362724e-39
0.0120479207436 -0.0826143136701 0.93 4.69947580527e-39
0.0137394414132 -0.0824366484794 0.928 5.25229645724e-39
0.015406903255 -0.0821701506934 0.925 4.97608511564e-39
0.0171187813945 -0.0821701506934 0.925 5.34589899076e-39
0.0188306595339 -0.0821701506934 0.925 5.0682807455e-39
0.0205425376733 -0.0821701506934 0.925 5.62214116093e-39
0.0222544158128 -0.0821701506934 0.925 5.43704084418e-39
0.0240440224732 -0.0824366484794 0.928 4.97750743358e-39
0.0257614526498 -0.0824366484794 0.928 5.7154255997e-39
0.0275381045567 -0.0826143136701 0.93 5.43849258939e-39
0.0292592360915 -0.0826143136701 0.93 5.99091807519e-39
0.0309803676263 -0.0826143136701 0.93 5.80691497513e-39
0.0327014991611 -0.0826143136701 0.93 6.54448281664e-39
0.0345336714401 -0.0828808114561 0.933 6.26753999724e-39
0.0362603550121 -0.0828808114561 0.933 8.38189338903e-39
0.0380684684631 -0.0830584766468 0.935 9.30027217268e-39
0.0397988533933 -0.0830584766468 0.935 7.18120481286e-39
0.0416624872164 -0.0833249744329 0.938 7.28205065814e-39
0.0433984241838 -0.0833249744329 0.938 6.3593726908e-39
0.0452305964628 -0.0835026396236 0.94 6.81782710158e-39
0.0469702347883 -0.0835026396236 0.94 1.52839707582e-38
0.0487098731137 -0.0835026396236 0.94 2.07123768012e-38
0.0506105205183 -0.0837691374096 0.943 1.61072041787e-38
-0.0140355500644 -0.0824588566283 0.948 2.35098856151e-38
-0.0122811063063 -0.0824588566283 0.948 2.17574427751e-38
-0.0105044543995 -0.0822848927957 0.946 1.74492627505e-39
-0.00875371199954 -0.0822848927957 0.946 5.89475536937e-39
-0.00700296959964 -0.0822848927957 0.946 6.35612307966e-39
-0.0052355710881 -0.0820239470469 0.943 5.52601909277e-39
-0.0034903807254 -0.0820239470469 0.943 5.15687643961e-39
-0.00173963832549 -0.0817630012981 0.94 5.25048177573e-39
0.0 -0.0815890374655 0.938 4.88134893166e-39
0.00173593696735 -0.0815890374655 0.938 4.33069889101e-39
0.0034718739347 -0.0815890374655 0.938 4.60692704819e-39
0.00519115479043 -0.0813280917167 0.935 4.51367483929e-39
0.00692153972057 -0.0813280917167 0.935 3.96335550508e-39
0.00863341786002 -0.0811541278841 0.933 4.14701108311e-39
0.010360101432 -0.0811541278841 0.933 4.05551049729e-39
0.0120479207436 -0.0808931821353 0.93 4.23920110778e-39
0.0137394414132 -0.0807192183028 0.928 4.79167143513e-39
0.0154568715899 -0.0807192183028 0.928 4.79202175975e-39
0.0171187813945 -0.0804582725539 0.925 4.79237488696e-39
0.0188306595339 -0.0804582725539 0.925 4.79347490626e-39
0.0205425376733 -0.0804582725539 0.925 4.883867065e-39
0.0222544158128 -0.0804582725539 0.925 4.70092054399e-39
0.0240440224732 -0.0807192183028 0.928 4.97750743358e-39
0.0258169730219 -0.0808931821353 0.93 5.254797775e-39
0.0275381045567 -0.0808931821353 0.93 5.80797155418e-39
0.0292592360915 -0.0808931821353 0.93 6.45118856878e-39
0.0310803042961 -0.0811541278841 0.933 6.45013899623e-39
0.0328069878681 -0.0811541278841 0.933 6.08241025322e-39
0.0346076986028 -0.0813280917167 0.935 6.2682140218e-39
0.036338083533 -0.0813280917167 0.935 6.08311370505e-39
0.0380684684631 -0.0813280917167 0.935 6.17601839194e-39
0.0397988533933 -0.0813280917167 0.935 7.27950449883e-39
0.0416624872164 -0.0815890374655 0.938 6.08278159731e-39
0.0434909581373 -0.0817630012981 0.94 1.06799878381e-38
0.0452305964628 -0.0817630012981 0.94 1.82348839189e-38
0.0469702347883 -0.0817630012981 0.94 1.78599763239e-38
0.0487098731137 -0.0817630012981 0.94 9.2869360152e-39
-0.0140355500644 -0.0807044128702 0.948 2.35098856151e-38
-0.0122811063063 -0.0807044128702 0.948 2.35098856151e-38
-0.0105266625483 -0.0807044128702 0.948 1.37757027743e-39
-0.00877221879024 -0.0807044128702 0.948 7.82944408116e-39
-0.00700296959964 -0.0805341503958 0.946 5.80582196233e-39
-0.00525222719973 -0.0805341503958 0.946 6.35682933409e-39
-0.0034903807254 -0.0802787566842 0.943 4.60728017541e-39
-0.0017451903627 -0.0802787566842 0.943 4.79020707824e-39
0.0 -0.0800233629726 0.94 4.69947580527e-39
0.00173593696735 -0.0798531004982 0.938 4.0544973585e-39
0.0034718739347 -0.0798531004982 0.938 4.51582583243e-39
0.00520781090205 -0.0798531004982 0.938 4.42220788463e-39
0.00692153972057 -0.0795977067866 0.935 4.23920110778e-39
0.00865192465071 -0.0795977067866 0.935 4.79347490626e-39
0.010360101432 -0.0794274443121 0.933 5.0682835481e-39
0.012086785004 -0.0794274443121 0.933 4.79202175975e-39
0.0137690522784 -0.0791720506005 0.93 4.79202175975e-39
0.0154568715899 -0.0790017881261 0.928 4.60942836595e-39
0.0171743017665 -0.0790017881261 0.928 5.2537033609e-39
0.0188917319432 -0.0790017881261 0.928 5.16115600512e-39
0.0206091621199 -0.0790017881261 0.928 4.79167143513e-39
0.0223265922965 -0.0790017881261 0.928 6.08311370505e-39
0.0240958414871 -0.0791720506005 0.93 5.6218006454e-39
0.0258169730219 -0.0791720506005 0.93 5.34519553893e-39
0.027626937152 -0.0794274443121 0.933 5.62214116093e-39
0.0293536207241 -0.0794274443121 0.933 5.25299990907e-39
0.0310803042961 -0.0794274443121 0.933 5.71185088731e-39
0.0328773136727 -0.0795977067866 0.935 6.5419618807e-39
0.0346076986028 -0.0795977067866 0.935 7.09547337281e-39
0.036338083533 -0.0795977067866 0.935 6.72885165559e-39
0.0380684684631 -0.0795977067866 0.935 7.27950449883e-39
0.0397988533933 -0.0795977067866 0.935 5.80545622343e-39
0.0416624872164 -0.0798531004982 0.938 1.10490408081e-38
0.0434909581373 -0.0800233629726 0.94 1.65757661553e-38
0.0452305964628 -0.0800233629726 0.94 1.43605024585e-38
0.0469702347883 -0.0800233629726 0.94 1.02150033764e-38
0.0487098731137 -0.0800233629726 0.94 6.82040408946e-39
-0.0140355500644 -0.0789499691122 0.948 2.35098856151e-38
-0.0122811063063 -0.0789499691122 0.948 2.35098856151e-38
-0.0105266625483 -0.0789499691122 0.948 1.46944080605e-39
-0.00877221879024 -0.0789499691122 0.948 6.44760544861e-39
-0.00701777503219 -0.0789499691122 0.948 5.52994553106e-39
-0.00525222719973 -0.0787834079959 0.946 5.71145431985e-39
-0.00350148479982 -0.0787834079959 0.946 5.16115600512e-39
-0.0017451903627 -0.0785335663215 0.943 4.69982612989e-39
0.0 -0.0782837246471 0.94 4.23849765595e-39
0.00173593696735 -0.0781171635308 0.938 4.60692704819e-39
0.0034718739347 -0.0781171635308 0.938 4.69947580527e-39
0.00520781090205 -0.0781171635308 0.938 4.23849765595e-39
0.00692153972057 -0.0778673218564 0.935 4.5125664122e-39
0.00865192465071 -0.0778673218564 0.935 4.32964231197e-39
0.0103823095809 -0.0778673218564 0.935 4.32964231197e-39
0.012086785004 -0.0777007607401 0.933 4.7909735885e-39
0.013813468576 -0.0777007607401 0.933 4.97677175188e-39
0.0154901838131 -0.0774509190657 0.93 5.34519553893e-39
0.0172113153479 -0.0774509190657 0.93 4.23920671298e-39
0.0189324468827 -0.0774509190657 0.93 5.25229645724e-39
0.0206091621199 -0.0772843579495 0.928 5.25229645724e-39
0.0223265922965 -0.0772843579495 0.928 4.69912267806e-39
0.024173570008 -0.0777007607401 0.933 6.08241585841e-39
0.02590025358 -0.0777007607401 0.933 5.80400868212e-39
0.0276861588823 -0.0778673218564 0.935 6.17279120157e-39
0.0294165438124 -0.0778673218564 0.935 6.17385058321e-39
0.0311469287426 -0.0778673218564 0.935 6.17279680677e-39
0.0328773136727 -0.0778673218564 0.935 5.98699303819e-39
0.0346076986028 -0.0778673218564 0.935 6.63411967551e-39
0.036338083533 -0.0778673218564 0.935 5.99091807519e-39
0.0381906132817 -0.0781171635308 0.938 6.81851093523e-39
0.0399265502491 -0.0781171635308 0.938 6.82105008805e-39
0.0416624872164 -0.0781171635308 0.938 1.19720915209e-38
0.0434909581373 -0.0782837246471 0.94 9.47781108292e-39
0.0452305964628 -0.0782837246471 0.94 8.38445496262e-39
0.0471201397929 -0.0785335663215 0.943 6.634488217e-39
-0.0140799663621 -0.0774398149913 0.951 2.35088094179e-38
-0.0122811063063 -0.0771955253541 0.948 2.35098856151e-38
-0.0105266625483 -0.0771955253541 0.948 3.0348761621e-39
-0.00877221879024 -0.0771955253541 0.948 4.60401374869e-39
-0.00701777503219 -0.0771955253541 0.948 5.80546603252e-39
-0.00526333127414 -0.0771955253541 0.948 5.52742179253e-39
-0.00350148479982 -0.077032665596 0.946 4.79202175975e-39
-0.0017451903627 -0.0767883759588 0.943 5.25335303628e-39
0.0 -0.0765440863216 0.94 4.14701108311e-39
0.00173963832549 -0.0765440863216 0.94 4.05410639623e-39
0.0034718739347 -0.0763812265635 0.938 4.14701108311e-39
0.00520781090205 -0.0763812265635 0.938 4.60763050002e-39
0.00692153972057 -0.0761369369263 0.935 4.97677175188e-39
0.00865192465071 -0.0761369369263 0.935 4.33178769992e-39
0.0103823095809 -0.0761369369263 0.935 4.88316921836e-39
0.012086785004 -0.0759740771681 0.933 5.34232708097e-39
0.013813468576 -0.0759740771681 0.933 5.52742739772e-39
0.015540152148 -0.0759740771681 0.933 5.89620431198e-39
0.0172113153479 -0.0757297875309 0.93 5.52923647404e-39
0.0189324468827 -0.0757297875309 0.93 5.06899680901e-39
0.0206535784175 -0.0757297875309 0.93 5.52745682499e-39
0.022446886436 -0.0759740771681 0.933 5.25229645724e-39
0.024225389022 -0.0761369369263 0.935 5.71220401453e-39
0.0259557739521 -0.0761369369263 0.935 5.7104061486e-39
0.0276861588823 -0.0761369369263 0.935 5.9873433628e-39
0.0294165438124 -0.0761369369263 0.935 6.0802424445e-39
0.0311469287426 -0.0761369369263 0.935 6.44902496395e-39
0.0328773136727 -0.0761369369263 0.935 6.45010396377e-39
0.0346076986028 -0.0761369369263 0.935 6.8181774262e-39
0.0364546763144 -0.0763812265635 0.938 7.1887437986e-39
0.0381906132817 -0.0763812265635 0.938 7.00473929725e-39
0.0399265502491 -0.0763812265635 0.938 6.82105008805e-39
0.0416624872164 -0.0763812265635 0.938 8.01888982444e-39
0.0434909581373 -0.0765440863216 0.94 7.37207707798e-39
0.0452305964628 -0.0765440863216 0.94 6.72421055508e-39
-0.0141243826597 -0.075918556796 0.954 2.35052080809e-38
-0.0123199705668 -0.0756798191961 0.951 2.35098856151e-38
-0.0105599747715 -0.0756798191961 0.951 7.8294006409e-39
-0.00879997897629 -0.0756798191961 0.951 5.98557352284e-39
-0.00703998318103 -0.0756798191961 0.951 5.6214377091e-39
-0.00526333127414 -0.0754410815961 0.948 5.52924207923e-39
-0.00350148479982 -0.0752819231961 0.946 4.79167143513e-39
-0.00175074239991 -0.0752819231961 0.946 4.14809989202e-39
0.0 -0.0750431855961 0.943 4.14630763128e-39
0.00173963832549 -0.0748044479961 0.94 4.23849765595e-39
0.00347927665098 -0.0748044479961 0.94 4.05410639623e-39
0.00520781090205 -0.0746452895961 0.938 4.14700547792e-39
0.00694374786941 -0.0746452895961 0.938 4.7001792571e-39
0.00865192465071 -0.0744065519961 0.935 3.87115987522e-39
0.0103823095809 -0.0744065519961 0.935 4.23849765595e-39
0.012112694511 -0.0744065519961 0.935 4.97642142727e-39
0.0138430794411 -0.0744065519961 0.935 4.78950362641e-39
0.015540152148 -0.0742473935961 0.933 5.43557648728e-39
0.01726683572 -0.0742473935961 0.933 4.60692704819e-39
0.018993519292 -0.0742473935961 0.933 4.79277005313e-39
0.020720202864 -0.0742473935961 0.933 4.97642142727e-39
0.022446886436 -0.0742473935961 0.933 5.25335303628e-39
0.024225389022 -0.0744065519961 0.935 6.54338840254e-39
0.0259557739521 -0.0744065519961 0.935 5.80476398199e-39
0.0276861588823 -0.0744065519961 0.935 6.08276057784e-39
0.0294165438124 -0.0744065519961 0.935 6.08276057784e-39
0.0311469287426 -0.0744065519961 0.935 6.08241305582e-39
0.0329828023797 -0.0746452895961 0.938 6.54374152975e-39
0.034718739347 -0.0746452895961 0.938 6.91002273144e-39
0.0364546763144 -0.0746452895961 0.938 6.81782710158e-39
0.0381906132817 -0.0746452895961 0.938 6.9128953933e-39
0.0400116814863 -0.0748044479961 0.94 6.81852775081e-39
0.0417513198118 -0.0748044479961 0.94 6.54377936481e-39
0.0437685599977 -0.0752819231961 0.946 7.54889572081e-39
0.0455193023976 -0.0752819231961 0.946 1.73071949082e-38
-0.0141539935248 -0.0743084660054 0.956 2.23970710644e-38
-0.0123588348273 -0.0741530089636 0.954 2.35095268827e-38
-0.0105932869948 -0.0741530089636 0.954 1.50188422861e-38
-0.00882773916233 -0.0741530089636 0.954 5.330162409e-39
-0.00703998318103 -0.0739198234008 0.951 4.60763050002e-39
-0.00527998738577 -0.0739198234008 0.951 5.6214377091e-39
-0.0035088875161 -0.073686637838 0.948 3.6860329338e-39
-0.00175444375805 -0.073686637838 0.948 6.25921348176e-39
0.0 -0.0735311807962 0.946 4.78805888769e-39
0.0017451903627 -0.0732979952334 0.943 4.33069889101e-39
0.0034903807254 -0.0732979952334 0.943 4.05304981719e-39
0.00521891497647 -0.0730648096706 0.94 3.87076751165e-39
0.00694374786941 -0.0729093526288 0.938 4.23920671298e-39
0.00867968483676 -0.0729093526288 0.938 4.79347490626e-39
0.0104156218041 -0.0729093526288 0.938 4.97645085454e-39
0.012112694511 -0.072676167066 0.935 4.97642142727e-39
0.0138430794411 -0.072676167066 0.935 5.16045255329e-39
0.0155734643713 -0.072676167066 0.935 5.16045255329e-39
0.0173038493014 -0.072676167066 0.935 4.60802706749e-39
0.0190342342316 -0.072676167066 0.935 5.52923647404e-39
0.0207646191617 -0.072676167066 0.935 5.52994553106e-39
0.0224950040919 -0.072676167066 0.935 5.52994553106e-39
0.024225389022 -0.072676167066 0.935 5.43704644937e-39
0.0260390545103 -0.0729093526288 0.938 6.35612307966e-39
0.0277749914776 -0.0729093526288 0.938 5.99021742595e-39
0.029510928445 -0.0729093526288 0.938 5.99056494797e-39
0.0312468654123 -0.0729093526288 0.938 6.45154169599e-39
0.0329828023797 -0.0729093526288 0.938 6.44939770934e-39
0.034718739347 -0.0729093526288 0.938 6.63378476517e-39
0.0365324048353 -0.0730648096706 0.94 6.91074720275e-39
0.0382720431608 -0.0730648096706 0.94 4.5136608263e-39
0.0400116814863 -0.0730648096706 0.94 7.45493725748e-39
0.0418845687048 -0.0732979952334 0.943 1.33435437292e-38
0.0438610939512 -0.073686637838 0.948 2.02480789758e-38
0.0459042436441 -0.0741530089636 0.954 2.20887727905e-38
0.0476697914766 -0.0741530089636 0.954 2.34694875817e-38
-0.0141539935248 -0.0725392168148 0.956 2.13818429387e-38
-0.0123847443342 -0.0725392168148 0.956 2.19349970997e-38
-0.0106154951436 -0.0725392168148 0.956 1.9169828853e-38
-0.00882773916233 -0.0723874611311 0.954 2.6632994535e-39
-0.00706219132986 -0.0723874611311 0.954 6.26751056997e-39
-0.00527998738577 -0.0721598276055 0.951 5.15903023535e-39
-0.00351999159051 -0.0721598276055 0.951 1.93360690937e-39
-0.00175444375805 -0.07193219408 0.948 1.51955810549e-38
0.0 -0.0717804383963 0.946 1.26966160762e-38
0.00175074239991 -0.0717804383963 0.946 6.42995048925e-39
0.00350148479982 -0.0717804383963 0.946 3.95833605398e-39
0.0052355710881 -0.0715528048707 0.943 3.87006405982e-39
0.00695855330196 -0.0713251713451 0.94 4.33105201822e-39
0.00869819162745 -0.0713251713451 0.94 4.33105201822e-39
0.0104378299529 -0.0713251713451 0.94 4.60622639896e-39
0.0121515587715 -0.0711734156614 0.938 4.4243336544e-39
0.0138874957388 -0.0711734156614 0.938 4.70057302197e-39
0.0156234327062 -0.0711734156614 0.938 4.97428304581e-39
0.0173593696735 -0.0711734156614 0.938 4.88457051683e-39
0.0190953066409 -0.0711734156614 0.938 4.97642142727e-39
0.0208312436082 -0.0711734156614 0.938 5.43634019495e-39
0.0225671805756 -0.0711734156614 0.938 5.62214116093e-39
0.0243031175429 -0.0711734156614 0.938 5.34484521431e-39
0.0260390545103 -0.0711734156614 0.938 6.0802424445e-39
0.0277749914776 -0.0711734156614 0.938 6.07844457857e-39
0.029510928445 -0.0711734156614 0.938 6.45083544157e-39
0.0312468654123 -0.0711734156614 0.938 6.17460588308e-39
0.0329828023797 -0.0711734156614 0.938 6.08099354047e-39
0.0347927665098 -0.0713251713451 0.94 4.69374029066e-39
0.0366489976167 -0.0715528048707 0.943 8.73705949131e-39
0.0383941879794 -0.0715528048707 0.943 1.37051642122e-38
0.0402670751979 -0.0717804383963 0.946 1.94197378224e-38
0.0421066501932 -0.07193219408 0.948 2.1996456649e-38
0.0441386958117 -0.0723874611311 0.954 2.20815448931e-38
0.0459042436441 -0.0723874611311 0.954 2.34680624612e-38
0.0476697914766 -0.0723874611311 0.954 1.43472237543e-38
-0.0141539935248 -0.0707699676242 0.956 2.1380731709e-38
-0.0123847443342 -0.0707699676242 0.956 2.119636287e-38
-0.0106154951436 -0.0707699676242 0.956 2.10130253867e-38
-0.00884624595303 -0.0707699676242 0.956 2.2981182711e-39
-0.00706219132986 -0.0706219132986 0.954 6.17531494011e-39
-0.0052966434974 -0.0706219132986 0.954 5.16225462311e-39
-0.00351999159051 -0.0703998318103 0.951 1.54142831076e-44
-0.00175444375805 -0.0701777503219 0.948 1.63865978691e-38
0.0 -0.0701777503219 0.948 1.65566188131e-38
0.00175074239991 -0.0700296959964 0.946 1.58226242827e-38
0.00350148479982 -0.0700296959964 0.946 8.72977974578e-39
0.00525222719973 -0.0700296959964 0.946 5.96939693337e-39
0.0069807614508 -0.069807614508 0.943 3.30900097028e-39
0.0087259518135 -0.069807614508 0.943 4.87916150475e-39
0.0104711421762 -0.069807614508 0.943 5.06433328773e-39
0.0121774682784 -0.0695855330196 0.94 3.86865855746e-39
0.0138874957388 -0.0694374786941 0.938 4.33245331669e-39
0.0156234327062 -0.0694374786941 0.938 4.97606830005e-39
0.0173593696735 -0.0694374786941 0.938 4.88208741595e-39
0.0190953066409 -0.0694374786941 0.938 5.16009942608e-39
0.0208312436082 -0.0694374786941 0.938 4.60657952618e-39
0.0225671805756 -0.0694374786941 0.938 5.066090516e-39
0.0243031175429 -0.0694374786941 0.938 5.25048177573e-39
0.0260945748824 -0.0695855330196 0.94 5.52742739772e-39
0.0278342132079 -0.0695855330196 0.94 4.0519385875e-39
0.0295738515333 -0.0695855330196 0.94 4.50864137521e-39
0.0313134898588 -0.0695855330196 0.94 8.09133695505e-39
0.0330531281843 -0.0695855330196 0.94 1.31480247584e-38
0.0347927665098 -0.0695855330196 0.94 1.68382629888e-38
0.0367655903981 -0.0700296959964 0.946 2.02482919732e-38
0.038516332798 -0.0700296959964 0.946 2.153270533e-38
0.0403522064351 -0.0701777503219 0.948 2.08819156985e-38
0.0423731479792 -0.0706219132986 0.954 2.34636932126e-38
0.0441386958117 -0.0706219132986 0.954 2.06139481958e-38
0.0460004789557 -0.0707699676242 0.956 1.3981728681e-38
0.0477697281463 -0.0707699676242 0.956 7.99947763682e-39
-0.0141539935248 -0.0690007184336 0.956 1.9998172809e-38
-0.0123847443342 -0.0690007184336 0.956 1.99045128223e-38
-0.0106154951436 -0.0690007184336 0.956 2.15651229687e-38
-0.00884624595303 -0.0690007184336 0.956 4.78452901686e-39
-0.00707699676242 -0.0690007184336 0.956 5.34664308024e-39
-0.0052966434974 -0.0688563654662 0.954 4.79277285573e-39
-0.00351999159051 -0.068639836015 0.951 3.95974295764e-39
-0.00175999579526 -0.068639836015 0.951 6.156618816e-39
0.0 -0.0684233065639 0.948 1.68418965558e-38
0.00175074239991 -0.0682789535964 0.946 1.73856536093e-38
0.00350148479982 -0.0682789535964 0.946 1.85844910702e-38
0.00525222719973 -0.0682789535964 0.946 1.49057126585e-38
0.00700296959964 -0.0682789535964 0.946 1.2512273862e-38
0.00875371199954 -0.0682789535964 0.946 1.01083953919e-38
0.0104711421762 -0.0680624241453 0.943 8.35853374363e-39
0.0121774682784 -0.0678458946941 0.94 8.36465181272e-39
0.0139171066039 -0.0678458946941 0.94 5.23650242225e-39
0.0156567449294 -0.0678458946941 0.94 5.60596877535e-39
0.0173963832549 -0.0678458946941 0.94 4.04080246861e-39
0.0191360215804 -0.0678458946941 0.94 6.80490152455e-39
0.0208756599059 -0.0678458946941 0.94 7.26513138048e-39
0.0226152982314 -0.0678458946941 0.94 9.65398092456e-39
0.0243549365569 -0.0678458946941 0.94 1.15843087955e-38
0.0260945748824 -0.0678458946941 0.94 1.29639810206e-38
0.0278342132079 -0.0678458946941 0.94 1.6471666495e-38
0.0295738515333 -0.0678458946941 0.94 1.6292297489e-38
0.0313134898588 -0.0678458946941 0.94 1.85914092807e-38
0.0331586168913 -0.0680624241453 0.943 2.15341094311e-38
0.0350148479982 -0.0682789535964 0.946 2.12514296958e-38
0.0367655903981 -0.0682789535964 0.946 2.1247388351e-38
0.0385977626771 -0.0684233065639 0.948 2.26329011881e-38
0.0403522064351 -0.0684233065639 0.948 2.02444426063e-38
0.0423731479792 -0.0688563654662 0.954 1.66563982702e-38
0.0442312297651 -0.0690007184336 0.956 9.37912884246e-39
0.0460004789557 -0.0690007184336 0.956 9.94494093249e-39
0.0477697281463 -0.0690007184336 0.956 7.82696238158e-39
-0.0141984098225 -0.067442446657 0.959 1.99981896246e-38
-0.0124236085947 -0.067442446657 0.959 2.00889391144e-38
-0.0106488073669 -0.067442446657 0.959 2.04587978311e-38
-0.00530774757182 -0.067231469243 0.956 4.51582583243e-39
-0.00353109566493 -0.0670908176337 0.954 5.06644364321e-39
-0.00175999579526 -0.0668798402198 0.951 1.56553344694e-39
0.0 -0.0668798402198 0.951 9.01925437735e-39
0.00175444375805 -0.0666688628058 0.948 1.57344223534e-38
0.0035088875161 -0.0666688628058 0.948 1.82175078179e-38
0.00526333127414 -0.0666688628058 0.948 1.66477788834e-38
0.00701777503219 -0.0666688628058 0.948 1.8582715625e-38
0.00875371199954 -0.0665282111965 0.946 1.77561989622e-38
0.0105044543995 -0.0665282111965 0.946 1.75729217347e-38
0.0122163325389 -0.0663172337826 0.943 1.70218933435e-38
0.0139171066039 -0.0661062563686 0.94 1.60088176122e-38
0.0156567449294 -0.0661062563686 0.94 1.66570764987e-38
0.017451903627 -0.0663172337826 0.943 1.58276885753e-38
0.0191970939897 -0.0663172337826 0.943 1.67500134155e-38
0.0209422843524 -0.0663172337826 0.943 1.70247674067e-38
0.0226874747151 -0.0663172337826 0.943 1.81260604815e-38
0.0244326650778 -0.0663172337826 0.943 1.99656921119e-38
0.0261778554405 -0.0663172337826 0.943 2.01468421683e-38
