# .PCD v0.7 - Point Cloud Data file format
VERSION 0.7
FIELDS x y z rgb
SIZE 4 4 4 4
TYPE F F F F
COUNT 1 1 1 1
WIDTH 854
HEIGHT 1
VIEWPOINT 0 0 0 1 0 0 0
POINTS 854
DATA ascii
0.033682359068 -0.114520020831 0.91 1.7671894044e-38
0.0353664770214 -0.114520020831 0.91 1.81325148622e-38
0.0370505949748 -0.114520020831 0.91 1.69361296736e-38
0.038649581691 -0.114268328478 0.908 1.80403010154e-38
0.0403299982863 -0.114268328478 0.908 1.78537531574e-38
0.0420104148815 -0.114268328478 0.908 1.78548391637e-38
0.0436908314768 -0.114268328478 0.908 1.75786054013e-38
0.0453712480721 -0.114268328478 0.908 1.69343444193e-38
0.0469480266394 -0.114016636124 0.906 1.81325022505e-38
0.0486247418765 -0.114016636124 0.906 1.71172755261e-38
0.0503014571137 -0.114016636124 0.906 1.71162315587e-38
0.0519781723508 -0.114016636124 0.906 1.63804671883e-38
0.0534772223972 -0.113639097594 0.903 1.66584763959e-38
0.0551483855971 -0.113639097594 0.903 1.6289321131e-38
0.056819548797 -0.113639097594 0.903 1.65662835686e-38
0.058490711997 -0.113639097594 0.903 1.50933255034e-38
0.0601618751969 -0.113639097594 0.903 1.51837078531e-38
0.00167671523712 -0.112339920887 0.906 2.34888619343e-38
0.00334232639983 -0.111967934394 0.903 1.98813577664e-38
0.00501348959974 -0.111967934394 0.903 1.89600839001e-38
0.00668465279965 -0.111967934394 0.903 1.96991441245e-38
0.00835581599956 -0.111967934394 0.903 2.02508689611e-38
0.0100602914227 -0.112339920887 0.906 1.97902467416e-38
0.0117370066599 -0.112339920887 0.906 1.93296203182e-38
0.013413721897 -0.112339920887 0.906 1.98831402181e-38
0.0151237493574 -0.112587911883 0.908 1.96983551935e-38
0.0168041659526 -0.112587911883 0.908 1.96065505259e-38
0.0184845825479 -0.112587911883 0.908 1.91459283064e-38
0.0202094154408 -0.112835902878 0.91 1.88714868047e-38
0.0218935333942 -0.112835902878 0.91 1.88718791683e-38
0.0235776513476 -0.112835902878 0.91 1.88708309971e-38
0.025261769301 -0.112835902878 0.91 1.8131448474e-38
0.0269458872544 -0.112835902878 0.91 1.77612366302e-38
0.0286300052078 -0.112835902878 0.91 1.97894998495e-38
0.030414059831 -0.113207889371 0.913 1.81296281873e-38
0.0321037298216 -0.113207889371 0.913 1.84069689755e-38
0.0337933998122 -0.113207889371 0.913 1.77640868712e-38
0.0354830698028 -0.113207889371 0.913 1.73963847529e-38
0.0370505949748 -0.112835902878 0.91 1.71183699402e-38
0.0387347129282 -0.112835902878 0.91 1.77622777949e-38
0.0404188308816 -0.112835902878 0.91 1.82211245693e-38
0.042102948835 -0.112835902878 0.91 1.73946289259e-38
0.0436908314768 -0.112587911883 0.908 1.73030989128e-38
0.0453712480721 -0.112587911883 0.908 1.81328651868e-38
0.0470516646673 -0.112587911883 0.908 1.74864420013e-38
0.0486247418765 -0.112339920887 0.906 1.73939226715e-38
0.0503014571137 -0.112339920887 0.906 1.69332752286e-38
0.0519781723508 -0.112339920887 0.906 1.6932173808e-38
0.0534772223972 -0.111967934394 0.903 1.74878783322e-38
0.0551483855971 -0.111967934394 0.903 1.60131518284e-38
0.056819548797 -0.111967934394 0.903 1.62900666218e-38
0.0583611644621 -0.111719943399 0.901 1.5827649339e-38
0.0600286263038 -0.111719943399 0.901 1.57361557596e-38
0.0616960881456 -0.111719943399 0.901 1.48138547416e-38
-0.00166746184177 -0.110052481557 0.901 2.34899423354e-38
0.0 -0.110052481557 0.901 2.34866941256e-38
0.00167116319991 -0.110296771194 0.903 1.96047806859e-38
0.00334232639983 -0.110296771194 0.903 2.00671321077e-38
0.00501348959974 -0.110296771194 0.903 1.97927648749e-38
0.00668465279965 -0.110296771194 0.903 1.96994944491e-38
0.00838357618561 -0.11066320565 0.906 2.01601054583e-38
0.0100602914227 -0.11066320565 0.906 1.96065757493e-38
0.0117370066599 -0.11066320565 0.906 1.98831430207e-38
0.013413721897 -0.11066320565 0.906 1.92377764142e-38
0.0151237493574 -0.110907495287 0.908 1.94200138782e-38
0.0168041659526 -0.110907495287 0.908 1.86839005845e-38
0.0184845825479 -0.110907495287 0.908 1.92377764142e-38
0.0202094154408 -0.111151784924 0.91 1.87782247867e-38
0.0218935333942 -0.111151784924 0.91 1.89608335948e-38
0.0235776513476 -0.111151784924 0.91 1.81332477413e-38
0.0253450498591 -0.11151821938 0.913 1.80410226841e-38
0.0270347198498 -0.11151821938 0.913 1.77626407312e-38
0.0287243898404 -0.11151821938 0.913 1.84980603822e-38
0.030414059831 -0.11151821938 0.913 1.80377828821e-38
0.0321037298216 -0.11151821938 0.913 1.79449020173e-38
0.0337933998122 -0.11151821938 0.913 1.77597862862e-38
0.0354830698028 -0.11151821938 0.913 1.81328679894e-38
0.0371727397934 -0.11151821938 0.913 1.8687095545e-38
0.0387347129282 -0.111151784924 0.91 1.68417690376e-38
0.0404188308816 -0.111151784924 0.91 1.80388786975e-38
0.042102948835 -0.111151784924 0.91 1.70258183805e-38
0.0436908314768 -0.110907495287 0.908 1.71165678703e-38
0.0453712480721 -0.110907495287 0.908 1.70247225651e-38
0.0470516646673 -0.110907495287 0.908 1.71179929909e-38
0.0486247418765 -0.11066320565 0.906 1.6933971674e-38
0.0503014571137 -0.11066320565 0.906 1.70261715077e-38
0.0519781723508 -0.11066320565 0.906 1.67495832168e-38
0.0534772223972 -0.110296771194 0.903 1.69332752286e-38
0.0551483855971 -0.110296771194 0.903 1.62882715585e-38
0.056819548797 -0.110296771194 0.903 1.65655618999e-38
0.0583611644621 -0.110052481557 0.901 1.63826027672e-38
0.0600286263038 -0.110052481557 0.901 1.5827996861e-38
0.0613537125177 -0.109441757464 0.896 1.52748441013e-38
0.0630119209642 -0.109441757464 0.896 1.48138645507e-38
0.0646701294106 -0.109441757464 0.896 1.6655228186e-38
-0.00166746184177 -0.108385019715 0.901 2.34921367688e-38
0.0 -0.108385019715 0.901 2.06189676469e-38
0.00166746184177 -0.108385019715 0.901 2.06199387467e-38
0.00334232639983 -0.108625607994 0.903 1.93292826052e-38
0.00501348959974 -0.108625607994 0.903 2.15416077792e-38
0.00670686094849 -0.108986490413 0.906 1.95161976035e-38
0.00838357618561 -0.108986490413 0.906 1.98849605048e-38
0.0100602914227 -0.108986490413 0.906 1.95158024373e-38
0.0117629161668 -0.109227078692 0.908 2.00678495726e-38
0.0134433327621 -0.109227078692 0.908 1.95136542468e-38
0.0151237493574 -0.109227078692 0.908 1.95125948652e-38
0.016841179534 -0.109467666971 0.91 2.00690154529e-38
0.0185252974874 -0.109467666971 0.91 1.85016547127e-38
0.0202760398873 -0.10982854939 0.913 1.88693358116e-38
0.0219657098779 -0.10982854939 0.913 1.96072595829e-38
0.0237071988825 -0.110069137669 0.915 1.76704422988e-38
0.0254005702312 -0.110069137669 0.915 1.82214903082e-38
0.02709394158 -0.110069137669 0.915 1.81321519259e-38
0.0287873129287 -0.110069137669 0.915 1.7671208809e-38
0.0304806842775 -0.110069137669 0.915 1.81328525751e-38
0.0321740556262 -0.110069137669 0.915 1.73942169442e-38
0.033867426975 -0.110069137669 0.915 1.76697416495e-38
0.0355607983237 -0.110069137669 0.915 1.76733569996e-38
0.0372541696725 -0.110069137669 0.915 1.69336087377e-38
0.038862409784 -0.10982854939 0.913 1.78555594311e-38
0.0405520797746 -0.10982854939 0.913 1.71172755261e-38
0.042102948835 -0.109467666971 0.91 1.70254400299e-38
0.0436908314768 -0.109227078692 0.908 1.70254400299e-38
0.0453712480721 -0.109227078692 0.908 1.73960106062e-38
0.0470516646673 -0.109227078692 0.908 1.72130570787e-38
0.0487320812626 -0.109227078692 0.908 1.66599309437e-38
0.0503014571137 -0.108986490413 0.906 1.61967681701e-38
0.0519781723508 -0.108986490413 0.906 1.64722746585e-38
0.0536548875879 -0.108986490413 0.906 1.64730033337e-38
0.0551483855971 -0.108625607994 0.903 1.63797455196e-38
0.056819548797 -0.108625607994 0.903 1.6287903017e-38
0.058490711997 -0.108625607994 0.903 1.58272779949e-38
0.0600286263038 -0.108385019715 0.901 1.59191233001e-38
0.0613537125177 -0.107783549018 0.896 1.61035075534e-38
0.0630119209642 -0.107783549018 0.896 1.56418091366e-38
0.0646701294106 -0.107783549018 0.896 1.44468714894e-38
-0.00332381960913 -0.106362227492 0.898 2.34910087235e-38
-0.00166190980456 -0.106362227492 0.898 2.34827186418e-38
0.0 -0.106362227492 0.898 1.951186619e-38
0.00166746184177 -0.106717557874 0.901 2.03430463741e-38
0.00334232639983 -0.106954444794 0.903 2.02519451583e-38
0.00501348959974 -0.106954444794 0.903 1.9699099283e-38
0.00670686094849 -0.107309775176 0.906 1.97927438554e-38
0.00838357618561 -0.107309775176 0.906 1.9790243939e-38
0.0100602914227 -0.107309775176 0.906 1.9790591461e-38
0.0117629161668 -0.107546662097 0.908 2.01604711972e-38
0.0134433327621 -0.107546662097 0.908 1.93300435103e-38
0.0151237493574 -0.107546662097 0.908 1.93307049232e-38
0.016841179534 -0.107783549018 0.91 1.65662681543e-38
0.0185863698967 -0.108138879399 0.913 1.8313685938e-38
0.020320456185 -0.10837576632 0.915 1.81285491875e-38
0.0220138275337 -0.10837576632 0.915 1.84955548605e-38
0.0237071988825 -0.10837576632 0.915 1.77612212159e-38
0.0254005702312 -0.10837576632 0.915 1.78516315915e-38
0.02709394158 -0.10837576632 0.915 1.74853349755e-38
0.0287873129287 -0.10837576632 0.915 1.7302381448e-38
0.0305806209472 -0.108731096701 0.918 1.73020227156e-38
0.0322795443332 -0.108731096701 0.918 1.74882048348e-38
0.0339784677192 -0.108731096701 0.918 1.73038359958e-38
0.0356773911051 -0.108731096701 0.918 1.64722998819e-38
0.0372541696725 -0.10837576632 0.915 1.71176636857e-38
0.0389475410212 -0.10837576632 0.915 1.61967681701e-38
0.04064091237 -0.10837576632 0.915 1.64701222641e-38
0.0422417497652 -0.108138879399 0.913 1.74846175107e-38
0.0439314197559 -0.108138879399 0.913 1.66555939249e-38
0.0454711847418 -0.107783549018 0.91 1.6934694744e-38
0.0471553026952 -0.107783549018 0.91 1.70268931764e-38
0.0487320812626 -0.107546662097 0.908 1.50929485541e-38
0.0504124978578 -0.107546662097 0.908 1.72101872195e-38
0.0520929144531 -0.107546662097 0.908 1.60134559101e-38
0.0536548875879 -0.107309775176 0.906 1.6750311892e-38
0.055331602825 -0.107309775176 0.906 1.57365271037e-38
0.0570083180621 -0.107309775176 0.906 1.61960507052e-38
0.058490711997 -0.106954444794 0.903 1.6102421547e-38
0.0600286263038 -0.106717557874 0.901 1.61034977443e-38
0.0613537125177 -0.106125340571 0.896 1.58269150586e-38
0.0630119209642 -0.106125340571 0.896 1.5735082365e-38
0.0646701294106 -0.106125340571 0.896 1.43543185284e-38
0.066328337857 -0.106125340571 0.896 1.38004356922e-38
-0.00332381960913 -0.104700317688 0.898 2.34917514117e-38
-0.00166190980456 -0.104700317688 0.898 2.03398878473e-38
0.0 -0.104700317688 0.898 2.1075184184e-38
0.00166746184177 -0.105050096032 0.901 2.12635789535e-38
0.00334232639983 -0.105283281595 0.903 2.03431192416e-38
0.00503014571137 -0.105633059939 0.906 1.98828123142e-38
0.00670686094849 -0.105633059939 0.906 2.00686230893e-38
0.00840208297631 -0.105866245501 0.908 1.98813577664e-38
0.0100824995716 -0.105866245501 0.908 1.96051310105e-38
0.0117629161668 -0.105866245501 0.908 1.95136514442e-38
0.0134433327621 -0.105866245501 0.908 1.90548312945e-38
0.0151570615806 -0.106099431064 0.91 1.79474075389e-38
0.0168966999061 -0.106449209408 0.913 1.83176095737e-38
0.0186270848362 -0.106682394971 0.915 1.80370822329e-38
0.020320456185 -0.106682394971 0.915 1.822074762e-38
0.0220138275337 -0.106682394971 0.915 1.75761082874e-38
0.0237071988825 -0.106682394971 0.915 1.822219376e-38
0.0254838507894 -0.107032173315 0.918 1.78523224316e-38
0.0271827741753 -0.107032173315 0.918 1.72984353915e-38
0.0288816975613 -0.107032173315 0.918 1.79473851182e-38
0.0305806209472 -0.107032173315 0.918 1.73952931414e-38
0.0322795443332 -0.107032173315 0.918 1.66584637842e-38
0.0339784677192 -0.107032173315 0.918 1.68417788467e-38
0.0356773911051 -0.107032173315 0.918 1.73005891873e-38
0.0373763144911 -0.107032173315 0.918 1.73927820145e-38
0.039075237877 -0.107032173315 0.918 1.72098368948e-38
0.040774161263 -0.107032173315 0.918 1.67492160766e-38
0.0423342837187 -0.106682394971 0.915 1.81325442894e-38
0.0440276550675 -0.106682394971 0.915 1.61968144129e-38
0.0456210897465 -0.106449209408 0.913 1.62893253349e-38
0.0471553026952 -0.106099431064 0.91 1.66591742425e-38
0.0488394206486 -0.106099431064 0.91 1.6014173375e-38
0.050523538602 -0.106099431064 0.91 1.69332556104e-38
0.0522076565554 -0.106099431064 0.91 1.64729921233e-38
0.0537733310484 -0.105866245501 0.908 1.64722746585e-38
0.0554537476436 -0.105866245501 0.908 1.62900385958e-38
0.0570083180621 -0.105633059939 0.906 1.684212777e-38
0.058490711997 -0.105283281595 0.903 1.6196059113e-38
0.0600286263038 -0.105050096032 0.901 1.54585459222e-38
0.0614906627689 -0.104700317688 0.898 1.57365299063e-38
0.0630119209642 -0.104467132125 0.896 1.49993306063e-38
0.0646701294106 -0.104467132125 0.896 1.50918765608e-38
0.066328337857 -0.104467132125 0.896 1.31572354932e-38
0.0678347906197 -0.104233946562 0.894 1.54602933414e-38
0.069489297708 -0.104233946562 0.894 2.34806321084e-38
-0.00497462533928 -0.102808923678 0.896 2.34864124646e-38
-0.00331641689285 -0.102808923678 0.896 2.34863788334e-38
-0.00166190980456 -0.103038407883 0.898 1.99682102452e-38
0.0 -0.103038407883 0.898 2.09858598147e-38
0.00166746184177 -0.10338263419 0.901 2.05259928951e-38
0.00334232639983 -0.103612118395 0.903 2.06164116785e-38
0.00503014571137 -0.103956344702 0.906 1.98810074418e-38
0.00672166638105 -0.104185828906 0.908 2.05285096271e-38
0.00840208297631 -0.104185828906 0.908 1.96072792011e-38
0.0100824995716 -0.104185828906 0.908 1.9237770809e-38
0.0117629161668 -0.104185828906 0.908 1.80392500416e-38
0.0134729436272 -0.104415313111 0.91 1.91452248546e-38
0.0152070299155 -0.104759539418 0.913 1.76697290378e-38
0.0168966999061 -0.104759539418 0.913 1.76707996299e-38
0.0186270848362 -0.104989023622 0.915 1.8313648103e-38
0.020320456185 -0.104989023622 0.915 1.78537531574e-38
0.0220860040175 -0.105333249929 0.918 1.76711583623e-38
0.0237849274034 -0.105333249929 0.918 1.66559456508e-38
0.0254838507894 -0.105333249929 0.918 1.76661361086e-38
0.0271827741753 -0.105333249929 0.918 1.70236463679e-38
0.0288816975613 -0.105333249929 0.918 1.62871687366e-38
0.0306472453938 -0.105562734134 0.92 1.63786455003e-38
0.0323498701378 -0.105562734134 0.92 1.73013290729e-38
0.0340524948819 -0.105562734134 0.92 1.60105860509e-38
0.035755119626 -0.105562734134 0.92 1.6655228186e-38
0.0374577443701 -0.105562734134 0.92 1.66537946577e-38
0.0391603691142 -0.105562734134 0.92 1.63790042327e-38
0.040774161263 -0.105333249929 0.918 1.63800986468e-38
0.0423342837187 -0.104989023622 0.915 1.64737193972e-38
0.0440276550675 -0.104989023622 0.915 1.61964094376e-38
0.0456210897465 -0.104759539418 0.913 1.58276339247e-38
0.0473107597371 -0.104759539418 0.913 1.65662835686e-38
0.0490004297277 -0.104759539418 0.913 1.59195072559e-38
0.050523538602 -0.104415313111 0.91 1.57350795624e-38
0.0522076565554 -0.104415313111 0.91 1.6287527469e-38
0.0537733310484 -0.104185828906 0.908 1.60113035157e-38
0.0554537476436 -0.104185828906 0.908 1.47223779778e-38
0.0571341642389 -0.104185828906 0.908 1.62882715585e-38
0.0586850332993 -0.103956344702 0.906 1.54584968767e-38
0.0600286263038 -0.10338263419 0.901 1.5734025786e-38
0.0614906627689 -0.103038407883 0.898 1.52755447505e-38
0.0630119209642 -0.102808923678 0.896 1.50922324906e-38
0.0646701294106 -0.102808923678 0.896 1.50929485541e-38
0.066328337857 -0.102808923678 0.896 1.41717237333e-38
0.0678347906197 -0.102579439474 0.894 1.36171234323e-38
0.069489297708 -0.102579439474 0.894 2.01579376495e-38
0.0711438047963 -0.102579439474 0.894 2.34922096363e-38
-0.00496352126486 -0.100924932385 0.894 2.3491029743e-38
-0.00330901417657 -0.100924932385 0.894 2.31096397413e-38
-0.00166190980456 -0.101376498078 0.898 2.06156900098e-38
0.0 -0.101376498078 0.898 2.04334651575e-38
0.00166746184177 -0.101715172348 0.901 2.05263642392e-38
0.00335343047424 -0.102279629464 0.906 2.0341562399e-38
0.00504124978578 -0.102505412311 0.908 2.12642824053e-38
0.00672166638105 -0.102505412311 0.908 1.96072595829e-38
0.008420589767 -0.102731195157 0.91 1.88679134937e-38
0.0101047077204 -0.102731195157 0.91 1.90505096901e-38
0.0117888256738 -0.102731195157 0.91 1.8407647204e-38
0.0135173599249 -0.103069869427 0.913 1.92384966816e-38
0.0152070299155 -0.103069869427 0.913 1.79466858702e-38
0.0169337134875 -0.103295652274 0.915 1.66556093392e-38
0.0186270848362 -0.103295652274 0.915 1.85931048518e-38
0.0203870806315 -0.103634326543 0.918 1.65659038167e-38
0.0220860040175 -0.103634326543 0.918 1.6564848639e-38
0.0237849274034 -0.103634326543 0.918 1.64715571937e-38
0.0255393711615 -0.10386010939 0.92 1.69332458014e-38
0.0272419959056 -0.10386010939 0.92 1.6934680731e-38
0.0289446206497 -0.10386010939 0.92 1.69332458014e-38
0.0306472453938 -0.10386010939 0.92 1.70247225651e-38
0.0324553588448 -0.10419878366 0.923 1.65638046716e-38
0.0341635356261 -0.10419878366 0.923 1.65637514223e-38
0.0358717124074 -0.10419878366 0.923 1.61960507052e-38
0.0375798891887 -0.10419878366 0.923 1.61956919728e-38
0.03928806597 -0.10419878366 0.923 1.58283499882e-38
0.0408629938583 -0.10386010939 0.92 1.58283527908e-38
0.042473084649 -0.103634326543 0.918 1.51815582612e-38
0.0440276550675 -0.103295652274 0.915 1.58269150586e-38
0.0457210264162 -0.103295652274 0.915 1.61957031832e-38
0.047414397765 -0.103295652274 0.915 1.62893253349e-38
0.0490004297277 -0.103069869427 0.913 1.57375906893e-38
0.0506900997183 -0.103069869427 0.913 1.5921620414e-38
0.0522076565554 -0.102731195157 0.91 1.5736514492e-38
0.0538917745088 -0.102731195157 0.91 1.61042152091e-38
0.0554537476436 -0.102505412311 0.908 1.51855561657e-38
0.0571341642389 -0.102505412311 0.908 1.57361557596e-38
0.0586850332993 -0.102279629464 0.906 1.56432440663e-38
0.0600286263038 -0.101715172348 0.901 1.58279912558e-38
0.0614906627689 -0.101376498078 0.898 1.50904374273e-38
0.0630119209642 -0.101150715232 0.896 1.52769782788e-38
0.0646701294106 -0.101150715232 0.896 1.50929751788e-38
0.066328337857 -0.101150715232 0.896 1.46319774113e-38
0.0678347906197 -0.100924932385 0.894 1.25104339571e-38
0.069489297708 -0.100924932385 0.894 1.59187911924e-38
0.0709050671963 -0.100586258116 0.891 2.34845683558e-38
0.0725540222474 -0.100586258116 0.891 2.35051450224e-38
-0.00496352126486 -0.0992704252972 0.894 2.34924926986e-38
-0.00330901417657 -0.0992704252972 0.894 1.96044275587e-38
-0.00166190980456 -0.0997145882739 0.898 2.08022098419e-38
0.0 -0.0997145882739 0.898 2.09862802043e-38
0.00166746184177 -0.100047710506 0.901 2.06185991054e-38
0.00335343047424 -0.100602914227 0.906 2.02515569986e-38
0.00504124978578 -0.100824995716 0.908 2.00653832873e-38
0.0067364718136 -0.101047077204 0.91 1.84079975286e-38
0.00844834995305 -0.101380199437 0.913 1.88664939783e-38
0.0101380199437 -0.101380199437 0.913 1.91441332431e-38
0.0118276899343 -0.101380199437 0.913 1.76697290378e-38
0.0135173599249 -0.101380199437 0.913 1.77615897574e-38
0.0152403421387 -0.101602280925 0.915 1.77626589481e-38
0.0169337134875 -0.101602280925 0.915 1.63797216976e-38
0.0186881572455 -0.101935403157 0.918 1.67474224146e-38
0.0203870806315 -0.101935403157 0.918 1.71176342585e-38
0.0220860040175 -0.101935403157 0.918 1.6103534178e-38
0.0238367464174 -0.102157484646 0.92 1.65659038167e-38
0.0255393711615 -0.102157484646 0.92 1.60113035157e-38
0.0272419959056 -0.102157484646 0.92 1.59187505547e-38
0.0290390052822 -0.102490606878 0.923 1.62864512718e-38
0.0307471820635 -0.102490606878 0.923 1.5916972307e-38
0.0324553588448 -0.102490606878 0.923 1.61017194965e-38
0.0341635356261 -0.102490606878 0.923 1.58258388614e-38
0.0358717124074 -0.102490606878 0.923 1.61967681701e-38
0.0375798891887 -0.102490606878 0.923 1.56439615311e-38
0.03928806597 -0.102490606878 0.923 1.53684550426e-38
0.0408629938583 -0.102157484646 0.92 1.5461366736e-38
0.042473084649 -0.101935403157 0.918 1.58301478541e-38
0.0441720080349 -0.101935403157 0.918 1.53674447064e-38
0.0458709314209 -0.101935403157 0.918 1.53666739922e-38
0.047414397765 -0.101602280925 0.915 1.49078426322e-38
0.0491077691137 -0.101602280925 0.915 1.50000368607e-38
0.0508011404625 -0.101602280925 0.915 1.5274467152e-38
0.0523797697089 -0.101380199437 0.913 1.48149309388e-38
0.0540694396995 -0.101380199437 0.913 1.51822729234e-38
0.0555758924622 -0.101047077204 0.91 1.51855015151e-38
0.0571341642389 -0.100824995716 0.908 1.51851427827e-38
0.0586850332993 -0.100602914227 0.906 1.49085839191e-38
0.0601618751969 -0.100269791995 0.903 1.52755433492e-38
0.0614906627689 -0.0997145882739 0.898 1.47230954426e-38
0.0631525725735 -0.0997145882739 0.898 1.48152896712e-38
0.0646701294106 -0.0994925067855 0.896 1.46302019661e-38
0.066328337857 -0.0994925067855 0.896 1.46298250169e-38
0.0678347906197 -0.0992704252972 0.894 1.32476290532e-38
0.069489297708 -0.0992704252972 0.894 1.55492799977e-38
0.0709050671963 -0.0989373030646 0.891 2.25594128928e-38
0.0725540222474 -0.0989373030646 0.891 2.35040576148e-38
0.0742029772985 -0.0989373030646 0.891 2.35066093793e-38
-0.00498572941369 -0.0980526784693 0.898 2.34932311829e-38
-0.00332381960913 -0.0980526784693 0.898 1.90508782315e-38
-0.00166190980456 -0.0980526784693 0.898 2.13553934301e-38
0.0 -0.0985986287949 0.903 1.9974289078e-38
0.00167116319991 -0.0985986287949 0.903 2.02505186365e-38
0.00336083319052 -0.0991445791204 0.908 1.99739331482e-38
0.0050523538602 -0.0993629592506 0.91 1.98817136962e-38
0.00675867996244 -0.099690529446 0.913 1.93310454387e-38
0.00844834995305 -0.099690529446 0.913 1.85002225857e-38
0.0101380199437 -0.099690529446 0.913 1.76711583623e-38
0.0118535994412 -0.0999089095762 0.915 1.70254400299e-38
0.01354697079 -0.0999089095762 0.915 1.69329052858e-38
0.0152403421387 -0.0999089095762 0.915 1.67474392302e-38
0.0169892338596 -0.100236479772 0.918 1.65641101547e-38
0.0186881572455 -0.100236479772 0.918 1.62878862014e-38
0.0203870806315 -0.100236479772 0.918 1.66555869184e-38
0.0221341216733 -0.100454859902 0.92 1.59201854844e-38
0.0238367464174 -0.100454859902 0.92 1.61042152091e-38
0.0256226517196 -0.100782430097 0.923 1.61956919728e-38
0.0273308285009 -0.100782430097 0.923 1.59205442168e-38
0.0291019283706 -0.101000810227 0.925 1.6289321131e-38
0.03081380651 -0.101000810227 0.925 1.52751846168e-38
0.0325256846495 -0.101000810227 0.925 1.51829903882e-38
0.0341635356261 -0.100782430097 0.923 1.59205442168e-38
0.0358717124074 -0.100782430097 0.923 1.57361557596e-38
0.0375798891887 -0.100782430097 0.923 1.59194680195e-38
0.03928806597 -0.100782430097 0.923 1.49082013646e-38
0.0409962427514 -0.100782430097 0.923 1.42614124402e-38
0.042473084649 -0.100236479772 0.918 1.50003955932e-38
0.0441720080349 -0.100236479772 0.918 1.48156484036e-38
0.0458709314209 -0.100236479772 0.918 1.4815312092e-38
0.0475698548068 -0.100236479772 0.918 1.45391007504e-38
0.0491077691137 -0.0999089095762 0.915 1.49071251674e-38
0.0508011404625 -0.0999089095762 0.915 1.49993193959e-38
0.0524945118112 -0.0999089095762 0.915 1.44475889542e-38
0.05418788316 -0.0999089095762 0.915 1.53684550426e-38
0.0557591096901 -0.099690529446 0.913 1.4261406835e-38
0.0572600104156 -0.0993629592506 0.91 1.45390727244e-38
0.0588145808341 -0.0991445791204 0.908 1.45397831827e-38
0.0601618751969 -0.0985986287949 0.903 1.48152896712e-38
0.0614906627689 -0.0980526784693 0.898 1.42639179619e-38
0.0631525725735 -0.0980526784693 0.898 1.50003955932e-38
0.0646701294106 -0.0978342983391 0.896 1.49071742128e-38
0.066328337857 -0.0978342983391 0.896 1.46312599465e-38
0.0678347906197 -0.0976159182089 0.894 1.35256466685e-38
0.069489297708 -0.0976159182089 0.894 1.27852229807e-38
0.0709050671963 -0.0972883480135 0.891 2.24635234401e-38
0.0725540222474 -0.0972883480135 0.891 2.35011737426e-38
0.0742029772985 -0.0972883480135 0.891 2.35076813727e-38
-0.00501348959974 -0.096927465595 0.903 2.34935927179e-38
-0.00334232639983 -0.096927465595 0.903 1.79437949915e-38
-0.00167116319991 -0.096927465595 0.903 2.14468757991e-38
0.0 -0.096927465595 0.903 2.08065412554e-38
0.00167671523712 -0.0972494837531 0.906 1.99760771348e-38
0.00336083319052 -0.0974641625252 0.908 1.9514382922e-38
0.00506900997183 -0.0980008594554 0.913 1.90526760975e-38
0.006773485395 -0.0982155382274 0.915 1.91455947973e-38
0.00846685674374 -0.0982155382274 0.915 1.7946332743e-38
0.0101602280925 -0.0982155382274 0.915 1.76707996299e-38
0.0118535994412 -0.0982155382274 0.915 1.71183517233e-38
0.01354697079 -0.0982155382274 0.915 1.67474574471e-38
0.0152903104736 -0.0985375563856 0.918 1.66570218481e-38
0.0169892338596 -0.0985375563856 0.918 1.62889623986e-38
0.0187288721851 -0.0987522351576 0.92 1.59194680195e-38
0.0204314969292 -0.0987522351576 0.92 1.61031390119e-38
0.0221341216733 -0.0987522351576 0.92 1.54581381443e-38
0.0239144749383 -0.0990742533158 0.923 1.5181914191e-38
0.0256226517196 -0.0990742533158 0.923 1.49049727729e-38
0.0273308285009 -0.0990742533158 0.923 1.5276260814e-38
0.0291019283706 -0.0992889320879 0.925 1.48152896712e-38
0.03081380651 -0.0992889320879 0.925 1.4168144817e-38
0.0325256846495 -0.0992889320879 0.925 1.49979082884e-38
0.0342375627889 -0.0992889320879 0.925 1.51811967262e-38
0.0359494409284 -0.0992889320879 0.925 1.49053315053e-38
0.0376613190678 -0.0992889320879 0.925 1.4814213474e-38
0.0393731972073 -0.0992889320879 0.925 1.46319774113e-38
0.0409962427514 -0.0990742533158 0.923 1.46301837493e-38
0.0427044195327 -0.0990742533158 0.923 1.51826316558e-38
0.0442682433465 -0.0987522351576 0.92 1.50000368607e-38
0.0458709314209 -0.0985375563856 0.918 1.50933072865e-38
0.0475698548068 -0.0985375563856 0.918 1.45387069855e-38
0.0491077691137 -0.0982155382274 0.915 1.46312599465e-38
0.0508011404625 -0.0982155382274 0.915 1.45390657179e-38
0.0524945118112 -0.0982155382274 0.915 1.45390657179e-38
0.05418788316 -0.0982155382274 0.915 1.58276325234e-38
0.0558812545087 -0.0982155382274 0.915 1.41695713388e-38
0.0574487796807 -0.0980008594554 0.913 1.50918723569e-38
0.058944128369 -0.0976788412972 0.91 1.46326948761e-38
0.0603617485364 -0.0972494837531 0.906 1.39862590789e-38
0.0614906627689 -0.0963907686647 0.898 1.49089342437e-38
0.0631525725735 -0.0963907686647 0.898 1.40802469695e-38
0.0646701294106 -0.0961760898927 0.896 1.44468798971e-38
0.066328337857 -0.0961760898927 0.896 1.39862590789e-38
0.0678347906197 -0.0959614111206 0.894 1.34338111724e-38
0.069489297708 -0.0959614111206 0.894 1.25983233968e-38
0.0707459087963 -0.0954247141904 0.889 2.23684565497e-38
0.0723911624893 -0.0954247141904 0.889 2.34961374759e-38
0.0740364161822 -0.0954247141904 0.889 2.3509823958e-38
-0.00334232639983 -0.095256302395 0.903 1.9234906555e-38
-0.00167116319991 -0.095256302395 0.903 2.05263222002e-38
0.0 -0.095256302395 0.903 2.0158667726e-38
0.00167671523712 -0.095572768516 0.906 1.970125448e-38
0.00336083319052 -0.0957837459299 0.908 1.96072960167e-38
0.00506900997183 -0.0963111894648 0.913 1.84080283571e-38
0.006773485395 -0.0965221668787 0.915 1.87743165653e-38
0.00846685674374 -0.0965221668787 0.915 1.76676186824e-38
0.0101602280925 -0.0965221668787 0.915 1.80392528442e-38
0.0118535994412 -0.0965221668787 0.915 1.72098621182e-38
0.0135913870877 -0.0968386329996 0.918 1.61961403883e-38
0.0152903104736 -0.0968386329996 0.918 1.61038634832e-38
0.017026247441 -0.0970496104135 0.92 1.59187505547e-38
0.0187288721851 -0.0970496104135 0.92 1.59194680195e-38
0.0204981213757 -0.0973660765345 0.923 1.56436027987e-38
0.022206298157 -0.0973660765345 0.923 1.56439615311e-38
0.0239662939522 -0.0975770539484 0.925 1.48163658684e-38
0.0256781720917 -0.0975770539484 0.925 1.49096404981e-38
0.0273900502311 -0.0975770539484 0.925 1.41696091739e-38
0.0291019283706 -0.0975770539484 0.925 1.4353959796e-38
0.0309137431798 -0.0978935200693 0.928 1.46309012141e-38
0.0325256846495 -0.0975770539484 0.925 1.40773771103e-38
0.0342375627889 -0.0975770539484 0.925 1.50904374273e-38
0.0359494409284 -0.0975770539484 0.925 1.46280313548e-38
0.0376613190678 -0.0975770539484 0.925 1.49074838998e-38
0.0393731972073 -0.0975770539484 0.925 1.41706475361e-38
0.0410850753467 -0.0975770539484 0.925 1.47227367102e-38
0.0427044195327 -0.0973660765345 0.923 1.42603404469e-38
0.044412596314 -0.0973660765345 0.923 1.43532423312e-38
0.0461207730953 -0.0973660765345 0.923 1.41695713388e-38
0.0476734928347 -0.0970496104135 0.92 1.44465127569e-38
0.0492687781928 -0.0968386329996 0.918 1.46301837493e-38
0.0509677015787 -0.0968386329996 0.918 1.41702888037e-38
0.0526666249647 -0.0968386329996 0.918 1.42628417646e-38
0.05418788316 -0.0965221668787 0.915 1.49993193959e-38
0.0558812545087 -0.0965221668787 0.915 1.42617655674e-38
0.0574487796807 -0.0963111894648 0.913 1.44443603625e-38
0.058944128369 -0.0959947233438 0.91 1.42617655674e-38
0.0604949974294 -0.0957837459299 0.908 1.51847840503e-38
0.0616960881456 -0.0950453249811 0.901 1.40777358427e-38
0.0631525725735 -0.0947288588602 0.898 1.44472302218e-38
0.0646701294106 -0.0945178814462 0.896 1.44475889542e-38
0.066328337857 -0.0945178814462 0.896 1.43540004336e-38
0.0678347906197 -0.0943069040323 0.894 1.41702888037e-38
0.0692561121452 -0.0939904379114 0.891 1.305785961e-38
0.0707459087963 -0.0937794604974 0.889 2.16338426454e-38
0.0723911624893 -0.0937794604974 0.889 2.34986177742e-38
0.0740364161822 -0.0937794604974 0.889 2.35076897805e-38
-0.00336083319052 -0.0941033293346 0.908 1.90540830011e-38
0.0 -0.0941033293346 0.908 2.0251206674e-38
0.00168041659526 -0.0941033293346 0.908 2.01611284061e-38
0.00337933998122 -0.0946215194741 0.913 1.84991547963e-38
0.00508011404625 -0.0948287955299 0.915 1.83169131284e-38
0.006773485395 -0.0948287955299 0.915 1.78552315273e-38
0.00849461692979 -0.0951397096136 0.918 1.7209508991e-38
0.0101935403157 -0.0951397096136 0.918 1.65648430338e-38
0.0118924637017 -0.0951397096136 0.918 1.61031544261e-38
0.0135913870877 -0.0951397096136 0.918 1.7026186922e-38
0.0153236226969 -0.0953469856695 0.92 1.56432552766e-38
0.017026247441 -0.0953469856695 0.92 1.54584968767e-38
0.0187288721851 -0.0953469856695 0.92 1.56425266014e-38
0.0204981213757 -0.0956578997532 0.923 1.49975257339e-38
0.022206298157 -0.0956578997532 0.923 1.50000368607e-38
0.0239662939522 -0.095865175809 0.925 1.45401419151e-38
0.0256781720917 -0.095865175809 0.925 1.39855416141e-38
0.0273900502311 -0.095865175809 0.925 1.48138645507e-38
0.0291963130031 -0.0961760898927 0.928 1.46326948761e-38
0.0309137431798 -0.0961760898927 0.928 1.44475889542e-38
0.0325256846495 -0.095865175809 0.925 1.49074838998e-38
0.0342375627889 -0.095865175809 0.925 1.41681630339e-38
0.0359494409284 -0.095865175809 0.925 1.44443603625e-38
0.0376613190678 -0.095865175809 0.925 1.44468714894e-38
0.0393731972073 -0.095865175809 0.925 1.44465127569e-38
0.0410850753467 -0.095865175809 0.925 1.42621242998e-38
0.0427044195327 -0.0956578997532 0.923 1.39862590789e-38
0.044412596314 -0.0956578997532 0.923 1.41702888037e-38
0.0461207730953 -0.0956578997532 0.923 1.44465127569e-38
0.0476734928347 -0.0953469856695 0.92 1.40773771103e-38
0.0492687781928 -0.0951397096136 0.918 1.41695713388e-38
0.0509677015787 -0.0951397096136 0.918 1.36178408971e-38
0.0526666249647 -0.0951397096136 0.918 1.45394244503e-38
0.05418788316 -0.0948287955299 0.915 1.38944235828e-38
0.0558812545087 -0.0948287955299 0.915 1.42617655674e-38
0.0574487796807 -0.0946215194741 0.913 1.39862590789e-38
0.058944128369 -0.0943106053904 0.91 1.38025922905e-38
0.0604949974294 -0.0941033293346 0.908 1.3709337279e-38
0.0616960881456 -0.0933778631393 0.901 1.38015118894e-38
0.0631525725735 -0.0930669490556 0.898 1.39855416141e-38
0.0646701294106 -0.0928596729998 0.896 1.41692126064e-38
0.066328337857 -0.0928596729998 0.896 1.3801153157e-38
0.0678347906197 -0.092652396944 0.894 1.40773771103e-38
0.0692561121452 -0.0923414828603 0.891 1.26912350901e-38
0.0707459087963 -0.0921342068045 0.889 2.32011066959e-38
0.0723911624893 -0.0921342068045 0.889 2.35019150295e-38
0.0 -0.092626487437 0.91 1.88690107104e-38
0.0016841179534 -0.092626487437 0.91 2.01611564321e-38
0.00337933998122 -0.0929318494835 0.913 1.87771654051e-38
0.00508011404625 -0.0931354241812 0.915 1.7949924271e-38
0.00679569354383 -0.0934407862277 0.918 1.73938932442e-38
0.00849461692979 -0.0934407862277 0.918 1.77637155271e-38
0.0101935403157 -0.0934407862277 0.918 1.65666212815e-38
0.0119183732087 -0.0936443609254 0.92 1.6381874092e-38
0.0136209979528 -0.0936443609254 0.92 1.62896798634e-38
0.0153735910318 -0.0939497229719 0.923 1.51826316558e-38
0.0170817678131 -0.0939497229719 0.923 1.53652264509e-38
0.0187899445944 -0.0939497229719 0.923 1.52733909548e-38
0.0205425376733 -0.0941532976695 0.925 1.56414504042e-38
0.0222544158128 -0.0941532976695 0.925 1.49975257339e-38
0.0240440224732 -0.094458659716 0.928 1.42624830322e-38
0.0257614526498 -0.094458659716 0.928 1.50003955932e-38
0.0274788828265 -0.094458659716 0.928 1.40759421807e-38
0.0291963130031 -0.094458659716 0.928 1.50925898217e-38
0.0309137431798 -0.094458659716 0.928 1.38933473856e-38
0.0326311733564 -0.094458659716 0.928 1.42621242998e-38
0.0343486035331 -0.094458659716 0.928 1.41702888037e-38
0.0360660337097 -0.094458659716 0.928 1.41695713388e-38
0.0376613190678 -0.0941532976695 0.925 1.4168853874e-38
0.0393731972073 -0.0941532976695 0.925 1.38018706218e-38
0.0410850753467 -0.0941532976695 0.925 1.39869765438e-38
0.0427969534861 -0.0941532976695 0.925 1.38947823152e-38
0.0445088316256 -0.0941532976695 0.925 1.3801153157e-38
0.046220709765 -0.0941532976695 0.925 1.47227367102e-38
0.0478289498766 -0.0939497229719 0.923 1.29717638323e-38
0.0493761175788 -0.0936443609254 0.92 1.39869765438e-38
0.0509677015787 -0.0934407862277 0.918 1.33405407466e-38
0.0526666249647 -0.0934407862277 0.918 1.3616047235e-38
0.0543655483507 -0.0934407862277 0.918 1.38933473856e-38
0.0558812545087 -0.0931354241812 0.915 1.34345454528e-38
0.0575746258575 -0.0931354241812 0.915 1.38033055514e-38
0.0591384496713 -0.0929318494835 0.913 1.36189170943e-38
0.0606282463224 -0.092626487437 0.91 1.32508576449e-38
0.0618330383968 -0.0919139759952 0.903 1.33430532747e-38
0.0631525725735 -0.0914050392511 0.898 1.4447273662e-38
0.0646701294106 -0.0912014645534 0.896 1.45394244503e-38
0.066328337857 -0.0912014645534 0.896 1.38940998828e-38
0.0678347906197 -0.0909978898557 0.894 1.26944636818e-38
0.069489297708 -0.0909978898557 0.894 1.4072713589e-38
0.0711438047963 -0.0909978898557 0.894 2.32033025306e-38
0.0 -0.0912421794929 0.913 1.96065533285e-38
0.00168966999061 -0.0912421794929 0.913 1.94232536803e-38
0.00337933998122 -0.0912421794929 0.913 1.87775339466e-38
0.00508011404625 -0.0914420528324 0.915 1.72105837869e-38
0.00679569354383 -0.0917418628417 0.918 1.65630465691e-38
0.00849461692979 -0.0917418628417 0.918 1.64708397289e-38
0.0102157484646 -0.0919417361813 0.92 1.61960507052e-38
0.0119183732087 -0.0919417361813 0.92 1.55510498377e-38
0.0136654142505 -0.0922415461905 0.923 1.58279912558e-38
0.0153735910318 -0.0922415461905 0.923 1.63818768946e-38
0.0171187813945 -0.0924414195301 0.925 1.51815554586e-38
0.0188306595339 -0.0924414195301 0.925 1.54577794119e-38
0.0205425376733 -0.0924414195301 0.925 1.53655851833e-38
0.0222544158128 -0.0924414195301 0.925 1.54588556091e-38
0.0240440224732 -0.0927412295394 0.928 1.41702888037e-38
0.0257614526498 -0.0927412295394 0.928 1.41699300713e-38
0.0274788828265 -0.0927412295394 0.928 1.43528948091e-38
0.0292592360915 -0.0929411028789 0.93 1.4629469087e-38
0.0309803676263 -0.0929411028789 0.93 1.41692140077e-38
0.0327014991611 -0.0929411028789 0.93 1.48152896712e-38
0.0344226306959 -0.0929411028789 0.93 1.41699300713e-38
0.0360660337097 -0.0927412295394 0.928 1.39851828817e-38
0.0377834638864 -0.0927412295394 0.928 1.39851828817e-38
0.0395008940631 -0.0927412295394 0.928 1.38955011813e-38
0.0412183242397 -0.0927412295394 0.928 1.35285165278e-38
0.0427969534861 -0.0924414195301 0.925 1.3248346518e-38
0.0445088316256 -0.0924414195301 0.925 1.41663427472e-38
0.046220709765 -0.0924414195301 0.925 1.41684951416e-38
0.0479325879045 -0.0924414195301 0.925 1.37089589284e-38
0.0495371266579 -0.0922415461905 0.923 1.33412582114e-38
0.0510787423229 -0.0919417361813 0.92 1.33416169438e-38
0.0526666249647 -0.0917418628417 0.918 1.35234942741e-38
0.0543655483507 -0.0917418628417 0.918 1.36181996295e-38
0.0558812545087 -0.0914420528324 0.915 1.22370798631e-38
0.0575746258575 -0.0914420528324 0.915 1.31586634163e-38
0.0591384496713 -0.0912421794929 0.913 1.278809284e-38
0.0608281196619 -0.0912421794929 0.913 1.32472703208e-38
0.0616960881456 -0.0900429394558 0.901 1.38025880866e-38
0.0631525725735 -0.0897431294465 0.898 1.34338111724e-38
0.0646701294106 -0.089543256107 0.896 1.36185583619e-38
0.066328337857 -0.089543256107 0.896 1.39862590789e-38
0.0678347906197 -0.0893433827674 0.894 1.11268030638e-38
0.069489297708 -0.0893433827674 0.894 1.85867359503e-38
0.0711438047963 -0.0893433827674 0.894 2.34899983873e-38
-0.00168966999061 -0.0895525095023 0.913 1.82286831732e-38
0.0 -0.0895525095023 0.913 2.01550257513e-38
0.00168966999061 -0.0895525095023 0.913 1.85016547127e-38
0.00337933998122 -0.0895525095023 0.913 1.82218616523e-38
0.00508011404625 -0.0897486814837 0.915 1.76715591336e-38
0.00679569354383 -0.0900429394558 0.918 1.73020731624e-38
0.00851312372049 -0.0902391114372 0.92 1.64715642002e-38
0.0102157484646 -0.0902391114372 0.92 1.5919826752e-38
0.0119572374691 -0.0905333694092 0.923 1.6289321131e-38
0.0136950251156 -0.0907295413906 0.925 1.51822771273e-38
0.015406903255 -0.0907295413906 0.925 1.56428853338e-38
0.0171187813945 -0.0907295413906 0.925 1.51808379938e-38
0.0188306595339 -0.0907295413906 0.925 1.52748258844e-38
0.0206091621199 -0.0910237993627 0.928 1.4816007136e-38
0.0223265922965 -0.0910237993627 0.928 1.45394286542e-38
0.0240440224732 -0.0910237993627 0.928 1.46305424817e-38
0.0257614526498 -0.0910237993627 0.928 1.43543185284e-38
0.0275381045567 -0.0912199713441 0.93 1.40777358427e-38
0.0292592360915 -0.0912199713441 0.93 1.3801153157e-38
0.0310803042961 -0.0915142293162 0.933 1.3801153157e-38
0.0328069878681 -0.0915142293162 0.933 1.41684951416e-38
0.0345336714401 -0.0915142293162 0.933 1.38018706218e-38
0.0362603550121 -0.0915142293162 0.933 1.39851828817e-38
0.0379870385841 -0.0915142293162 0.933 1.38940648504e-38
0.0395860253003 -0.0912199713441 0.93 1.38018706218e-38
0.0412183242397 -0.0910237993627 0.928 1.3527799063e-38
0.0429357544164 -0.0910237993627 0.928 1.30668363279e-38
0.044653184593 -0.0910237993627 0.928 1.34330937075e-38
0.046220709765 -0.0907295413906 0.925 1.47205955262e-38
0.0479325879045 -0.0907295413906 0.925 1.31543586274e-38
0.0495371266579 -0.0905333694092 0.923 1.3616047235e-38
0.0510787423229 -0.0902391114372 0.92 1.33416169438e-38
0.052781367067 -0.0902391114372 0.92 1.31579459515e-38
0.0543655483507 -0.0900429394558 0.918 1.36181996295e-38
0.0560644717366 -0.0900429394558 0.918 1.32490639828e-38
0.0575746258575 -0.0897486814837 0.915 1.27884515724e-38
0.0592679972062 -0.0897486814837 0.915 1.41692140077e-38
0.0608281196619 -0.0895525095023 0.913 1.28802870686e-38
0.0616960881456 -0.088375477614 0.901 1.33387470845e-38
0.0631525725735 -0.0880812196419 0.898 1.29728400295e-38
0.064814482378 -0.0880812196419 0.898 1.34338111724e-38
0.066328337857 -0.0878850476605 0.896 1.37082414636e-38
0.0679865463034 -0.0878850476605 0.896 1.10320977084e-38
0.0696447547499 -0.0878850476605 0.896 2.34813551784e-38
0.0713029631963 -0.0878850476605 0.896 2.34849565155e-38
-0.00337933998122 -0.0878628395117 0.913 2.34655765577e-38
-0.00168966999061 -0.0878628395117 0.913 2.34975289653e-38
0.0 -0.0878628395117 0.913 1.67420820661e-38
0.00168966999061 -0.0878628395117 0.913 1.91459283064e-38
0.00337933998122 -0.0878628395117 0.913 1.80392682585e-38
0.00508011404625 -0.0880553101349 0.915 1.75811431528e-38
0.00679569354383 -0.0883440160698 0.918 1.62907700736e-38
0.00851312372049 -0.0885364866931 0.92 1.67488769624e-38
0.0102490606878 -0.0888251926279 0.923 1.61031544261e-38
0.0119831469761 -0.0890176632512 0.925 1.61045865532e-38
0.0136950251156 -0.0890176632512 0.925 1.54592521766e-38
0.0154568715899 -0.089306369186 0.928 1.5274467152e-38
0.0171743017665 -0.089306369186 0.928 1.5181914191e-38
0.0188917319432 -0.089306369186 0.928 1.47230954426e-38
0.0206091621199 -0.089306369186 0.928 1.44472302218e-38
0.0223265922965 -0.089306369186 0.928 1.49082013646e-38
0.0240958414871 -0.0894988398093 0.93 1.43553947256e-38
0.0258169730219 -0.0894988398093 0.93 1.39866234165e-38
0.027626937152 -0.0897875457442 0.933 1.41706475361e-38
0.0293536207241 -0.0897875457442 0.933 1.41702888037e-38
0.0311469287426 -0.0899800163674 0.935 1.38933473856e-38
0.0328773136727 -0.0899800163674 0.935 1.44479476866e-38
0.0346076986028 -0.0899800163674 0.935 1.30668363279e-38
0.036338083533 -0.0899800163674 0.935 1.36185583619e-38
0.0380684684631 -0.0899800163674 0.935 1.37093176608e-38
0.0397137221561 -0.0897875457442 0.933 1.30643209972e-38
0.0413071568351 -0.0894988398093 0.93 1.33434106058e-38
0.0429357544164 -0.089306369186 0.928 1.27909626993e-38
0.044653184593 -0.089306369186 0.928 1.35263641333e-38
0.0463706147697 -0.089306369186 0.928 1.36164059675e-38
0.0479325879045 -0.0890176632512 0.925 1.36167646999e-38
0.0495371266579 -0.0888251926279 0.923 1.36181996295e-38
0.0512453034392 -0.0888251926279 0.923 1.26051393125e-38
0.052781367067 -0.0885364866931 0.92 1.3893706118e-38
0.0543655483507 -0.0883440160698 0.918 1.29735574944e-38
0.0560644717366 -0.0883440160698 0.918 1.37093176608e-38
0.0577633951226 -0.0883440160698 0.918 1.35249432167e-38
0.0592679972062 -0.0880553101349 0.915 1.29742749592e-38
0.060961368555 -0.0880553101349 0.915 1.29739204307e-38
0.0618330383968 -0.0869004863955 0.903 1.29731987619e-38
0.0633635499874 -0.0867080157722 0.901 1.32487052504e-38
0.064814482378 -0.0864193098374 0.898 1.39851828817e-38
0.0664763921826 -0.0864193098374 0.898 1.11264443314e-38
0.0681383019871 -0.0864193098374 0.898 1.71958953764e-38
0.0698002117917 -0.0864193098374 0.898 2.34889319992e-38
-0.00168966999061 -0.0861731695211 0.913 2.34983066859e-38
0.0 -0.0861731695211 0.913 2.09052627322e-38
0.00169337134875 -0.0863619387862 0.915 1.92266346901e-38
0.0033867426975 -0.0863619387862 0.915 1.65655450843e-38
0.00508011404625 -0.0863619387862 0.915 1.7302381448e-38
0.00681049897639 -0.086833861949 0.92 1.64733536583e-38
0.00854088390653 -0.0871170158466 0.923 1.63811566272e-38
0.0102712688367 -0.0873057851117 0.925 1.6470126468e-38
0.0119831469761 -0.0873057851117 0.925 1.59169779122e-38
0.0137394414132 -0.0875889390094 0.928 1.58254927406e-38
0.0154568715899 -0.0875889390094 0.928 1.50904374273e-38
0.0171743017665 -0.0875889390094 0.928 1.47227367102e-38
0.0188917319432 -0.0875889390094 0.928 1.47230954426e-38
0.0206535784175 -0.0877777082745 0.93 1.44465127569e-38
0.0223747099523 -0.0877777082745 0.93 1.43543185284e-38
0.024173570008 -0.0880608621722 0.933 1.42621242998e-38
0.02590025358 -0.0880608621722 0.933 1.4261406835e-38
0.0276861588823 -0.0882496314373 0.935 1.39855416141e-38
0.0294165438124 -0.0882496314373 0.935 1.3893706118e-38
0.0311469287426 -0.0882496314373 0.935 1.3709337279e-38
0.0328773136727 -0.0882496314373 0.935 1.36178408971e-38
0.0346076986028 -0.0882496314373 0.935 1.27909626993e-38
0.036338083533 -0.0882496314373 0.935 1.2974992424e-38
0.0380684684631 -0.0882496314373 0.935 1.35242117389e-38
0.0397137221561 -0.0880608621722 0.933 1.36181996295e-38
0.0414404057281 -0.0880608621722 0.933 1.29728400295e-38
0.0430282883699 -0.0877777082745 0.93 1.2789886502e-38
0.0447494199046 -0.0877777082745 0.93 1.28802870686e-38
0.0463706147697 -0.0875889390094 0.928 1.30653929905e-38
0.0480880449463 -0.0875889390094 0.928 1.32490639828e-38
0.0496444660439 -0.0873057851117 0.925 1.31550760922e-38
0.0512453034392 -0.0871170158466 0.923 1.31550760922e-38
0.0529534802205 -0.0871170158466 0.923 1.27884515724e-38
0.0544839918111 -0.086833861949 0.92 1.30664691877e-38
0.0561866165552 -0.086833861949 0.92 1.28802870686e-38
0.0577633951226 -0.0866450926839 0.918 1.29724812971e-38
0.0594623185085 -0.0866450926839 0.918 1.29739162268e-38
0.060961368555 -0.0863619387862 0.915 1.26969748087e-38
0.0618330383968 -0.0852293231956 0.903 1.29739162268e-38
0.0633635499874 -0.0850405539305 0.901 1.31579459515e-38
0.0650310118292 -0.0850405539305 0.901 1.23249693027e-38
0.0666984736709 -0.0850405539305 0.901 1.04760624777e-38
0.0683659355127 -0.0850405539305 0.901 2.34900011899e-38
-0.00169892338596 -0.0849461692979 0.918 1.14837544203e-38
0.0 -0.0849461692979 0.918 2.35004632843e-38
0.00169337134875 -0.0846685674374 0.915 1.87786143477e-38
0.0033867426975 -0.0846685674374 0.915 1.82167903531e-38
0.00509677015787 -0.0849461692979 0.918 1.70265246349e-38
0.00683270712523 -0.0854088390653 0.923 1.68403537262e-38
0.00854088390653 -0.0854088390653 0.923 1.60116622481e-38
0.0102712688367 -0.0855939069723 0.925 1.68399753756e-38
0.0119831469761 -0.0855939069723 0.925 1.58254801289e-38
0.0137394414132 -0.0858715088327 0.928 1.56432440663e-38
0.0154901838131 -0.0860565767397 0.93 1.51833491207e-38
0.0172113153479 -0.0860565767397 0.93 1.47230954426e-38
0.0189324468827 -0.0860565767397 0.93 1.49996781283e-38
0.020720202864 -0.0863341786002 0.933 1.45390657179e-38
0.022446886436 -0.0863341786002 0.933 1.38951410476e-38
0.024225389022 -0.0865192465071 0.935 1.43543185284e-38
0.0259557739521 -0.0865192465071 0.935 1.47223779778e-38
0.0276861588823 -0.0865192465071 0.935 1.35242117389e-38
0.0294165438124 -0.0865192465071 0.935 1.33412582114e-38
0.0311469287426 -0.0865192465071 0.935 1.38025922905e-38
0.0328773136727 -0.0865192465071 0.935 1.31579459515e-38
0.0346076986028 -0.0865192465071 0.935 1.31583046839e-38
0.036338083533 -0.0865192465071 0.935 1.30657517229e-38
0.0380684684631 -0.0865192465071 0.935 1.30646839335e-38
0.0397988533933 -0.0865192465071 0.935 1.28802870686e-38
0.0415292383234 -0.0865192465071 0.935 1.25118688867e-38
0.0431670893001 -0.0863341786002 0.933 1.29721225647e-38
0.0448937728721 -0.0863341786002 0.933 1.32487052504e-38
0.0464705514394 -0.0860565767397 0.93 1.27895277696e-38
0.0480880449463 -0.0858715088327 0.928 1.3155793557e-38
0.0496444660439 -0.0855939069723 0.925 1.35238530065e-38
0.0513563441834 -0.0855939069723 0.925 1.28795766102e-38
0.0529534802205 -0.0854088390653 0.923 1.31572284867e-38
0.0544839918111 -0.0851312372049 0.92 1.30650342581e-38
0.0561866165552 -0.0851312372049 0.92 1.3155793557e-38
0.0577633951226 -0.0849461692979 0.918 1.27884515724e-38
0.0594623185085 -0.0849461692979 0.918 1.3342693141e-38
0.060961368555 -0.0846685674374 0.915 1.18683141592e-38
0.0626547399037 -0.0846685674374 0.915 1.33416169438e-38
0.0642074596432 -0.0844834995305 0.913 1.3248346518e-38
0.0658971296338 -0.0844834995305 0.913 9.00633580681e-39
0.0675867996244 -0.0844834995305 0.913 2.34780551205e-38
0.069276469615 -0.0844834995305 0.913 2.34906752145e-38
0.0709661396056 -0.0844834995305 0.913 1.26944748922e-38
-0.00169892338596 -0.0832472459119 0.918 5.41829427332e-39
0.0 -0.0832472459119 0.918 1.53610085426e-38
0.00169892338596 -0.0832472459119 0.918 2.34990409663e-38
0.00339784677192 -0.0832472459119 0.918 1.7119073392e-38
0.00512453034392 -0.083700662284 0.923 1.7752949351e-38
0.00683270712523 -0.083700662284 0.923 1.61950053366e-38
0.00855939069723 -0.0838820288328 0.925 1.64708397289e-38
0.0103045810599 -0.0841540786561 0.928 1.59209029492e-38
0.0120220112366 -0.0841540786561 0.928 1.54596053038e-38
0.0137394414132 -0.0841540786561 0.928 1.55506911053e-38
0.0154901838131 -0.0843354452049 0.93 1.46312599465e-38
0.0172113153479 -0.0843354452049 0.93 1.4908560097e-38
0.018993519292 -0.0846074950282 0.933 1.46301837493e-38
0.020720202864 -0.0846074950282 0.933 1.44468714894e-38
0.0224950040919 -0.084788861577 0.935 1.34341699048e-38
0.024225389022 -0.084788861577 0.935 1.35242117389e-38
0.036338083533 -0.084788861577 0.935 1.3801153157e-38
0.0380684684631 -0.084788861577 0.935 1.26051393125e-38
0.0397988533933 -0.084788861577 0.935 1.30653929905e-38
0.0415292383234 -0.084788861577 0.935 1.25129450839e-38
0.0432596232536 -0.084788861577 0.935 1.41710174789e-38
0.0449900081837 -0.084788861577 0.935 1.23274804296e-38
0.0466204564441 -0.0846074950282 0.933 1.34338111724e-38
0.0481916829742 -0.0843354452049 0.93 1.31568697543e-38
0.0496444660439 -0.0838820288328 0.925 1.25129450839e-38
0.0513563441834 -0.0838820288328 0.925 1.29739162268e-38
0.0530682223228 -0.0838820288328 0.925 1.33412582114e-38
0.0546616570018 -0.083700662284 0.923 1.30639580609e-38
0.0561866165552 -0.0834286124608 0.92 1.3155793557e-38
