# .PCD v0.7 - Point Cloud Data file format
VERSION 0.7
FIELDS x y z rgb
SIZE 4 4 4 4
TYPE F F F F
COUNT 1 1 1 1
WIDTH 855
HEIGHT 1
VIEWPOINT 0 0 0 1 0 0 0
POINTS 855
DATA ascii
0.0184438676083 -0.117370066599 0.906 1.9421055043e-38
0.0201649991431 -0.117629161668 0.908 1.92403099619e-38
0.0218454157384 -0.117629161668 0.908 1.86867872594e-38
0.0235258323337 -0.117629161668 0.908 1.89626482763e-38
0.0252062489289 -0.117629161668 0.908 1.86856858388e-38
0.0268866655242 -0.117629161668 0.908 1.85012651518e-38
0.0285670821194 -0.117629161668 0.908 1.81354141487e-38
0.0303141231612 -0.117888256738 0.91 1.85041728461e-38
0.03192791531 -0.117629161668 0.908 1.7580439701e-38
0.0336083319052 -0.117629161668 0.908 1.81325022505e-38
0.0352887485005 -0.117629161668 0.908 1.74860944793e-38
0.0369691650957 -0.117629161668 0.908 1.76693885223e-38
0.038649581691 -0.117629161668 0.908 1.83165179622e-38
0.0403299982863 -0.117629161668 0.908 1.80414178503e-38
0.0420104148815 -0.117629161668 0.908 1.70276793049e-38
0.0436908314768 -0.117629161668 0.908 1.69347171647e-38
0.0453712480721 -0.117629161668 0.908 1.71197866529e-38
0.0470516646673 -0.117629161668 0.908 1.71169392144e-38
0.0486247418765 -0.117370066599 0.906 1.77616037704e-38
0.0503014571137 -0.117370066599 0.906 1.73971400528e-38
0.0519781723508 -0.117370066599 0.906 1.60113539624e-38
0.0536548875879 -0.117370066599 0.906 1.70272813361e-38
0.00833730920887 -0.115054867082 0.901 1.94192753939e-38
0.0100047710506 -0.115054867082 0.901 1.9235949121e-38
0.0117370066599 -0.115693351361 0.906 2.06217394153e-38
0.013413721897 -0.115693351361 0.906 1.89626482763e-38
0.0150904371341 -0.115693351361 0.906 1.89619322128e-38
0.0167671523712 -0.115693351361 0.906 1.96054841378e-38
0.0184845825479 -0.115948745073 0.908 1.80385045508e-38
0.0201649991431 -0.115948745073 0.908 1.9699512666e-38
0.0218454157384 -0.115948745073 0.908 1.84094744972e-38
0.0235258323337 -0.115948745073 0.908 1.91473898607e-38
0.025261769301 -0.116204138785 0.91 1.80392500416e-38
0.0269458872544 -0.116204138785 0.91 1.83176151789e-38
0.0286300052078 -0.116204138785 0.91 1.8042101684e-38
0.0303141231612 -0.116204138785 0.91 1.77662532787e-38
0.0319982411146 -0.116204138785 0.91 1.74892838346e-38
0.0336083319052 -0.115948745073 0.908 1.95157646023e-38
0.0352887485005 -0.115948745073 0.908 1.73035249076e-38
0.0370505949748 -0.116204138785 0.91 1.76712032038e-38
0.0387347129282 -0.116204138785 0.91 1.74874957778e-38
0.0403299982863 -0.115948745073 0.908 1.73031269388e-38
0.0420104148815 -0.115948745073 0.908 1.80392346273e-38
0.0436908314768 -0.115948745073 0.908 1.73931617664e-38
0.0453712480721 -0.115948745073 0.908 1.70268903738e-38
0.0470516646673 -0.115948745073 0.908 1.73942169442e-38
0.0486247418765 -0.115693351361 0.906 1.84069381469e-38
0.0503014571137 -0.115693351361 0.906 1.62872023677e-38
0.0519781723508 -0.115693351361 0.906 1.79477985012e-38
0.0534772223972 -0.115310260794 0.903 1.61974856349e-38
0.0551483855971 -0.115310260794 0.903 1.6844325006e-38
0.00333492368355 -0.113387405241 0.901 2.3486395649e-38
0.00500238552532 -0.113387405241 0.901 2.12617810875e-38
0.00666984736709 -0.113387405241 0.901 2.06167101551e-38
0.00833730920887 -0.113387405241 0.901 1.88675659716e-38
0.0100047710506 -0.113387405241 0.901 2.0436711966e-38
0.0117370066599 -0.114016636124 0.906 1.99760771348e-38
0.013413721897 -0.114016636124 0.906 1.94243901333e-38
0.0150904371341 -0.114016636124 0.906 1.91463262751e-38
0.0167671523712 -0.114016636124 0.906 1.98813577664e-38
0.0184845825479 -0.114268328478 0.908 1.91455947973e-38
0.0201649991431 -0.114268328478 0.908 1.97916662569e-38
0.0218454157384 -0.114268328478 0.908 1.72109467232e-38
0.0235258323337 -0.114268328478 0.908 1.86857138647e-38
0.025261769301 -0.114520020831 0.91 1.82236441039e-38
0.0269458872544 -0.114520020831 0.91 1.78566384309e-38
0.0286300052078 -0.114520020831 0.91 1.87785723088e-38
0.0303141231612 -0.114520020831 0.91 1.83183550645e-38
0.0319982411146 -0.114520020831 0.91 1.80395821493e-38
0.033682359068 -0.114520020831 0.91 1.80385003469e-38
0.0353664770214 -0.114520020831 0.91 1.81299981301e-38
0.0370505949748 -0.114520020831 0.91 1.87782345958e-38
0.0387347129282 -0.114520020831 0.91 1.77641078907e-38
0.0404188308816 -0.114520020831 0.91 1.73042255568e-38
0.042102948835 -0.114520020831 0.91 1.79463061183e-38
0.0436908314768 -0.114268328478 0.908 1.75778963443e-38
0.0453712480721 -0.114268328478 0.908 1.72102278571e-38
0.0470516646673 -0.114268328478 0.908 1.75796815985e-38
0.0486247418765 -0.114016636124 0.906 1.72109313089e-38
0.0503014571137 -0.114016636124 0.906 1.73960288231e-38
0.0519781723508 -0.114016636124 0.906 1.6197505253e-38
0.0534772223972 -0.113639097594 0.903 1.66584763959e-38
0.0551483855971 -0.113639097594 0.903 1.62897036855e-38
0.056819548797 -0.113639097594 0.903 1.61975206673e-38
0.0583611644621 -0.113387405241 0.901 1.65648738623e-38
0.0600286263038 -0.113387405241 0.901 1.45351476874e-38
0.00167116319991 -0.111967934394 0.903 2.34856823881e-38
0.00333492368355 -0.111719943399 0.901 2.05260139146e-38
0.00500238552532 -0.111719943399 0.901 1.94189026485e-38
0.00666984736709 -0.111719943399 0.901 1.98824563844e-38
0.00833730920887 -0.111719943399 0.901 1.9790967009e-38
0.0100269791995 -0.111967934394 0.903 1.96087211372e-38
0.0117370066599 -0.112339920887 0.906 1.93310398335e-38
0.013413721897 -0.112339920887 0.906 1.94229061582e-38
0.0151237493574 -0.112587911883 0.908 1.92381267388e-38
0.0168041659526 -0.112587911883 0.908 1.96040351951e-38
0.0184845825479 -0.112587911883 0.908 1.86846040363e-38
0.0202094154408 -0.112835902878 0.91 2.0896941822e-38
0.0218935333942 -0.112835902878 0.91 1.7671584357e-38
0.0235776513476 -0.112835902878 0.91 1.90559411229e-38
0.0253450498591 -0.113207889371 0.913 1.85924238208e-38
0.0270347198498 -0.113207889371 0.913 1.81332211166e-38
0.0287243898404 -0.113207889371 0.913 1.83161592298e-38
0.030414059831 -0.113207889371 0.913 1.82218252185e-38
0.0321037298216 -0.113207889371 0.913 1.86849515584e-38
0.0337933998122 -0.113207889371 0.913 1.75786054013e-38
0.0354830698028 -0.113207889371 0.913 1.78569887555e-38
0.0371727397934 -0.113207889371 0.913 1.75811165282e-38
0.038862409784 -0.113207889371 0.913 1.72102124428e-38
0.0404188308816 -0.112835902878 0.91 1.69325549612e-38
0.042102948835 -0.112835902878 0.91 1.86839005845e-38
0.0436908314768 -0.112587911883 0.908 1.75793312739e-38
0.0453712480721 -0.112587911883 0.908 1.73935695443e-38
0.0470516646673 -0.112587911883 0.908 1.76693885223e-38
0.0486247418765 -0.112339920887 0.906 1.72106230233e-38
0.0503014571137 -0.112339920887 0.906 1.67499587648e-38
0.0519781723508 -0.112339920887 0.906 1.69361156606e-38
0.0534772223972 -0.111967934394 0.903 1.62907560607e-38
0.0551483855971 -0.111967934394 0.903 1.64740683206e-38
0.056819548797 -0.111967934394 0.903 1.63833244359e-38
0.0583611644621 -0.111719943399 0.901 1.5737251575e-38
0.0598287529643 -0.111347956906 0.898 1.53666711897e-38
0.0614906627689 -0.111347956906 0.898 1.52748258844e-38
-0.00166190980456 -0.109686047101 0.898 2.34949589839e-38
0.0 -0.109686047101 0.898 2.34849382986e-38
0.00166746184177 -0.110052481557 0.901 1.96015591008e-38
0.00333492368355 -0.110052481557 0.901 2.05270270533e-38
0.00500238552532 -0.110052481557 0.901 2.01604683946e-38
0.00668465279965 -0.110296771194 0.903 1.96991413219e-38
0.00835581599956 -0.110296771194 0.903 1.933249298e-38
0.0100602914227 -0.11066320565 0.906 1.89626286582e-38
0.0117370066599 -0.11066320565 0.906 1.95157603984e-38
0.013413721897 -0.11066320565 0.906 1.93314111776e-38
0.0151237493574 -0.110907495287 0.908 1.94210886741e-38
0.0168041659526 -0.110907495287 0.908 1.95139919597e-38
0.0185252974874 -0.111151784924 0.91 1.93303574012e-38
0.0202094154408 -0.111151784924 0.91 1.85923831831e-38
0.0219657098779 -0.11151821938 0.913 1.88668443029e-38
0.0236553798685 -0.11151821938 0.913 1.84076724273e-38
0.0253450498591 -0.11151821938 0.913 1.85009316427e-38
0.0270347198498 -0.11151821938 0.913 1.78573404814e-38
0.0287243898404 -0.11151821938 0.913 1.74875013829e-38
0.0304806842775 -0.111762509017 0.915 1.79470319909e-38
0.0321740556262 -0.111762509017 0.915 1.78534490756e-38
0.033867426975 -0.111762509017 0.915 1.79459473859e-38
0.0355607983237 -0.111762509017 0.915 1.78566230166e-38
0.0372541696725 -0.111762509017 0.915 1.78580579463e-38
0.038862409784 -0.11151821938 0.913 1.73038724296e-38
0.0405520797746 -0.11151821938 0.913 1.83176123763e-38
0.042102948835 -0.111151784924 0.91 1.71172895391e-38
0.0437870667884 -0.111151784924 0.91 1.71161993289e-38
0.0453712480721 -0.110907495287 0.908 1.74842755939e-38
0.0470516646673 -0.110907495287 0.908 1.71161993289e-38
0.0487320812626 -0.110907495287 0.908 1.71165678703e-38
0.0503014571137 -0.11066320565 0.906 1.68399753756e-38
0.0519781723508 -0.11066320565 0.906 1.6196059113e-38
0.0536548875879 -0.11066320565 0.906 1.6841057178e-38
0.0551483855971 -0.110296771194 0.903 1.64726474039e-38
0.056819548797 -0.110296771194 0.903 1.6199303119e-38
0.0583611644621 -0.110052481557 0.901 1.59219945607e-38
0.0598287529643 -0.109686047101 0.898 1.60127412479e-38
0.0614906627689 -0.109686047101 0.898 1.56436027987e-38
0.0630119209642 -0.109441757464 0.896 1.42635592294e-38
0.0646701294106 -0.109441757464 0.896 1.50007543256e-38
-0.00332381960913 -0.108024137297 0.898 2.27539201261e-38
-0.00166190980456 -0.108024137297 0.898 2.34917219845e-38
0.0 -0.108024137297 0.898 2.31993466651e-38
0.00166746184177 -0.108385019715 0.901 1.86849361441e-38
0.00333492368355 -0.108385019715 0.901 2.03448246218e-38
0.00500238552532 -0.108385019715 0.901 2.12671368503e-38
0.00668465279965 -0.108625607994 0.903 2.06228380332e-38
0.00835581599956 -0.108625607994 0.903 1.88704330283e-38
0.0100602914227 -0.108986490413 0.906 2.02526542153e-38
0.0117370066599 -0.108986490413 0.906 1.94239599347e-38
0.0134433327621 -0.109227078692 0.908 1.94221999038e-38
0.0151237493574 -0.109227078692 0.908 1.93299734454e-38
0.016841179534 -0.109467666971 0.91 1.89636880398e-38
0.0185863698967 -0.10982854939 0.913 1.86863920932e-38
0.020320456185 -0.110069137669 0.915 1.7853394425e-38
0.0220138275337 -0.110069137669 0.915 2.03426736287e-38
0.0237071988825 -0.110069137669 0.915 1.80392178117e-38
0.0254005702312 -0.110069137669 0.915 1.79470319909e-38
0.02709394158 -0.110069137669 0.915 1.80410114738e-38
0.0288816975613 -0.110430020087 0.918 1.80428808059e-38
0.0305806209472 -0.110430020087 0.918 1.7855911157e-38
0.0322795443332 -0.110430020087 0.918 1.7394934409e-38
0.0339784677192 -0.110430020087 0.918 1.7115481864e-38
0.0356773911051 -0.110430020087 0.918 1.87768276922e-38
0.0373763144911 -0.110430020087 0.918 1.684212777e-38
0.0389475410212 -0.110069137669 0.915 1.7855188087e-38
0.04064091237 -0.110069137669 0.915 1.61956919728e-38
0.0422417497652 -0.10982854939 0.913 1.72998801303e-38
0.0437870667884 -0.109467666971 0.91 1.67463560265e-38
0.0454711847418 -0.109467666971 0.91 1.82225468872e-38
0.0470516646673 -0.109227078692 0.908 1.68421319739e-38
0.0487320812626 -0.109227078692 0.908 1.79480997804e-38
0.0503014571137 -0.108986490413 0.906 1.61964094376e-38
0.0519781723508 -0.108986490413 0.906 1.64722746585e-38
0.0536548875879 -0.108986490413 0.906 1.63801014494e-38
0.0551483855971 -0.108625607994 0.903 1.64715698054e-38
0.056819548797 -0.108625607994 0.903 1.54599402141e-38
0.0583611644621 -0.108385019715 0.901 1.58254983458e-38
0.0598287529643 -0.108024137297 0.898 1.59180330899e-38
0.0614906627689 -0.108024137297 0.898 1.61982241192e-38
0.0630119209642 -0.107783549018 0.896 1.6015967037e-38
0.0646701294106 -0.107783549018 0.896 1.30639650674e-38
0.066328337857 -0.107783549018 0.896 1.56432440663e-38
-0.00332381960913 -0.106362227492 0.898 2.34902940613e-38
-0.00166190980456 -0.106362227492 0.898 2.24707737584e-38
0.0 -0.106362227492 0.898 1.94171089865e-38
0.00166746184177 -0.106717557874 0.901 2.06206828362e-38
0.00333492368355 -0.106717557874 0.901 2.00682727647e-38
0.00501348959974 -0.106954444794 0.903 2.07118274922e-38
0.00668465279965 -0.106954444794 0.903 1.89612091428e-38
0.00838357618561 -0.107309775176 0.906 2.03452169854e-38
0.0100602914227 -0.107309775176 0.906 1.96065561311e-38
0.0117629161668 -0.107546662097 0.908 1.9145945122e-38
0.0134433327621 -0.107546662097 0.908 2.01608243244e-38
0.0151570615806 -0.107783549018 0.91 1.8777531144e-38
0.016841179534 -0.107783549018 0.91 1.87782345958e-38
0.0185863698967 -0.108138879399 0.913 1.79488172452e-38
0.020320456185 -0.10837576632 0.915 1.92356380328e-38
0.0220138275337 -0.10837576632 0.915 1.75786054013e-38
0.0237071988825 -0.10837576632 0.915 1.84065597964e-38
0.0254838507894 -0.108731096701 0.918 1.74868371675e-38
0.0271827741753 -0.108731096701 0.918 1.77633525908e-38
0.0288816975613 -0.108731096701 0.918 1.80406527413e-38
0.0305806209472 -0.108731096701 0.918 1.69336241519e-38
0.0322795443332 -0.108731096701 0.918 1.69314549419e-38
0.0339784677192 -0.108731096701 0.918 1.82218252185e-38
0.0356773911051 -0.108731096701 0.918 1.7117331578e-38
0.0373763144911 -0.108731096701 0.918 1.69339744766e-38
0.039075237877 -0.108731096701 0.918 1.68428452348e-38
0.040774161263 -0.108731096701 0.918 1.64729977285e-38
0.0423342837187 -0.10837576632 0.915 1.81296281873e-38
0.0439314197559 -0.108138879399 0.913 1.64716118444e-38
0.0456210897465 -0.108138879399 0.913 1.73931771807e-38
0.0471553026952 -0.107783549018 0.91 1.62893687752e-38
0.0487320812626 -0.107546662097 0.908 1.67499335414e-38
0.0504124978578 -0.107546662097 0.908 1.62886036662e-38
0.0520929144531 -0.107546662097 0.908 1.62871687366e-38
0.0536548875879 -0.107309775176 0.906 1.67481763132e-38
0.055331602825 -0.107309775176 0.906 1.67488615481e-38
0.0570083180621 -0.107309775176 0.906 1.56443342765e-38
0.0583611644621 -0.106717557874 0.901 1.64708453341e-38
0.0600286263038 -0.106717557874 0.901 1.61953402469e-38
0.0614906627689 -0.106362227492 0.898 1.58291389192e-38
0.0630119209642 -0.106125340571 0.896 1.54592367623e-38
0.0646701294106 -0.106125340571 0.896 1.43514598795e-38
0.066328337857 -0.106125340571 0.896 1.4353260548e-38
0.0679865463034 -0.106125340571 0.896 1.79467012845e-38
-0.00332381960913 -0.104700317688 0.898 2.34921241571e-38
-0.00166190980456 -0.104700317688 0.898 2.08029889638e-38
0.0 -0.104700317688 0.898 1.98824409701e-38
0.00166746184177 -0.105050096032 0.901 2.07143456256e-38
0.00334232639983 -0.105283281595 0.903 2.02505032222e-38
0.00501348959974 -0.105283281595 0.903 2.01590236558e-38
0.00670686094849 -0.105633059939 0.906 1.9975669357e-38
0.00838357618561 -0.105633059939 0.906 1.96072820037e-38
0.0100824995716 -0.105866245501 0.908 1.93296231208e-38
0.0117629161668 -0.105866245501 0.908 1.91462940453e-38
0.0134729436272 -0.106099431064 0.91 1.83179627009e-38
0.0152070299155 -0.106449209408 0.913 1.8407309491e-38
0.0168966999061 -0.106449209408 0.913 1.822219376e-38
0.0186270848362 -0.106682394971 0.915 1.80381542262e-38
0.020320456185 -0.106682394971 0.915 1.75782466689e-38
0.0220860040175 -0.107032173315 0.918 1.74867951285e-38
0.0237849274034 -0.107032173315 0.918 1.748748737e-38
0.0254838507894 -0.107032173315 0.918 1.73945994987e-38
0.0271827741753 -0.107032173315 0.918 1.75789641337e-38
0.0289446206497 -0.107265358878 0.92 1.76715409168e-38
0.0306472453938 -0.107265358878 0.92 1.67503287076e-38
0.0323498701378 -0.107265358878 0.92 1.84991127573e-38
0.0340524948819 -0.107265358878 0.92 1.66545107212e-38
0.035755119626 -0.107265358878 0.92 1.69336045338e-38
0.0374577443701 -0.107265358878 0.92 1.6934680731e-38
0.0391603691142 -0.107265358878 0.92 1.74857231352e-38
0.040774161263 -0.107032173315 0.918 1.62882939792e-38
0.042473084649 -0.107032173315 0.918 1.683891179e-38
0.0440276550675 -0.106682394971 0.915 1.77619372794e-38
0.0456210897465 -0.106449209408 0.913 1.63808020987e-38
0.0473107597371 -0.106449209408 0.913 1.69343444193e-38
0.0490004297277 -0.106449209408 0.913 1.6287179947e-38
0.050523538602 -0.106099431064 0.91 1.70265274375e-38
0.0522076565554 -0.106099431064 0.91 1.64737095882e-38
0.0537733310484 -0.105866245501 0.908 1.61042152091e-38
0.0554537476436 -0.105866245501 0.908 1.62889623986e-38
0.0571341642389 -0.105866245501 0.908 1.57357970272e-38
0.058490711997 -0.105283281595 0.903 1.6381874092e-38
0.0600286263038 -0.105050096032 0.901 1.54606492712e-38
0.0614906627689 -0.104700317688 0.898 1.53673914571e-38
0.0631525725735 -0.104700317688 0.898 1.48152896712e-38
0.0646701294106 -0.104467132125 0.896 1.49078426322e-38
0.066328337857 -0.104467132125 0.896 1.41699454855e-38
0.0678347906197 -0.104233946562 0.894 1.58283527908e-38
0.069489297708 -0.104233946562 0.894 2.13547782601e-38
-0.00497462533928 -0.102808923678 0.896 2.34838761144e-38
-0.00331641689285 -0.102808923678 0.896 2.34871201203e-38
-0.00165820844643 -0.102808923678 0.896 1.97863175007e-38
0.0 -0.103038407883 0.898 2.04374098127e-38
0.00166746184177 -0.10338263419 0.901 2.00689608022e-38
0.00334232639983 -0.103612118395 0.903 2.00650385678e-38
0.00503014571137 -0.103956344702 0.906 1.9974289078e-38
0.00670686094849 -0.103956344702 0.906 1.96065757493e-38
0.00840208297631 -0.104185828906 0.908 1.99764246568e-38
0.0100824995716 -0.104185828906 0.908 1.91455919948e-38
0.0117888256738 -0.104415313111 0.91 1.86856858388e-38
0.0135173599249 -0.104759539418 0.913 1.73970882047e-38
0.0152070299155 -0.104759539418 0.913 1.8592025852e-38
0.0169337134875 -0.104989023622 0.915 1.80402940089e-38
0.0186270848362 -0.104989023622 0.915 1.83165207648e-38
0.0203870806315 -0.105333249929 0.918 1.66577393129e-38
0.0220860040175 -0.105333249929 0.918 1.73935148936e-38
0.0237849274034 -0.105333249929 0.918 1.72101872195e-38
0.0255393711615 -0.105562734134 0.92 1.7393140747e-38
0.0272419959056 -0.105562734134 0.92 1.65662625491e-38
0.0289446206497 -0.105562734134 0.92 1.6103857878e-38
0.0307471820635 -0.105906960441 0.923 1.65626752251e-38
0.0324553588448 -0.105906960441 0.923 1.7762287604e-38
0.0341635356261 -0.105906960441 0.923 1.66566659183e-38
0.0358717124074 -0.105906960441 0.923 1.61982521451e-38
0.0375798891887 -0.105906960441 0.923 1.61956919728e-38
0.0391603691142 -0.105562734134 0.92 1.65637514223e-38
0.0408629938583 -0.105562734134 0.92 1.67463462174e-38
0.042473084649 -0.105333249929 0.918 1.65637514223e-38
0.0440276550675 -0.104989023622 0.915 1.62871687366e-38
0.0457210264162 -0.104989023622 0.915 1.6748142682e-38
0.047414397765 -0.104989023622 0.915 1.58280388999e-38
0.0490004297277 -0.104759539418 0.913 1.62868100042e-38
0.050523538602 -0.104415313111 0.91 1.60098741913e-38
0.0522076565554 -0.104415313111 0.91 1.56428853338e-38
0.0538917745088 -0.104415313111 0.91 1.56450377283e-38
0.0554537476436 -0.104185828906 0.908 1.51829903882e-38
0.0571341642389 -0.104185828906 0.908 1.60127440505e-38
0.0586850332993 -0.103956344702 0.906 1.49989606635e-38
0.0601618751969 -0.103612118395 0.903 1.57379550269e-38
0.0614906627689 -0.103038407883 0.898 1.47241716399e-38
0.0631525725735 -0.103038407883 0.898 1.57390452371e-38
0.0646701294106 -0.102808923678 0.896 1.46334249526e-38
0.066328337857 -0.102808923678 0.896 1.44472302218e-38
0.0678347906197 -0.102579439474 0.894 1.30639580609e-38
0.069489297708 -0.102579439474 0.894 1.85913700443e-38
0.0711438047963 -0.102579439474 0.894 2.34906948327e-38
-0.00659582020431 -0.100586258116 0.891 2.34950893047e-38
-0.00494686515323 -0.100586258116 0.891 2.34928206024e-38
-0.00329791010215 -0.100586258116 0.891 2.27416405477e-38
-0.00165820844643 -0.101150715232 0.896 2.07082541811e-38
0.0 -0.101150715232 0.896 1.94222237259e-38
0.00166190980456 -0.101376498078 0.898 2.11738440037e-38
0.00334232639983 -0.101940955195 0.903 2.0437383188e-38
0.00503014571137 -0.102279629464 0.906 1.9790243939e-38
0.00672166638105 -0.102505412311 0.908 1.96058526793e-38
0.00840208297631 -0.102505412311 0.908 1.99749603e-38
0.0101047077204 -0.102731195157 0.91 1.89611685052e-38
0.0118276899343 -0.103069869427 0.913 1.81314456714e-38
0.0135173599249 -0.103069869427 0.913 1.78559503934e-38
0.0152403421387 -0.103295652274 0.915 1.77630330948e-38
0.0169337134875 -0.103295652274 0.915 1.75800473374e-38
0.0186881572455 -0.103634326543 0.918 1.7302381448e-38
0.0203870806315 -0.103634326543 0.918 1.72101872195e-38
0.0220860040175 -0.103634326543 0.918 1.6289321131e-38
0.0238367464174 -0.10386010939 0.92 1.647192013e-38
0.0255393711615 -0.10386010939 0.92 1.65644702884e-38
0.0272419959056 -0.10386010939 0.92 1.58294261854e-38
0.0290390052822 -0.10419878366 0.923 1.60134559101e-38
0.0307471820635 -0.10419878366 0.923 1.61956919728e-38
0.0324553588448 -0.10419878366 0.923 1.59201854844e-38
0.0341635356261 -0.10419878366 0.923 1.62886036662e-38
0.0358717124074 -0.10419878366 0.923 1.5827996861e-38
0.0375798891887 -0.10419878366 0.923 1.59194792299e-38
0.03928806597 -0.10419878366 0.923 1.58279912558e-38
0.0409962427514 -0.10419878366 0.923 1.60113035157e-38
0.042473084649 -0.103634326543 0.918 1.58261975938e-38
0.0441720080349 -0.103634326543 0.918 1.59180471029e-38
0.0458709314209 -0.103634326543 0.918 1.52744755598e-38
0.047414397765 -0.103295652274 0.915 1.55496149081e-38
0.0491077691137 -0.103295652274 0.915 1.71187202648e-38
0.0506900997183 -0.103069869427 0.913 1.50922310893e-38
0.0523797697089 -0.103069869427 0.913 1.56464726579e-38
0.0538917745088 -0.102731195157 0.91 1.50007543256e-38
0.0555758924622 -0.102731195157 0.91 1.5461366736e-38
0.0571341642389 -0.102505412311 0.908 1.56464726579e-38
0.0586850332993 -0.102279629464 0.906 1.50007543256e-38
0.0601618751969 -0.101940955195 0.903 1.51851427827e-38
0.0614906627689 -0.101376498078 0.898 1.52776957437e-38
0.0631525725735 -0.101376498078 0.898 1.45390657179e-38
0.0646701294106 -0.101150715232 0.896 1.45397831827e-38
0.066328337857 -0.101150715232 0.896 1.48152896712e-38
0.0678347906197 -0.100924932385 0.894 1.25118688867e-38
0.069489297708 -0.100924932385 0.894 1.48117149588e-38
0.0711438047963 -0.100924932385 0.894 2.34801906994e-38
-0.00659582020431 -0.0989373030646 0.891 2.3031217474e-38
-0.00493576107881 -0.0987152215763 0.889 2.34917317935e-38
-0.00329050738588 -0.0987152215763 0.889 1.98835536011e-38
-0.00165450708829 -0.0992704252972 0.894 2.06178157796e-38
0.0 -0.0994925067855 0.896 2.04367063608e-38
0.00166190980456 -0.0997145882739 0.898 2.02519199349e-38
0.00334232639983 -0.100269791995 0.903 2.01593739805e-38
0.00504124978578 -0.100824995716 0.908 2.043596087e-38
0.0067364718136 -0.101047077204 0.91 1.88682820352e-38
0.008420589767 -0.101047077204 0.91 1.95111333109e-38
0.0101380199437 -0.101380199437 0.913 1.90537298739e-38
0.0118535994412 -0.101602280925 0.915 1.79466858702e-38
0.01354697079 -0.101602280925 0.915 1.68382083382e-38
0.0152903104736 -0.101935403157 0.918 1.72084159782e-38
0.0169892338596 -0.101935403157 0.918 1.71165678703e-38
0.0186881572455 -0.101935403157 0.918 1.647192013e-38
0.0204314969292 -0.102157484646 0.92 1.64726333909e-38
0.0221341216733 -0.102157484646 0.92 1.65659038167e-38
0.0238367464174 -0.102157484646 0.92 1.63808049013e-38
0.0256226517196 -0.102490606878 0.923 1.61034977443e-38
0.0273308285009 -0.102490606878 0.923 1.57357970272e-38
0.0290390052822 -0.102490606878 0.923 1.6289321131e-38
0.03081380651 -0.102712688367 0.925 1.56443342765e-38
0.0325256846495 -0.102712688367 0.925 1.61052928076e-38
0.0342375627889 -0.102712688367 0.925 1.54602905388e-38
0.0359494409284 -0.102712688367 0.925 1.62911147931e-38
0.0375798891887 -0.102490606878 0.923 1.50925898217e-38
0.03928806597 -0.102490606878 0.923 1.56443342765e-38
0.0409962427514 -0.102490606878 0.923 1.57354382948e-38
0.0425656186024 -0.102157484646 0.92 1.56428853338e-38
0.0441720080349 -0.101935403157 0.918 1.55517827168e-38
0.0458709314209 -0.101935403157 0.918 1.49993698427e-38
0.0475698548068 -0.101935403157 0.918 1.52744727572e-38
0.0492687781928 -0.101935403157 0.918 1.57372459698e-38
0.0508011404625 -0.101602280925 0.915 1.49082013646e-38
0.0524945118112 -0.101602280925 0.915 1.54592143415e-38
0.0540694396995 -0.101380199437 0.913 1.56457565944e-38
0.0557591096901 -0.101380199437 0.913 1.42642766943e-38
0.0572600104156 -0.101047077204 0.91 1.4816007136e-38
0.0588145808341 -0.100824995716 0.908 1.45415768448e-38
0.0603617485364 -0.100602914227 0.906 1.50007543256e-38
0.0616960881456 -0.100047710506 0.901 1.47230954426e-38
0.0631525725735 -0.0997145882739 0.898 1.48152896712e-38
0.0646701294106 -0.0994925067855 0.896 1.4538394496e-38
0.066328337857 -0.0994925067855 0.896 1.44458036999e-38
0.0678347906197 -0.0992704252972 0.894 1.40788190464e-38
0.069489297708 -0.0992704252972 0.894 1.36181996295e-38
0.0707459087963 -0.0987152215763 0.889 2.20068991252e-38
0.0723911624893 -0.0987152215763 0.889 2.35007771751e-38
-0.00493576107881 -0.0970699678833 0.889 2.34928163986e-38
-0.00329050738588 -0.0970699678833 0.889 1.97902033013e-38
-0.00164895505108 -0.0972883480135 0.891 2.08018693263e-38
0.0 -0.0980526784693 0.898 2.07122170532e-38
0.00166746184177 -0.0983802486646 0.901 1.94225376167e-38
0.00335343047424 -0.0989261989902 0.906 2.00654029054e-38
0.00504124978578 -0.0991445791204 0.908 1.9420036299e-38
0.0067364718136 -0.0993629592506 0.91 1.9052307556e-38
0.00844834995305 -0.099690529446 0.913 1.89601273404e-38
0.0101380199437 -0.099690529446 0.913 1.73935092885e-38
0.0118535994412 -0.0999089095762 0.915 1.74835581291e-38
0.0135913870877 -0.100236479772 0.918 1.77601422161e-38
0.0152903104736 -0.100236479772 0.918 1.6839259312e-38
0.017026247441 -0.100454859902 0.92 1.70250812975e-38
0.0187288721851 -0.100454859902 0.92 1.72134158111e-38
0.0204314969292 -0.100454859902 0.92 1.58279912558e-38
0.0221341216733 -0.100454859902 0.92 1.59187505547e-38
0.0239144749383 -0.100782430097 0.923 1.58261975938e-38
0.0256226517196 -0.100782430097 0.923 1.58265563262e-38
0.0273308285009 -0.100782430097 0.923 1.51815554586e-38
0.0291019283706 -0.101000810227 0.925 1.62886036662e-38
0.03081380651 -0.101000810227 0.925 1.51826316558e-38
0.0325256846495 -0.101000810227 0.925 1.61056501387e-38
0.0342375627889 -0.101000810227 0.925 1.46312599465e-38
0.0359494409284 -0.101000810227 0.925 1.49074838998e-38
0.0376613190678 -0.101000810227 0.925 1.50918723569e-38
0.0393731972073 -0.101000810227 0.925 1.4261406835e-38
0.0409962427514 -0.100782430097 0.923 1.51844295218e-38
0.0427044195327 -0.100782430097 0.923 1.44468714894e-38
0.0442682433465 -0.100454859902 0.92 1.54610080036e-38
0.0458709314209 -0.100236479772 0.918 1.47259653019e-38
0.0475698548068 -0.100236479772 0.918 1.49099950266e-38
0.0492687781928 -0.100236479772 0.918 1.44479476866e-38
0.0508011404625 -0.0999089095762 0.915 1.53684550426e-38
0.0524945118112 -0.0999089095762 0.915 1.51815554586e-38
0.05418788316 -0.0999089095762 0.915 1.51822729234e-38
0.0557591096901 -0.099690529446 0.913 1.43564709228e-38
0.0572600104156 -0.0993629592506 0.91 1.51851483879e-38
0.0588145808341 -0.0991445791204 0.908 1.49096362942e-38
0.0603617485364 -0.0989261989902 0.906 1.46326948761e-38
0.0616960881456 -0.0983802486646 0.901 1.47230954426e-38
0.0631525725735 -0.0980526784693 0.898 1.47227367102e-38
0.064814482378 -0.0980526784693 0.898 1.48131610988e-38
0.066328337857 -0.0978342983391 0.896 1.44454407636e-38
0.0678347906197 -0.0976159182089 0.894 1.41703126257e-38
0.069489297708 -0.0976159182089 0.894 1.29714050999e-38
0.0707459087963 -0.0970699678833 0.889 2.07111660793e-38
0.0722283027311 -0.0968515877531 0.887 2.34961038448e-38
0.0738698550659 -0.0968515877531 0.887 2.35080625258e-38
-0.00493576107881 -0.0954247141904 0.889 2.34942765516e-38
-0.00329050738588 -0.0954247141904 0.889 1.8960130143e-38
-0.00164895505108 -0.0956393929625 0.891 2.1171380521e-38
0.0 -0.0967127868229 0.901 2.04349070936e-38
0.00167116319991 -0.096927465595 0.903 1.99749925298e-38
0.00335343047424 -0.0972494837531 0.906 1.9697676965e-38
0.0050523538602 -0.0976788412972 0.91 1.92370715611e-38
0.00675867996244 -0.0980008594554 0.913 1.88679317105e-38
0.00844834995305 -0.0980008594554 0.913 1.73938652183e-38
0.0101602280925 -0.0982155382274 0.915 1.77615897574e-38
0.0118924637017 -0.0985375563856 0.918 1.74867769116e-38
0.0135913870877 -0.0985375563856 0.918 1.69343219986e-38
0.0153236226969 -0.0987522351576 0.92 1.70250812975e-38
0.0170817678131 -0.0990742533158 0.923 1.67502922738e-38
0.0187899445944 -0.0990742533158 0.923 1.52759020816e-38
0.0204981213757 -0.0990742533158 0.923 1.50918765608e-38
0.022206298157 -0.0990742533158 0.923 1.51833491207e-38
0.0239662939522 -0.0992889320879 0.925 1.53673788454e-38
0.0256781720917 -0.0992889320879 0.925 1.54581381443e-38
0.0273900502311 -0.0992889320879 0.925 1.52751846168e-38
0.0291019283706 -0.0992889320879 0.925 1.53659439157e-38
0.03081380651 -0.0992889320879 0.925 1.4629107552e-38
0.0325256846495 -0.0992889320879 0.925 1.49942971422e-38
0.0342375627889 -0.0992889320879 0.925 1.64704950095e-38
0.0359494409284 -0.0992889320879 0.925 1.46276810302e-38
0.0376613190678 -0.0992889320879 0.925 1.46294662844e-38
0.0393731972073 -0.0992889320879 0.925 1.45397831827e-38
0.0410850753467 -0.0992889320879 0.925 1.41702958102e-38
0.0427969534861 -0.0992889320879 0.925 1.45390657179e-38
0.044412596314 -0.0990742533158 0.923 1.39855486206e-38
0.0461207730953 -0.0990742533158 0.923 1.39866178113e-38
0.0476734928347 -0.0987522351576 0.92 1.46309082206e-38
0.0492687781928 -0.0985375563856 0.918 1.45397831827e-38
0.0509677015787 -0.0985375563856 0.918 1.44475889542e-38
0.0526666249647 -0.0985375563856 0.918 1.51815554586e-38
0.05418788316 -0.0982155382274 0.915 1.49049727729e-38
0.0558812545087 -0.0982155382274 0.915 1.39855416141e-38
0.0574487796807 -0.0980008594554 0.913 1.51829903882e-38
0.058944128369 -0.0976788412972 0.91 1.41692126064e-38
0.0603617485364 -0.0972494837531 0.906 1.43543185284e-38
0.0616960881456 -0.0967127868229 0.901 1.47230954426e-38
0.0633635499874 -0.0967127868229 0.901 1.46319774113e-38
0.0646701294106 -0.0961760898927 0.896 1.48156848374e-38
0.066328337857 -0.0961760898927 0.896 1.3801153157e-38
0.0678347906197 -0.0959614111206 0.894 1.44469023179e-38
0.069489297708 -0.0959614111206 0.894 1.14048206791e-38
0.0707459087963 -0.0954247141904 0.889 2.20919102978e-38
0.0722283027311 -0.0952100354183 0.887 2.34950430618e-38
0.0738698550659 -0.0952100354183 0.887 2.35059017236e-38
-0.00334232639983 -0.095256302395 0.903 1.87760723923e-38
-0.00167116319991 -0.095256302395 0.903 2.08936767965e-38
0.0 -0.095256302395 0.903 2.07132764348e-38
0.00167671523712 -0.095572768516 0.906 1.97906110792e-38
0.00336083319052 -0.0957837459299 0.908 1.90523285755e-38
0.0050523538602 -0.0959947233438 0.91 1.96062030039e-38
0.00675867996244 -0.0963111894648 0.913 1.81303890924e-38
0.00846685674374 -0.0965221668787 0.915 1.75779355806e-38
0.0101602280925 -0.0965221668787 0.915 1.72080670549e-38
0.0118924637017 -0.0968386329996 0.918 1.71165678703e-38
0.0136209979528 -0.0970496104135 0.92 1.62882715585e-38
0.0153735910318 -0.0973660765345 0.923 1.647192013e-38
0.0170817678131 -0.0973660765345 0.923 1.64733508557e-38
0.0187899445944 -0.0973660765345 0.923 1.54595870869e-38
0.0205425376733 -0.0975770539484 0.925 1.52770385347e-38
0.0222544158128 -0.0975770539484 0.925 1.52773440177e-38
0.0239662939522 -0.0975770539484 0.925 1.48153345128e-38
0.0256781720917 -0.0975770539484 0.925 1.46312599465e-38
0.0273900502311 -0.0975770539484 0.925 1.43546772608e-38
0.0291019283706 -0.0975770539484 0.925 1.46298250169e-38
0.0309137431798 -0.0978935200693 0.928 1.46298250169e-38
0.0325256846495 -0.0975770539484 0.925 1.48127785444e-38
0.0342375627889 -0.0975770539484 0.925 1.46280313548e-38
0.0359494409284 -0.0975770539484 0.925 1.45376307883e-38
0.0376613190678 -0.0975770539484 0.925 1.38944235828e-38
0.0393731972073 -0.0975770539484 0.925 1.44483120242e-38
0.0410850753467 -0.0975770539484 0.925 1.40791931931e-38
0.0427969534861 -0.0975770539484 0.925 1.44479476866e-38
0.044412596314 -0.0973660765345 0.923 1.36185863879e-38
0.0461207730953 -0.0973660765345 0.923 1.48152896712e-38
0.0478289498766 -0.0973660765345 0.923 1.42621383128e-38
0.0493761175788 -0.0970496104135 0.92 1.45390727244e-38
0.0510787423229 -0.0970496104135 0.92 1.41699623011e-38
0.0526666249647 -0.0968386329996 0.918 1.44465127569e-38
0.0543655483507 -0.0968386329996 0.918 1.43543185284e-38
0.0558812545087 -0.0965221668787 0.915 1.49067818492e-38
0.0574487796807 -0.0963111894648 0.913 1.39844654169e-38
0.058944128369 -0.0959947233438 0.91 1.40766596455e-38
0.0604949974294 -0.0957837459299 0.908 1.50000368607e-38
0.0616960881456 -0.0950453249811 0.901 1.43543185284e-38
0.0631525725735 -0.0947288588602 0.898 1.41702888037e-38
0.0646701294106 -0.0945178814462 0.896 1.39848241493e-38
0.066328337857 -0.0945178814462 0.896 1.41702888037e-38
0.0678347906197 -0.0943069040323 0.894 1.39869765438e-38
0.069489297708 -0.0943069040323 0.894 1.19579860505e-38
0.0707459087963 -0.0937794604974 0.889 2.15391288822e-38
0.0723911624893 -0.0937794604974 0.889 2.34950458644e-38
0.0740364161822 -0.0937794604974 0.889 2.35083988375e-38
-0.00335343047424 -0.0938960532788 0.906 2.13644262e-38
-0.00167671523712 -0.0938960532788 0.906 1.960225975e-38
0.0 -0.0938960532788 0.906 1.997319046e-38
0.00167671523712 -0.0938960532788 0.906 2.02519227375e-38
0.00336083319052 -0.0941033293346 0.908 1.89619125946e-38
0.00506900997183 -0.0946215194741 0.913 1.89629789828e-38
0.006773485395 -0.0948287955299 0.915 1.77651616672e-38
0.00846685674374 -0.0948287955299 0.915 1.69336241519e-38
0.0101935403157 -0.0951397096136 0.918 1.71183517233e-38
0.0119183732087 -0.0953469856695 0.92 1.71165580613e-38
0.0136654142505 -0.0956578997532 0.923 1.56432440663e-38
0.0153735910318 -0.0956578997532 0.923 1.68414131078e-38
0.0171187813945 -0.095865175809 0.925 1.6289321131e-38
0.0188306595339 -0.095865175809 0.925 1.49996809309e-38
0.0205425376733 -0.095865175809 0.925 1.4816368671e-38
0.0222544158128 -0.095865175809 0.925 1.50003955932e-38
0.0239662939522 -0.095865175809 0.925 1.45394244503e-38
0.0256781720917 -0.095865175809 0.925 1.39866178113e-38
0.0273900502311 -0.095865175809 0.925 1.44468714894e-38
0.0291019283706 -0.095865175809 0.925 1.4353959796e-38
0.0309137431798 -0.0961760898927 0.928 1.44468714894e-38
0.0325256846495 -0.095865175809 0.925 1.43543185284e-38
0.0342375627889 -0.095865175809 0.925 1.39862590789e-38
0.0359494409284 -0.095865175809 0.925 1.43550359932e-38
0.0376613190678 -0.095865175809 0.925 1.45394244503e-38
0.0393731972073 -0.095865175809 0.925 1.45394244503e-38
0.0410850753467 -0.095865175809 0.925 1.34338111724e-38
0.0427969534861 -0.095865175809 0.925 1.38018706218e-38
0.044412596314 -0.0956578997532 0.923 1.38015118894e-38
0.0461207730953 -0.0956578997532 0.923 1.42621242998e-38
0.0478289498766 -0.0956578997532 0.923 1.38007944246e-38
0.0493761175788 -0.0953469856695 0.92 1.39869765438e-38
0.0510787423229 -0.0953469856695 0.92 1.39869765438e-38
0.0526666249647 -0.0951397096136 0.918 1.41713650009e-38
0.0543655483507 -0.0951397096136 0.918 1.36174821647e-38
0.0560644717366 -0.0951397096136 0.918 1.39859017478e-38
0.0575746258575 -0.0948287955299 0.915 1.38940648504e-38
0.058944128369 -0.0943106053904 0.91 1.36171388466e-38
0.0604949974294 -0.0941033293346 0.908 1.38018706218e-38
0.0618330383968 -0.0935851391951 0.903 1.40788120399e-38
0.0631525725735 -0.0930669490556 0.898 1.36189521268e-38
0.0646701294106 -0.0928596729998 0.896 1.38036642838e-38
0.066328337857 -0.0928596729998 0.896 1.39869765438e-38
0.0678347906197 -0.092652396944 0.894 1.34327349751e-38
0.069489297708 -0.092652396944 0.894 1.15888504038e-38
0.0707459087963 -0.0921342068045 0.889 2.26504958916e-38
0.0723911624893 -0.0921342068045 0.889 2.34993324364e-38
-0.00335343047424 -0.0922193380417 0.906 2.34942947684e-38
-0.00167671523712 -0.0922193380417 0.906 1.91387802829e-38
0.0 -0.0922193380417 0.906 1.9697329443e-38
0.00168041659526 -0.0924229127394 0.908 2.00664552806e-38
0.0033682359068 -0.092626487437 0.91 1.86846040363e-38
0.00506900997183 -0.0929318494835 0.913 1.79495557295e-38
0.006773485395 -0.0931354241812 0.915 1.69364954125e-38
0.00849461692979 -0.0934407862277 0.918 1.77651462529e-38
0.0102157484646 -0.0936443609254 0.92 1.67502922738e-38
0.0119183732087 -0.0936443609254 0.92 1.60102399302e-38
0.0136654142505 -0.0939497229719 0.923 1.56407371433e-38
0.015406903255 -0.0941532976695 0.925 1.59180330899e-38
0.0171187813945 -0.0941532976695 0.925 1.54584968767e-38
0.0188306595339 -0.0941532976695 0.925 1.48156484036e-38
0.0205425376733 -0.0941532976695 0.925 1.49074853011e-38
0.0222544158128 -0.0941532976695 0.925 1.46301837493e-38
0.0240440224732 -0.094458659716 0.928 1.44468714894e-38
0.0257614526498 -0.094458659716 0.928 1.47230954426e-38
0.0274788828265 -0.094458659716 0.928 1.46316186789e-38
0.0291963130031 -0.094458659716 0.928 1.41688889065e-38
0.0309137431798 -0.094458659716 0.928 1.39862590789e-38
0.0326311733564 -0.094458659716 0.928 1.41717237333e-38
0.0343486035331 -0.094458659716 0.928 1.40795295047e-38
0.0359494409284 -0.0941532976695 0.925 1.41706657529e-38
0.0376613190678 -0.0941532976695 0.925 1.41692140077e-38
0.0395008940631 -0.094458659716 0.928 1.3985198296e-38
0.0410850753467 -0.0941532976695 0.925 1.41692126064e-38
0.0427969534861 -0.0941532976695 0.925 1.39848241493e-38
0.0445088316256 -0.0941532976695 0.925 1.39848241493e-38
0.046220709765 -0.0941532976695 0.925 1.45387069855e-38
0.0479325879045 -0.0941532976695 0.925 1.38940648504e-38
0.0495371266579 -0.0939497229719 0.923 1.40773967285e-38
0.0510787423229 -0.0936443609254 0.92 1.34330937075e-38
0.0526666249647 -0.0934407862277 0.918 1.3155793557e-38
0.0543655483507 -0.0934407862277 0.918 1.34330965101e-38
0.0560644717366 -0.0934407862277 0.918 1.39859171621e-38
0.0575746258575 -0.0931354241812 0.915 1.30650342581e-38
0.058944128369 -0.092626487437 0.91 1.2880645801e-38
0.0604949974294 -0.0924229127394 0.908 1.36174919738e-38
0.0618330383968 -0.0919139759952 0.903 1.35260054009e-38
0.0633635499874 -0.0917104012975 0.901 1.3617845101e-38
0.064814482378 -0.0914050392511 0.898 1.38022363607e-38
0.066328337857 -0.0912014645534 0.896 1.407776527e-38
0.0678347906197 -0.0909978898557 0.894 1.41703154283e-38
0.069489297708 -0.0909978898557 0.894 1.19543987264e-38
0.0711438047963 -0.0909978898557 0.894 2.34809614135e-38
-0.00337933998122 -0.0912421794929 0.913 2.34946703164e-38
-0.0016841179534 -0.0909423694836 0.91 1.84955548605e-38
0.0 -0.0909423694836 0.91 2.02504611832e-38
0.0016841179534 -0.0909423694836 0.91 1.93310580504e-38
0.0033682359068 -0.0909423694836 0.91 1.84076626182e-38
0.00506900997183 -0.0912421794929 0.913 1.78566412335e-38
0.00679569354383 -0.0917418628417 0.918 1.63822328244e-38
0.00851312372049 -0.0919417361813 0.92 1.66555939249e-38
0.0102157484646 -0.0919417361813 0.92 1.67492160766e-38
0.0119572374691 -0.0922415461905 0.923 1.57350851676e-38
0.0136950251156 -0.0924414195301 0.925 1.60105860509e-38
0.015406903255 -0.0924414195301 0.925 1.60116622481e-38
0.0171187813945 -0.0924414195301 0.925 1.56432440663e-38
0.0188306595339 -0.0924414195301 0.925 1.53677375778e-38
0.0206091621199 -0.0927412295394 0.928 1.48135296403e-38
0.0223265922965 -0.0927412295394 0.928 1.48149309388e-38
0.0240440224732 -0.0927412295394 0.928 1.46312599465e-38
0.0257614526498 -0.0927412295394 0.928 1.45376307883e-38
0.0274788828265 -0.0927412295394 0.928 1.44465127569e-38
0.0291963130031 -0.0927412295394 0.928 1.4353959796e-38
0.0309137431798 -0.0927412295394 0.928 1.43550359932e-38
0.0326311733564 -0.0927412295394 0.928 1.41699426829e-38
0.0343486035331 -0.0927412295394 0.928 1.42617655674e-38
0.0360660337097 -0.0927412295394 0.928 1.38025880866e-38
0.0377834638864 -0.0927412295394 0.928 1.36185583619e-38
0.0395008940631 -0.0927412295394 0.928 1.39848325571e-38
0.0412183242397 -0.0927412295394 0.928 1.39841066845e-38
0.0427969534861 -0.0924414195301 0.925 1.3801153157e-38
0.0445088316256 -0.0924414195301 0.925 1.3708600196e-38
0.046220709765 -0.0924414195301 0.925 1.38018706218e-38
0.0479325879045 -0.0924414195301 0.925 1.39851828817e-38
0.0496444660439 -0.0924414195301 0.925 1.39851828817e-38
0.0512453034392 -0.0922415461905 0.923 1.3801153157e-38
0.052781367067 -0.0919417361813 0.92 1.36171234323e-38
0.0544839918111 -0.0919417361813 0.92 1.34338111724e-38
0.0560644717366 -0.0917418628417 0.918 1.29735729086e-38
0.0575746258575 -0.0914420528324 0.915 1.34330937075e-38
0.0591384496713 -0.0912421794929 0.913 1.2789886502e-38
0.0606282463224 -0.0909423694836 0.91 1.32504989125e-38
0.0621754140247 -0.0907424961441 0.908 1.30657517229e-38
0.0635042015967 -0.0902428127953 0.903 1.39862590789e-38
0.064814482378 -0.0897431294465 0.898 1.30653929905e-38
0.0664763921826 -0.0897431294465 0.898 1.38015118894e-38
0.0679865463034 -0.089543256107 0.896 1.20505418141e-38
0.0696447547499 -0.089543256107 0.896 1.71097883884e-38
0.0713029631963 -0.089543256107 0.896 2.34874578332e-38
-0.00168966999061 -0.0895525095023 0.913 2.12762116591e-38
0.0 -0.0895525095023 0.913 2.07049583272e-38
0.00168966999061 -0.0895525095023 0.913 1.85013071907e-38
0.00337933998122 -0.0895525095023 0.913 1.79452495393e-38
0.00506900997183 -0.0895525095023 0.913 1.76700919741e-38
0.00679569354383 -0.0900429394558 0.918 1.73030989128e-38
0.00851312372049 -0.0902391114372 0.92 1.63808020987e-38
0.0102490606878 -0.0905333694092 0.923 1.64729921233e-38
0.0119572374691 -0.0905333694092 0.923 1.55506911053e-38
0.0136950251156 -0.0907295413906 0.925 1.62875330742e-38
0.015406903255 -0.0907295413906 0.925 1.56432440663e-38
0.0171743017665 -0.0910237993627 0.928 1.51822729234e-38
0.0188917319432 -0.0910237993627 0.928 1.49049727729e-38
0.0206091621199 -0.0910237993627 0.928 1.47213045832e-38
0.0223265922965 -0.0910237993627 0.928 1.47216717234e-38
0.0240440224732 -0.0910237993627 0.928 1.44454365597e-38
0.0257614526498 -0.0910237993627 0.928 1.42592544406e-38
0.0274788828265 -0.0910237993627 0.928 1.3708600196e-38
0.0292592360915 -0.0912199713441 0.93 1.41702888037e-38
0.0310803042961 -0.0915142293162 0.933 1.40777358427e-38
0.0328069878681 -0.0915142293162 0.933 1.40773771103e-38
0.0345336714401 -0.0915142293162 0.933 1.39851828817e-38
0.0362603550121 -0.0915142293162 0.933 1.36178408971e-38
0.0379870385841 -0.0915142293162 0.933 1.36189170943e-38
0.0395860253003 -0.0912199713441 0.93 1.43546772608e-38
0.0412183242397 -0.0910237993627 0.928 1.39862590789e-38
0.0429357544164 -0.0910237993627 0.928 1.36174947764e-38
0.044653184593 -0.0910237993627 0.928 1.39848241493e-38
0.0463706147697 -0.0910237993627 0.928 1.3801153157e-38
0.0479325879045 -0.0907295413906 0.925 1.35249292037e-38
0.0496444660439 -0.0907295413906 0.925 1.31579459515e-38
0.0512453034392 -0.0905333694092 0.923 1.33419756762e-38
0.0529534802205 -0.0905333694092 0.923 1.30664691877e-38
0.0544839918111 -0.0902391114372 0.92 1.33416169438e-38
0.0560644717366 -0.0900429394558 0.918 1.34341699048e-38
0.0577633951226 -0.0900429394558 0.918 1.31554348246e-38
0.0592679972062 -0.0897486814837 0.915 1.39848325571e-38
0.0608281196619 -0.0895525095023 0.913 1.29728400295e-38
0.0621754140247 -0.0890620795488 0.908 1.3340899479e-38
0.0635042015967 -0.0885716495954 0.903 1.3340899479e-38
0.064814482378 -0.0880812196419 0.898 1.36181996295e-38
0.0664763921826 -0.0880812196419 0.898 1.3342693141e-38
0.0679865463034 -0.0878850476605 0.896 9.65097794195e-39
0.0696447547499 -0.0878850476605 0.896 2.34781504088e-38
0.0713029631963 -0.0878850476605 0.896 2.33899190523e-38
-0.00168966999061 -0.0878628395117 0.913 2.35026002644e-38
0.0 -0.0878628395117 0.913 1.59194680195e-38
0.00168966999061 -0.0878628395117 0.913 1.9234906555e-38
0.00337933998122 -0.0878628395117 0.913 1.80385465898e-38
0.00508011404625 -0.0880553101349 0.915 1.78555552272e-38
0.00681049897639 -0.0885364866931 0.92 1.73942463714e-38
0.00851312372049 -0.0885364866931 0.92 1.61975444894e-38
0.0102490606878 -0.0888251926279 0.923 1.62878988131e-38
0.0119572374691 -0.0888251926279 0.923 1.63808049013e-38
0.0136950251156 -0.0890176632512 0.925 1.51830380324e-38
0.0154568715899 -0.089306369186 0.928 1.54599318063e-38
0.0171743017665 -0.089306369186 0.928 1.527411963e-38
0.0188917319432 -0.089306369186 0.928 1.49074838998e-38
0.0206091621199 -0.089306369186 0.928 1.50007543256e-38
0.0223265922965 -0.089306369186 0.928 1.4353959796e-38
0.0240958414871 -0.0894988398093 0.93 1.44468714894e-38
0.0258169730219 -0.0894988398093 0.93 1.47227367102e-38
0.027626937152 -0.0897875457442 0.933 1.47248919073e-38
0.0293536207241 -0.0897875457442 0.933 1.42621242998e-38
0.0311469287426 -0.0899800163674 0.935 1.39866178113e-38
0.0328773136727 -0.0899800163674 0.935 1.38940648504e-38
0.0346076986028 -0.0899800163674 0.935 1.37107525905e-38
0.036338083533 -0.0899800163674 0.935 1.30657517229e-38
0.0379870385841 -0.0897875457442 0.933 1.36167646999e-38
0.0395860253003 -0.0894988398093 0.93 1.34313000455e-38
0.0413071568351 -0.0894988398093 0.93 1.31565110219e-38
0.0429357544164 -0.089306369186 0.928 1.28795696038e-38
0.044653184593 -0.089306369186 0.928 1.38908362587e-38
0.0463706147697 -0.089306369186 0.928 1.3248346518e-38
0.0480880449463 -0.089306369186 0.928 1.35245704713e-38
0.0496444660439 -0.0890176632512 0.925 1.30664691877e-38
0.0512453034392 -0.0888251926279 0.923 1.26051393125e-38
0.0529534802205 -0.0888251926279 0.923 1.30653929905e-38
0.0544839918111 -0.0885364866931 0.92 1.31575886204e-38
0.0561866165552 -0.0885364866931 0.92 1.3155793557e-38
0.0577633951226 -0.0883440160698 0.918 1.36156885026e-38
0.0592679972062 -0.0880553101349 0.915 1.29710659857e-38
0.060961368555 -0.0880553101349 0.915 1.35234942741e-38
0.0623123642758 -0.0875741335768 0.91 1.31550760922e-38
0.0638558306199 -0.0873816629536 0.908 1.31561522894e-38
0.064814482378 -0.0864193098374 0.898 1.33416309568e-38
0.0664763921826 -0.0864193098374 0.898 1.08538077022e-38
0.0681383019871 -0.0864193098374 0.898 1.59087494876e-38
0.0698002117917 -0.0864193098374 0.898 2.34875012735e-38
0.0714621215963 -0.0864193098374 0.898 2.25543598105e-38
-0.00168966999061 -0.0861731695211 0.913 2.34859836672e-38
0.0 -0.0861731695211 0.913 2.34914627442e-38
0.00169337134875 -0.0863619387862 0.915 1.63757980619e-38
0.0033867426975 -0.0863619387862 0.915 1.70254400299e-38
0.00509677015787 -0.0866450926839 0.918 1.76707996299e-38
0.00681049897639 -0.086833861949 0.92 1.73927848171e-38
0.00854088390653 -0.0871170158466 0.923 1.6289321131e-38
0.0102490606878 -0.0871170158466 0.923 1.59187505547e-38
0.0119831469761 -0.0873057851117 0.925 1.58261975938e-38
0.0137394414132 -0.0875889390094 0.928 1.48138547416e-38
0.0154568715899 -0.0875889390094 0.928 1.62889623986e-38
0.0171743017665 -0.0875889390094 0.928 1.51822729234e-38
0.0188917319432 -0.0875889390094 0.928 1.4908560097e-38
0.0206091621199 -0.0875889390094 0.928 1.42639179619e-38
0.0223265922965 -0.0875889390094 0.928 1.45387097881e-38
0.0240958414871 -0.0877777082745 0.93 1.39855668375e-38
0.0258169730219 -0.0877777082745 0.93 1.39841066845e-38
0.027626937152 -0.0880608621722 0.933 1.39841066845e-38
0.0294165438124 -0.0882496314373 0.935 1.37089589284e-38
0.0311469287426 -0.0882496314373 0.935 1.3893706118e-38
0.0328773136727 -0.0882496314373 0.935 1.34341797139e-38
0.0346076986028 -0.0882496314373 0.935 1.33441280706e-38
0.036338083533 -0.0882496314373 0.935 1.34356048344e-38
0.0380684684631 -0.0882496314373 0.935 1.26962573438e-38
0.0397137221561 -0.0880608621722 0.933 1.36181996295e-38
0.0413071568351 -0.0877777082745 0.93 1.32508576449e-38
0.0430282883699 -0.0877777082745 0.93 1.35256480698e-38
0.0447494199046 -0.0877777082745 0.93 1.33412582114e-38
0.0463706147697 -0.0875889390094 0.928 1.3250154193e-38
0.0480880449463 -0.0875889390094 0.928 1.30664691877e-38
0.0496444660439 -0.0873057851117 0.925 1.30661104553e-38
0.0513563441834 -0.0873057851117 0.925 1.26054980449e-38
0.0529534802205 -0.0871170158466 0.923 1.36185583619e-38
0.0546616570018 -0.0871170158466 0.923 1.27884515724e-38
0.0561866165552 -0.086833861949 0.92 1.28802870686e-38
0.0577633951226 -0.0866450926839 0.918 1.36164059675e-38
0.0594623185085 -0.0866450926839 0.918 1.2695539879e-38
0.060961368555 -0.0863619387862 0.915 1.33405407466e-38
0.0625177896526 -0.0861731695211 0.913 1.35234942741e-38
0.0639964822292 -0.0858900156234 0.91 1.34330965101e-38
