# .PCD v0.7 - Point Cloud Data file format
VERSION 0.7
FIELDS x y z rgb
SIZE 4 4 4 4
TYPE F F F F
COUNT 1 1 1 1
WIDTH 852
HEIGHT 1
VIEWPOINT 0 0 0 1 0 0 0
POINTS 852
DATA ascii
0.0184697771153 -0.0221637325384 0.998 1.33423344086e-38
0.0203778272361 -0.0222303569849 1.001 1.3802946819e-38
0.0222303569849 -0.0222303569849 1.001 1.33419756762e-38
0.0240828867336 -0.0222303569849 1.001 1.35270815981e-38
0.0260131450033 -0.0222969814314 1.004 1.35267228657e-38
0.0277879462311 -0.0222303569849 1.001 1.36181996295e-38
0.0296404759799 -0.0222303569849 1.001 1.35260054009e-38
0.0314930057286 -0.0222303569849 1.001 1.35260054009e-38
0.0333455354773 -0.0222303569849 1.001 1.34338111724e-38
0.0351980652261 -0.0222303569849 1.001 1.30661104553e-38
0.0370505949748 -0.0222303569849 1.001 1.30671866525e-38
0.0387865319422 -0.0221637325384 0.998 1.29742749592e-38
0.0405113648351 -0.0220971080919 0.995 1.32512163773e-38
0.0423527905094 -0.0220971080919 0.995 1.33419756762e-38
0.0440609672907 -0.0220304836454 0.992 1.35260054009e-38
0.0457580399976 -0.0219638591989 0.989 1.35267228657e-38
0.0475883615975 -0.0219638591989 0.989 1.35260054009e-38
0.049168841523 -0.0218528184547 0.984 1.36185583619e-38
0.0508344526857 -0.0217861940082 0.981 1.38947823152e-38
0.052488959774 -0.0217195695617 0.978 1.38940648504e-38
0.0540213220437 -0.0216085288175 0.973 1.38018706218e-38
0.0554778064715 -0.0214752799245 0.967 1.41695713388e-38
0.0567936392901 -0.0212976147338 0.959 1.42621242998e-38
0.0585684405179 -0.0212976147338 0.959 1.39862590789e-38
0.0603432417457 -0.0212976147338 0.959 1.3988052741e-38
0.0608873413922 -0.0208756599059 0.94 1.36192758267e-38
0.0624937308247 -0.0208312436082 0.938 1.43467851478e-38
0.0640242424153 -0.0207646191617 0.935 2.30188874488e-38
-0.0087259518135 -0.0191970939897 0.943 2.34971197861e-38
-0.0069807614508 -0.0191970939897 0.943 1.86799138904e-38
-0.00541323627879 -0.0198485330222 0.975 1.8870042066e-38
-0.00360882418586 -0.0198485330222 0.975 1.84976778277e-38
-0.00180996413014 -0.0199096054315 0.978 1.8501280566e-38
0.0 -0.0199706778408 0.981 1.76729520243e-38
0.00182106820456 -0.0200317502501 0.984 1.61031390119e-38
0.00365324048353 -0.0200928226594 0.987 1.61031390119e-38
0.00549096479971 -0.020133537599 0.989 1.56428853338e-38
0.00732128639962 -0.020133537599 0.989 1.46301837493e-38
0.00917936818557 -0.0201946100083 0.992 1.45397831827e-38
0.0110152418227 -0.0201946100083 0.992 1.4448306419e-38
0.0128899797203 -0.0202556824175 0.995 1.42646354267e-38
0.0147314053946 -0.0202556824175 0.995 1.36185583619e-38
0.0166227994038 -0.0203167548268 0.998 1.39866178113e-38
0.0185252974874 -0.0203778272361 1.001 1.41695713388e-38
0.0203778272361 -0.0203778272361 1.001 1.38940648504e-38
0.0222969814314 -0.0204388996454 1.004 1.31590221487e-38
0.0241550632173 -0.0204388996454 1.004 1.27906039668e-38
0.0260131450033 -0.0204388996454 1.004 1.31586634163e-38
0.0278712267892 -0.0204388996454 1.004 1.33419756762e-38
0.0297293085752 -0.0204388996454 1.004 1.36181996295e-38
0.0315873903611 -0.0204388996454 1.004 1.33391058169e-38
0.0334454721471 -0.0204388996454 1.004 1.28810045334e-38
0.035303553933 -0.0204388996454 1.004 1.26062155097e-38
0.0370505949748 -0.0203778272361 1.001 1.3155793557e-38
0.0389031247236 -0.0203778272361 1.001 1.31579459515e-38
0.0406335096537 -0.0203167548268 0.998 1.33423344086e-38
0.0424804873652 -0.0203167548268 0.998 1.34338111724e-38
0.0441942161837 -0.0202556824175 0.995 1.35245704713e-38
0.0458968409278 -0.0201946100083 0.992 1.33419756762e-38
0.047732714565 -0.0201946100083 0.992 1.31590221487e-38
0.0493187465277 -0.0200928226594 0.987 1.32512163773e-38
0.0508344526857 -0.0199706778408 0.981 1.37107525905e-38
0.052488959774 -0.0199096054315 0.978 1.34338111724e-38
0.0541323627879 -0.0198485330222 0.975 1.34341699048e-38
0.055649919625 -0.0197467456734 0.97 1.43579058525e-38
0.0570897479412 -0.0196246008548 0.964 1.32461941236e-38
0.0587516577458 -0.0195838859153 0.962 1.44468714894e-38
0.0605320110108 -0.0195838859153 0.962 1.44468714894e-38
0.0623123642758 -0.0195838859153 0.962 1.28774172093e-38
0.0684899310104 -0.0209274789198 1.028 1.60091511213e-38
0.0701870037173 -0.0208664065105 1.025 2.34838354767e-38
-0.0087259518135 -0.017451903627 0.943 2.34974981367e-38
-0.00726206466939 -0.0181551616735 0.981 2.15419006506e-38
-0.00544654850204 -0.0181551616735 0.981 1.84069185288e-38
-0.00363103233469 -0.0181551616735 0.981 1.86860417686e-38
-0.00181551616735 -0.0181551616735 0.981 1.79466648507e-38
0.0 -0.0181551616735 0.981 1.71187104557e-38
0.00182106820456 -0.0182106820456 0.984 1.59187505547e-38
0.00365324048353 -0.0182662024177 0.987 1.57340033652e-38
0.00549096479971 -0.018303215999 0.989 1.54602905388e-38
0.00732128639962 -0.018303215999 0.989 1.45397831827e-38
0.00917936818557 -0.0183587363711 0.992 1.43543185284e-38
0.0110485540459 -0.0184142567432 0.995 1.46301837493e-38
0.0128899797203 -0.0184142567432 0.995 1.43546772608e-38
0.0147758216923 -0.0184697771153 0.998 1.40795295047e-38
0.0166727677387 -0.0185252974874 1.001 1.39873352762e-38
0.0185252974874 -0.0185252974874 1.001 1.38025880866e-38
0.0204388996454 -0.0185808178595 1.004 1.31579459515e-38
0.0223636058779 -0.0186363382316 1.007 1.32519338421e-38
0.0242272397011 -0.0186363382316 1.007 1.29753511564e-38
0.0260908735242 -0.0186363382316 1.007 1.35249292037e-38
0.0279545073474 -0.0186363382316 1.007 1.31532824302e-38
0.0298181411705 -0.0186363382316 1.007 1.33405407466e-38
0.0316817749937 -0.0186363382316 1.007 1.33412582114e-38
0.0335454088169 -0.0186363382316 1.007 1.33419756762e-38
0.035303553933 -0.0185808178595 1.004 1.29703289027e-38
0.037161635719 -0.0185808178595 1.004 1.31543586274e-38
0.0390197175049 -0.0185808178595 1.004 1.30607294692e-38
0.0407556544723 -0.0185252974874 1.001 1.32490639828e-38
0.042608184221 -0.0185252974874 1.001 1.20476691522e-38
0.0443274650768 -0.0184697771153 0.998 1.35242117389e-38
0.0458968409278 -0.0183587363711 0.992 1.35256466685e-38
0.047732714565 -0.0183587363711 0.992 1.29731987619e-38
0.0493187465277 -0.0182662024177 0.987 1.33419756762e-38
0.0509899097276 -0.0182106820456 0.984 1.35245704713e-38
0.0526499688531 -0.0181551616735 0.981 1.36171234323e-38
0.0542989239041 -0.0180996413014 0.978 1.38947823152e-38
0.0559367748808 -0.0180441209293 0.975 1.36185583619e-38
0.0572674131319 -0.0178960666037 0.967 1.42649941591e-38
0.0590570197923 -0.0178960666037 0.967 1.41724411981e-38
0.0608466264526 -0.0178960666037 0.967 1.30628818637e-38
0.062636233113 -0.0178960666037 0.967 1.2597605932e-38
0.0684899310104 -0.0190249808362 1.028 2.20022005714e-38
0.0701870037173 -0.0189694604641 1.025 2.34834725404e-38
0.0720839497637 -0.0189694604641 1.025 2.35098407736e-38
-0.00726206466939 -0.0163396455061 0.981 2.34942989723e-38
-0.00544654850204 -0.0163396455061 0.981 1.67452700202e-38
-0.00363103233469 -0.0163396455061 0.981 1.74889279048e-38
-0.00181551616735 -0.0163396455061 0.981 1.69336045338e-38
0.0 -0.0163396455061 0.981 1.6474427053e-38
0.00182106820456 -0.016389613841 0.984 1.60177663042e-38
0.00365324048353 -0.0164395821759 0.987 1.51855015151e-38
0.00549096479971 -0.0164728943991 0.989 1.52780544761e-38
0.00734349454845 -0.016522862734 0.992 1.52784132085e-38
0.00917936818557 -0.016522862734 0.992 1.47230954426e-38
0.0110485540459 -0.0165728310689 0.995 1.46309012141e-38
0.0129288439807 -0.0166227994038 0.998 1.45397831827e-38
0.0148202379899 -0.0166727677387 1.001 1.37114700553e-38
0.0166727677387 -0.0166727677387 1.001 1.36192758267e-38
0.0185808178595 -0.0167227360735 1.004 1.33441280706e-38
0.0204999720547 -0.0167727044084 1.007 1.36192758267e-38
0.0223636058779 -0.0167727044084 1.007 1.39851828817e-38
0.0242994161848 -0.0168226727433 1.01 1.38911949911e-38
0.0261686020451 -0.0168226727433 1.01 1.46301837493e-38
0.0280377879055 -0.0168226727433 1.01 1.43546772608e-38
0.0299069737659 -0.0168226727433 1.01 1.35249292037e-38
0.0317761596263 -0.0168226727433 1.01 1.36185583619e-38
0.0336453454866 -0.0168226727433 1.01 1.36185583619e-38
0.035514531347 -0.0168226727433 1.01 1.39876940086e-38
0.0372726764632 -0.0167727044084 1.007 1.34316587779e-38
0.0391363102863 -0.0167727044084 1.007 1.3708600196e-38
0.0408777992909 -0.0167227360735 1.004 1.35238530065e-38
0.042608184221 -0.0166727677387 1.001 1.33401820142e-38
0.0444607139698 -0.0166727677387 1.001 1.3616047235e-38
0.0461744427883 -0.0166227994038 0.998 1.35242117389e-38
0.0478770675324 -0.0165728310689 0.995 1.33419756762e-38
0.0494186831974 -0.0164728943991 0.989 1.33419756762e-38
0.0511453667694 -0.0164395821759 0.987 1.35260054009e-38
0.0526499688531 -0.0163396455061 0.981 1.41695713388e-38
0.0544654850204 -0.0163396455061 0.981 1.41702888037e-38
0.0561088880343 -0.0162896771712 0.978 1.36192758267e-38
0.0574450783226 -0.0161564282782 0.97 1.39873352762e-38
0.0592402370202 -0.0161564282782 0.97 1.41702888037e-38
0.0610353957178 -0.0161564282782 0.97 1.29724812971e-38
0.0665874329268 -0.0171224827526 1.028 1.54556270175e-38
0.0684899310104 -0.0171224827526 1.028 2.34874592345e-38
0.0701870037173 -0.0170725144177 1.025 2.34769845285e-38
0.0718729723497 -0.0170225460828 1.022 2.35098449775e-38
-0.00726206466939 -0.0145241293388 0.981 2.34964261434e-38
-0.00544654850204 -0.0145241293388 0.981 2.07161448928e-38
-0.00363103233469 -0.0145241293388 0.981 1.7300587786e-38
-0.00181551616735 -0.0145241293388 0.981 1.77633623999e-38
0.0 -0.0145241293388 0.981 1.63829530918e-38
0.00182662024177 -0.0146129619341 0.987 1.59194680195e-38
0.00365324048353 -0.0146129619341 0.987 1.59212616816e-38
0.00550762091134 -0.0146869890969 0.992 1.5370607437e-38
0.00734349454845 -0.0146869890969 0.992 1.48145722064e-38
0.00920712837161 -0.0147314053946 0.995 1.49078426322e-38
0.0111151784924 -0.0148202379899 1.001 1.45397831827e-38
0.0129677082412 -0.0148202379899 1.001 1.40773771103e-38
0.0148646542876 -0.0148646542876 1.004 1.3614253573e-38
0.0167227360735 -0.0148646542876 1.004 1.40773771103e-38
0.0186363382316 -0.0149090705853 1.007 1.36171234323e-38
0.0204999720547 -0.0149090705853 1.007 1.39866178113e-38
0.0224302303244 -0.0149534868829 1.01 1.43546772608e-38
0.0242994161848 -0.0149534868829 1.01 1.51847840503e-38
0.0261686020451 -0.0149534868829 1.01 1.45397831827e-38
0.0280377879055 -0.0149534868829 1.01 1.50025521915e-38
0.0299069737659 -0.0149534868829 1.01 1.47277631678e-38
0.0318705442588 -0.0149979031806 1.013 1.43571883876e-38
0.0337452821564 -0.0149979031806 1.013 1.47256065695e-38
0.035514531347 -0.0149534868829 1.01 1.42657116239e-38
0.0373837172074 -0.0149534868829 1.01 1.42653528915e-38
0.0392529030677 -0.0149534868829 1.01 1.40791721736e-38
0.0409999441095 -0.0149090705853 1.007 1.41695713388e-38
0.0427358810768 -0.0148646542876 1.004 1.33419756762e-38
0.0444607139698 -0.0148202379899 1.001 1.33434106058e-38
0.0461744427883 -0.0147758216923 0.998 1.26976922735e-38
0.0478770675324 -0.0147314053946 0.995 1.29731987619e-38
0.0494186831974 -0.0146425727992 0.989 1.29753511564e-38
0.0512490047973 -0.0146425727992 0.989 1.31586634163e-38
0.0529719870112 -0.0146129619341 0.987 1.35260054009e-38
0.0546320461367 -0.0145685456365 0.984 1.32512163773e-38
0.0562810011878 -0.0145241293388 0.981 1.34373984964e-38
0.0580965173551 -0.0145241293388 0.981 1.38947823152e-38
0.0599120335225 -0.0145241293388 0.981 1.3708600196e-38
0.0622309343968 -0.0146425727992 0.989 1.28723949556e-38
0.0663931116244 -0.0151755683713 1.025 2.30178518893e-38
0.0682900576709 -0.0151755683713 1.025 2.34777118024e-38
0.0699815783405 -0.0151311520736 1.022 2.34975527874e-38
0.0716619949358 -0.015086735776 1.019 2.35098449775e-38
-0.00544654850204 -0.0127086131714 0.981 2.34982870678e-38
-0.00364213640911 -0.0127474774319 0.984 1.77572541399e-38
-0.00182106820456 -0.0127474774319 0.984 1.69307346745e-38
0.0 -0.0127474774319 0.984 1.65669842178e-38
0.00182662024177 -0.0127863416924 0.987 1.61982087049e-38
0.00365324048353 -0.0127863416924 0.987 1.5736514492e-38
0.00550762091134 -0.0128511154598 0.992 1.51855015151e-38
0.00736570269729 -0.0128899797203 0.995 1.45390657179e-38
0.00923488855766 -0.0129288439807 0.998 1.44454365597e-38
0.0111151784924 -0.0129677082412 1.001 1.45376307883e-38
0.0130065725016 -0.0130065725016 1.004 1.42621242998e-38
0.0149090705853 -0.0130454367621 1.007 1.39862590789e-38
0.0167727044084 -0.0130454367621 1.007 1.47274002315e-38
0.0186918586037 -0.0130843010226 1.01 1.51858602475e-38
0.020561044464 -0.0130843010226 1.01 1.69357919607e-38
0.0224968547709 -0.013123165283 1.013 1.6750659414e-38
0.0243715926685 -0.013123165283 1.013 1.56436027987e-38
0.0262463305661 -0.013123165283 1.013 1.51855015151e-38
0.0281210684637 -0.013123165283 1.013 1.45379895207e-38
0.0299958063612 -0.013123165283 1.013 1.48163658684e-38
0.0318705442588 -0.013123165283 1.013 1.43553947256e-38
0.0337452821564 -0.013123165283 1.013 1.40802469695e-38
0.035620020054 -0.013123165283 1.013 1.39894876706e-38
0.0374947579515 -0.013123165283 1.013 1.38969347096e-38
0.0392529030677 -0.0130843010226 1.01 1.3893706118e-38
0.0411220889281 -0.0130843010226 1.01 1.39862590789e-38
0.0428635779327 -0.0130454367621 1.007 1.38940648504e-38
0.0447272117558 -0.0130454367621 1.007 1.36185583619e-38
0.0463132437185 -0.0129677082412 1.001 1.34345286372e-38
0.0480214204998 -0.0129288439807 0.998 1.29739162268e-38
0.0495685882021 -0.0128511154598 0.992 1.32508576449e-38
0.0514044618392 -0.0128511154598 0.992 1.24178809961e-38
0.0530793263972 -0.0128122511993 0.989 1.35263641333e-38
0.0549096479971 -0.0128122511993 0.989 1.36181996295e-38
0.0566252274947 -0.0127863416924 0.987 1.36185583619e-38
0.0584518477365 -0.0127863416924 0.987 1.35249292037e-38
0.0604006127969 -0.0128122511993 0.989 1.2329632824e-38
0.0622309343968 -0.0128122511993 0.989 1.91456326324e-38
0.0663931116244 -0.0132786223249 1.025 2.3490682221e-38
0.0682900576709 -0.0132786223249 1.025 1.9863730833e-38
0.0693653022103 -0.013123165283 1.013 2.35098407736e-38
-0.00546320461367 -0.0109264092273 0.984 2.3489945138e-38
-0.00364213640911 -0.0109264092273 0.984 2.34889207888e-38
-0.00182106820456 -0.0109264092273 0.984 1.66523583268e-38
0.0 -0.0109597214506 0.987 1.67474224146e-38
0.00182662024177 -0.0109597214506 0.987 1.63833090216e-38
0.00367174727423 -0.0110152418227 0.992 1.59212616816e-38
0.00552427702297 -0.0110485540459 0.995 1.54620842008e-38
0.00738791084613 -0.0110818662692 0.998 1.5001113058e-38
0.0092626487437 -0.0111151784924 1.001 1.49996781283e-38
0.0111484907157 -0.0111484907157 1.004 1.42621242998e-38
0.0130454367621 -0.011181802939 1.007 1.43553947256e-38
0.0149090705853 -0.011181802939 1.007 1.58337407834e-38
0.0167727044084 -0.011181802939 1.007 1.69336045338e-38
0.0186918586037 -0.0112151151622 1.01 1.74871328414e-38
0.020561044464 -0.0112151151622 1.01 1.61985618321e-38
0.0224968547709 -0.0112484273855 1.013 1.56418091366e-38
0.0243715926685 -0.0112484273855 1.013 1.58276325234e-38
0.0262463305661 -0.0112484273855 1.013 1.54602905388e-38
0.0281210684637 -0.0112484273855 1.013 1.54617254684e-38
0.0299958063612 -0.0112484273855 1.013 1.51851427827e-38
0.0318705442588 -0.0112484273855 1.013 1.49978844663e-38
0.0337452821564 -0.0112484273855 1.013 1.46301837493e-38
0.035620020054 -0.0112484273855 1.013 1.47259653019e-38
0.0374947579515 -0.0112484273855 1.013 1.42657116239e-38
0.0392529030677 -0.0112151151622 1.01 1.41724411981e-38
0.0411220889281 -0.0112151151622 1.01 1.40795295047e-38
0.0429912747885 -0.0112151151622 1.01 1.39869765438e-38
0.0447272117558 -0.011181802939 1.007 1.38036642838e-38
0.0464520446487 -0.0111484907157 1.004 1.35267228657e-38
0.0481657734673 -0.0111151784924 1.001 1.33430518734e-38
0.0495685882021 -0.0110152418227 0.992 1.26069329745e-38
0.0514044618392 -0.0110152418227 0.992 1.2514738746e-38
0.0530793263972 -0.0109819295994 0.989 1.30657517229e-38
0.0549096479971 -0.0109819295994 0.989 1.38018706218e-38
0.0566252274947 -0.0109597214506 0.987 1.36171234323e-38
0.0584518477365 -0.0109597214506 0.987 1.15856218122e-38
0.0604006127969 -0.0109819295994 0.989 1.62878862014e-38
0.0622309343968 -0.0109819295994 0.989 2.34889067758e-38
0.0656158264152 -0.0112484273855 1.013 2.18109303375e-38
0.0674905643128 -0.0112484273855 1.013 2.2926396145e-38
0.0693653022103 -0.0112484273855 1.013 2.35098421749e-38
-0.00734349454845 -0.00917936818557 0.992 2.11822405841e-38
-0.00550762091134 -0.00917936818557 0.992 1.51528568661e-38
-0.00366064319981 -0.00915160799952 0.989 2.35015366789e-38
-0.0018303215999 -0.00915160799952 0.989 2.21927799652e-38
0.0 -0.00915160799952 0.989 1.51829903882e-38
0.0018303215999 -0.00915160799952 0.989 1.5919826752e-38
0.00368285134865 -0.00920712837161 0.995 1.61031390119e-38
0.0055409331346 -0.00923488855766 0.998 1.5736514492e-38
0.00741011899496 -0.0092626487437 1.001 1.54606492712e-38
0.00929040892975 -0.00929040892975 1.004 1.48134960092e-38
0.011181802939 -0.00931816911579 1.007 1.57336446328e-38
0.0130843010226 -0.00934592930184 1.01 1.66563043832e-38
0.0149534868829 -0.00934592930184 1.01 1.79538717288e-38
0.0168726410782 -0.00937368948788 1.013 1.70286686216e-38
0.0187473789758 -0.00937368948788 1.013 1.66570218481e-38
0.0206221168733 -0.00937368948788 1.013 1.5919826752e-38
0.0224968547709 -0.00937368948788 1.013 1.6474427053e-38
0.0243715926685 -0.00937368948788 1.013 1.62918322579e-38
0.0262463305661 -0.00937368948788 1.013 1.56432440663e-38
0.0281210684637 -0.00937368948788 1.013 1.58258388614e-38
0.0299958063612 -0.00937368948788 1.013 1.55506911053e-38
0.0318705442588 -0.00937368948788 1.013 1.54602905388e-38
0.0337452821564 -0.00937368948788 1.013 1.50929485541e-38
0.035620020054 -0.00937368948788 1.013 1.50003955932e-38
0.0374947579515 -0.00937368948788 1.013 1.48163658684e-38
0.0393694958491 -0.00937368948788 1.013 1.39866178113e-38
0.0411220889281 -0.00934592930184 1.01 1.45415768448e-38
0.0429912747885 -0.00934592930184 1.01 1.39866178113e-38
0.0448604606488 -0.00934592930184 1.01 1.38025880866e-38
0.0464520446487 -0.00929040892975 1.004 1.38025880866e-38
0.0481657734673 -0.0092626487437 1.001 1.36185583619e-38
0.0498683982114 -0.00923488855766 0.998 1.35267228657e-38
0.0514044618392 -0.00917936818557 0.992 1.26033456505e-38
0.0532403354763 -0.00917936818557 0.992 1.33419756762e-38
0.0549096479971 -0.00915160799952 0.989 1.37986420301e-38
0.056739969597 -0.00915160799952 0.989 1.23188708518e-38
0.0585702911969 -0.00915160799952 0.989 1.44379031792e-38
0.0604006127969 -0.00915160799952 0.989 2.34899773679e-38
0.0622309343968 -0.00915160799952 0.989 2.26493272087e-38
0.0656158264152 -0.00937368948788 1.013 1.73902708877e-38
0.0674905643128 -0.00937368948788 1.013 2.35004394622e-38
-0.00756557603682 -0.00756557603682 1.022 2.3490748082e-38
-0.00567418202761 -0.00756557603682 1.022 1.3142520458e-38
-0.00368285134865 -0.00736570269729 0.995 1.67337905831e-38
-0.00184142567432 -0.00736570269729 0.995 2.34993828832e-38
0.0 -0.00736570269729 0.995 2.20933942729e-38
0.00184142567432 -0.00736570269729 0.995 1.48056038962e-38
0.00368285134865 -0.00736570269729 0.995 1.56418091366e-38
0.0055409331346 -0.00738791084613 0.998 1.55517673025e-38
0.00741011899496 -0.00741011899496 1.001 1.44475889542e-38
0.00931816911579 -0.00745453529263 1.007 1.5919826752e-38
0.0112151151622 -0.00747674344147 1.01 1.75782466689e-38
0.0130843010226 -0.00747674344147 1.01 1.8500909222e-38
0.0149979031806 -0.00749895159031 1.013 1.82246824661e-38
0.0168726410782 -0.00749895159031 1.013 1.71161993289e-38
0.0187473789758 -0.00749895159031 1.013 1.73056100397e-38
0.0206831892826 -0.00752115973914 1.016 1.72141332759e-38
0.0224968547709 -0.00749895159031 1.013 1.61974856349e-38
0.0243715926685 -0.00749895159031 1.013 1.71197866529e-38
0.0262463305661 -0.00749895159031 1.013 1.63843852188e-38
0.0281210684637 -0.00749895159031 1.013 1.62918322579e-38
0.0299958063612 -0.00749895159031 1.013 1.6017760699e-38
0.0318705442588 -0.00749895159031 1.013 1.58294261854e-38
0.0337452821564 -0.00749895159031 1.013 1.60098685861e-38
0.035620020054 -0.00749895159031 1.013 1.59194680195e-38
0.0374947579515 -0.00749895159031 1.013 1.51855015151e-38
0.0393694958491 -0.00749895159031 1.013 1.50000368607e-38
0.0412442337467 -0.00749895159031 1.013 1.48163658684e-38
0.0431189716443 -0.00749895159031 1.013 1.45397831827e-38
0.0449937095418 -0.00749895159031 1.013 1.43550359932e-38
0.0467296465092 -0.00747674344147 1.01 1.41724411981e-38
0.0483101264347 -0.0074323271438 1.004 1.38036642838e-38
0.050018303216 -0.00741011899496 1.001 1.37114700553e-38
0.0517153759229 -0.00738791084613 0.998 1.29753511564e-38
0.0532403354763 -0.00734349454845 0.992 1.2601193256e-38
0.0550762091134 -0.00734349454845 0.992 1.19515288672e-38
0.056739969597 -0.00732128639962 0.989 1.4074507251e-38
0.0547801004623 -0.00684751255778 0.925 2.34917724312e-38
0.0564919786017 -0.00684751255778 0.925 2.34834627313e-38
0.0582038567412 -0.00684751255778 0.925 1.74763666653e-38
0.0599157348806 -0.00684751255778 0.925 2.13504216232e-38
0.0674905643128 -0.00749895159031 1.013 2.35098295632e-38
-0.00756557603682 -0.00567418202761 1.022 2.23764509575e-38
-0.00569083813924 -0.00569083813924 1.025 2.00744637013e-38
-0.00184697771153 -0.0055409331346 0.998 1.84915793768e-38
0.00184697771153 -0.0055409331346 0.998 2.2564066605e-38
0.00369395542306 -0.0055409331346 0.998 1.34345286372e-38
0.00555758924622 -0.00555758924622 1.001 1.50882850328e-38
0.0074323271438 -0.00557424535785 1.004 1.59183918223e-38
0.00934592930184 -0.0056075575811 1.01 1.76711583623e-38
0.0112484273855 -0.00562421369273 1.013 1.94257746162e-38
0.013123165283 -0.00562421369273 1.013 1.9055885071e-38
0.0150423194783 -0.00564086980436 1.016 1.79445124563e-38
0.0168726410782 -0.00562421369273 1.013 1.7760841464e-38
0.0187473789758 -0.00562421369273 1.013 1.73952931414e-38
0.0206831892826 -0.00564086980436 1.016 1.72126983463e-38
0.0224968547709 -0.00562421369273 1.013 1.70297448188e-38
0.0243715926685 -0.00562421369273 1.013 1.71187104557e-38
0.0262463305661 -0.00562421369273 1.013 1.70293860864e-38
0.0281210684637 -0.00562421369273 1.013 1.67506510063e-38
0.0299958063612 -0.00562421369273 1.013 1.67510097387e-38
0.0318705442588 -0.00562421369273 1.013 1.68428452348e-38
0.0337452821564 -0.00562421369273 1.013 1.62896798634e-38
0.035620020054 -0.00562421369273 1.013 1.61971269025e-38
0.0374947579515 -0.00562421369273 1.013 1.58283499882e-38
0.0393694958491 -0.00562421369273 1.013 1.59201854844e-38
0.0412442337467 -0.00562421369273 1.013 1.50922310893e-38
0.0431189716443 -0.00562421369273 1.013 1.4908560097e-38
0.0449937095418 -0.00562421369273 1.013 1.45394244503e-38
0.0467296465092 -0.0056075575811 1.01 1.43543185284e-38
0.0483101264347 -0.00557424535785 1.004 1.44472302218e-38
0.050018303216 -0.00555758924622 1.001 1.36164059675e-38
0.0517153759229 -0.0055409331346 0.998 1.36171234323e-38
0.0535623536344 -0.0055409331346 0.998 1.09406209446e-38
0.0552427702297 -0.00552427702297 0.995 1.56392980098e-38
0.0530682223228 -0.00513563441834 0.925 2.3494687132e-38
0.0547801004623 -0.00513563441834 0.925 2.33873126372e-38
0.0563698337831 -0.00512453034392 0.923 1.85009120246e-38
0.0580780105644 -0.00512453034392 0.923 2.04222771905e-38
0.0658101477175 -0.00564086980436 1.016 2.3477780466e-38
0.0676904376523 -0.00564086980436 1.016 2.35098337671e-38
-0.00569083813924 -0.00379389209283 1.025 2.2011297801e-38
-0.00381610024166 -0.00381610024166 1.031 1.53613378477e-38
0.0037161635719 -0.0037161635719 1.004 2.34896060238e-38
0.00557424535785 -0.0037161635719 1.004 1.52701623631e-38
0.00745453529263 -0.00372726764632 1.007 1.60084336564e-38
0.00937368948788 -0.00374947579515 1.013 1.99745945611e-38
0.0112484273855 -0.00374947579515 1.013 1.96083483918e-38
0.013123165283 -0.00374947579515 1.013 1.77640700557e-38
0.0150423194783 -0.00376057986957 1.016 1.8128542181e-38
0.0169226094131 -0.00376057986957 1.016 1.8313648103e-38
0.0188028993479 -0.00376057986957 1.016 1.87785905256e-38
0.0206831892826 -0.00376057986957 1.016 1.78562642842e-38
0.0224968547709 -0.00374947579515 1.013 1.74860524403e-38
0.0243715926685 -0.00374947579515 1.013 1.79499060541e-38
0.0262463305661 -0.00374947579515 1.013 1.78580579463e-38
0.0281210684637 -0.00374947579515 1.013 1.73048925749e-38
0.0299958063612 -0.00374947579515 1.013 1.73970994151e-38
0.0317761596263 -0.00373837172074 1.01 1.6934680731e-38
0.0336453454866 -0.00373837172074 1.01 1.65666212815e-38
0.035514531347 -0.00373837172074 1.01 1.6474427053e-38
0.0373837172074 -0.00373837172074 1.01 1.60113035157e-38
0.0392529030677 -0.00373837172074 1.01 1.63815209648e-38
0.0411220889281 -0.00373837172074 1.01 1.57375906893e-38
0.0431189716443 -0.00374947579515 1.013 1.49078426322e-38
0.0449937095418 -0.00374947579515 1.013 1.47223779778e-38
0.0467296465092 -0.00373837172074 1.01 1.46309012141e-38
0.0445088316256 -0.00342375627889 0.925 1.46309012141e-38
0.046220709765 -0.00342375627889 0.925 1.24157286017e-38
0.0479325879045 -0.00342375627889 0.925 1.17700102693e-38
0.0496444660439 -0.00342375627889 0.925 2.01579488599e-38
0.0513563441834 -0.00342375627889 0.925 2.34957675331e-38
0.0530682223228 -0.00342375627889 0.925 2.30167350544e-38
0.0547801004623 -0.00342375627889 0.925 1.92352722939e-38
0.0563698337831 -0.00341635356261 0.923 1.82142792263e-38
0.0580780105644 -0.00341635356261 0.923 2.01589886234e-38
0.0658101477175 -0.00376057986957 1.016 2.34972024627e-38
0.0676904376523 -0.00376057986957 1.016 2.35098337671e-38
-0.00572415036249 -0.00190805012083 1.031 2.1457035213e-38
-0.00381610024166 -0.00190805012083 1.031 1.52799210056e-38
-0.00190249808362 -0.00190249808362 1.028 1.34345426502e-38
0.00562421369273 -0.00187473789758 1.013 2.34993478507e-38
0.00749895159031 -0.00187473789758 1.013 2.11709517237e-38
0.00937368948788 -0.00187473789758 1.013 1.94253598319e-38
0.0112484273855 -0.00187473789758 1.013 1.82218126068e-38
0.013123165283 -0.00187473789758 1.013 1.93295782792e-38
0.0149979031806 -0.00187473789758 1.013 1.89593664353e-38
0.0168726410782 -0.00187473789758 1.013 1.89604426326e-38
0.0187473789758 -0.00187473789758 1.013 1.88696917414e-38
0.0206221168733 -0.00187473789758 1.013 1.88700672894e-38
0.0224968547709 -0.00187473789758 1.013 1.81306945755e-38
0.0243715926685 -0.00187473789758 1.013 1.82246824661e-38
0.0262463305661 -0.00187473789758 1.013 1.80410114738e-38
0.0281210684637 -0.00187473789758 1.013 1.76729632347e-38
0.0299069737659 -0.00186918586037 1.01 1.74900419371e-38
0.0317761596263 -0.00186918586037 1.01 1.75825654708e-38
0.0336453454866 -0.00186918586037 1.01 1.72130570787e-38
0.035514531347 -0.00186918586037 1.01 1.67510097387e-38
0.0373837172074 -0.00186918586037 1.01 1.68428452348e-38
0.0392529030677 -0.00186918586037 1.01 1.63811580285e-38
0.0411220889281 -0.00186918586037 1.01 1.6013460114e-38
0.0429912747885 -0.00186918586037 1.01 1.50007543256e-38
0.0449937095418 -0.00187473789758 1.013 1.49082013646e-38
0.0427969534861 -0.00171187813945 0.925 1.35249292037e-38
0.044412596314 -0.00170817678131 0.923 1.30600120044e-38
0.0461207730953 -0.00170817678131 0.923 1.53627153241e-38
0.0479325879045 -0.00171187813945 0.925 2.34871005021e-38
0.0496444660439 -0.00171187813945 0.925 2.34968241122e-38
0.0513563441834 -0.00171187813945 0.925 2.10679955229e-38
0.0530682223228 -0.00171187813945 0.925 1.94102930708e-38
0.0547801004623 -0.00171187813945 0.925 1.60963230961e-38
0.0564919786017 -0.00171187813945 0.925 2.03456107503e-38
0.0582038567412 -0.00171187813945 0.925 2.0791449271e-38
0.0658101477175 -0.00188028993479 1.016 2.35098323658e-38
-0.00380499616724 0.0 1.028 1.94319459346e-38
-0.00190249808362 0.0 1.028 1.50893612301e-38
0.00562421369273 0.0 1.013 1.69228425616e-38
0.00749895159031 0.0 1.013 2.349755559e-38
0.00937368948788 0.0 1.013 2.3495382176e-38
0.0112484273855 0.0 1.013 2.11709517237e-38
0.013123165283 0.0 1.013 1.83125719058e-38
0.0149979031806 0.0 1.013 1.88675309392e-38
0.0168726410782 0.0 1.013 1.88704007984e-38
0.0187473789758 0.0 1.013 1.85913069859e-38
0.0206221168733 0.0 1.013 1.93295908909e-38
0.0224968547709 0.0 1.013 1.87746192458e-38
0.0243715926685 0.0 1.013 1.85902307887e-38
0.0262463305661 0.0 1.013 1.84083534584e-38
0.0281210684637 0.0 1.013 1.82232475364e-38
0.0299069737659 0.0 1.01 1.78555552272e-38
0.0317761596263 0.0 1.01 1.75803990633e-38
0.0336453454866 0.0 1.01 1.76754631512e-38
0.035514531347 0.0 1.01 1.69328870689e-38
0.0373837172074 0.0 1.01 1.70250812975e-38
0.0392529030677 0.0 1.01 1.6749574809e-38
0.0411220889281 0.0 1.01 1.56410916718e-38
0.0395008940631 0.0 0.928 1.48106261499e-38
0.0412183242397 0.0 0.928 1.44379031792e-38
0.0427969534861 0.0 0.925 1.62828639477e-38
0.044412596314 0.0 0.923 2.34845963818e-38
0.0461207730953 0.0 0.923 2.34853306622e-38
0.0479325879045 0.0 0.925 2.34806180954e-38
0.0496444660439 0.0 0.925 2.04219184581e-38
0.0513563441834 0.0 0.925 1.87706815971e-38
0.0530682223228 0.0 0.925 1.48127785444e-38
0.0547801004623 0.0 0.925 2.19061317526e-38
0.0564919786017 0.0 0.925 2.18030634479e-38
0.0582038567412 0.0 0.925 2.34695212129e-38
0.0658101477175 0.0 1.016 2.35098547866e-38
-0.00380499616724 0.00190249808362 1.028 1.99826057844e-38
-0.00190249808362 0.00190249808362 1.028 1.49957404797e-38
0.00752115973914 0.00188028993479 1.016 1.23977919813e-38
0.00937368948788 0.00187473789758 1.013 1.76743869539e-38
0.0112484273855 0.00187473789758 1.013 2.34982898704e-38
0.013123165283 0.00187473789758 1.013 2.35000709207e-38
0.0149979031806 0.00187473789758 1.013 2.34830969924e-38
0.0168726410782 0.00187473789758 1.013 2.03386925397e-38
0.0187473789758 0.00187473789758 1.013 1.89575727733e-38
0.0206221168733 0.00187473789758 1.013 1.84051248667e-38
0.0224968547709 0.00187473789758 1.013 1.83140068354e-38
0.0243715926685 0.00187473789758 1.013 1.84090709232e-38
0.0262463305661 0.00187473789758 1.013 1.82246824661e-38
0.0281210684637 0.00187473789758 1.013 1.77640700557e-38
0.0299069737659 0.00186918586037 1.01 1.77640700557e-38
0.0317761596263 0.00186918586037 1.01 1.78537531574e-38
0.0336453454866 0.00186918586037 1.01 1.61017040822e-38
0.035514531347 0.00186918586037 1.01 1.62878862014e-38
0.0372726764632 0.00186363382316 1.007 1.50864913708e-38
0.0391363102863 0.00186363382316 1.007 1.60995516878e-38
0.0377834638864 0.00171743017665 0.928 1.67474224146e-38
0.0395008940631 0.00171743017665 0.928 2.08961627e-38
0.0410850753467 0.00171187813945 0.925 2.34914319157e-38
0.0427969534861 0.00171187813945 0.925 2.34964541694e-38
0.044412596314 0.00170817678131 0.923 2.3483503369e-38
0.0461207730953 0.00170817678131 0.923 2.14389822848e-38
0.0479325879045 0.00171187813945 0.925 1.87645747384e-38
0.0496444660439 0.00171187813945 0.925 1.59133695686e-38
0.0513563441834 0.00171187813945 0.925 1.81282437045e-38
0.0532403354763 0.00171743017665 0.928 2.10817464647e-38
0.054957765653 0.00171743017665 0.928 2.01478959447e-38
0.06186635062 0.00187473789758 1.013 1.95097109929e-38
0.0637410885176 0.00187473789758 1.013 2.34900222094e-38
0.0656158264152 0.00187473789758 1.013 2.35098435762e-38
-0.00379389209283 0.00379389209283 1.025 1.87826402782e-38
-0.00189694604641 0.00379389209283 1.025 1.64824144542e-38
0.00937368948788 0.00374947579515 1.013 1.59958780222e-38
0.0112484273855 0.00374947579515 1.013 8.17335915806e-39
0.013123165283 0.00374947579515 1.013 1.07530038958e-38
0.0149979031806 0.00374947579515 1.013 2.27412453815e-38
0.0168726410782 0.00374947579515 1.013 2.34993702715e-38
0.0187473789758 0.00374947579515 1.013 2.35018870035e-38
0.0206221168733 0.00374947579515 1.013 2.34924912973e-38
0.0224302303244 0.00373837172074 1.01 2.34859752595e-38
0.0242994161848 0.00373837172074 1.01 2.22776902443e-38
0.0262463305661 0.00374947579515 1.013 2.20007334119e-38
0.0281210684637 0.00374947579515 1.013 2.12631459522e-38
0.0299069737659 0.00373837172074 1.01 2.00639035161e-38
0.0317761596263 0.00373837172074 1.01 2.08979773815e-38
0.0336453454866 0.00373837172074 1.01 2.06232289955e-38
0.035514531347 0.00373837172074 1.01 2.31168690401e-38
0.0372726764632 0.00372726764632 1.007 2.34881696928e-38
0.0360660337097 0.00343486035331 0.928 2.34946815268e-38
0.0377834638864 0.00343486035331 0.928 2.34953933864e-38
0.0395008940631 0.00343486035331 0.928 2.34914347183e-38
0.0410850753467 0.00342375627889 0.925 2.30106071762e-38
0.0427969534861 0.00342375627889 0.925 2.09722139703e-38
0.044412596314 0.00341635356261 0.923 1.61763204229e-38
0.0461207730953 0.00341635356261 0.923 1.38804330189e-38
0.0479325879045 0.00342375627889 0.925 1.87728886422e-38
0.0496444660439 0.00342375627889 0.925 2.0150042734e-38
0.0513563441834 0.00342375627889 0.925 2.23674420096e-38
0.0532403354763 0.00343486035331 0.928 1.91344670862e-38
0.054957765653 0.00343486035331 0.928 2.06164495135e-38
0.06186635062 0.00374947579515 1.013 1.99642473732e-38
0.0637410885176 0.00374947579515 1.013 2.35098505827e-38
-0.00189694604641 0.00569083813924 1.025 1.79575459333e-38
0.0187473789758 0.00562421369273 1.013 5.78563625795e-39
0.0206221168733 0.00562421369273 1.013 1.41717237333e-38
0.0224302303244 0.0056075575811 1.01 2.00704405734e-38
0.0242994161848 0.0056075575811 1.01 2.34867739996e-38
0.0262463305661 0.00562421369273 1.013 2.34864110633e-38
0.0281210684637 0.00562421369273 1.013 2.34950514696e-38
0.0299069737659 0.0056075575811 1.01 2.34968465329e-38
0.0317761596263 0.0056075575811 1.01 2.34903837444e-38
0.0336453454866 0.0056075575811 1.01 2.34878614072e-38
0.0326311733564 0.00515229052996 0.928 2.34831684586e-38
0.0342375627889 0.00513563441834 0.925 2.23652223529e-38
0.0359494409284 0.00513563441834 0.925 2.10644081988e-38
0.0376613190678 0.00513563441834 0.925 1.76553741364e-38
0.0393731972073 0.00513563441834 0.925 1.28645028427e-38
0.0410850753467 0.00513563441834 0.925 7.62234618111e-39
0.0427044195327 0.00512453034392 0.923 1.35105799074e-38
0.044412596314 0.00512453034392 0.923 2.08880211559e-38
0.0461207730953 0.00512453034392 0.923 1.86717064853e-38
0.0480880449463 0.00515229052996 0.928 2.01482462693e-38
0.049805475123 0.00515229052996 0.928 2.07983016205e-38
0.0515229052996 0.00515229052996 0.928 1.72001427121e-38
0.0532403354763 0.00515229052996 0.928 2.18106612882e-38
0.054957765653 0.00515229052996 0.928 2.06038196105e-38
0.06186635062 0.00562421369273 1.013 2.34691470662e-38
0.0637410885176 0.00562421369273 1.013 2.35098449775e-38
-0.0018913940092 0.00756557603682 1.022 1.76769863626e-38
0.0239662939522 0.00684751255778 0.925 4.31626831943e-39
0.0256226517196 0.00683270712523 0.923 3.94892633479e-39
0.0273308285009 0.00683270712523 0.923 2.93873587706e-39
0.0317761596263 0.00747674344147 1.01 3.94892633479e-39
0.0336453454866 0.00747674344147 1.01 4.31626831943e-39
0.0326311733564 0.00686972070662 0.928 5.05095228869e-39
0.0342375627889 0.00684751255778 0.925 5.41829427332e-39
0.0359494409284 0.00684751255778 0.925 1.02870104993e-38
0.0376613190678 0.00684751255778 0.925 1.6006281262e-38
0.0393731972073 0.00684751255778 0.925 2.18113997725e-38
0.0410850753467 0.00684751255778 0.925 2.1072024256e-38
0.0427044195327 0.00683270712523 0.923 1.64697761434e-38
0.044412596314 0.00683270712523 0.923 1.8677076261e-38
0.0461207730953 0.00683270712523 0.923 2.28208797719e-38
0.0480880449463 0.00686972070662 0.928 1.83115405501e-38
0.049805475123 0.00686972070662 0.928 1.82168043661e-38
0.0515229052996 0.00686972070662 0.928 2.32876032449e-38
0.0579447616714 0.00747674344147 1.01 1.95003349049e-38
0.0598139475318 0.00747674344147 1.01 2.0707215819e-38
0.0613166989363 0.0074323271438 1.004 2.34864040568e-38
0.0631747807223 0.0074323271438 1.004 2.35098393723e-38
-0.0018913940092 0.00945697004602 1.022 1.75858697325e-38
0.0222544158128 0.00855939069723 0.925 2.19911443265e-38
0.0239662939522 0.00855939069723 0.925 2.29120244279e-38
0.0256226517196 0.00854088390653 0.923 2.25454125198e-38
0.0273308285009 0.00854088390653 0.923 2.25461285833e-38
0.0289446206497 0.00851312372049 0.92 2.31914979924e-38
0.0306472453938 0.00851312372049 0.92 2.33744445134e-38
0.0326311733564 0.00858715088327 0.928 2.30971191395e-38
0.0342375627889 0.00855939069723 0.925 2.21751474266e-38
0.0359494409284 0.00855939069723 0.925 1.95028964785e-38
0.0376613190678 0.00855939069723 0.925 1.44465127569e-38
0.0393731972073 0.00855939069723 0.925 1.14934275836e-38
0.0410850753467 0.00855939069723 0.925 1.93231645362e-38
0.0427969534861 0.00855939069723 0.925 2.31911042275e-38
0.044412596314 0.00854088390653 0.923 1.7576139116e-38
0.0461207730953 0.00854088390653 0.923 1.30600120044e-38
0.0480880449463 0.00858715088327 0.928 2.02429628351e-38
0.049912814509 0.00860565767397 0.93 2.23638476791e-38
0.0519115479043 0.00865192465071 0.935 1.69246362236e-38
0.0579447616714 0.00934592930184 1.01 1.96080401062e-38
0.0596362823411 0.00931816911579 1.007 1.99634990798e-38
0.0613166989363 0.00929040892975 1.004 2.35087365504e-38
0.0206091621199 0.0103045810599 0.928 1.45315323374e-38
0.0222544158128 0.0102712688367 0.925 1.14862529355e-38
0.0239662939522 0.0102712688367 0.925 9.6538478012e-39
0.0256226517196 0.0102490606878 0.923 7.25500419648e-39
0.0273308285009 0.0102490606878 0.923 8.17479408769e-39
0.0289446206497 0.0102157484646 0.92 7.80601717343e-39
0.0306472453938 0.0102157484646 0.92 8.17479408769e-39
0.0326311733564 0.0103045810599 0.928 1.14912751892e-38
0.0341635356261 0.0102490606878 0.923 1.61895935219e-38
0.0358717124074 0.0102490606878 0.923 2.0422687771e-38
0.0375798891887 0.0102490606878 0.923 2.34659016589e-38
0.0393731972073 0.0102712688367 0.925 2.16291735189e-38
0.0412183242397 0.0103045810599 0.928 1.43564709228e-38
0.0427969534861 0.0102712688367 0.925 9.92971302208e-39
0.0445088316256 0.0102712688367 0.925 1.82182280853e-38
0.046220709765 0.0102712688367 0.925 2.34702022439e-38
0.0481916829742 0.0103267892088 0.93 1.93210261547e-38
0.0500738235881 0.010360101432 0.933 1.57311335059e-38
0.0519115479043 0.0103823095809 0.935 2.04356708013e-38
0.0579447616714 0.0112151151622 1.01 2.14425752141e-38
0.0596362823411 0.011181802939 1.007 2.3184960935e-38
0.0613166989363 0.0111484907157 1.004 2.35098295632e-38
0.0206091621199 0.0120220112366 0.928 1.76633419194e-38
0.0222544158128 0.0119831469761 0.925 1.82208078758e-38
0.0239662939522 0.0119831469761 0.925 2.01558567213e-38
0.0256781720917 0.0119831469761 0.925 2.28237524338e-38
0.0273900502311 0.0119831469761 0.925 2.34651715824e-38
0.0291019283706 0.0119831469761 0.925 2.34702288686e-38
0.03081380651 0.0119831469761 0.925 2.30092563245e-38
0.0326311733564 0.0120220112366 0.928 2.13493622416e-38
0.0341635356261 0.0119572374691 0.923 1.81232214508e-38
0.0358717124074 0.0119572374691 0.923 1.2870960026e-38
0.0375798891887 0.0119572374691 0.923 7.07133320417e-39
0.0393731972073 0.0119831469761 0.925 1.16688477306e-38
0.0412183242397 0.0120220112366 0.928 2.03341187016e-38
0.0429357544164 0.0120220112366 0.928 2.34673183717e-38
0.044653184593 0.0120220112366 0.928 2.11649359494e-38
0.048450778044 0.012112694511 0.935 1.67413365754e-38
0.0501811629741 0.012112694511 0.935 2.09859579056e-38
0.0519115479043 0.012112694511 0.935 2.08904972503e-38
0.0577726485179 0.0130454367621 1.007 2.0795064621e-38
0.0594586171504 0.0130065725016 1.004 2.34813355602e-38
0.0613166989363 0.0130065725016 1.004 2.35098421749e-38
0.0 0.0150423194783 1.016 1.75887816308e-38
0.00188028993479 0.0150423194783 1.016 1.60196566558e-38
0.00376057986957 0.0150423194783 1.016 1.55410249485e-38
0.0222544158128 0.0136950251156 0.925 5.6938007618e-39
0.0239662939522 0.0136950251156 0.925 6.79582671569e-39
0.0256781720917 0.0136950251156 0.925 6.06114274643e-39
0.0275381045567 0.0137690522784 0.93 4.31626831943e-39
0.0292592360915 0.0137690522784 0.93 5.6938007618e-39
0.0309137431798 0.0137394414132 0.928 7.71418167727e-39
0.0326311733564 0.0137394414132 0.928 8.99987862348e-39
0.0342375627889 0.0136950251156 0.925 1.42542321869e-38
0.0359494409284 0.0136950251156 0.925 2.02433832247e-38
0.0377834638864 0.0137394414132 0.928 2.34655345188e-38
0.0395008940631 0.0137394414132 0.928 2.34712910528e-38
0.0412183242397 0.0137394414132 0.928 2.07057780868e-38
0.0429357544164 0.0137394414132 0.928 1.29649479166e-38
0.044653184593 0.0137394414132 0.928 1.25032593089e-38
0.0463706147697 0.0137394414132 0.928 2.08883714806e-38
0.0520262900066 0.0148646542876 1.004 2.1444415119e-38
0.0540453808716 0.0149090705853 1.007 1.84008200778e-38
0.0577726485179 0.0149090705853 1.007 1.9131916723e-38
0.0594586171504 0.0148646542876 1.004 2.35015212646e-38
0.00188028993479 0.0169226094131 1.016 1.67550707016e-38
0.00376057986957 0.0169226094131 1.016 1.25129450839e-38
0.0259557739521 0.0155734643713 0.935 2.27294128173e-38
0.0276861588823 0.0155734643713 0.935 2.24520804369e-38
0.0294165438124 0.0155734643713 0.935 2.30953058593e-38
0.0311469287426 0.0155734643713 0.935 2.34662393719e-38
0.0328069878681 0.015540152148 0.933 2.34665995056e-38
0.0345336714401 0.015540152148 0.933 2.34684071806e-38
0.0362603550121 0.015540152148 0.933 2.19922163199e-38
0.0379870385841 0.015540152148 0.933 1.57314922383e-38
0.0397137221561 0.015540152148 0.933 7.80601717343e-39
0.0414404057281 0.015540152148 0.933 1.05657455795e-38
0.0448937728721 0.015540152148 0.933 2.32847502013e-38
0.0557424535785 0.0167227360735 1.004 2.04233659994e-38
0.0576005353644 0.0167227360735 1.004 2.34622148427e-38
0.0594586171504 0.0167227360735 1.004 2.35098267606e-38
0.00188028993479 0.0188028993479 1.016 1.71245608768e-38
0.00376057986957 0.0188028993479 1.016 1.4731064627e-38
0.00564086980436 0.0188028993479 1.016 1.12218671516e-38
0.0245103935987 0.0175074239991 0.946 1.4436826982e-38
0.0262611359986 0.0175074239991 0.946 1.49896336209e-38
0.0278342132079 0.0173963832549 0.94 1.57293398439e-38
0.029510928445 0.0173593696735 0.938 1.48048864314e-38
0.0312468654123 0.0173593696735 0.938 1.12039305313e-38
0.0328773136727 0.0173038493014 0.935 7.90000506403e-39
0.0346076986028 0.0173038493014 0.935 5.14278778485e-39
0.036338083533 0.0173038493014 0.935 8.26519465422e-39
0.0388420523143 0.0176554783247 0.954 1.46233678335e-38
0.0557424535785 0.0185808178595 1.004 2.07042885065e-38
0.057428422211 0.0185252974874 1.001 2.34889067758e-38
0.0592809519597 0.0185252974874 1.001 2.35062058054e-38
0.00374947579515 0.0206221168733 1.013 1.75891501722e-38
0.00562421369273 0.0206221168733 1.013 1.35112973722e-38
0.0228077688546 0.0192988813385 0.948 1.67431806841e-38
0.0245103935987 0.019258166399 0.946 1.56382218126e-38
0.0262611359986 0.019258166399 0.946 1.4436826982e-38
0.0280118783985 0.019258166399 0.946 1.3976573304e-38
0.0297626207984 0.019258166399 0.946 1.53637915213e-38
0.0315799876449 0.0192988813385 0.948 1.72066573486e-38
0.0333344314029 0.0192988813385 0.948 2.09766322643e-38
0.035088875161 0.0192988813385 0.948 2.34666275316e-38
0.0369599117004 0.0193599537478 0.951 2.34666233277e-38
0.0388420523143 0.0194210261571 0.954 2.22698766041e-38
0.0443700306954 0.019522813506 0.959 1.75714307532e-38
0.0518708329647 0.0203778272361 1.001 1.8769291509e-38
0.0555758924622 0.0203778272361 1.001 1.67345080479e-38
0.057428422211 0.0203778272361 1.001 2.35044051369e-38
0.00372726764632 0.0223636058779 1.007 1.79535928704e-38
0.00562421369273 0.0224968547709 1.013 1.58413806626e-38
0.0228077688546 0.0210533250966 0.948 1.51801667718e-38
0.0245622126127 0.0210533250966 0.948 1.70190290894e-38
0.0263166563707 0.0210533250966 0.948 1.88644018397e-38
0.0280711001288 0.0210533250966 0.948 1.98753139662e-38
0.0298255438868 0.0210533250966 0.948 1.99710997227e-38
0.0315799876449 0.0210533250966 0.948 1.72030405973e-38
0.0335454088169 0.0211865739896 0.954 1.47234878062e-38
0.0353109566493 0.0211865739896 0.954 8.0815236619e-39
0.0370765044818 0.0211865739896 0.954 7.62234618111e-39
0.0389234821933 0.0212309902873 0.956 1.00100690812e-38
0.0408204282397 0.0212976147338 0.959 1.84916284222e-38
0.0425952294675 0.0212976147338 0.959 2.31007064636e-38
0.0443700306954 0.0212976147338 0.959 2.117142256e-38
0.0537233627135 0.0222303569849 1.001 1.26761683291e-38
0.055409331346 0.0221637325384 0.998 2.349144733e-38
0.0572563090575 0.0221637325384 0.998 2.35069260728e-38
0.00557424535785 0.0241550632173 1.004 1.89626917166e-38
0.0247176696545 0.0229521218221 0.954 9.00705327162e-39
0.026483217487 0.0229521218221 0.954 7.34683969264e-39
0.0282487653195 0.0229521218221 0.954 7.53051068496e-39
0.0300143131519 0.0229521218221 0.954 7.71418167727e-39
0.0317798609844 0.0229521218221 0.954 1.08434044624e-38
0.0335454088169 0.0229521218221 0.954 1.46230091011e-38
0.0353849838121 0.0230002394779 0.956 1.94121007458e-38
0.0371542330027 0.0230002394779 0.956 2.3469127448e-38
0.0389234821933 0.0230002394779 0.956 2.34684057793e-38
0.0408204282397 0.0230724159616 0.959 2.09794740976e-38
0.0425952294675 0.0230724159616 0.959 1.60869960536e-38
0.0501682082206 0.0241550632173 1.004 2.34651575695e-38
0.0537233627135 0.0240828867336 1.001 2.09960290377e-38
0.055409331346 0.0240107102499 0.998 2.35051338121e-38
0.00741011899496 0.0259354164824 1.001 1.88737569083e-38
0.0092626487437 0.0259354164824 1.001 1.4450517668e-38
0.0249249457103 0.0249249457103 0.962 2.27290372693e-38
0.0266220184172 0.0248472171894 0.959 2.31882203553e-38
0.028396819645 0.0248472171894 0.959 2.34651771876e-38
0.0300772362403 0.0247694886685 0.956 2.33758542196e-38
0.0318464854309 0.0247694886685 0.956 2.34687715182e-38
0.0337212233285 0.0248472171894 0.959 2.27304848106e-38
0.0354960245563 0.0248472171894 0.959 1.96898058716e-38
0.0372708257841 0.0248472171894 0.959 1.34230492002e-38
0.0390456270119 0.0248472171894 0.959 7.25500419648e-39
0.0409481250955 0.0249249457103 0.962 1.29584907333e-38
0.0427284783606 0.0249249457103 0.962 2.14375921968e-38
0.0445088316256 0.0249249457103 0.962 2.34666009069e-38
0.0469147144162 0.025261769301 0.975 1.99681836206e-38
0.0520262900066 0.0260131450033 1.004 1.97967249444e-38
0.0538843717925 0.0260131450033 1.004 2.3505124003e-38
0.00917936818557 0.0275381045567 0.992 1.91525116066e-38
0.0109819295994 0.0274548239986 0.989 1.59314084838e-38
0.0128122511993 0.0274548239986 0.989 2.93873587706e-39
0.0249249457103 0.0267052989754 0.962 3.12240686937e-39
0.0266220184172 0.0266220184172 0.959 3.94892633479e-39
0.028396819645 0.0266220184172 0.959 4.22443282327e-39
0.0301716208728 0.0266220184172 0.959 4.5917748079e-39
0.0319464221007 0.0266220184172 0.959 5.41829427332e-39
0.0337212233285 0.0266220184172 0.959 7.07133320417e-39
0.0356070653005 0.0267052989754 0.962 1.14855354707e-38
0.0373874185655 0.0267052989754 0.962 1.95021762111e-38
0.0391677718305 0.0267052989754 0.962 2.34622877102e-38
0.0409481250955 0.0267052989754 0.962 2.34680442443e-38
0.0428173109559 0.0267608193474 0.964 2.21780537196e-38
0.0451103023232 0.0270661813939 0.975 1.2223806764e-38
0.0469147144162 0.0270661813939 0.975 6.06114274643e-39
0.050018303216 0.0277879462311 1.001 2.23768012821e-38
0.0518708329647 0.0277879462311 1.001 2.35029674046e-38
0.0109819295994 0.0292851455985 0.989 1.94298005467e-38
0.0127863416924 0.0292259238682 0.987 1.89713433333e-38
0.0146129619341 0.0292259238682 0.987 8.72544833223e-39
0.0249767647243 0.0285448739706 0.964 2.19889737152e-38
0.0267052989754 0.0284856522404 0.962 2.21733481594e-38
0.0284856522404 0.0284856522404 0.962 2.26339703789e-38
0.0304233132263 0.028633706566 0.967 2.30052892485e-38
0.0321129832169 0.0285448739706 0.964 2.27297631419e-38
0.0338970378401 0.0285448739706 0.964 2.34673169704e-38
0.0359031739516 0.0287225391613 0.97 2.34637254424e-38
0.0376983326492 0.0287225391613 0.97 2.29112789372e-38
0.0394934913468 0.0287225391613 0.97 1.84916340274e-38
0.0415014781374 0.0288705934869 0.975 9.73456259275e-39
0.0433058902303 0.0288705934869 0.975 4.77544580022e-39
0.0451103023232 0.0288705934869 0.975 1.38883251319e-38
0.047203420351 0.0290482586776 0.981 2.349144733e-38
0.050018303216 0.0296404759799 1.001 2.34975682016e-38
0.0127863416924 0.03105254411 0.987 1.8967750404e-38
0.0146129619341 0.03105254411 0.987 2.07209149128e-38
0.0164728943991 0.0311154671984 0.989 1.80486583595e-38
0.018303215999 0.0311154671984 0.989 8.26519465422e-39
0.0258576879614 0.031398621096 0.998 1.34208968057e-38
0.027704665673 0.031398621096 0.998 1.63693184578e-38
0.0295516433845 0.031398621096 0.998 1.61860061978e-38
