# .PCD v0.7 - Point Cloud Data file format
VERSION 0.7
FIELDS x y z rgb
SIZE 4 4 4 4
TYPE F F F F
COUNT 1 1 1 1
WIDTH 850
HEIGHT 1
VIEWPOINT 0 0 0 1 0 0 0
POINTS 850
DATA ascii
0.0610816626945 -0.0296682361659 0.943 1.41695713388e-38
0.0626269797177 -0.0295738515333 0.94 1.48174420656e-38
0.064229667792 -0.029510928445 0.938 1.4448306419e-38
0.0659656047594 -0.029510928445 0.938 1.52701623631e-38
0.0677015417267 -0.029510928445 0.938 2.2371002709e-38
0.0760999233449 -0.0323424674216 1.028 2.3509424588e-38
-0.0105044543995 -0.0280118783985 0.946 2.34964709849e-38
-0.00875371199954 -0.0280118783985 0.946 2.3491001717e-38
-0.00700296959964 -0.0280118783985 0.946 2.30166832063e-38
-0.00526333127414 -0.0280711001288 0.948 1.97912668869e-38
-0.00351999159051 -0.0281599327241 0.951 1.9790591461e-38
-0.00175999579526 -0.0281599327241 0.951 1.96997901231e-38
0.0 -0.0283079870497 0.956 1.91459283064e-38
0.00177480122781 -0.028396819645 0.959 1.90547892556e-38
0.00356070653005 -0.0284856522404 0.962 1.82236062689e-38
0.00538547609274 -0.0287225391613 0.97 1.72098396974e-38
0.00720284293916 -0.0288113717566 0.973 1.7116918195e-38
0.00902206046465 -0.0288705934869 0.975 1.68396166432e-38
0.0108264725576 -0.0288705934869 0.975 1.68425243375e-38
0.0126308846505 -0.0288705934869 0.975 1.6289321131e-38
0.0144797130411 -0.0289594260822 0.978 1.60120209805e-38
0.0162896771712 -0.0289594260822 0.978 1.54595730739e-38
0.0180996413014 -0.0289594260822 0.978 1.5461366736e-38
0.0199706778408 -0.0290482586776 0.981 1.52780544761e-38
0.0217861940082 -0.0290482586776 0.981 1.50925898217e-38
0.0236017101755 -0.0290482586776 0.981 1.49078426322e-38
0.0254172263429 -0.0290482586776 0.981 1.45397831827e-38
0.0273160230683 -0.0291370912729 0.984 1.48178007981e-38
0.0291370912729 -0.0291370912729 0.984 1.45401419151e-38
0.0309581594775 -0.0291370912729 0.984 1.44475889542e-38
0.032779227682 -0.0291370912729 0.984 1.44475889542e-38
0.0346002958866 -0.0291370912729 0.984 1.46309012141e-38
0.0364213640911 -0.0291370912729 0.984 1.44468714894e-38
0.0381258395143 -0.0290482586776 0.981 1.42642766943e-38
0.0399413556816 -0.0290482586776 0.981 1.40795295047e-38
0.041756871849 -0.0290482586776 0.981 1.39873352762e-38
0.0434391391233 -0.0289594260822 0.978 1.38025880866e-38
0.0452491032535 -0.0289594260822 0.978 1.38947823152e-38
0.0469147144162 -0.0288705934869 0.975 1.42649941591e-38
0.0486191898393 -0.0288113717566 0.973 1.41702888037e-38
0.0502644435323 -0.0287225391613 0.97 1.41695713388e-38
0.0518985931508 -0.028633706566 0.967 1.37093176608e-38
0.0534105979507 -0.0284856522404 0.962 1.38025880866e-38
0.0550188380623 -0.028396819645 0.959 1.40791707723e-38
0.0566159740994 -0.0283079870497 0.956 1.42610481026e-38
0.0582630784714 -0.0282487653195 0.954 1.43539611973e-38
0.0595252415969 -0.0280118783985 0.946 1.43553947256e-38
0.0610816626945 -0.0279230458032 0.943 1.40795295047e-38
0.0626269797177 -0.0278342132079 0.94 1.43571883876e-38
0.064229667792 -0.0277749914776 0.938 1.42614124402e-38
0.0659656047594 -0.0277749914776 0.938 1.46244440308e-38
0.0677015417267 -0.0277749914776 0.938 2.1818561809e-38
0.0694374786941 -0.0277749914776 0.938 2.35097637022e-38
-0.0105044543995 -0.0262611359986 0.946 2.34968213096e-38
-0.00875371199954 -0.0262611359986 0.946 2.34917121754e-38
-0.00701777503219 -0.0263166563707 0.948 2.26468230884e-38
-0.00527998738577 -0.0263999369289 0.951 1.97919843517e-38
-0.00353109566493 -0.026483217487 0.954 1.97920011673e-38
-0.00176554783247 -0.026483217487 0.954 1.97920011673e-38
0.0 -0.0266220184172 0.959 1.86838739598e-38
0.00178035326502 -0.0267052989754 0.962 1.8502341349e-38
0.00357921332074 -0.0268440999056 0.967 1.74878461024e-38
0.00541323627879 -0.0270661813939 0.975 1.70243694379e-38
0.00721764837172 -0.0270661813939 0.975 1.73030989128e-38
0.00904982065069 -0.0271494619521 0.978 1.65644688871e-38
0.0108597847808 -0.0271494619521 0.978 1.6749574809e-38
0.012669748911 -0.0271494619521 0.978 1.61967681701e-38
0.0145241293388 -0.0272327425102 0.981 1.59209029492e-38
0.0163396455061 -0.0272327425102 0.981 1.59213065231e-38
0.0181551616735 -0.0272327425102 0.981 1.51855015151e-38
0.0199706778408 -0.0272327425102 0.981 1.5370635463e-38
0.0217861940082 -0.0272327425102 0.981 1.45405006475e-38
0.0236738866592 -0.0273160230683 0.984 1.46319774113e-38
0.0254949548638 -0.0273160230683 0.984 1.44475889542e-38
0.0273993036265 -0.0273993036265 0.987 1.43553947256e-38
0.0292259238682 -0.0273993036265 0.987 1.41717237333e-38
0.03105254411 -0.0273993036265 0.987 1.39851828817e-38
0.0328791643518 -0.0273993036265 0.987 1.38940648504e-38
0.0346002958866 -0.0273160230683 0.984 1.37093176608e-38
0.0364213640911 -0.0273160230683 0.984 1.38004356922e-38
0.0382424322957 -0.0273160230683 0.984 1.38015329089e-38
0.0399413556816 -0.0272327425102 0.981 1.36181996295e-38
0.041756871849 -0.0272327425102 0.981 1.35260054009e-38
0.0435723880163 -0.0272327425102 0.981 1.33405407466e-38
0.0453879041837 -0.0272327425102 0.981 1.38025880866e-38
0.0470590673836 -0.0271494619521 0.978 1.37089589284e-38
0.0487191265091 -0.0270661813939 0.975 1.42642766943e-38
0.0504199005741 -0.0270106610218 0.973 1.39862590789e-38
0.0520596022298 -0.0269273804637 0.97 1.42621383128e-38
0.0536881998112 -0.0268440999056 0.967 1.38025880866e-38
0.055305693318 -0.0267608193474 0.964 1.39869765438e-38
0.0567936392901 -0.0266220184172 0.959 1.39862590789e-38
0.05838522329 -0.0265387378591 0.956 1.44447190949e-38
0.0598398570387 -0.0263999369289 0.951 1.41699300713e-38
0.0612759839968 -0.0262611359986 0.946 1.39869765438e-38
0.0626269797177 -0.0260945748824 0.94 1.41724411981e-38
0.0643666180432 -0.0260945748824 0.94 1.44476057697e-38
0.0659656047594 -0.0260390545103 0.938 1.44418492357e-38
0.0677015417267 -0.0260390545103 0.938 2.16345068609e-38
0.0694374786941 -0.0260390545103 0.938 2.3505095977e-38
-0.011448300725 -0.0267127016916 1.031 2.34975079458e-38
-0.00877221879024 -0.0245622126127 0.948 2.34931162764e-38
-0.00701777503219 -0.0245622126127 0.948 2.24631759181e-38
-0.00527998738577 -0.0246399411336 0.951 1.94217725078e-38
-0.00353109566493 -0.0247176696545 0.954 1.95140017688e-38
-0.00176924919061 -0.0247694886685 0.956 1.92388273881e-38
0.0 -0.0249767647243 0.964 1.85009120246e-38
0.00178960666037 -0.0250544932452 0.967 1.83183158282e-38
0.00360142146958 -0.0252099502871 0.973 1.75832689226e-38
0.00541323627879 -0.025261769301 0.975 1.69336059351e-38
0.00723985652055 -0.0253394978219 0.978 1.68424865024e-38
0.00904982065069 -0.0253394978219 0.978 1.65666212815e-38
0.0108597847808 -0.0253394978219 0.978 1.64733508557e-38
0.0127086131714 -0.0254172263429 0.981 1.58279912558e-38
0.0145241293388 -0.0254172263429 0.981 1.57361557596e-38
0.016389613841 -0.0254949548638 0.984 1.50007543256e-38
0.0182106820456 -0.0254949548638 0.984 1.46319774113e-38
0.0200928226594 -0.0255726833847 0.987 1.46319774113e-38
0.0219194429012 -0.0255726833847 0.987 1.41727999305e-38
0.0237941807988 -0.0256245023987 0.989 1.38947823152e-38
0.0256245023987 -0.0256245023987 0.989 1.38018706218e-38
0.0274548239986 -0.0256245023987 0.989 1.38025880866e-38
0.0292851455985 -0.0256245023987 0.989 1.34345286372e-38
0.0311154671984 -0.0256245023987 0.989 1.36189170943e-38
0.0329457887983 -0.0256245023987 0.989 1.39866234165e-38
0.0347057845935 -0.0255726833847 0.987 1.34338111724e-38
0.0365324048353 -0.0255726833847 0.987 1.36192758267e-38
0.0382424322957 -0.0254949548638 0.984 1.36185583619e-38
0.0400635005002 -0.0254949548638 0.984 1.35267228657e-38
0.041756871849 -0.0254172263429 0.981 1.38018706218e-38
0.0435723880163 -0.0254172263429 0.981 1.36181996295e-38
0.0453879041837 -0.0254172263429 0.981 1.36181996295e-38
0.0470590673836 -0.0253394978219 0.978 1.36178408971e-38
0.0487191265091 -0.025261769301 0.975 1.39869765438e-38
0.0504199005741 -0.0252099502871 0.973 1.36181996295e-38
0.0520596022298 -0.0251322217661 0.97 1.38025880866e-38
0.0536881998112 -0.0250544932452 0.967 1.39869765438e-38
0.055305693318 -0.0249767647243 0.964 1.40795295047e-38
0.0567936392901 -0.0248472171894 0.959 1.34359635668e-38
0.05838522329 -0.0247694886685 0.956 1.42628417646e-38
0.0598398570387 -0.0246399411336 0.951 1.43546772608e-38
0.0610816626945 -0.0244326650778 0.943 1.41724411981e-38
0.0628268530572 -0.0244326650778 0.943 1.39869765438e-38
0.0643666180432 -0.0243549365569 0.94 1.45394244503e-38
0.0661062563686 -0.0243549365569 0.94 1.45351196614e-38
0.0678458946941 -0.0243549365569 0.94 2.17260186571e-38
0.0695855330196 -0.0243549365569 0.94 2.3506903652e-38
-0.011448300725 -0.0248046515708 1.031 2.34950164371e-38
-0.00884624595303 -0.0230002394779 0.956 2.34920554935e-38
-0.00707699676242 -0.0230002394779 0.956 2.3202163275e-38
-0.00530774757182 -0.0230002394779 0.956 1.96043701055e-38
-0.00353849838121 -0.0230002394779 0.956 1.94207201326e-38
-0.00177480122781 -0.0230724159616 0.959 1.86842214819e-38
0.0 -0.0232648865848 0.967 1.85941768451e-38
0.00178960666037 -0.0232648865848 0.967 1.76729520243e-38
0.00360142146958 -0.0234092395523 0.973 1.73978042682e-38
0.00541323627879 -0.0234573572081 0.975 1.6934680731e-38
0.00723985652055 -0.0235295336918 0.978 1.70275924244e-38
0.00904982065069 -0.0235295336918 0.978 1.68439438528e-38
0.0108930970041 -0.0236017101755 0.981 1.57372319569e-38
0.0127086131714 -0.0236017101755 0.981 1.58287087206e-38
0.0145685456365 -0.0236738866592 0.984 1.5001113058e-38
0.0164395821759 -0.0237460631429 0.987 1.46323361437e-38
0.0182662024177 -0.0237460631429 0.987 1.45397831827e-38
0.020133537599 -0.0237941807988 0.989 1.41702888037e-38
0.0219638591989 -0.0237941807988 0.989 1.38025880866e-38
0.0237941807988 -0.0237941807988 0.989 1.38947823152e-38
0.0257022309196 -0.0238663572825 0.992 1.37093176608e-38
0.0275381045567 -0.0238663572825 0.992 1.37093176608e-38
0.0293739781938 -0.0238663572825 0.992 1.32490639828e-38
0.0312098518309 -0.0238663572825 0.992 1.38036642838e-38
0.033045725468 -0.0238663572825 0.992 1.36178408971e-38
0.0347761103982 -0.0237941807988 0.989 1.33419756762e-38
0.0366064319981 -0.0237941807988 0.989 1.35267228657e-38
0.038436753598 -0.0237941807988 0.989 1.33419756762e-38
0.0401856453188 -0.0237460631429 0.987 1.36171234323e-38
0.0420122655606 -0.0237460631429 0.987 1.36181996295e-38
0.0437056369094 -0.0236738866592 0.984 1.37114700553e-38
0.0455267051139 -0.0236738866592 0.984 1.38025880866e-38
0.047203420351 -0.0236017101755 0.981 1.36178408971e-38
0.0488690315137 -0.0235295336918 0.978 1.42614390649e-38
0.050523538602 -0.0234573572081 0.975 1.37997182274e-38
0.0522206113089 -0.0234092395523 0.973 1.41717237333e-38
0.0538547609274 -0.0233370630686 0.97 1.38025880866e-38
0.055305693318 -0.0231927101011 0.964 1.42628417646e-38
0.0570897479412 -0.0231927101011 0.964 1.38947823152e-38
0.0585684405179 -0.0230724159616 0.959 1.39866178113e-38
0.0600286263038 -0.0229521218221 0.954 1.41702888037e-38
0.0610816626945 -0.0226874747151 0.943 1.40791707723e-38
0.0628268530572 -0.0226874747151 0.943 1.41699300713e-38
0.0643666180432 -0.0226152982314 0.94 1.40773771103e-38
0.0661062563686 -0.0226152982314 0.94 1.53641502537e-38
0.0678458946941 -0.0226152982314 0.94 2.28340884112e-38
0.0694374786941 -0.0225671805756 0.938 2.35083553972e-38
-0.00884624595303 -0.0212309902873 0.956 2.34913674559e-38
-0.00707699676242 -0.0212309902873 0.956 2.34826429717e-38
-0.00532440368344 -0.0212976147338 0.959 1.9511115094e-38
-0.00354960245563 -0.0212976147338 0.959 1.95139667364e-38
-0.00178035326502 -0.0213642391803 0.962 1.88686197481e-38
0.0 -0.0214752799245 0.967 1.85016280881e-38
0.00179515869758 -0.021541904371 0.97 1.76729520243e-38
0.00360142146958 -0.0216085288175 0.973 1.76736694891e-38
0.00541323627879 -0.0216529451152 0.975 1.67510125413e-38
0.00723985652055 -0.0217195695617 0.978 1.64737095882e-38
0.00904982065069 -0.0217195695617 0.978 1.56486250524e-38
0.0108930970041 -0.0217861940082 0.981 1.49082013646e-38
0.0127474774319 -0.0218528184547 0.984 1.49074838998e-38
0.0145685456365 -0.0218528184547 0.984 1.44465127569e-38
0.0164395821759 -0.0219194429012 0.987 1.40773771103e-38
0.018303215999 -0.0219638591989 0.989 1.40773771103e-38
0.0201946100083 -0.0220304836454 0.992 1.41702888037e-38
0.0220304836454 -0.0220304836454 0.992 1.36181996295e-38
0.0238663572825 -0.0220304836454 0.992 1.38025880866e-38
0.0257022309196 -0.0220304836454 0.992 1.38018706218e-38
0.0276213851148 -0.0220971080919 0.995 1.36171234323e-38
0.0293739781938 -0.0220304836454 0.992 1.39862590789e-38
0.0312098518309 -0.0220304836454 0.992 1.33434106058e-38
0.033045725468 -0.0220304836454 0.992 1.31586634163e-38
0.0348815991052 -0.0220304836454 0.992 1.33423344086e-38
0.0367174727423 -0.0220304836454 0.992 1.35260054009e-38
0.0385533463794 -0.0220304836454 0.992 1.38018706218e-38
0.0402670751979 -0.0219638591989 0.989 1.36178408971e-38
0.0420973967978 -0.0219638591989 0.989 1.38015118894e-38
0.0438388858024 -0.0219194429012 0.987 1.35260054009e-38
0.0456655060441 -0.0219194429012 0.987 1.34338111724e-38
0.0474921262859 -0.0219194429012 0.987 1.35267228657e-38
0.0490189365184 -0.0217861940082 0.981 1.38940648504e-38
0.0506789956439 -0.0217195695617 0.978 1.40773771103e-38
0.0523279506949 -0.0216529451152 0.975 1.42628585802e-38
0.0538547609274 -0.021541904371 0.97 1.38025880866e-38
0.0554778064715 -0.0214752799245 0.967 1.41706475361e-38
0.0570897479412 -0.021408655478 0.964 1.41706475361e-38
0.0585684405179 -0.0212976147338 0.959 1.42621242998e-38
0.0601544724806 -0.0212309902873 0.956 1.41695713388e-38
0.0612759839968 -0.0210089087989 0.946 1.44458205155e-38
0.0628268530572 -0.0209422843524 0.943 1.4168853874e-38
0.0645720434199 -0.0209422843524 0.943 1.35231355417e-38
0.0661062563686 -0.0208756599059 0.94 1.68328133391e-38
0.0678458946941 -0.0208756599059 0.94 2.34791383242e-38
-0.00712141306009 -0.0195838859153 0.962 2.34898050082e-38
-0.00534105979507 -0.0195838859153 0.962 1.93277846172e-38
-0.00356070653005 -0.0195838859153 0.962 1.90533669376e-38
-0.00178960666037 -0.0196856732641 0.967 1.85923831831e-38
0.0 -0.0197467456734 0.97 1.82257670711e-38
0.00179515869758 -0.0197467456734 0.97 1.76729520243e-38
0.00360142146958 -0.0198078180827 0.973 1.71187104557e-38
0.00542989239041 -0.0199096054315 0.978 1.6474427053e-38
0.00723985652055 -0.0199096054315 0.978 1.59212616816e-38
0.00907758083674 -0.0199706778408 0.981 1.50007543256e-38
0.0108930970041 -0.0199706778408 0.981 1.43550359932e-38
0.0127474774319 -0.0200317502501 0.984 1.44461540245e-38
0.0146425727992 -0.020133537599 0.989 1.42621242998e-38
0.0164728943991 -0.020133537599 0.989 1.4168853874e-38
0.0183587363711 -0.0201946100083 0.992 1.41695713388e-38
0.0202556824175 -0.0202556824175 0.995 1.39862590789e-38
0.0220971080919 -0.0202556824175 0.995 1.38025880866e-38
0.0239385337662 -0.0202556824175 0.995 1.36178408971e-38
0.0257799594405 -0.0202556824175 0.995 1.38018832335e-38
0.0276213851148 -0.0202556824175 0.995 1.36171234323e-38
0.0294628107892 -0.0202556824175 0.995 1.36192758267e-38
0.0313042364635 -0.0202556824175 0.995 1.34345286372e-38
0.0331456621378 -0.0202556824175 0.995 1.30657517229e-38
0.0349870878121 -0.0202556824175 0.995 1.31579459515e-38
0.0368285134865 -0.0202556824175 0.995 1.33419756762e-38
0.0386699391608 -0.0202556824175 0.995 1.33419756762e-38
0.0403892200165 -0.0201946100083 0.992 1.30661104553e-38
0.0422250936536 -0.0201946100083 0.992 1.37089589284e-38
0.0439277183977 -0.020133537599 0.989 1.35260054009e-38
0.0457580399976 -0.020133537599 0.989 1.36192758267e-38
0.0475883615975 -0.020133537599 0.989 1.36200087058e-38
0.0490189365184 -0.0199706778408 0.981 1.34338111724e-38
0.0508344526857 -0.0199706778408 0.981 1.38940648504e-38
0.0523279506949 -0.0198485330222 0.975 1.35260054009e-38
0.0540213220437 -0.0198078180827 0.973 1.35260054009e-38
0.055649919625 -0.0197467456734 0.97 1.39851828817e-38
0.0572674131319 -0.0196856732641 0.967 1.38940648504e-38
0.0587516577458 -0.0195838859153 0.962 1.41695713388e-38
0.0603432417457 -0.019522813506 0.959 1.40773771103e-38
0.0612759839968 -0.019258166399 0.946 1.39869765438e-38
0.0628268530572 -0.0191970939897 0.943 1.38018706218e-38
0.0643666180432 -0.0191360215804 0.94 1.35231355417e-38
0.0659656047594 -0.0190953066409 0.938 1.81292596458e-38
0.0677015417267 -0.0190953066409 0.938 2.34842278403e-38
-0.00721764837172 -0.0180441209293 0.975 2.34960337798e-38
-0.00541323627879 -0.0180441209293 0.975 1.95085857502e-38
-0.00360142146958 -0.0180071073479 0.973 1.92381435544e-38
-0.00180071073479 -0.0180071073479 0.973 1.92388189803e-38
0.0 -0.0180071073479 0.973 1.82264761281e-38
0.00180071073479 -0.0180071073479 0.973 1.75811165282e-38
0.00360882418586 -0.0180441209293 0.975 1.64729921233e-38
0.00542989239041 -0.0180996413014 0.978 1.55506911053e-38
0.00726206466939 -0.0181551616735 0.981 1.56436027987e-38
0.00907758083674 -0.0181551616735 0.981 1.48149309388e-38
0.0109264092273 -0.0182106820456 0.984 1.48156484036e-38
0.0127863416924 -0.0182662024177 0.987 1.49075245374e-38
0.0146869890969 -0.0183587363711 0.992 1.46301837493e-38
0.016522862734 -0.0183587363711 0.992 1.4168853874e-38
0.0184142567432 -0.0184142567432 0.995 1.43553947256e-38
0.0203167548268 -0.0184697771153 0.998 1.38025880866e-38
0.0221637325384 -0.0184697771153 0.998 1.35267228657e-38
0.0240107102499 -0.0184697771153 0.998 1.34338111724e-38
0.0258576879614 -0.0184697771153 0.998 1.36174821647e-38
0.027704665673 -0.0184697771153 0.998 1.32490639828e-38
0.0295516433845 -0.0184697771153 0.998 1.29731987619e-38
0.0314930057286 -0.0185252974874 1.001 1.35256466685e-38
0.0333455354773 -0.0185252974874 1.001 1.31550760922e-38
0.0350925765191 -0.0184697771153 0.998 1.33419756762e-38
0.0369395542306 -0.0184697771153 0.998 1.32512163773e-38
0.0387865319422 -0.0184697771153 0.998 1.32508576449e-38
0.0403892200165 -0.0183587363711 0.992 1.30664691877e-38
0.0422250936536 -0.0183587363711 0.992 1.31586634163e-38
0.0440609672907 -0.0183587363711 0.992 1.3248346518e-38
0.0458968409278 -0.0183587363711 0.992 1.34345286372e-38
0.0475883615975 -0.018303215999 0.989 1.34341699048e-38
0.0493187465277 -0.0182662024177 0.987 1.33419756762e-38
0.0509899097276 -0.0182106820456 0.984 1.36181996295e-38
0.052488959774 -0.0180996413014 0.978 1.40791707723e-38
0.0541323627879 -0.0180441209293 0.975 1.36181996295e-38
0.0558220327785 -0.0180071073479 0.973 1.40799176644e-38
0.0572674131319 -0.0178960666037 0.967 1.39869765438e-38
0.0587516577458 -0.0178035326502 0.962 1.41706475361e-38
0.0605320110108 -0.0178035326502 0.962 1.38940648504e-38
0.0612759839968 -0.0175074239991 0.946 1.38947823152e-38
0.0628268530572 -0.017451903627 0.943 1.42617655674e-38
0.0643666180432 -0.0173963832549 0.94 1.27809181919e-38
0.0659656047594 -0.0173593696735 0.938 2.0623987098e-38
0.0677015417267 -0.0173593696735 0.938 2.34978764873e-38
-0.00721764837172 -0.0162397088364 0.975 2.34931765323e-38
-0.00541323627879 -0.0162397088364 0.975 2.16298657604e-38
-0.00360882418586 -0.0162397088364 0.975 1.81281834486e-38
-0.00180441209293 -0.0162397088364 0.975 1.86860123413e-38
0.0 -0.0162397088364 0.975 1.75803990633e-38
0.00180441209293 -0.0162397088364 0.975 1.70301035512e-38
0.00361992826028 -0.0162896771712 0.978 1.62903973282e-38
0.00542989239041 -0.0162896771712 0.978 1.54581381443e-38
0.00726206466939 -0.0163396455061 0.981 1.56436027987e-38
0.00910534102278 -0.016389613841 0.984 1.48152896712e-38
0.0109597214506 -0.0164395821759 0.987 1.46305424817e-38
0.0128122511993 -0.0164728943991 0.989 1.47230954426e-38
0.0146869890969 -0.016522862734 0.992 1.43543185284e-38
0.0165728310689 -0.0165728310689 0.995 1.41699300713e-38
0.0184697771153 -0.0166227994038 0.998 1.38940648504e-38
0.0203167548268 -0.0166227994038 0.998 1.38025880866e-38
0.0222303569849 -0.0166727677387 1.001 1.36185583619e-38
0.0240828867336 -0.0166727677387 1.001 1.38018706218e-38
0.0259354164824 -0.0166727677387 1.001 1.38008322596e-38
0.0277879462311 -0.0166727677387 1.001 1.31583046839e-38
0.0296404759799 -0.0166727677387 1.001 1.28831569278e-38
0.0315873903611 -0.0167227360735 1.004 1.2695539879e-38
0.0334454721471 -0.0167227360735 1.004 1.33391058169e-38
0.0351980652261 -0.0166727677387 1.001 1.29714050999e-38
0.0370505949748 -0.0166727677387 1.001 1.31565110219e-38
0.0389031247236 -0.0166727677387 1.001 1.30661104553e-38
0.0405113648351 -0.0165728310689 0.995 1.31568697543e-38
0.0423527905094 -0.0165728310689 0.995 1.343345244e-38
0.0440609672907 -0.016522862734 0.992 1.36171234323e-38
0.0458968409278 -0.016522862734 0.992 1.35256466685e-38
0.047732714565 -0.016522862734 0.992 1.33412582114e-38
0.0493187465277 -0.0164395821759 0.987 1.29739162268e-38
0.0511453667694 -0.0164395821759 0.987 1.35267228657e-38
0.0526499688531 -0.0163396455061 0.981 1.33423344086e-38
0.0542989239041 -0.0162896771712 0.978 1.35260054009e-38
0.0558220327785 -0.0162063966131 0.973 1.36181996295e-38
0.0572674131319 -0.0161064599433 0.967 1.38947823152e-38
0.0587516577458 -0.0160231793852 0.962 1.38025880866e-38
0.0605320110108 -0.0160231793852 0.962 1.38955236021e-38
0.0619237216712 -0.0159232427154 0.956 1.38947823152e-38
0.0636929708618 -0.0159232427154 0.956 1.37071652664e-38
0.0654622200524 -0.0159232427154 0.956 1.42510049965e-38
0.0712400401079 -0.0168726410782 1.013 2.31128585238e-38
0.0731147780055 -0.0168726410782 1.013 2.35029589968e-38
0.0749895159031 -0.0168726410782 1.013 2.3509837971e-38
-0.00541323627879 -0.0144352967434 0.975 2.34876918501e-38
-0.00360882418586 -0.0144352967434 0.975 1.85877196618e-38
-0.00180441209293 -0.0144352967434 0.975 1.84062501094e-38
0.0 -0.0144352967434 0.975 1.77640700557e-38
0.00180441209293 -0.0144352967434 0.975 1.67528034007e-38
0.00361992826028 -0.0144797130411 0.978 1.62903973282e-38
0.00544654850204 -0.0145241293388 0.981 1.56436027987e-38
0.00728427281823 -0.0145685456365 0.984 1.56446789959e-38
0.00913310120883 -0.0146129619341 0.987 1.48156484036e-38
0.0110152418227 -0.0146869890969 0.992 1.47223779778e-38
0.0128899797203 -0.0147314053946 0.995 1.47230954426e-38
0.0147314053946 -0.0147314053946 0.995 1.43525248663e-38
0.0166227994038 -0.0147758216923 0.998 1.43553947256e-38
0.0184697771153 -0.0147758216923 0.998 1.36171234323e-38
0.0203167548268 -0.0147758216923 0.998 1.35256466685e-38
0.0222303569849 -0.0148202379899 1.001 1.36171234323e-38
0.0240828867336 -0.0148202379899 1.001 1.33394645494e-38
0.0259354164824 -0.0148202379899 1.001 1.36167646999e-38
0.0277879462311 -0.0148202379899 1.001 1.33416169438e-38
0.0296404759799 -0.0148202379899 1.001 1.33419756762e-38
0.0315873903611 -0.0148646542876 1.004 1.31583046839e-38
0.0334454721471 -0.0148646542876 1.004 1.33405407466e-38
0.035303553933 -0.0148646542876 1.004 1.35245704713e-38
0.037161635719 -0.0148646542876 1.004 1.3340899479e-38
0.0390197175049 -0.0148646542876 1.004 1.32505073202e-38
0.0406335096537 -0.0147758216923 0.998 1.26976922735e-38
0.0424804873652 -0.0147758216923 0.998 1.30661104553e-38
0.0441942161837 -0.0147314053946 0.995 1.35249292037e-38
0.0458968409278 -0.0146869890969 0.992 1.3248346518e-38
0.047732714565 -0.0146869890969 0.992 1.33419756762e-38
0.0494186831974 -0.0146425727992 0.989 1.29724812971e-38
0.0511453667694 -0.0146129619341 0.987 1.36192758267e-38
0.0529719870112 -0.0146129619341 0.987 1.38025880866e-38
0.0544654850204 -0.0145241293388 0.981 1.37093176608e-38
0.0559367748808 -0.0144352967434 0.975 1.39862590789e-38
0.0572674131319 -0.014316853283 0.967 1.38025880866e-38
0.0587516577458 -0.0142428261202 0.962 1.39869765438e-38
0.0605320110108 -0.0142428261202 0.962 1.38947823152e-38
0.0619237216712 -0.0141539935248 0.956 1.38929886532e-38
0.0636929708618 -0.0141539935248 0.956 1.25947360727e-38
0.0654622200524 -0.0141539935248 0.956 1.84065906249e-38
0.0712400401079 -0.0149979031806 1.013 2.348096842e-38
0.0731147780055 -0.0149979031806 1.013 2.35094063711e-38
-0.00542989239041 -0.012669748911 0.978 2.34960856279e-38
-0.00361992826028 -0.012669748911 0.978 2.07045995947e-38
-0.00180441209293 -0.0126308846505 0.975 1.76711583623e-38
0.0 -0.0126308846505 0.975 1.76736694891e-38
0.00180996413014 -0.012669748911 0.978 1.71190691881e-38
0.00363103233469 -0.0127086131714 0.981 1.62868100042e-38
0.00546320461367 -0.0127474774319 0.984 1.61045739415e-38
0.00730648096706 -0.0127863416924 0.987 1.56439615311e-38
0.00915160799952 -0.0128122511993 0.989 1.52751846168e-38
0.0110152418227 -0.0128511154598 0.992 1.50003955932e-38
0.0129288439807 -0.0129288439807 0.998 1.46301837493e-38
0.0147758216923 -0.0129288439807 0.998 1.46301837493e-38
0.0166727677387 -0.0129677082412 1.001 1.39873352762e-38
0.0185252974874 -0.0129677082412 1.001 1.34316587779e-38
0.0203778272361 -0.0129677082412 1.001 1.36185583619e-38
0.0222969814314 -0.0130065725016 1.004 1.41717237333e-38
0.0241550632173 -0.0130065725016 1.004 1.43553947256e-38
0.0260131450033 -0.0130065725016 1.004 1.40791707723e-38
0.0278712267892 -0.0130065725016 1.004 1.4448306419e-38
0.0297293085752 -0.0130065725016 1.004 1.46330536085e-38
0.0316817749937 -0.0130454367621 1.007 1.47252478371e-38
0.0335454088169 -0.0130454367621 1.007 1.43550359932e-38
0.03540904264 -0.0130454367621 1.007 1.39869765438e-38
0.037161635719 -0.0130065725016 1.004 1.39873352762e-38
0.0390197175049 -0.0130065725016 1.004 1.34366810316e-38
0.0407556544723 -0.0129677082412 1.001 1.28827981954e-38
0.042608184221 -0.0129677082412 1.001 1.30657517229e-38
0.0444607139698 -0.0129677082412 1.001 1.31550760922e-38
0.0461744427883 -0.0129288439807 0.998 1.26926700198e-38
0.0478770675324 -0.0128899797203 0.995 1.31575886204e-38
0.0495685882021 -0.0128511154598 0.992 1.26976922735e-38
0.0512490047973 -0.0128122511993 0.989 1.33419756762e-38
0.0530793263972 -0.0128122511993 0.989 1.37111127242e-38
0.054798607253 -0.0127863416924 0.987 1.36181996295e-38
0.0562810011878 -0.0127086131714 0.981 1.41710118737e-38
0.0580965173551 -0.0127086131714 0.981 1.35260054009e-38
0.0602784679783 -0.0127863416924 0.987 1.38025880866e-38
0.06210508822 -0.0127863416924 0.987 1.38940648504e-38
0.0658101477175 -0.0131620295435 1.016 1.36167646999e-38
0.0676904376523 -0.0131620295435 1.016 1.36981969562e-38
0.0693653022103 -0.013123165283 1.013 2.34808899473e-38
0.0712400401079 -0.013123165283 1.013 2.34827929106e-38
0.0731147780055 -0.013123165283 1.013 2.35098183528e-38
-0.00361992826028 -0.0108597847808 0.978 2.3493898201e-38
-0.00180996413014 -0.0108597847808 0.978 1.71111770752e-38
0.0 -0.0108597847808 0.978 1.72101872195e-38
0.00181551616735 -0.0108930970041 0.981 1.70250812975e-38
0.00364213640911 -0.0109264092273 0.984 1.61938983108e-38
0.0054798607253 -0.0109597214506 0.987 1.61027802795e-38
0.00732128639962 -0.0109819295994 0.989 1.57354382948e-38
0.00917936818557 -0.0110152418227 0.992 1.51822729234e-38
0.0110485540459 -0.0110485540459 0.995 1.50904374273e-38
0.0129288439807 -0.0110818662692 0.998 1.46301837493e-38
0.0148202379899 -0.0111151784924 1.001 1.42621242998e-38
0.0166727677387 -0.0111151784924 1.001 1.42628417646e-38
0.0185808178595 -0.0111484907157 1.004 1.49089188294e-38
0.0204388996454 -0.0111484907157 1.004 1.49082013646e-38
0.0223636058779 -0.011181802939 1.007 1.48178007981e-38
0.0242272397011 -0.011181802939 1.007 1.52773370113e-38
0.0260908735242 -0.011181802939 1.007 1.50929485541e-38
0.0279545073474 -0.011181802939 1.007 1.52780544761e-38
0.0298181411705 -0.011181802939 1.007 1.49107124914e-38
0.0317761596263 -0.0112151151622 1.01 1.48174420656e-38
0.0335454088169 -0.011181802939 1.007 1.46309012141e-38
0.03540904264 -0.011181802939 1.007 1.45401419151e-38
0.0372726764632 -0.011181802939 1.007 1.44493826162e-38
0.0391363102863 -0.011181802939 1.007 1.36185583619e-38
0.0408777992909 -0.0111484907157 1.004 1.37107525905e-38
0.0427358810768 -0.0111484907157 1.004 1.36189170943e-38
0.0445939628628 -0.0111484907157 1.004 1.36192758267e-38
0.0463132437185 -0.0111151784924 1.001 1.30635993285e-38
0.0480214204998 -0.0110818662692 0.998 1.3155793557e-38
0.0495685882021 -0.0110152418227 0.992 1.27888103048e-38
0.0512490047973 -0.0109819295994 0.989 1.29710463675e-38
0.0530793263972 -0.0109819295994 0.989 1.36171234323e-38
0.054798607253 -0.0109597214506 0.987 1.33405407466e-38
0.0564531143412 -0.0109264092273 0.984 1.35260054009e-38
0.0582741825458 -0.0109264092273 0.984 1.36192758267e-38
0.0602784679783 -0.0109597214506 0.987 1.35260054009e-38
0.06210508822 -0.0109597214506 0.987 1.38018706218e-38
0.0658101477175 -0.0112817396087 1.016 1.2505052971e-38
0.0676904376523 -0.0112817396087 1.016 2.02540737307e-38
0.0695707275871 -0.0112817396087 1.016 2.34831194132e-38
0.0712400401079 -0.0112484273855 1.013 2.34921675974e-38
0.0731147780055 -0.0112484273855 1.013 2.35098323658e-38
-0.00546320461367 -0.00910534102278 0.984 1.96979964611e-38
-0.00364213640911 -0.00910534102278 0.984 2.34928416219e-38
-0.00182106820456 -0.00910534102278 0.984 2.23699209066e-38
0.0 -0.00910534102278 0.984 1.59148044983e-38
0.00182106820456 -0.00910534102278 0.984 1.72109046843e-38
0.00365324048353 -0.00913310120883 0.987 1.63811566272e-38
0.0054798607253 -0.00913310120883 0.987 1.65648276195e-38
0.00732128639962 -0.00915160799952 0.989 1.58269150586e-38
0.00920712837161 -0.00920712837161 0.995 1.51826316558e-38
0.0110818662692 -0.00923488855766 0.998 1.49078426322e-38
0.0129677082412 -0.0092626487437 1.001 1.43543185284e-38
0.0148646542876 -0.00929040892975 1.004 1.46323361437e-38
0.0167727044084 -0.00931816911579 1.007 1.4816007136e-38
0.0186363382316 -0.00931816911579 1.007 1.51855015151e-38
0.0204999720547 -0.00931816911579 1.007 1.59241315408e-38
0.0224302303244 -0.00934592930184 1.01 1.55553546266e-38
0.0242994161848 -0.00934592930184 1.01 1.5921620414e-38
0.0261686020451 -0.00934592930184 1.01 1.53663026482e-38
0.0280377879055 -0.00934592930184 1.01 1.50925898217e-38
0.0299069737659 -0.00934592930184 1.01 1.4816007136e-38
0.0317761596263 -0.00934592930184 1.01 1.49096362942e-38
0.0335454088169 -0.00931816911579 1.007 1.44479476866e-38
0.03540904264 -0.00931816911579 1.007 1.46326948761e-38
0.0372726764632 -0.00931816911579 1.007 1.43571883876e-38
0.0391363102863 -0.00931816911579 1.007 1.41724411981e-38
0.0409999441095 -0.00931816911579 1.007 1.41720824657e-38
0.0427358810768 -0.00929040892975 1.004 1.39869765438e-38
0.0445939628628 -0.00929040892975 1.004 1.37114700553e-38
0.0463132437185 -0.0092626487437 1.001 1.38018706218e-38
0.0480214204998 -0.00923488855766 0.998 1.34338111724e-38
0.0495685882021 -0.00917936818557 0.992 1.35267228657e-38
0.0514044618392 -0.00917936818557 0.992 1.3248346518e-38
0.0530793263972 -0.00915160799952 0.989 1.34316587779e-38
0.0549096479971 -0.00915160799952 0.989 1.36164059675e-38
0.0566252274947 -0.00913310120883 0.987 1.36181996295e-38
0.0584518477365 -0.00913310120883 0.987 1.36181996295e-38
0.0604006127969 -0.00915160799952 0.989 1.33405407466e-38
0.0622309343968 -0.00915160799952 0.989 1.27837880511e-38
0.0658101477175 -0.00940144967393 1.016 1.73892143087e-38
0.0676904376523 -0.00940144967393 1.016 2.34906191626e-38
0.0695707275871 -0.00940144967393 1.016 2.34740558147e-38
0.0714510175219 -0.00940144967393 1.016 2.35097216632e-38
-0.00546320461367 -0.00728427281823 0.984 2.05307923423e-38
-0.00364213640911 -0.00728427281823 0.984 1.77526410654e-38
-0.00182106820456 -0.00728427281823 0.984 2.34978330471e-38
0.0 -0.00728427281823 0.984 2.01572930522e-38
0.00182106820456 -0.00728427281823 0.984 1.52741084196e-38
0.00365324048353 -0.00730648096706 0.987 1.67495776116e-38
0.0054798607253 -0.00730648096706 0.987 1.62886036662e-38
0.00734349454845 -0.00734349454845 0.992 1.59194680195e-38
0.00920712837161 -0.00736570269729 0.995 1.54584968767e-38
0.0111151784924 -0.00741011899496 1.001 1.48152896712e-38
0.0130065725016 -0.0074323271438 1.004 1.50925898217e-38
0.0149090705853 -0.00745453529263 1.007 1.60120209805e-38
0.0168726410782 -0.00749895159031 1.013 1.68435626996e-38
0.0187473789758 -0.00749895159031 1.013 1.67528034007e-38
0.0206221168733 -0.00749895159031 1.013 1.63833090216e-38
0.0224968547709 -0.00749895159031 1.013 1.60138146425e-38
0.0243715926685 -0.00749895159031 1.013 1.60138146425e-38
0.0262463305661 -0.00749895159031 1.013 1.60120209805e-38
0.0280377879055 -0.00747674344147 1.01 1.55514085701e-38
0.0299069737659 -0.00747674344147 1.01 1.55514085701e-38
0.0317761596263 -0.00747674344147 1.01 1.52773370113e-38
0.0336453454866 -0.00747674344147 1.01 1.52780544761e-38
0.035514531347 -0.00747674344147 1.01 1.51851427827e-38
0.0373837172074 -0.00747674344147 1.01 1.4816007136e-38
0.0392529030677 -0.00747674344147 1.01 1.48163658684e-38
0.0411220889281 -0.00747674344147 1.01 1.42621242998e-38
0.0429912747885 -0.00747674344147 1.01 1.44468714894e-38
0.0448604606488 -0.00747674344147 1.01 1.40773771103e-38
0.0464520446487 -0.0074323271438 1.004 1.43568296552e-38
0.0483101264347 -0.0074323271438 1.004 1.40795295047e-38
0.0498683982114 -0.00738791084613 0.998 1.35267228657e-38
0.0514044618392 -0.00734349454845 0.992 1.3153999895e-38
0.0532403354763 -0.00734349454845 0.992 1.31550760922e-38
0.0550762091134 -0.00734349454845 0.992 1.33391058169e-38
0.056739969597 -0.00732128639962 0.989 1.36164059675e-38
0.0585702911969 -0.00732128639962 0.989 1.35242117389e-38
0.0604006127969 -0.00732128639962 0.989 1.33398316896e-38
0.0622309343968 -0.00732128639962 0.989 1.45293799429e-38
0.0660044690198 -0.00754336788798 1.019 2.34878123617e-38
0.0678903109918 -0.00754336788798 1.019 2.34751446236e-38
0.0695707275871 -0.00752115973914 1.016 2.12557849314e-38
0.0714510175219 -0.00752115973914 1.016 2.35098463788e-38
-0.00365324048353 -0.0054798607253 0.987 1.42466988063e-38
-0.00182662024177 -0.0054798607253 0.987 2.34841942091e-38
0.0 -0.0054798607253 0.987 2.3492128361e-38
0.00182662024177 -0.0054798607253 0.987 1.91409088553e-38
0.00365324048353 -0.0054798607253 0.987 1.52741084196e-38
0.00549096479971 -0.00549096479971 0.989 1.64733508557e-38
0.00734349454845 -0.00550762091134 0.992 1.57343620976e-38
0.00920712837161 -0.00552427702297 0.995 1.52755433492e-38
0.0111484907157 -0.00557424535785 1.004 1.50000368607e-38
0.0130454367621 -0.00559090146948 1.007 1.62896798634e-38
0.0149979031806 -0.00562421369273 1.013 1.71176342585e-38
0.0168726410782 -0.00562421369273 1.013 1.79491759776e-38
0.0187473789758 -0.00562421369273 1.013 1.72109046843e-38
0.0206221168733 -0.00562421369273 1.013 1.69332458014e-38
0.0224968547709 -0.00562421369273 1.013 1.684212777e-38
0.0243715926685 -0.00562421369273 1.013 1.67506510063e-38
0.0262463305661 -0.00562421369273 1.013 1.68428452348e-38
0.0281210684637 -0.00562421369273 1.013 1.62871687366e-38
0.0299958063612 -0.00562421369273 1.013 1.62896798634e-38
0.0318705442588 -0.00562421369273 1.013 1.57354382948e-38
0.0336453454866 -0.0056075575811 1.01 1.56439615311e-38
0.035514531347 -0.0056075575811 1.01 1.56428853338e-38
0.0373837172074 -0.0056075575811 1.01 1.5274467152e-38
0.0392529030677 -0.0056075575811 1.01 1.51826316558e-38
0.0411220889281 -0.0056075575811 1.01 1.49078426322e-38
0.0429912747885 -0.0056075575811 1.01 1.44468714894e-38
0.0448604606488 -0.0056075575811 1.01 1.41695713388e-38
0.046590845579 -0.00559090146948 1.007 1.43550359932e-38
0.0483101264347 -0.00557424535785 1.004 1.39869765438e-38
0.050018303216 -0.00555758924622 1.001 1.39851828817e-38
0.0517153759229 -0.0055409331346 0.998 1.36171234323e-38
0.0534013445554 -0.00552427702297 0.995 1.35270815981e-38
0.0550762091134 -0.00550762091134 0.992 1.33412582114e-38
0.056739969597 -0.00549096479971 0.989 1.3708600196e-38
0.0585702911969 -0.00549096479971 0.989 1.28788521389e-38
0.0604006127969 -0.00549096479971 0.989 1.40698437297e-38
0.0622309343968 -0.00549096479971 0.989 2.34845683558e-38
0.0640612559967 -0.00549096479971 0.989 2.34849186804e-38
0.0678903109918 -0.00565752591598 1.019 1.94174705215e-38
0.0697761529638 -0.00565752591598 1.019 2.34982464301e-38
0.0714510175219 -0.00564086980436 1.016 2.3509837971e-38
-0.00569083813924 -0.00379389209283 1.025 2.3486048127e-38
-0.0018303215999 -0.00366064319981 0.989 1.12039305313e-38
0.0 -0.00366064319981 0.989 2.34810258733e-38
0.0018303215999 -0.00366064319981 0.989 2.34906303729e-38
0.00366064319981 -0.00366064319981 0.989 1.85877322735e-38
0.00549096479971 -0.00366064319981 0.989 1.49975257339e-38
0.00734349454845 -0.00367174727423 0.992 1.59187505547e-38
0.00920712837161 -0.00368285134865 0.995 1.57340033652e-38
0.011181802939 -0.00372726764632 1.007 1.60130971777e-38
0.0130843010226 -0.00373837172074 1.01 1.78580579463e-38
0.0149979031806 -0.00374947579515 1.013 1.97013105319e-38
0.0168726410782 -0.00374947579515 1.013 1.79484585128e-38
0.0187473789758 -0.00374947579515 1.013 1.79484585128e-38
0.0206221168733 -0.00374947579515 1.013 1.78584166787e-38
0.0224968547709 -0.00374947579515 1.013 1.74889222996e-38
0.0243715926685 -0.00374947579515 1.013 1.71197866529e-38
0.0262463305661 -0.00374947579515 1.013 1.71201453853e-38
0.0281210684637 -0.00374947579515 1.013 1.68432039672e-38
0.0299958063612 -0.00374947579515 1.013 1.69357569282e-38
0.0317761596263 -0.00373837172074 1.01 1.64751445178e-38
0.0336453454866 -0.00373837172074 1.01 1.65648276195e-38
0.035514531347 -0.00373837172074 1.01 1.6289321131e-38
0.0372726764632 -0.00372726764632 1.007 1.58279912558e-38
0.0391363102863 -0.00372726764632 1.007 1.53663026482e-38
0.0411220889281 -0.00373837172074 1.01 1.50933072865e-38
0.0429912747885 -0.00373837172074 1.01 1.50933072865e-38
0.0448604606488 -0.00373837172074 1.01 1.49089188294e-38
0.046590845579 -0.00372726764632 1.007 1.45397831827e-38
0.0484544794021 -0.00372726764632 1.007 1.42621242998e-38
0.050018303216 -0.00370505949748 1.001 1.42628417646e-38
0.0518708329647 -0.00370505949748 1.001 1.40795295047e-38
0.0535623536344 -0.00369395542306 0.998 1.37114700553e-38
0.0552427702297 -0.00368285134865 0.995 1.29735574944e-38
0.0569120827505 -0.00367174727423 0.992 1.19565511209e-38
0.0585702911969 -0.00366064319981 0.989 1.56382218126e-38
0.0604006127969 -0.00366064319981 0.989 2.34859724569e-38
0.0622309343968 -0.00366064319981 0.989 2.34849088713e-38
0.0640612559967 -0.00366064319981 0.989 1.97855313722e-38
0.0680901843313 -0.00378278801841 1.022 1.86692079701e-38
0.0697761529638 -0.00377168394399 1.019 2.35097749126e-38
-0.00381610024166 -0.00190805012083 1.031 2.20130326085e-38
-0.00190805012083 -0.00190805012083 1.031 1.26944776948e-38
0.0 -0.0018303215999 0.989 1.50829040467e-38
0.0018303215999 -0.0018303215999 0.989 2.3482390738e-38
0.00366064319981 -0.0018303215999 0.989 2.34957128825e-38
0.00549096479971 -0.0018303215999 0.989 2.00674908401e-38
0.00736570269729 -0.00184142567432 0.995 1.38836616106e-38
0.00934592930184 -0.00186918586037 1.01 1.55482276226e-38
0.0112484273855 -0.00187473789758 1.013 1.77662224501e-38
0.013123165283 -0.00187473789758 1.013 1.88707679386e-38
0.0149979031806 -0.00187473789758 1.013 1.86842186793e-38
0.0168726410782 -0.00187473789758 1.013 1.78544706222e-38
0.0187473789758 -0.00187473789758 1.013 1.78562642842e-38
0.0206221168733 -0.00187473789758 1.013 1.79491759776e-38
0.0224968547709 -0.00187473789758 1.013 1.76704408975e-38
0.0243715926685 -0.00187473789758 1.013 1.7302381448e-38
0.0262463305661 -0.00187473789758 1.013 1.76736694891e-38
0.0281210684637 -0.00187473789758 1.013 1.7489281032e-38
0.0299958063612 -0.00187473789758 1.013 1.73063275045e-38
0.0317761596263 -0.00186918586037 1.01 1.68428452348e-38
0.0336453454866 -0.00186918586037 1.01 1.71187104557e-38
0.035514531347 -0.00186918586037 1.01 1.6474427053e-38
0.0372726764632 -0.00186363382316 1.007 1.63797216976e-38
0.0391363102863 -0.00186363382316 1.007 1.61074438007e-38
0.0411220889281 -0.00186918586037 1.01 1.54620842008e-38
0.0429912747885 -0.00186918586037 1.01 1.54620842008e-38
0.0448604606488 -0.00186918586037 1.01 1.49096362942e-38
0.0467296465092 -0.00186918586037 1.01 1.49089188294e-38
0.0484544794021 -0.00186363382316 1.007 1.41706475361e-38
0.0501682082206 -0.00185808178595 1.004 1.44475889542e-38
0.0520262900066 -0.00185808178595 1.004 1.36185583619e-38
0.0537233627135 -0.00185252974874 1.001 1.36185583619e-38
0.055409331346 -0.00184697771153 0.998 1.15816757557e-38
0.0569120827505 -0.00183587363711 0.992 1.56392980098e-38
0.0587479563876 -0.00183587363711 0.992 2.34849032661e-38
0.0604006127969 -0.0018303215999 0.989 2.34860074893e-38
0.0622309343968 -0.0018303215999 0.989 1.92273437472e-38
0.0663931116244 -0.00189694604641 1.025 1.84848181117e-38
0.0678903109918 -0.00188584197199 1.019 2.24575903425e-38
0.0695707275871 -0.00188028993479 1.016 2.35098589905e-38
-0.00381610024166 0.0 1.031 2.21952980985e-38
-0.00190805012083 0.0 1.031 1.47260283603e-38
0.0 0.0 1.031 1.19651985337e-38
0.00190805012083 0.0 1.031 1.49896336209e-38
0.00372726764632 0.0 1.007 2.34799076371e-38
0.00559090146948 0.0 1.007 2.34964709849e-38
0.00745453529263 0.0 1.007 2.200356964e-38
0.00937368948788 0.0 1.013 1.68367467839e-38
0.0112484273855 0.0 1.013 1.82261173957e-38
0.013123165283 0.0 1.013 1.98856135099e-38
0.0149979031806 0.0 1.013 1.9422848705e-38
0.0168726410782 0.0 1.013 1.86842186793e-38
0.0187473789758 0.0 1.013 1.86849361441e-38
0.0206221168733 0.0 1.013 1.85019826166e-38
0.0224968547709 0.0 1.013 1.87774891051e-38
0.0243715926685 0.0 1.013 1.79481053856e-38
0.0262463305661 0.0 1.013 1.85027393178e-38
0.0281210684637 0.0 1.013 1.75793228661e-38
0.0299069737659 0.0 1.01 1.74885635672e-38
0.0317761596263 0.0 1.01 1.73956518738e-38
0.0336453454866 0.0 1.01 1.73970882047e-38
0.035514531347 0.0 1.01 1.75832689226e-38
0.0372726764632 0.0 1.007 1.65666212815e-38
0.0391363102863 0.0 1.007 1.61971269025e-38
0.0409999441095 0.0 1.007 1.59212616816e-38
0.0428635779327 0.0 1.007 1.57383081541e-38
0.0448604606488 0.0 1.01 1.54602905388e-38
0.0467296465092 0.0 1.01 1.52780544761e-38
0.0484544794021 0.0 1.007 1.46309012141e-38
0.0501682082206 0.0 1.004 1.5001113058e-38
0.0520262900066 0.0 1.004 1.37093176608e-38
0.0537233627135 0.0 1.001 1.29674590434e-38
0.0555758924622 0.0 1.001 1.9796647873e-38
0.0569120827505 0.0 0.992 2.3492813596e-38
0.0587479563876 0.0 0.992 2.34805816617e-38
0.0604006127969 0.0 0.989 1.85855672674e-38
0.0622309343968 0.0 0.989 1.85798275489e-38
0.0663931116244 0.0 1.025 2.0333806212e-38
0.0678903109918 0.0 1.019 2.34921675974e-38
0.0695707275871 0.0 1.016 2.35098421749e-38
-0.00190805012083 0.00190805012083 1.031 1.88816616329e-38
0.0 0.00190805012083 1.031 1.01180475357e-38
0.00190805012083 0.00190805012083 1.031 1.196379163e-38
0.00381610024166 0.00190805012083 1.031 1.35091449778e-38
0.00562421369273 0.00187473789758 1.013 2.08079145279e-38
0.00749895159031 0.00187473789758 1.013 2.34982071937e-38
0.00937368948788 0.00187473789758 1.013 2.34920835195e-38
0.0112484273855 0.00187473789758 1.013 2.16355101906e-38
0.013123165283 0.00187473789758 1.013 1.84069185288e-38
0.0149979031806 0.00187473789758 1.013 1.87767716402e-38
0.0168726410782 0.00187473789758 1.013 1.88696833336e-38
0.0187473789758 0.00187473789758 1.013 1.95168365956e-38
0.0206221168733 0.00187473789758 1.013 1.92402539099e-38
0.0224968547709 0.00187473789758 1.013 1.89615188298e-38
0.0242994161848 0.00186918586037 1.01 1.87767716402e-38
0.0261686020451 0.00186918586037 1.01 1.85938181127e-38
0.0280377879055 0.00186918586037 1.01 1.85931006479e-38
0.0299069737659 0.00186918586037 1.01 1.85016238842e-38
0.0317761596263 0.00186918586037 1.01 1.79491759776e-38
0.0336453454866 0.00186918586037 1.01 1.70272463036e-38
0.03540904264 0.00186363382316 1.007 1.73081211665e-38
0.0372726764632 0.00186363382316 1.007 1.72134158111e-38
0.0391363102863 0.00186363382316 1.007 1.6749574809e-38
0.0409999441095 0.00186363382316 1.007 1.67495776116e-38
0.0428635779327 0.00186363382316 1.007 1.61967681701e-38
0.0447272117558 0.00186363382316 1.007 1.59212616816e-38
0.046590845579 0.00186363382316 1.007 1.57368732244e-38
0.0484544794021 0.00186363382316 1.007 1.48127785444e-38
0.0501682082206 0.00185808178595 1.004 1.38822266809e-38
0.0520262900066 0.00185808178595 1.004 1.80349130228e-38
0.0538843717925 0.00185808178595 1.004 2.34863353932e-38
0.0557424535785 0.00185808178595 1.004 2.34914221066e-38
0.057428422211 0.00185252974874 1.001 1.92424777706e-38
0.0592809519597 0.00185252974874 1.001 1.5451680961e-38
0.0611334817084 0.00185252974874 1.001 1.92317171997e-38
0.0629860114572 0.00185252974874 1.001 1.96944904123e-38
0.0658101477175 0.00188028993479 1.016 1.95064641844e-38
0.0676904376523 0.00188028993479 1.016 2.35097693074e-38
-0.00190805012083 0.00381610024166 1.031 2.03524743101e-38
0.0 0.00381610024166 1.031 1.25141137669e-38
0.00190805012083 0.00381610024166 1.031 1.08635383187e-38
0.00749895159031 0.00374947579515 1.013 1.32354321514e-38
0.00937368948788 0.00374947579515 1.013 2.1640582891e-38
0.0112484273855 0.00374947579515 1.013 2.34950066281e-38
0.013123165283 0.00374947579515 1.013 2.34852774128e-38
0.0149979031806 0.00374947579515 1.013 2.16333577961e-38
0.0168726410782 0.00374947579515 1.013 1.88650198123e-38
0.0187473789758 0.00374947579515 1.013 1.89604426326e-38
0.020561044464 0.00373837172074 1.01 1.94235885906e-38
0.0224302303244 0.00373837172074 1.01 1.95157646023e-38
0.0242994161848 0.00373837172074 1.01 1.91451898221e-38
0.0261686020451 0.00373837172074 1.01 1.92377455857e-38
0.0280377879055 0.00373837172074 1.01 1.89622404985e-38
0.0299069737659 0.00373837172074 1.01 1.84072912742e-38
0.0317761596263 0.00373837172074 1.01 1.83165207648e-38
0.0336453454866 0.00373837172074 1.01 1.76754645525e-38
0.03540904264 0.00372726764632 1.007 1.77687349782e-38
0.0372726764632 0.00372726764632 1.007 1.71194419335e-38
0.0391363102863 0.00372726764632 1.007 1.71187202648e-38
0.0408777992909 0.0037161635719 1.004 1.68414285221e-38
0.0427358810768 0.0037161635719 1.004 1.62864512718e-38
0.0447272117558 0.00372726764632 1.007 1.55488974432e-38
0.046590845579 0.00372726764632 1.007 1.54538333554e-38
0.0484544794021 0.00372726764632 1.007 1.9328502082e-38
0.0501682082206 0.0037161635719 1.004 2.34837317806e-38
0.0520262900066 0.0037161635719 1.004 2.34921101441e-38
0.0538843717925 0.0037161635719 1.004 2.163780832e-38
0.0557424535785 0.0037161635719 1.004 1.40555434789e-38
0.0576005353644 0.0037161635719 1.004 1.62839933943e-38
0.0594586171504 0.0037161635719 1.004 1.89555030555e-38
0.0613166989363 0.0037161635719 1.004 2.02498151846e-38
0.0658101477175 0.00376057986957 1.016 2.18132200592e-38
0.0676904376523 0.00376057986957 1.016 2.35097931294e-38
-0.00190249808362 0.00570749425087 1.028 1.99815492053e-38
0.0 0.00572415036249 1.031 1.58345437274e-38
0.00940144967393 0.00564086980436 1.016 1.13969285662e-38
0.0112484273855 0.00562421369273 1.013 1.41570773617e-38
0.013123165283 0.00562421369273 1.013 2.24678240251e-38
0.0149979031806 0.00562421369273 1.013 2.34924912973e-38
0.0168726410782 0.00562421369273 1.013 2.34899479406e-38
0.0187473789758 0.00562421369273 1.013 2.34830843807e-38
0.020561044464 0.0056075575811 1.01 2.09840521397e-38
0.0224302303244 0.0056075575811 1.01 1.91416095045e-38
0.0242272397011 0.00559090146948 1.007 1.86809900876e-38
0.0260908735242 0.00559090146948 1.007 1.89597251677e-38
0.0280377879055 0.0056075575811 1.01 1.8588795859e-38
0.0299069737659 0.0056075575811 1.01 1.84029724723e-38
0.0317761596263 0.0056075575811 1.01 1.82196602124e-38
0.0335454088169 0.00559090146948 1.007 1.78523182277e-38
0.03540904264 0.00559090146948 1.007 1.7575735542e-38
0.037161635719 0.00557424535785 1.004 1.79445124563e-38
0.0390197175049 0.00557424535785 1.004 1.73002290536e-38
0.0408777992909 0.00557424535785 1.004 1.76668535734e-38
0.0427358810768 0.00557424535785 1.004 1.96040744315e-38
0.0445939628628 0.00557424535785 1.004 2.31120583824e-38
0.0464520446487 0.00557424535785 1.004 2.34863774321e-38
0.0484544794021 0.00559090146948 1.007 2.34896214381e-38
0.0458709314209 0.00509677015787 0.918 2.20050662268e-38
0.0475698548068 0.00509677015787 0.918 1.53558994084e-38
0.0492687781928 0.00509677015787 0.918 1.48041759731e-38
0.0509677015787 0.00509677015787 0.918 1.82211582004e-38
0.0576005353644 0.00557424535785 1.004 1.98745628702e-38
0.0594586171504 0.00557424535785 1.004 2.05213447881e-38
0.0616831333921 0.0056075575811 1.01 2.02458747334e-38
0.0635523192525 0.0056075575811 1.01 2.00499143535e-38
