# .PCD v0.7 - Point Cloud Data file format
VERSION 0.7
FIELDS x y z rgb
SIZE 4 4 4 4
TYPE F F F F
COUNT 1 1 1 1
WIDTH 854
HEIGHT 1
VIEWPOINT 0 0 0 1 0 0 0
POINTS 854
DATA ascii
0.0519781723508 -0.120723497073 0.906 2.10798336923e-38
0.0117370066599 -0.119046781836 0.906 2.3475841069e-38
0.0134433327621 -0.119309578264 0.908 2.02512473117e-38
0.0151237493574 -0.119309578264 0.908 1.82196602124e-38
0.0167671523712 -0.119046781836 0.906 1.90497670019e-38
0.0184438676083 -0.119046781836 0.906 1.95132492715e-38
0.0201649991431 -0.119309578264 0.908 1.90526760975e-38
0.0218454157384 -0.119309578264 0.908 1.86853355141e-38
0.0235258323337 -0.119309578264 0.908 1.85027449229e-38
0.0252062489289 -0.119309578264 0.908 1.80439163655e-38
0.0268866655242 -0.119309578264 0.908 1.79495711438e-38
0.0285670821194 -0.119309578264 0.908 1.85002057701e-38
0.0302474987147 -0.119309578264 0.908 1.86867452204e-38
0.03192791531 -0.119309578264 0.908 1.7304578684e-38
0.0336083319052 -0.119309578264 0.908 1.82261594347e-38
0.0352887485005 -0.119309578264 0.908 1.73035249076e-38
0.0369691650957 -0.119309578264 0.908 1.88711813217e-38
0.038649581691 -0.119309578264 0.908 1.71197866529e-38
0.0403299982863 -0.119309578264 0.908 1.73963819503e-38
0.0420104148815 -0.119309578264 0.908 1.73952931414e-38
0.0436908314768 -0.119309578264 0.908 1.69346975466e-38
0.0453712480721 -0.119309578264 0.908 1.75789641337e-38
0.0470516646673 -0.119309578264 0.908 1.71183671376e-38
0.0486247418765 -0.119046781836 0.906 1.72109369141e-38
0.0503014571137 -0.119046781836 0.906 1.61964514766e-38
0.0519781723508 -0.119046781836 0.906 1.64719159261e-38
0.0536548875879 -0.119046781836 0.906 1.68388991783e-38
0.0100602914227 -0.117370066599 0.906 1.99721506965e-38
0.0117370066599 -0.117370066599 0.906 1.94206963106e-38
0.013413721897 -0.117370066599 0.906 1.88671974301e-38
0.0150904371341 -0.117370066599 0.906 1.95150835712e-38
0.0168041659526 -0.117629161668 0.908 1.86863794815e-38
0.0184845825479 -0.117629161668 0.908 1.92381015155e-38
0.0201649991431 -0.117629161668 0.908 1.84094590829e-38
0.0218454157384 -0.117629161668 0.908 1.87782345958e-38
0.0235258323337 -0.117629161668 0.908 1.82268628865e-38
0.0252062489289 -0.117629161668 0.908 1.89629789828e-38
0.0268866655242 -0.117629161668 0.908 1.85005588973e-38
0.0285670821194 -0.117629161668 0.908 1.79470389974e-38
0.0302474987147 -0.117629161668 0.908 1.90519348106e-38
0.03192791531 -0.117629161668 0.908 1.73049472255e-38
0.0336083319052 -0.117629161668 0.908 1.82268628865e-38
0.0352887485005 -0.117629161668 0.908 1.72109341115e-38
0.0369691650957 -0.117629161668 0.908 1.77637519609e-38
0.038649581691 -0.117629161668 0.908 1.73970994151e-38
0.0403299982863 -0.117629161668 0.908 1.80421184995e-38
0.0420104148815 -0.117629161668 0.908 1.7306761907e-38
0.0436908314768 -0.117629161668 0.908 1.79499186658e-38
0.0453712480721 -0.117629161668 0.908 1.73935275053e-38
0.0470516646673 -0.117629161668 0.908 1.70258239857e-38
0.0486247418765 -0.117370066599 0.906 1.70254680559e-38
0.0503014571137 -0.117370066599 0.906 1.69347199673e-38
0.0519781723508 -0.117370066599 0.906 1.69343696427e-38
0.0536548875879 -0.117370066599 0.906 1.60120602169e-38
0.055331602825 -0.117370066599 0.906 1.62886499091e-38
0.00668465279965 -0.115310260794 0.903 2.26439938668e-38
0.00835581599956 -0.115310260794 0.903 1.90526634858e-38
0.0100269791995 -0.115310260794 0.903 1.95121730743e-38
0.0117370066599 -0.115693351361 0.906 1.9882806709e-38
0.013413721897 -0.115693351361 0.906 1.86846348649e-38
0.0150904371341 -0.115693351361 0.906 2.01597271077e-38
0.0167671523712 -0.115693351361 0.906 1.9976392427e-38
0.0184845825479 -0.115948745073 0.908 1.88693638376e-38
0.0201649991431 -0.115948745073 0.908 1.9147377249e-38
0.0218454157384 -0.115948745073 0.908 1.87775339466e-38
0.0235258323337 -0.115948745073 0.908 1.86878438384e-38
0.025261769301 -0.116204138785 0.91 1.82239916259e-38
0.0269458872544 -0.116204138785 0.91 1.84065878223e-38
0.0286300052078 -0.116204138785 0.91 1.86831677054e-38
0.0303141231612 -0.116204138785 0.91 1.78562853037e-38
0.0319982411146 -0.116204138785 0.91 1.79499088567e-38
0.033682359068 -0.116204138785 0.91 1.81353580968e-38
0.0353664770214 -0.116204138785 0.91 1.78555818519e-38
0.0370505949748 -0.116204138785 0.91 1.69365374514e-38
0.038649581691 -0.115948745073 0.908 1.78566230166e-38
0.0403299982863 -0.115948745073 0.908 1.73970868034e-38
0.0420104148815 -0.115948745073 0.908 1.80421044866e-38
0.0436908314768 -0.115948745073 0.908 1.7211650175e-38
0.0453712480721 -0.115948745073 0.908 1.721056557e-38
0.0470516646673 -0.115948745073 0.908 1.74868245558e-38
0.0486247418765 -0.115693351361 0.906 1.70243638327e-38
0.0503014571137 -0.115693351361 0.906 1.70251149287e-38
0.0519781723508 -0.115693351361 0.906 1.76712060064e-38
0.0536548875879 -0.115693351361 0.906 1.66581302751e-38
0.0551483855971 -0.115310260794 0.903 1.64722998819e-38
0.056819548797 -0.115310260794 0.903 1.51812205483e-38
0.00167116319991 -0.113639097594 0.903 2.34909568755e-38
0.00333492368355 -0.113387405241 0.901 2.34867403684e-38
0.00500238552532 -0.113387405241 0.901 2.02497395145e-38
0.00668465279965 -0.113639097594 0.903 1.94217725078e-38
0.00835581599956 -0.113639097594 0.903 1.96080050737e-38
0.0100269791995 -0.113639097594 0.903 1.93292826052e-38
0.0117370066599 -0.114016636124 0.906 1.95140466104e-38
0.013413721897 -0.114016636124 0.906 1.9790967009e-38
0.0150904371341 -0.114016636124 0.906 1.98831402181e-38
0.0167671523712 -0.114016636124 0.906 1.91463234726e-38
0.0184845825479 -0.114268328478 0.908 1.86835656742e-38
0.0201649991431 -0.114268328478 0.908 1.88671932262e-38
0.0218454157384 -0.114268328478 0.908 1.85924238208e-38
0.0235258323337 -0.114268328478 0.908 1.8318723606e-38
0.025261769301 -0.114520020831 0.91 1.85005785155e-38
0.0269458872544 -0.114520020831 0.91 1.87771808194e-38
0.0286300052078 -0.114520020831 0.91 1.82236188805e-38
0.0303141231612 -0.114520020831 0.91 1.85924182156e-38
0.0319982411146 -0.114520020831 0.91 1.81304073093e-38
0.033682359068 -0.114520020831 0.91 1.82232685559e-38
0.0353664770214 -0.114520020831 0.91 1.77640924764e-38
0.0370505949748 -0.114520020831 0.91 1.84098122101e-38
0.0387347129282 -0.114520020831 0.91 1.78551922909e-38
0.0404188308816 -0.114520020831 0.91 1.78555468194e-38
0.042102948835 -0.114520020831 0.91 1.77623086235e-38
0.0436908314768 -0.114268328478 0.908 1.75793312739e-38
0.0453712480721 -0.114268328478 0.908 1.74878783322e-38
0.0470516646673 -0.114268328478 0.908 1.75786376312e-38
0.0486247418765 -0.114016636124 0.906 1.72084299912e-38
0.0503014571137 -0.114016636124 0.906 1.71162343613e-38
0.0519781723508 -0.114016636124 0.906 1.70258239857e-38
0.0536548875879 -0.114016636124 0.906 1.66588295231e-38
0.0551483855971 -0.113639097594 0.903 1.65666338932e-38
0.056819548797 -0.113639097594 0.903 1.61978737945e-38
0.058490711997 -0.113639097594 0.903 1.62893533609e-38
0.0601618751969 -0.113639097594 0.903 1.56447000154e-38
0.0 -0.111967934394 0.903 2.34895864056e-38
0.00167116319991 -0.111967934394 0.903 2.34856641712e-38
0.00333492368355 -0.111719943399 0.901 1.93249638034e-38
0.00500238552532 -0.111719943399 0.901 1.96050917742e-38
0.00668465279965 -0.111967934394 0.903 2.01633424577e-38
0.00835581599956 -0.111967934394 0.903 1.9331436401e-38
0.0100269791995 -0.111967934394 0.903 2.01593992038e-38
0.0117370066599 -0.112339920887 0.906 1.90534370025e-38
0.013413721897 -0.112339920887 0.906 1.96047778833e-38
0.0150904371341 -0.112339920887 0.906 1.9973861682e-38
0.0167671523712 -0.112339920887 0.906 1.94232564829e-38
0.0184845825479 -0.112587911883 0.908 1.84076752299e-38
0.0201649991431 -0.112587911883 0.908 1.88671722068e-38
0.0218935333942 -0.112835902878 0.91 1.90537354791e-38
0.0235776513476 -0.112835902878 0.91 1.89636880398e-38
0.025261769301 -0.112835902878 0.91 1.86863738763e-38
0.0269458872544 -0.112835902878 0.91 1.75757705745e-38
0.0286300052078 -0.112835902878 0.91 1.90523131612e-38
0.0303141231612 -0.112835902878 0.91 1.75761265043e-38
0.0319982411146 -0.112835902878 0.91 1.8590593725e-38
0.0337933998122 -0.113207889371 0.913 1.75789753441e-38
0.0354830698028 -0.113207889371 0.913 1.72094697546e-38
0.0371727397934 -0.113207889371 0.913 1.79437949915e-38
0.038862409784 -0.113207889371 0.913 1.75750180772e-38
0.0405520797746 -0.113207889371 0.913 1.7300587786e-38
0.042102948835 -0.112835902878 0.91 1.86857278777e-38
0.0436908314768 -0.112587911883 0.908 1.74871328414e-38
0.0453712480721 -0.112587911883 0.908 1.6932173808e-38
0.0470516646673 -0.112587911883 0.908 1.69325283365e-38
0.0487320812626 -0.112587911883 0.908 1.76704843377e-38
0.0503014571137 -0.112339920887 0.906 1.77637421518e-38
0.0519781723508 -0.112339920887 0.906 1.67477923574e-38
0.0536548875879 -0.112339920887 0.906 1.65641143586e-38
0.055331602825 -0.112339920887 0.906 1.61038564767e-38
0.056819548797 -0.111967934394 0.903 1.59248840381e-38
0.0583611644621 -0.111719943399 0.901 1.52766377633e-38
0.0598287529643 -0.111347956906 0.898 1.58297975295e-38
0.0614906627689 -0.111347956906 0.898 1.46316186789e-38
-0.00166746184177 -0.110052481557 0.901 2.34913786663e-38
0.0 -0.110052481557 0.901 2.34892416862e-38
0.00167116319991 -0.110296771194 0.903 2.05256187484e-38
0.00334232639983 -0.110296771194 0.903 1.99745791468e-38
0.00501348959974 -0.110296771194 0.903 2.03455701126e-38
0.00670686094849 -0.11066320565 0.906 1.99771701476e-38
0.00838357618561 -0.11066320565 0.906 1.96991987752e-38
0.0100602914227 -0.11066320565 0.906 1.99746548169e-38
0.0117370066599 -0.11066320565 0.906 1.93307077258e-38
0.013413721897 -0.11066320565 0.906 1.9605499552e-38
0.0151237493574 -0.110907495287 0.908 1.94221816869e-38
0.0168041659526 -0.110907495287 0.908 1.88683240741e-38
0.0184845825479 -0.110907495287 0.908 1.88693666402e-38
0.0202094154408 -0.111151784924 0.91 1.95147080232e-38
0.0218935333942 -0.111151784924 0.91 1.8777183622e-38
0.0235776513476 -0.111151784924 0.91 1.79459529911e-38
0.0253450498591 -0.11151821938 0.913 1.84069185288e-38
0.0270347198498 -0.11151821938 0.913 1.77627009871e-38
0.0287243898404 -0.11151821938 0.913 1.85909748782e-38
0.030414059831 -0.11151821938 0.913 1.78527302095e-38
0.0321037298216 -0.11151821938 0.913 1.80403066206e-38
0.0337933998122 -0.11151821938 0.913 1.75786222169e-38
0.0354830698028 -0.11151821938 0.913 1.88711364801e-38
0.0371727397934 -0.11151821938 0.913 1.79455886535e-38
0.038862409784 -0.11151821938 0.913 1.74832050019e-38
0.0405520797746 -0.11151821938 0.913 1.75786054013e-38
0.0422417497652 -0.11151821938 0.913 1.68414257195e-38
0.0437870667884 -0.111151784924 0.91 1.73920645497e-38
0.0454711847418 -0.111151784924 0.91 1.76693885223e-38
0.0470516646673 -0.110907495287 0.908 1.81325176648e-38
0.0487320812626 -0.110907495287 0.908 1.84116254903e-38
0.0504124978578 -0.110907495287 0.908 1.55489114562e-38
0.0519781723508 -0.11066320565 0.906 1.68388991783e-38
0.0536548875879 -0.11066320565 0.906 1.79466858702e-38
0.055331602825 -0.11066320565 0.906 1.59191233001e-38
0.056819548797 -0.110296771194 0.903 1.60163579993e-38
0.0583611644621 -0.110052481557 0.901 1.61071229034e-38
0.0598287529643 -0.109686047101 0.898 1.49089720787e-38
0.0613537125177 -0.109441757464 0.896 1.60130971777e-38
0.0630119209642 -0.109441757464 0.896 1.41699300713e-38
0.0646701294106 -0.109441757464 0.896 1.56464726579e-38
-0.00333492368355 -0.108385019715 0.901 2.23793768687e-38
-0.00166746184177 -0.108385019715 0.901 2.34921157493e-38
0.0 -0.108385019715 0.901 2.19085924327e-38
0.00166746184177 -0.108385019715 0.901 2.05270270533e-38
0.00334232639983 -0.108625607994 0.903 1.95147486609e-38
0.00501348959974 -0.108625607994 0.903 2.15416049766e-38
0.00670686094849 -0.108986490413 0.906 2.00682699621e-38
0.00838357618561 -0.108986490413 0.906 1.95136794702e-38
0.0100602914227 -0.108986490413 0.906 1.9512950795e-38
0.0117370066599 -0.108986490413 0.906 1.96069288765e-38
0.0134433327621 -0.109227078692 0.908 1.95133011196e-38
0.0151237493574 -0.109227078692 0.908 1.88682820352e-38
0.016841179534 -0.109467666971 0.91 1.90526789001e-38
0.0185863698967 -0.10982854939 0.913 1.85002113753e-38
0.0202760398873 -0.10982854939 0.913 1.88689658688e-38
0.0220138275337 -0.110069137669 0.915 1.83158004974e-38
0.0237071988825 -0.110069137669 0.915 1.83165179622e-38
0.0254005702312 -0.110069137669 0.915 1.76729520243e-38
0.02709394158 -0.110069137669 0.915 1.73023828493e-38
0.0287873129287 -0.110069137669 0.915 1.79452299211e-38
0.0304806842775 -0.110069137669 0.915 1.76704451014e-38
0.0321740556262 -0.110069137669 0.915 1.73938778299e-38
0.0339784677192 -0.110430020087 0.918 1.64730033337e-38
0.0356773911051 -0.110430020087 0.918 1.82257586633e-38
0.0372541696725 -0.110069137669 0.915 1.71183517233e-38
0.0389475410212 -0.110069137669 0.915 1.71176398637e-38
0.04064091237 -0.110069137669 0.915 1.67492160766e-38
0.0422417497652 -0.10982854939 0.913 1.68414103052e-38
0.0439314197559 -0.10982854939 0.913 1.70250812975e-38
0.0454711847418 -0.109467666971 0.91 1.71172755261e-38
0.0470516646673 -0.109227078692 0.908 1.66570218481e-38
0.0487320812626 -0.109227078692 0.908 1.65644688871e-38
0.0504124978578 -0.109227078692 0.908 1.70236505718e-38
0.0519781723508 -0.108986490413 0.906 1.64722746585e-38
0.0536548875879 -0.108986490413 0.906 1.69314577445e-38
0.055331602825 -0.108986490413 0.906 1.70240191133e-38
0.056819548797 -0.108625607994 0.903 1.58291136959e-38
0.058490711997 -0.108625607994 0.903 1.61049368778e-38
0.0600286263038 -0.108385019715 0.901 1.53670243169e-38
0.0613537125177 -0.107783549018 0.896 1.56446789959e-38
0.0630119209642 -0.107783549018 0.896 1.52773468203e-38
0.0646701294106 -0.107783549018 0.896 1.41699300713e-38
0.066328337857 -0.107783549018 0.896 1.49035378433e-38
-0.00332381960913 -0.106362227492 0.898 2.34928640427e-38
-0.00166190980456 -0.106362227492 0.898 2.30207231498e-38
0.0 -0.106717557874 0.901 1.92305681349e-38
0.00166746184177 -0.106717557874 0.901 2.08061881282e-38
0.00334232639983 -0.106954444794 0.903 2.02530213555e-38
0.00501348959974 -0.106954444794 0.903 1.98824143455e-38
0.00670686094849 -0.107309775176 0.906 2.01590208532e-38
0.00838357618561 -0.107309775176 0.906 1.99739093261e-38
0.0100824995716 -0.107546662097 0.908 2.02505004196e-38
0.0117629161668 -0.107546662097 0.908 1.95122291263e-38
0.0134433327621 -0.107546662097 0.908 2.02508913819e-38
0.0151570615806 -0.107783549018 0.91 1.87753703418e-38
0.016841179534 -0.107783549018 0.91 1.90537354791e-38
0.0185863698967 -0.108138879399 0.913 1.90530264221e-38
0.020320456185 -0.10837576632 0.915 1.79456054691e-38
0.0220138275337 -0.10837576632 0.915 1.84059025874e-38
0.0237071988825 -0.10837576632 0.915 1.7023318464e-38
0.0254005702312 -0.10837576632 0.915 1.77619526937e-38
0.0271827741753 -0.108731096701 0.918 1.70254680559e-38
0.0288816975613 -0.108731096701 0.918 1.7394934409e-38
0.0305806209472 -0.108731096701 0.918 1.75782494715e-38
0.0322795443332 -0.108731096701 0.918 1.7302381448e-38
0.0339784677192 -0.108731096701 0.918 1.77629938584e-38
0.0356773911051 -0.108731096701 0.918 1.70250812975e-38
0.0373763144911 -0.108731096701 0.918 1.73938652183e-38
0.039075237877 -0.108731096701 0.918 1.69332850377e-38
0.040774161263 -0.108731096701 0.918 1.67495832168e-38
0.0423342837187 -0.10837576632 0.915 1.70261743103e-38
0.0440276550675 -0.10837576632 0.915 1.64734111116e-38
0.0456210897465 -0.108138879399 0.913 1.73931589638e-38
0.0473107597371 -0.108138879399 0.913 1.65655801168e-38
0.0488394206486 -0.107783549018 0.91 1.62900385958e-38
0.050523538602 -0.107783549018 0.91 1.65659038167e-38
0.0520929144531 -0.107546662097 0.908 1.61049326739e-38
0.0537733310484 -0.107546662097 0.908 1.62882547429e-38
0.0554537476436 -0.107546662097 0.908 1.61960507052e-38
0.0570083180621 -0.107309775176 0.906 1.60123937259e-38
0.058490711997 -0.106954444794 0.903 1.62878862014e-38
0.0600286263038 -0.106717557874 0.901 1.62868100042e-38
0.0613537125177 -0.106125340571 0.896 1.54606492712e-38
0.0630119209642 -0.106125340571 0.896 1.5276622349e-38
0.0646701294106 -0.106125340571 0.896 1.51847840503e-38
0.066328337857 -0.106125340571 0.896 1.37096904062e-38
0.0679865463034 -0.106125340571 0.896 1.6103857878e-38
-0.00332381960913 -0.104700317688 0.898 2.34924926986e-38
-0.00166190980456 -0.104700317688 0.898 2.07086465447e-38
0.0 -0.105050096032 0.901 2.07093107602e-38
0.00166746184177 -0.105050096032 0.901 1.97916634543e-38
0.00334232639983 -0.105283281595 0.903 1.99749925298e-38
0.00503014571137 -0.105633059939 0.906 2.01590208532e-38
0.00670686094849 -0.105633059939 0.906 2.01593557636e-38
0.00840208297631 -0.105866245501 0.908 1.98813451547e-38
0.0100824995716 -0.105866245501 0.908 2.01565027199e-38
0.0117629161668 -0.105866245501 0.908 1.94200166808e-38
0.0134729436272 -0.106099431064 0.91 1.8960130143e-38
0.0151570615806 -0.106099431064 0.91 1.84055088225e-38
0.0168966999061 -0.106449209408 0.913 1.85920314572e-38
0.0186270848362 -0.106682394971 0.915 1.757611109e-38
0.020320456185 -0.106682394971 0.915 1.80377982964e-38
0.0220138275337 -0.106682394971 0.915 1.7761940082e-38
0.0237849274034 -0.107032173315 0.918 1.73949372116e-38
0.0254838507894 -0.107032173315 0.918 1.73013290729e-38
0.0271827741753 -0.107032173315 0.918 1.72105459519e-38
0.0288816975613 -0.107032173315 0.918 1.69343248012e-38
0.0305806209472 -0.107032173315 0.918 1.63790042327e-38
0.0323498701378 -0.107265358878 0.92 1.71158518068e-38
0.0340524948819 -0.107265358878 0.92 1.67474224146e-38
0.035755119626 -0.107265358878 0.92 1.74849762431e-38
0.0374577443701 -0.107265358878 0.92 1.6934680731e-38
0.0391603691142 -0.107265358878 0.92 1.61967681701e-38
0.040774161263 -0.107032173315 0.918 1.65641171612e-38
0.042473084649 -0.107032173315 0.918 1.63815461882e-38
0.0440276550675 -0.106682394971 0.915 1.65655675051e-38
0.0457210264162 -0.106682394971 0.915 1.67470650835e-38
0.0473107597371 -0.106449209408 0.913 1.66570218481e-38
0.0490004297277 -0.106449209408 0.913 1.61056501387e-38
0.050523538602 -0.106099431064 0.91 1.60123937259e-38
0.0522076565554 -0.106099431064 0.91 1.72116767997e-38
0.0538917745088 -0.106099431064 0.91 1.56446972128e-38
0.0554537476436 -0.105866245501 0.908 1.684212777e-38
0.0571341642389 -0.105866245501 0.908 1.57354382948e-38
0.0586850332993 -0.105633059939 0.906 1.6102421547e-38
0.0601618751969 -0.105283281595 0.903 1.56414602133e-38
0.0614906627689 -0.104700317688 0.898 1.54617254684e-38
0.0630119209642 -0.104467132125 0.896 1.51855015151e-38
0.0646701294106 -0.104467132125 0.896 1.49099950266e-38
0.0661802835314 -0.104233946562 0.894 1.43543185284e-38
0.0678347906197 -0.104233946562 0.894 1.38018832335e-38
0.069489297708 -0.104233946562 0.894 2.09874376768e-38
-0.00497462533928 -0.102808923678 0.896 2.34874760501e-38
-0.00331641689285 -0.102808923678 0.896 2.34856249348e-38
-0.00166190980456 -0.103038407883 0.898 2.03394744643e-38
0.0 -0.103038407883 0.898 1.99742834728e-38
0.00166746184177 -0.10338263419 0.901 2.01608243244e-38
0.00334232639983 -0.103612118395 0.903 2.01583047897e-38
0.00503014571137 -0.103956344702 0.906 1.9697329443e-38
0.00670686094849 -0.103956344702 0.906 1.99731876574e-38
0.00840208297631 -0.104185828906 0.908 1.96062002013e-38
0.0100824995716 -0.104185828906 0.908 1.89579651369e-38
0.0117888256738 -0.104415313111 0.91 1.85917021521e-38
0.0134729436272 -0.104415313111 0.91 1.87775157297e-38
0.0152070299155 -0.104759539418 0.913 1.77608835029e-38
0.0169337134875 -0.104989023622 0.915 1.81303484548e-38
0.0186270848362 -0.104989023622 0.915 1.85005560947e-38
0.0203870806315 -0.105333249929 0.918 1.71183517233e-38
0.0220860040175 -0.105333249929 0.918 1.72098396974e-38
0.0237849274034 -0.105333249929 0.918 1.6287903017e-38
0.0254838507894 -0.105333249929 0.918 1.78537531574e-38
0.0271827741753 -0.105333249929 0.918 1.63797216976e-38
0.0289446206497 -0.105562734134 0.92 1.64715571937e-38
0.0306472453938 -0.105562734134 0.92 1.64722746585e-38
0.0324553588448 -0.105906960441 0.923 1.62886036662e-38
0.0341635356261 -0.105906960441 0.923 1.65648276195e-38
0.0358717124074 -0.105906960441 0.923 1.63811566272e-38
0.0374577443701 -0.105562734134 0.92 1.62878862014e-38
0.0391603691142 -0.105562734134 0.92 1.6381874092e-38
0.0408629938583 -0.105562734134 0.92 1.63808049013e-38
0.042473084649 -0.105333249929 0.918 1.50893780456e-38
0.0440276550675 -0.104989023622 0.915 1.62900512075e-38
0.0457210264162 -0.104989023622 0.915 1.62868100042e-38
0.0473107597371 -0.104759539418 0.913 1.61034977443e-38
0.0490004297277 -0.104759539418 0.913 1.62868100042e-38
0.050523538602 -0.104415313111 0.91 1.59201854844e-38
0.0522076565554 -0.104415313111 0.91 1.54584968767e-38
0.0538917745088 -0.104415313111 0.91 1.54599318063e-38
0.0554537476436 -0.104185828906 0.908 1.53677375778e-38
0.0571341642389 -0.104185828906 0.908 1.58265563262e-38
0.0586850332993 -0.103956344702 0.906 1.58276325234e-38
0.0601618751969 -0.103612118395 0.903 1.54581955975e-38
0.0614906627689 -0.103038407883 0.898 1.50926276568e-38
0.0630119209642 -0.102808923678 0.896 1.46316789347e-38
0.0646701294106 -0.102808923678 0.896 1.53716934433e-38
0.0661802835314 -0.102579439474 0.894 1.46319774113e-38
0.0678347906197 -0.102579439474 0.894 1.27884515724e-38
0.069489297708 -0.102579439474 0.894 1.70254834702e-38
-0.00661802835314 -0.100924932385 0.894 2.34961500876e-38
-0.00496352126486 -0.100924932385 0.894 2.34921185519e-38
-0.00331641689285 -0.101150715232 0.896 2.20994927238e-38
-0.00166190980456 -0.101376498078 0.898 2.03401554953e-38
0.0 -0.101376498078 0.898 2.01590460766e-38
0.00166746184177 -0.101715172348 0.901 2.10809799545e-38
0.00334232639983 -0.101940955195 0.903 1.99731876574e-38
0.00503014571137 -0.102279629464 0.906 2.08979927958e-38
0.00672166638105 -0.102505412311 0.908 1.96058470741e-38
0.00840208297631 -0.102505412311 0.908 1.90508810341e-38
0.0101047077204 -0.102731195157 0.91 1.87746500744e-38
0.0117888256738 -0.102731195157 0.91 1.88679162963e-38
0.0135173599249 -0.103069869427 0.913 1.81306973781e-38
0.0152403421387 -0.103295652274 0.915 1.77630064701e-38
0.0169337134875 -0.103295652274 0.915 1.74871328414e-38
0.0186881572455 -0.103634326543 0.918 1.72098368948e-38
0.0203870806315 -0.103634326543 0.918 1.73016695884e-38
0.0220860040175 -0.103634326543 0.918 1.601059586e-38
0.0238367464174 -0.10386010939 0.92 1.65641171612e-38
0.0255393711615 -0.10386010939 0.92 1.60120209805e-38
0.0272419959056 -0.10386010939 0.92 1.63786455003e-38
0.0290390052822 -0.10419878366 0.923 1.64719159261e-38
0.0307471820635 -0.10419878366 0.923 1.68424865024e-38
0.0325256846495 -0.104424566506 0.925 1.62904225516e-38
0.0342375627889 -0.104424566506 0.925 1.59219791464e-38
0.0359494409284 -0.104424566506 0.925 1.5829067453e-38
0.0375798891887 -0.10419878366 0.923 1.59209029492e-38
0.03928806597 -0.10419878366 0.923 1.56436056013e-38
0.0408629938583 -0.10386010939 0.92 1.61038634832e-38
0.042473084649 -0.103634326543 0.918 1.52745175987e-38
0.0441720080349 -0.103634326543 0.918 1.58283499882e-38
0.0457210264162 -0.103295652274 0.915 1.55510498377e-38
0.047414397765 -0.103295652274 0.915 1.57357970272e-38
0.0491077691137 -0.103295652274 0.915 1.61964094376e-38
0.0506900997183 -0.103069869427 0.913 1.52748258844e-38
0.0523797697089 -0.103069869427 0.913 1.56461139255e-38
0.0538917745088 -0.102731195157 0.91 1.50936660189e-38
0.0555758924622 -0.102731195157 0.91 1.55539196969e-38
0.0572600104156 -0.102731195157 0.91 1.50007543256e-38
0.0588145808341 -0.102505412311 0.908 1.53680963102e-38
0.0603617485364 -0.102279629464 0.906 1.50925898217e-38
0.0614906627689 -0.101376498078 0.898 1.49074853011e-38
0.0631525725735 -0.101376498078 0.898 1.48163658684e-38
0.0646701294106 -0.101150715232 0.896 1.49082013646e-38
0.0661802835314 -0.100924932385 0.894 1.48156484036e-38
0.0678347906197 -0.100924932385 0.894 1.34345328411e-38
0.069489297708 -0.100924932385 0.894 1.44468770945e-38
0.0711438047963 -0.100924932385 0.894 2.32026537294e-38
-0.00661802835314 -0.0992704252972 0.894 2.34932648141e-38
-0.00496352126486 -0.0992704252972 0.894 2.34870878904e-38
-0.00330901417657 -0.0992704252972 0.894 2.08984005737e-38
-0.00166190980456 -0.0997145882739 0.898 2.20918318251e-38
0.0 -0.0997145882739 0.898 2.02512417065e-38
0.00166746184177 -0.100047710506 0.901 1.99738911092e-38
0.00334232639983 -0.100269791995 0.903 2.03419673743e-38
0.00504124978578 -0.100824995716 0.908 1.96058470741e-38
0.0067364718136 -0.101047077204 0.91 1.96079854555e-38
0.008420589767 -0.101047077204 0.91 1.84051556953e-38
0.0101380199437 -0.101380199437 0.913 1.87735528577e-38
0.0118276899343 -0.101380199437 0.913 1.90537354791e-38
0.01354697079 -0.101602280925 0.915 1.82218280211e-38
0.0152403421387 -0.101602280925 0.915 1.73027401804e-38
0.0169892338596 -0.101935403157 0.918 1.69314731588e-38
0.0186881572455 -0.101935403157 0.918 1.72105683726e-38
0.0203870806315 -0.101935403157 0.918 1.63786497042e-38
0.0220860040175 -0.101935403157 0.918 1.61949871197e-38
0.0238367464174 -0.102157484646 0.92 1.61967681701e-38
0.0255393711615 -0.102157484646 0.92 1.56443202635e-38
0.0273308285009 -0.102490606878 0.923 1.59183918223e-38
0.0290390052822 -0.102490606878 0.923 1.56428853338e-38
0.03081380651 -0.102712688367 0.925 1.54592143415e-38
0.0325256846495 -0.102712688367 0.925 1.54592143415e-38
0.0342375627889 -0.102712688367 0.925 1.53677375778e-38
0.0359494409284 -0.102712688367 0.925 1.60138146425e-38
0.0376613190678 -0.102712688367 0.925 1.50911548921e-38
0.0393731972073 -0.102712688367 0.925 1.53666739922e-38
0.0409962427514 -0.102490606878 0.923 1.52773412151e-38
0.042473084649 -0.101935403157 0.918 1.50021892552e-38
0.0441720080349 -0.101935403157 0.918 1.55549958942e-38
0.0458709314209 -0.101935403157 0.918 1.49082013646e-38
0.0475698548068 -0.101935403157 0.918 1.49078426322e-38
0.0491077691137 -0.101602280925 0.915 1.54584968767e-38
0.0508011404625 -0.101602280925 0.915 1.49996781283e-38
0.0524945118112 -0.101602280925 0.915 1.49092775618e-38
0.0540694396995 -0.101380199437 0.913 1.45390657179e-38
0.0557591096901 -0.101380199437 0.913 1.4816007136e-38
0.0572600104156 -0.101047077204 0.91 1.46316186789e-38
0.0588145808341 -0.100824995716 0.908 1.49078426322e-38
0.0603617485364 -0.100602914227 0.906 1.52741084196e-38
0.0616960881456 -0.100047710506 0.901 1.45380217506e-38
0.0631525725735 -0.0997145882739 0.898 1.49082013646e-38
0.0646701294106 -0.0994925067855 0.896 1.46305424817e-38
0.066328337857 -0.0994925067855 0.896 1.47230954426e-38
0.0678347906197 -0.0992704252972 0.894 1.40788120399e-38
0.069489297708 -0.0992704252972 0.894 1.21420157752e-38
0.0711438047963 -0.0992704252972 0.894 2.13611471616e-38
0.0727983118846 -0.0992704252972 0.894 2.34950836995e-38
-0.00659582020431 -0.0972883480135 0.891 2.33981755029e-38
-0.00494686515323 -0.0972883480135 0.891 2.34902968639e-38
-0.00329791010215 -0.0972883480135 0.891 2.03459610749e-38
-0.00165820844643 -0.0978342983391 0.896 2.16290586124e-38
0.0 -0.0980526784693 0.898 2.02508689611e-38
0.00166746184177 -0.0983802486646 0.901 2.03444714946e-38
0.00335343047424 -0.0989261989902 0.906 2.01586523117e-38
0.00504124978578 -0.0991445791204 0.908 1.96984014363e-38
0.0067364718136 -0.0993629592506 0.91 1.91462814336e-38
0.00844834995305 -0.099690529446 0.913 1.91459255038e-38
0.0101380199437 -0.099690529446 0.913 1.8316164835e-38
0.0118535994412 -0.0999089095762 0.915 1.71169167937e-38
0.0135913870877 -0.100236479772 0.918 1.74839252693e-38
0.0152903104736 -0.100236479772 0.918 1.62864512718e-38
0.0169892338596 -0.100236479772 0.918 1.66545107212e-38
0.0187288721851 -0.100454859902 0.92 1.79477522584e-38
0.0204314969292 -0.100454859902 0.92 1.56428853338e-38
0.0221341216733 -0.100454859902 0.92 1.59201854844e-38
0.0238367464174 -0.100454859902 0.92 1.55528434997e-38
0.0256226517196 -0.100782430097 0.923 1.54602905388e-38
0.0273308285009 -0.100782430097 0.923 1.52755433492e-38
0.0291019283706 -0.101000810227 0.925 1.54588556091e-38
0.03081380651 -0.101000810227 0.925 1.56457551931e-38
0.0325256846495 -0.101000810227 0.925 1.49082279893e-38
0.0342375627889 -0.101000810227 0.925 1.48127953599e-38
0.0359494409284 -0.101000810227 0.925 1.55510498377e-38
0.0376613190678 -0.101000810227 0.925 1.49053315053e-38
0.0393731972073 -0.101000810227 0.925 1.53684550426e-38
0.0409962427514 -0.100782430097 0.923 1.39876940086e-38
0.0427044195327 -0.100782430097 0.923 1.49099950266e-38
0.0442682433465 -0.100454859902 0.92 1.43571883876e-38
0.0459708680906 -0.100454859902 0.92 1.49092873709e-38
0.0475698548068 -0.100236479772 0.918 1.4263562032e-38
0.0492687781928 -0.100236479772 0.918 1.51844253179e-38
0.0508011404625 -0.0999089095762 0.915 1.43568296552e-38
0.0524945118112 -0.0999089095762 0.915 1.48167246008e-38
0.05418788316 -0.0999089095762 0.915 1.40781183972e-38
0.0557591096901 -0.099690529446 0.913 1.47230954426e-38
0.0574487796807 -0.099690529446 0.913 1.42628417646e-38
0.0588145808341 -0.0991445791204 0.908 1.44468714894e-38
0.0603617485364 -0.0989261989902 0.906 1.47223779778e-38
0.0616960881456 -0.0983802486646 0.901 1.46301837493e-38
0.0631525725735 -0.0980526784693 0.898 1.47227367102e-38
0.064814482378 -0.0980526784693 0.898 1.51844701594e-38
0.066328337857 -0.0978342983391 0.896 1.41710062685e-38
0.0679865463034 -0.0978342983391 0.896 1.42621425167e-38
0.069489297708 -0.0976159182089 0.894 1.28802870686e-38
0.0709050671963 -0.0972883480135 0.891 2.00686230893e-38
0.0725540222474 -0.0972883480135 0.891 2.34935492777e-38
-0.00659582020431 -0.0956393929625 0.891 2.34907536872e-38
-0.00494686515323 -0.0956393929625 0.891 2.34910507625e-38
-0.00329791010215 -0.0956393929625 0.891 1.92367184339e-38
-0.00165820844643 -0.0961760898927 0.896 2.10755723437e-38
0.0 -0.0963907686647 0.898 2.08973145673e-38
0.00166746184177 -0.0967127868229 0.901 2.00696642541e-38
0.00335343047424 -0.0972494837531 0.906 1.95136542468e-38
0.00504124978578 -0.0974641625252 0.908 1.94196635536e-38
0.00675867996244 -0.0980008594554 0.913 1.80388590793e-38
0.00844834995305 -0.0980008594554 0.913 1.75768397652e-38
0.0101602280925 -0.0982155382274 0.915 1.7670447904e-38
0.0118535994412 -0.0982155382274 0.915 1.73917156264e-38
0.0135913870877 -0.0985375563856 0.918 1.70236659861e-38
0.0153236226969 -0.0987522351576 0.92 1.68414103052e-38
0.017026247441 -0.0987522351576 0.92 1.57354481039e-38
0.0187288721851 -0.0987522351576 0.92 1.67510153439e-38
0.0204981213757 -0.0990742533158 0.923 1.60142056048e-38
0.022206298157 -0.0990742533158 0.923 1.47245303723e-38
0.0239144749383 -0.0990742533158 0.923 1.50918723569e-38
0.0256781720917 -0.0992889320879 0.925 1.49982431987e-38
0.0273900502311 -0.0992889320879 0.925 1.53684550426e-38
0.0291019283706 -0.0992889320879 0.925 1.54620842008e-38
0.03081380651 -0.0992889320879 0.925 1.45394244503e-38
0.0325256846495 -0.0992889320879 0.925 1.39873352762e-38
0.0342375627889 -0.0992889320879 0.925 1.42646354267e-38
0.0359494409284 -0.0992889320879 0.925 1.43553947256e-38
0.0376613190678 -0.0992889320879 0.925 1.4353959796e-38
0.0393731972073 -0.0992889320879 0.925 1.49071251674e-38
0.0410850753467 -0.0992889320879 0.925 1.46319774113e-38
0.0427969534861 -0.0992889320879 0.925 1.40788428685e-38
0.044412596314 -0.0990742533158 0.923 1.41724411981e-38
0.0461207730953 -0.0990742533158 0.923 1.41724411981e-38
0.0478289498766 -0.0990742533158 0.923 1.42632117074e-38
0.0492687781928 -0.0985375563856 0.918 1.45397831827e-38
0.0509677015787 -0.0985375563856 0.918 1.42628417646e-38
0.0526666249647 -0.0985375563856 0.918 1.47241716399e-38
0.0543655483507 -0.0985375563856 0.918 1.42621242998e-38
0.0558812545087 -0.0982155382274 0.915 1.42610481026e-38
0.0574487796807 -0.0980008594554 0.913 1.48156624166e-38
0.058944128369 -0.0976788412972 0.91 1.41724411981e-38
0.0604949974294 -0.0974641625252 0.908 1.41702888037e-38
0.0618330383968 -0.096927465595 0.903 1.49082013646e-38
0.0633635499874 -0.0967127868229 0.901 1.43553947256e-38
0.064814482378 -0.0963907686647 0.898 1.41695713388e-38
0.066328337857 -0.0961760898927 0.896 1.42624830322e-38
0.0678347906197 -0.0959614111206 0.894 1.41702930076e-38
0.069489297708 -0.0959614111206 0.894 1.14055381439e-38
0.0707459087963 -0.0954247141904 0.889 2.08047433895e-38
0.0723911624893 -0.0954247141904 0.889 2.34935730997e-38
0.0740364161822 -0.0954247141904 0.889 2.3507331048e-38
-0.00498572941369 -0.0947288588602 0.898 2.34874690436e-38
-0.00332381960913 -0.0947288588602 0.898 1.99775232748e-38
-0.00166190980456 -0.0947288588602 0.898 2.0522377545e-38
0.0 -0.0950453249811 0.901 2.03437652402e-38
0.00167116319991 -0.095256302395 0.903 1.9422848705e-38
0.00335343047424 -0.095572768516 0.906 1.90544781673e-38
0.0050523538602 -0.0959947233438 0.91 1.85920552793e-38
0.00675867996244 -0.0963111894648 0.913 1.93310244192e-38
0.00846685674374 -0.0965221668787 0.915 1.7762996661e-38
0.0101602280925 -0.0965221668787 0.915 1.73030989128e-38
0.0118924637017 -0.0968386329996 0.918 1.69332556104e-38
0.0135913870877 -0.0968386329996 0.918 1.647192013e-38
0.0153236226969 -0.0970496104135 0.92 1.63804489715e-38
0.017026247441 -0.0970496104135 0.92 1.60130971777e-38
0.0187288721851 -0.0970496104135 0.92 1.49993193959e-38
0.0204981213757 -0.0973660765345 0.923 1.53659439157e-38
0.0222544158128 -0.0975770539484 0.925 1.42642766943e-38
0.0239662939522 -0.0975770539484 0.925 1.46319774113e-38
0.0256781720917 -0.0975770539484 0.925 1.48138645507e-38
0.0273900502311 -0.0975770539484 0.925 1.43536108727e-38
0.0291019283706 -0.0975770539484 0.925 1.50929485541e-38
0.0309137431798 -0.0978935200693 0.928 1.43550359932e-38
0.0325256846495 -0.0975770539484 0.925 1.33412582114e-38
0.0342375627889 -0.0975770539484 0.925 1.40813231668e-38
0.0359494409284 -0.0975770539484 0.925 1.43571883876e-38
0.0376613190678 -0.0975770539484 0.925 1.43550359932e-38
0.0393731972073 -0.0975770539484 0.925 1.3801153157e-38
0.0410850753467 -0.0975770539484 0.925 1.45394244503e-38
0.0427969534861 -0.0975770539484 0.925 1.43571883876e-38
0.0445088316256 -0.0975770539484 0.925 1.34366810316e-38
0.046220709765 -0.0975770539484 0.925 1.38958585124e-38
0.0479325879045 -0.0975770539484 0.925 1.39869765438e-38
0.0493761175788 -0.0970496104135 0.92 1.41695713388e-38
0.0510787423229 -0.0970496104135 0.92 1.40773771103e-38
0.0526666249647 -0.0968386329996 0.918 1.43532423312e-38
0.0543655483507 -0.0968386329996 0.918 1.41695713388e-38
0.0558812545087 -0.0965221668787 0.915 1.39855416141e-38
0.0575746258575 -0.0965221668787 0.915 1.45387097881e-38
0.058944128369 -0.0959947233438 0.91 1.38025880866e-38
0.0604949974294 -0.0957837459299 0.908 1.47245303723e-38
0.0618330383968 -0.095256302395 0.903 1.33416463711e-38
0.0633635499874 -0.0950453249811 0.901 1.44472302218e-38
0.064814482378 -0.0947288588602 0.898 1.39862590789e-38
0.066328337857 -0.0945178814462 0.896 1.41713650009e-38
0.0678347906197 -0.0943069040323 0.894 1.38025894879e-38
0.0692561121452 -0.0939904379114 0.891 1.19583447829e-38
0.0707459087963 -0.0937794604974 0.889 2.08022827094e-38
0.0723911624893 -0.0937794604974 0.889 2.3493922023e-38
-0.00498572941369 -0.0930669490556 0.898 2.34817181147e-38
-0.00332381960913 -0.0930669490556 0.898 2.34849200817e-38
-0.00166190980456 -0.0930669490556 0.898 1.98762864673e-38
0.0 -0.0933778631393 0.901 2.01583047897e-38
0.00167116319991 -0.0935851391951 0.903 1.98831430207e-38
0.00336083319052 -0.0941033293346 0.908 1.88707861555e-38
0.0050523538602 -0.0943106053904 0.91 1.78555594311e-38
0.006773485395 -0.0948287955299 0.915 1.74832050019e-38
0.00846685674374 -0.0948287955299 0.915 1.80392178117e-38
0.0101935403157 -0.0951397096136 0.918 1.68435626996e-38
0.0118924637017 -0.0951397096136 0.918 1.68428452348e-38
0.0136654142505 -0.0956578997532 0.923 1.57350851676e-38
0.0153735910318 -0.0956578997532 0.923 1.61031390119e-38
0.0170817678131 -0.0956578997532 0.923 1.59194680195e-38
0.0187899445944 -0.0956578997532 0.923 1.54602905388e-38
0.0205425376733 -0.095865175809 0.925 1.46301837493e-38
0.0222544158128 -0.095865175809 0.925 1.45401419151e-38
0.0239662939522 -0.095865175809 0.925 1.46323361437e-38
0.0256781720917 -0.095865175809 0.925 1.42617655674e-38
0.0273900502311 -0.095865175809 0.925 1.39866178113e-38
0.0291963130031 -0.0961760898927 0.928 1.45401419151e-38
0.0309137431798 -0.0961760898927 0.928 1.38033055514e-38
0.0326311733564 -0.0961760898927 0.928 1.44486651514e-38
0.0343486035331 -0.0961760898927 0.928 1.40795463203e-38
0.0359494409284 -0.095865175809 0.925 1.41702888037e-38
0.0376613190678 -0.095865175809 0.925 1.47230954426e-38
0.0393731972073 -0.095865175809 0.925 1.51837442868e-38
0.0410850753467 -0.095865175809 0.925 1.37078827312e-38
0.0427969534861 -0.095865175809 0.925 1.4168853874e-38
0.0445088316256 -0.095865175809 0.925 1.36181996295e-38
0.046220709765 -0.095865175809 0.925 1.37107525905e-38
0.0479325879045 -0.095865175809 0.925 1.36171234323e-38
0.0495371266579 -0.0956578997532 0.923 1.3893706118e-38
0.0512453034392 -0.0956578997532 0.923 1.38929886532e-38
0.0526666249647 -0.0951397096136 0.918 1.39855416141e-38
0.0543655483507 -0.0951397096136 0.918 1.36178408971e-38
0.0560644717366 -0.0951397096136 0.918 1.38947823152e-38
0.0575746258575 -0.0948287955299 0.915 1.36181996295e-38
0.058944128369 -0.0943106053904 0.91 1.38933473856e-38
0.0606282463224 -0.0943106053904 0.91 1.36174821647e-38
0.0621754140247 -0.0941033293346 0.908 1.34341769113e-38
0.0633635499874 -0.0933778631393 0.901 1.38036642838e-38
0.064814482378 -0.0930669490556 0.898 1.3988052741e-38
0.066328337857 -0.0928596729998 0.896 1.38019014504e-38
0.0678347906197 -0.092652396944 0.894 1.41710062685e-38
0.0692561121452 -0.0923414828603 0.891 1.09424146067e-38
0.0709050671963 -0.0923414828603 0.891 2.26479749557e-38
-0.00335343047424 -0.0922193380417 0.906 2.34989709014e-38
-0.00167671523712 -0.0922193380417 0.906 1.95093788852e-38
0.0 -0.0922193380417 0.906 1.88686071364e-38
0.00167671523712 -0.0922193380417 0.906 1.96072820037e-38
0.00336083319052 -0.0924229127394 0.908 1.96994496076e-38
0.00506900997183 -0.0929318494835 0.913 1.73013164612e-38
0.006773485395 -0.0931354241812 0.915 1.73041863204e-38
0.00849461692979 -0.0934407862277 0.918 1.71169392144e-38
0.0101935403157 -0.0934407862277 0.918 1.65641101547e-38
0.0119183732087 -0.0936443609254 0.92 1.72112718245e-38
0.0136654142505 -0.0939497229719 0.923 1.51826722935e-38
0.015406903255 -0.0941532976695 0.925 1.57332859004e-38
0.0171187813945 -0.0941532976695 0.925 1.54588556091e-38
0.0188306595339 -0.0941532976695 0.925 1.49071251674e-38
0.0206091621199 -0.094458659716 0.928 1.48152896712e-38
0.0223265922965 -0.094458659716 0.928 1.49078426322e-38
0.0240440224732 -0.094458659716 0.928 1.45397831827e-38
0.0257614526498 -0.094458659716 0.928 1.46316186789e-38
0.0274788828265 -0.094458659716 0.928 1.42639179619e-38
0.0291963130031 -0.094458659716 0.928 1.42635592294e-38
0.0309137431798 -0.094458659716 0.928 1.38018986478e-38
0.0326311733564 -0.094458659716 0.928 1.39855416141e-38
0.0343486035331 -0.094458659716 0.928 1.38025880866e-38
0.0360660337097 -0.094458659716 0.928 1.46319774113e-38
0.0377834638864 -0.094458659716 0.928 1.41699300713e-38
0.0395008940631 -0.094458659716 0.928 1.4168853874e-38
0.0412183242397 -0.094458659716 0.928 1.38022391633e-38
0.0429357544164 -0.094458659716 0.928 1.40770618181e-38
0.0445088316256 -0.0941532976695 0.925 1.35249432167e-38
0.046220709765 -0.0941532976695 0.925 1.38011573609e-38
0.0479325879045 -0.0941532976695 0.925 1.34330937075e-38
0.0496444660439 -0.0941532976695 0.925 1.36178408971e-38
0.0512453034392 -0.0939497229719 0.923 1.39851828817e-38
0.052781367067 -0.0936443609254 0.92 1.38018706218e-38
0.0543655483507 -0.0934407862277 0.918 1.34338111724e-38
0.0560644717366 -0.0934407862277 0.918 1.31579459515e-38
0.0575746258575 -0.0931354241812 0.915 1.33430518734e-38
0.058944128369 -0.092626487437 0.91 1.31583046839e-38
0.0606282463224 -0.092626487437 0.91 1.33434106058e-38
0.0621754140247 -0.0924229127394 0.908 1.29750316603e-38
0.0635042015967 -0.0919139759952 0.903 1.30668279201e-38
0.064814482378 -0.0914050392511 0.898 1.36189170943e-38
0.0664763921826 -0.0914050392511 0.898 1.36181996295e-38
0.0678347906197 -0.0909978898557 0.894 1.36171234323e-38
0.069489297708 -0.0909978898557 0.894 1.14019508199e-38
-0.0016841179534 -0.0909423694836 0.91 1.87768304948e-38
0.0016841179534 -0.0909423694836 0.91 1.90551816191e-38
0.0033682359068 -0.0909423694836 0.91 1.86838711572e-38
0.00506900997183 -0.0912421794929 0.913 1.86842214819e-38
0.00679569354383 -0.0917418628417 0.918 1.71183517233e-38
0.00849461692979 -0.0917418628417 0.918 1.69321794132e-38
0.0102157484646 -0.0919417361813 0.92 1.70243750431e-38
0.0119572374691 -0.0922415461905 0.923 1.59191092871e-38
0.0136950251156 -0.0924414195301 0.925 1.59183918223e-38
0.015406903255 -0.0924414195301 0.925 1.56425266014e-38
0.0171187813945 -0.0924414195301 0.925 1.51829903882e-38
0.0188306595339 -0.0924414195301 0.925 1.49060812e-38
0.0206091621199 -0.0927412295394 0.928 1.47227367102e-38
0.0223265922965 -0.0927412295394 0.928 1.50000368607e-38
0.0240440224732 -0.0927412295394 0.928 1.44472302218e-38
0.0257614526498 -0.0927412295394 0.928 1.4445437961e-38
0.0274788828265 -0.0927412295394 0.928 1.41692140077e-38
0.0292592360915 -0.0929411028789 0.93 1.42617655674e-38
0.0309137431798 -0.0927412295394 0.928 1.41695713388e-38
0.0326311733564 -0.0927412295394 0.928 1.3801153157e-38
0.0344226306959 -0.0929411028789 0.93 1.38025880866e-38
0.0360660337097 -0.0927412295394 0.928 1.38025880866e-38
0.0377834638864 -0.0927412295394 0.928 1.38944235828e-38
0.0395008940631 -0.0927412295394 0.928 1.34338111724e-38
0.0412183242397 -0.0927412295394 0.928 1.36178408971e-38
0.0429357544164 -0.0927412295394 0.928 1.343345244e-38
0.044653184593 -0.0927412295394 0.928 1.34330937075e-38
0.0463706147697 -0.0927412295394 0.928 1.38018706218e-38
0.0480880449463 -0.0927412295394 0.928 1.38025880866e-38
0.0496444660439 -0.0924414195301 0.925 1.33416169438e-38
0.0513563441834 -0.0924414195301 0.925 1.36167646999e-38
0.0529534802205 -0.0922415461905 0.923 1.3340899479e-38
0.0544839918111 -0.0919417361813 0.92 1.36167646999e-38
0.0560644717366 -0.0917418628417 0.918 1.27888103048e-38
0.0577633951226 -0.0917418628417 0.918 1.32476290532e-38
0.0591384496713 -0.0912421794929 0.913 1.30653929905e-38
0.0606282463224 -0.0909423694836 0.91 1.27884515724e-38
0.0621754140247 -0.0907424961441 0.908 1.29739162268e-38
0.0635042015967 -0.0902428127953 0.903 1.31583046839e-38
0.0650310118292 -0.0900429394558 0.901 1.36185583619e-38
0.0664763921826 -0.0897431294465 0.898 1.40791707723e-38
0.0681383019871 -0.0897431294465 0.898 1.28799283362e-38
0.0698002117917 -0.0897431294465 0.898 1.49943083526e-38
0.00168966999061 -0.0895525095023 0.913 1.81306945755e-38
0.00337933998122 -0.0895525095023 0.913 1.90516041042e-38
0.00508011404625 -0.0897486814837 0.915 1.69307725096e-38
0.00681049897639 -0.0902391114372 0.92 1.73935303079e-38
0.00851312372049 -0.0902391114372 0.92 1.6289321131e-38
0.0102490606878 -0.0905333694092 0.923 1.59201854844e-38
0.0119572374691 -0.0905333694092 0.923 1.58265563262e-38
0.0136950251156 -0.0907295413906 0.925 1.59187505547e-38
0.0154568715899 -0.0910237993627 0.928 1.56439615311e-38
0.0171743017665 -0.0910237993627 0.928 1.54592143415e-38
0.0188917319432 -0.0910237993627 0.928 1.47227367102e-38
0.0206091621199 -0.0910237993627 0.928 1.48152896712e-38
0.0223265922965 -0.0910237993627 0.928 1.49978844663e-38
0.0240958414871 -0.0912199713441 0.93 1.40774093401e-38
0.0258169730219 -0.0912199713441 0.93 1.45376307883e-38
0.0275381045567 -0.0912199713441 0.93 1.42607089884e-38
0.0292592360915 -0.0912199713441 0.93 1.41692168103e-38
0.0310803042961 -0.0915142293162 0.933 1.41702888037e-38
0.0328069878681 -0.0915142293162 0.933 1.38940648504e-38
0.0345336714401 -0.0915142293162 0.933 1.46305550934e-38
0.0362603550121 -0.0915142293162 0.933 1.37096763932e-38
0.0379870385841 -0.0915142293162 0.933 1.39859017478e-38
0.0395860253003 -0.0912199713441 0.93 1.37089589284e-38
0.0413071568351 -0.0912199713441 0.93 1.34338111724e-38
0.0430282883699 -0.0912199713441 0.93 1.33419756762e-38
0.0447494199046 -0.0912199713441 0.93 1.29728400295e-38
0.0463706147697 -0.0910237993627 0.928 1.3155793557e-38
0.0480880449463 -0.0910237993627 0.928 1.30632405961e-38
0.0496444660439 -0.0907295413906 0.925 1.33401820142e-38
0.0513563441834 -0.0907295413906 0.925 1.33401820142e-38
0.0529534802205 -0.0905333694092 0.923 1.33394785623e-38
0.0544839918111 -0.0902391114372 0.92 1.40788120399e-38
0.0560644717366 -0.0900429394558 0.918 1.29721253673e-38
0.0577633951226 -0.0900429394558 0.918 1.3155793557e-38
0.0592679972062 -0.0897486814837 0.915 1.42628473698e-38
0.0608281196619 -0.0895525095023 0.913 1.2327839162e-38
0.0621754140247 -0.0890620795488 0.908 1.31554348246e-38
0.0635042015967 -0.0885716495954 0.903 1.34330937075e-38
0.0650310118292 -0.088375477614 0.901 1.33419756762e-38
0.0664763921826 -0.0880812196419 0.898 1.33416169438e-38
0.0681383019871 -0.0880812196419 0.898 9.46766568204e-39
0.0698002117917 -0.0880812196419 0.898 2.34791579424e-38
0.00168966999061 -0.0878628395117 0.913 1.9873416608e-38
0.00337933998122 -0.0878628395117 0.913 1.8130391895e-38
0.00508011404625 -0.0880553101349 0.915 1.74857413521e-38
0.00681049897639 -0.0885364866931 0.92 1.67492328922e-38
0.00851312372049 -0.0885364866931 0.92 1.70265274375e-38
0.0102490606878 -0.0888251926279 0.923 1.57365271037e-38
0.0119831469761 -0.0890176632512 0.925 1.64733536583e-38
0.0137394414132 -0.089306369186 0.928 1.56425490222e-38
0.0154568715899 -0.089306369186 0.928 1.53655851833e-38
0.0171743017665 -0.089306369186 0.928 1.5274467152e-38
0.0189324468827 -0.0894988398093 0.93 1.42628417646e-38
0.0206535784175 -0.0894988398093 0.93 1.46301837493e-38
0.0223747099523 -0.0894988398093 0.93 1.6563764034e-38
0.024173570008 -0.0897875457442 0.933 1.38007944246e-38
0.02590025358 -0.0897875457442 0.933 1.43546772608e-38
0.027626937152 -0.0897875457442 0.933 1.4447958897e-38
0.0293536207241 -0.0897875457442 0.933 1.33423344086e-38
0.0310803042961 -0.0897875457442 0.933 1.36185583619e-38
0.0328773136727 -0.0899800163674 0.935 1.37093176608e-38
0.0346076986028 -0.0899800163674 0.935 1.34327349751e-38
0.036338083533 -0.0899800163674 0.935 1.30653929905e-38
0.0379870385841 -0.0897875457442 0.933 1.36189170943e-38
0.0397137221561 -0.0897875457442 0.933 1.41713650009e-38
0.0414404057281 -0.0897875457442 0.933 1.29735574944e-38
0.0430282883699 -0.0894988398093 0.93 1.31586634163e-38
0.0447494199046 -0.0894988398093 0.93 1.34341699048e-38
0.0464705514394 -0.0894988398093 0.93 1.31579459515e-38
0.0480880449463 -0.089306369186 0.928 1.42642808982e-38
0.0496444660439 -0.0890176632512 0.925 1.26969776113e-38
0.0513563441834 -0.0890176632512 0.925 1.25118688867e-38
0.0529534802205 -0.0888251926279 0.923 1.31550760922e-38
0.0544839918111 -0.0885364866931 0.92 1.30625231313e-38
0.0561866165552 -0.0885364866931 0.92 1.33362359577e-38
0.0577633951226 -0.0883440160698 0.918 1.34309413131e-38
0.0592679972062 -0.0880553101349 0.915 1.31550760922e-38
0.0608281196619 -0.0878628395117 0.913 1.30657657359e-38
0.0623123642758 -0.0875741335768 0.91 1.343345244e-38
0.0638558306199 -0.0873816629536 0.908 1.29735729086e-38
0.0651753647966 -0.0869004863955 0.903 1.34338111724e-38
0.0668465279965 -0.0869004863955 0.903 1.06687017802e-38
0.068745324722 -0.0871891923303 0.906 1.65508959102e-38
0.0704220399591 -0.0871891923303 0.906 2.34878726176e-38
-0.00485803255789 -0.0825865534841 0.875 2.35004955141e-38
-0.00323128565565 -0.082397784219 0.873 1.00100690812e-38
-0.00161564282782 -0.082397784219 0.873 2.06907141283e-38
0.00169337134875 -0.0863619387862 0.915 1.61049592986e-38
0.0033867426975 -0.0863619387862 0.915 1.79452299211e-38
0.00509677015787 -0.0866450926839 0.918 1.61027914898e-38
0.00683270712523 -0.0871170158466 0.923 1.80385311755e-38
0.00854088390653 -0.0871170158466 0.923 1.67499335414e-38
0.0102712688367 -0.0873057851117 0.925 1.58258458678e-38
0.0119831469761 -0.0873057851117 0.925 1.55499736405e-38
0.0137394414132 -0.0875889390094 0.928 1.55499736405e-38
0.0154901838131 -0.0877777082745 0.93 1.55488974432e-38
