# .PCD v0.7 - Point Cloud Data file format
VERSION 0.7
FIELDS x y z rgb
SIZE 4 4 4 4
TYPE F F F F
COUNT 1 1 1 1
WIDTH 849
HEIGHT 1
VIEWPOINT 0 0 0 1 0 0 0
POINTS 849
DATA ascii
-0.00718063479032 -0.122070791436 0.97 1.68551570431e-38
-0.00538547609274 -0.122070791436 0.97 1.63030944936e-38
-0.00359031739516 -0.122070791436 0.97 1.51052547572e-38
-0.00180071073479 -0.122448329966 0.973 1.55651216769e-38
0.0 -0.122448329966 0.973 1.54736294988e-38
0.00180071073479 -0.122448329966 0.973 1.45492139214e-38
0.00360142146958 -0.122448329966 0.973 1.50123402613e-38
0.00541323627879 -0.122700022319 0.975 1.41825753886e-38
0.00721764837172 -0.122700022319 0.975 1.51952881836e-38
0.00902206046465 -0.122700022319 0.975 1.41799745786e-38
0.0108264725576 -0.122700022319 0.975 1.49197746886e-38
0.0126308846505 -0.122700022319 0.975 1.47364526196e-38
0.0144056858783 -0.122448329966 0.973 1.52892438443e-38
0.0162063966131 -0.122448329966 0.973 1.42736766044e-38
0.0180071073479 -0.122448329966 0.973 1.44577203421e-38
0.0197467456734 -0.122070791436 0.97 1.40900322367e-38
0.021541904371 -0.122070791436 0.97 1.38134201237e-38
0.0233370630686 -0.122070791436 0.97 1.41839878974e-38
0.0251322217661 -0.122070791436 0.97 1.36322602583e-38
0.0269273804637 -0.122070791436 0.97 1.42769037947e-38
0.028633706566 -0.121693252905 0.967 1.37218732951e-38
0.0304233132263 -0.121693252905 0.967 1.37212118822e-38
0.0322129198867 -0.121693252905 0.967 1.37233768883e-38
0.0338970378401 -0.121315714375 0.964 1.28939945701e-38
0.0356810924633 -0.121315714375 0.964 1.33553034259e-38
0.0373874185655 -0.121064022022 0.962 1.25255525662e-38
0.0390456270119 -0.120686483491 0.959 1.32609540003e-38
0.0406927313839 -0.120308944961 0.956 1.29825874617e-38
0.0423731479792 -0.120057252608 0.954 1.06794637524e-38
0.0439998948814 -0.119679714077 0.951 1.610969849e-38
0.0456155377093 -0.119302175547 0.948 2.35098225567e-38
0.0473699814673 -0.119302175547 0.948 1.31691913717e-38
0.0491244252253 -0.119302175547 0.948 3.489748854e-39
-0.0312468654123 -0.116307776813 0.938 2.35098856151e-38
-0.029510928445 -0.116307776813 0.938 2.35098856151e-38
-0.0277749914776 -0.116307776813 0.938 2.35098856151e-38
-0.0261778554405 -0.116927754301 0.943 8.65841862149e-39
-0.0245103935987 -0.117299740794 0.946 3.306159137e-39
-0.0228799453383 -0.117919718282 0.951 1.89810865615e-38
-0.0211865739896 -0.118291704775 0.954 2.35026899475e-38
-0.019522813506 -0.118911682264 0.959 1.86064886535e-38
-0.0178035326502 -0.119283668757 0.962 1.8973511142e-38
-0.0160564916085 -0.119531659752 0.964 1.91600099547e-38
-0.0142724369853 -0.119531659752 0.964 1.80529771613e-38
-0.0125272466226 -0.119903646245 0.967 1.75923717574e-38
-0.0107376399622 -0.119903646245 0.967 1.63026895184e-38
-0.00894803330186 -0.119903646245 0.967 1.61193898702e-38
-0.00718063479032 -0.120275632738 0.97 1.61168731381e-38
-0.00538547609274 -0.120275632738 0.97 1.49204991599e-38
-0.00359031739516 -0.120275632738 0.97 1.54743735883e-38
-0.00180071073479 -0.120647619231 0.973 1.51052421455e-38
0.0 -0.120647619231 0.973 1.51970047742e-38
0.00180441209293 -0.120895610226 0.975 1.55662034793e-38
0.00360882418586 -0.120895610226 0.975 1.56577096703e-38
0.00541323627879 -0.120895610226 0.975 1.41815090005e-38
0.00721764837172 -0.120895610226 0.975 1.42733711213e-38
0.00902206046465 -0.120895610226 0.975 1.45491900993e-38
0.0108264725576 -0.120895610226 0.975 1.39970995239e-38
0.0126308846505 -0.120895610226 0.975 1.38134257289e-38
0.0144352967434 -0.120895610226 0.975 1.39041710149e-38
0.0162397088364 -0.120895610226 0.975 1.4919048816e-38
0.0180071073479 -0.120647619231 0.973 1.47346771744e-38
0.0198078180827 -0.120647619231 0.973 1.28911779602e-38
0.021541904371 -0.120275632738 0.97 1.4551695621e-38
0.0233370630686 -0.120275632738 0.97 1.38152095819e-38
0.0251322217661 -0.120275632738 0.97 1.29836860797e-38
0.0269273804637 -0.120275632738 0.97 1.29836832771e-38
0.0287225391613 -0.120275632738 0.97 1.30755047602e-38
0.0304233132263 -0.119903646245 0.967 1.29825874617e-38
0.0322129198867 -0.119903646245 0.967 1.3536489916e-38
0.0338970378401 -0.119531659752 0.964 1.37237300155e-38
0.0356810924633 -0.119531659752 0.964 1.19716809404e-38
0.0373874185655 -0.119283668757 0.962 1.2156076404e-38
0.0390456270119 -0.118911682264 0.959 1.12311941942e-38
0.0406927313839 -0.118539695771 0.956 1.10410660186e-38
0.0423731479792 -0.118291704775 0.954 2.06319254538e-38
0.0441386958117 -0.118291704775 0.954 2.35073464623e-38
0.0457598906767 -0.117919718282 0.951 1.17876217884e-38
0.0475198864719 -0.117919718282 0.951 1.28569694621e-39
0.0492798822672 -0.117919718282 0.951 1.60273918234e-38
-0.0279230458032 -0.115182563938 0.943 2.35098856151e-38
-0.0261778554405 -0.115182563938 0.943 1.00457139103e-38
-0.0244326650778 -0.115182563938 0.943 1.64720742728e-38
-0.0229521218221 -0.116526156943 0.954 3.03057417581e-39
-0.0211865739896 -0.116526156943 0.954 1.56447840933e-38
-0.0195838859153 -0.117503315492 0.962 2.35037423227e-38
-0.0178405462316 -0.117747605129 0.964 1.98079563516e-38
-0.0160564916085 -0.117747605129 0.964 1.74065385616e-38
-0.014316853283 -0.118114039585 0.967 1.66688754318e-38
-0.0125272466226 -0.118114039585 0.967 1.69462960939e-38
-0.0107376399622 -0.118114039585 0.967 1.74086811469e-38
-0.0089757934879 -0.11848047404 0.97 1.56580810144e-38
-0.00718063479032 -0.11848047404 0.97 1.52879084069e-38
-0.00540213220437 -0.118846908496 0.973 1.56573621483e-38
-0.00360142146958 -0.118846908496 0.973 1.49212166247e-38
-0.00180441209293 -0.119091198133 0.975 1.53821723533e-38
0.0 -0.119091198133 0.975 1.49215949753e-38
0.00180441209293 -0.119091198133 0.975 1.41832662287e-38
0.00361992826028 -0.119457632589 0.978 1.353400121e-38
0.00542989239041 -0.119457632589 0.978 1.48254280656e-38
0.00723985652055 -0.119457632589 0.978 1.35368430432e-38
0.00902206046465 -0.119091198133 0.975 1.38134229263e-38
0.0108264725576 -0.119091198133 0.975 1.41829159041e-38
0.0126308846505 -0.119091198133 0.975 1.24311737133e-38
0.0144352967434 -0.119091198133 0.975 1.35367673731e-38
0.0162397088364 -0.119091198133 0.975 1.26141776876e-38
0.0180441209293 -0.119091198133 0.975 1.31655746203e-38
0.0198078180827 -0.118846908496 0.973 1.3443551598e-38
0.0216085288175 -0.118846908496 0.973 1.32591771538e-38
0.0234092395523 -0.118846908496 0.973 1.35353983045e-38
0.0251322217661 -0.11848047404 0.97 1.24308360004e-38
0.0269273804637 -0.11848047404 0.97 1.28921896977e-38
0.0287225391613 -0.11848047404 0.97 1.27999968705e-38
0.0305176978589 -0.11848047404 0.97 1.26156252289e-38
0.0322129198867 -0.118114039585 0.967 1.29829433915e-38
0.0340025265471 -0.118114039585 0.967 1.22482692313e-38
0.0356810924633 -0.117747605129 0.964 1.11422523794e-38
0.0373874185655 -0.117503315492 0.962 9.94123309676e-39
0.0390456270119 -0.117136881036 0.959 1.64866870132e-38
0.0406927313839 -0.11677044658 0.956 2.23898417656e-38
0.0424619805745 -0.11677044658 0.956 2.17444961786e-38
0.0441386958117 -0.116526156943 0.954 3.30643659409e-39
0.0459042436441 -0.116526156943 0.954 5.74532370373e-44
0.0476697914766 -0.116526156943 0.954 1.08636770473e-38
-0.026483217487 -0.11476060911 0.954 1.86224382326e-38
-0.0247176696545 -0.11476060911 0.954 9.01183169938e-39
-0.0229521218221 -0.11476060911 0.954 1.7216729882e-38
-0.0211865739896 -0.11476060911 0.954 4.40811782857e-39
-0.0195838859153 -0.115722962227 0.962 6.42851275703e-40
-0.0178405462316 -0.115963550506 0.964 1.96261210602e-38
-0.0160564916085 -0.115963550506 0.964 2.1930683903e-38
-0.014316853283 -0.116324432924 0.967 1.85190742539e-38
-0.0125272466226 -0.116324432924 0.967 1.67637027002e-38
-0.0107709521855 -0.116685315343 0.97 1.65760113825e-38
-0.0089757934879 -0.116685315343 0.97 1.52889201444e-38
-0.00720284293916 -0.117046197761 0.973 1.35386759416e-38
-0.00540213220437 -0.117046197761 0.973 1.54729666847e-38
-0.00360882418586 -0.11728678604 0.975 1.49212138221e-38
-0.00180441209293 -0.11728678604 0.975 1.55668620896e-38
0.0 -0.117647668459 0.978 1.44609447298e-38
0.00180996413014 -0.117647668459 0.978 1.36283099979e-38
0.00361992826028 -0.117647668459 0.978 1.39970995239e-38
0.00542989239041 -0.117647668459 0.978 1.39974106121e-38
0.00723985652055 -0.117647668459 0.978 1.40900140198e-38
0.00904982065069 -0.117647668459 0.978 1.36294086159e-38
0.0108597847808 -0.117647668459 0.978 1.35368584575e-38
0.012669748911 -0.117647668459 0.978 1.3167742429e-38
0.0144797130411 -0.117647668459 0.978 1.35347046618e-38
0.0162896771712 -0.117647668459 0.978 1.27063943369e-38
0.0180996413014 -0.117647668459 0.978 1.30773068301e-38
0.0198485330222 -0.11728678604 0.975 1.28903567993e-38
0.0216529451152 -0.11728678604 0.975 1.27974759345e-38
0.0234092395523 -0.117046197761 0.973 1.3074067028e-38
0.0252099502871 -0.117046197761 0.973 1.23386277589e-38
0.0270106610218 -0.117046197761 0.973 1.30754711291e-38
0.0287225391613 -0.116685315343 0.97 1.2339022925e-38
0.0305176978589 -0.116685315343 0.97 1.12323250421e-38
0.0322129198867 -0.116324432924 0.967 1.10442946102e-38
0.0340025265471 -0.116324432924 0.967 1.27952913102e-38
0.0356810924633 -0.115963550506 0.964 1.59346875222e-38
0.0373874185655 -0.115722962227 0.962 2.19327886533e-38
0.0390456270119 -0.115362079808 0.959 2.09215107879e-38
0.0406927313839 -0.115001197389 0.956 7.82828660862e-39
0.0424619805745 -0.115001197389 0.956 2.75512233798e-39
0.0442312297651 -0.115001197389 0.956 2.95246579941e-39
0.0440276550675 -0.110069137669 0.915 1.06767228126e-38
-0.0253394978219 -0.115837704329 0.978 3.85714268668e-39
-0.0235295336918 -0.115837704329 0.978 1.38995439274e-38
-0.021408655478 -0.114179495882 0.964 1.62937422277e-38
-0.0196246008548 -0.114179495882 0.964 7.44372686976e-39
-0.0178405462316 -0.114179495882 0.964 1.46941838527e-39
-0.0160564916085 -0.114179495882 0.964 1.93359009379e-39
-0.014316853283 -0.114534826264 0.967 1.61245242277e-38
-0.0125661108831 -0.114890156645 0.97 2.0919712922e-38
-0.0107709521855 -0.114890156645 0.97 2.1467481893e-38
-0.0089757934879 -0.114890156645 0.97 1.52885572081e-38
-0.00720284293916 -0.115245487027 0.973 1.67607936045e-38
-0.00541323627879 -0.115482373947 0.975 1.27927941963e-38
-0.00360882418586 -0.115482373947 0.975 1.38116068435e-38
-0.00180996413014 -0.115837704329 0.978 1.41843228078e-38
0.0 -0.115837704329 0.978 1.2985091582e-38
0.00180996413014 -0.115837704329 0.978 1.39049165057e-38
0.00361992826028 -0.115837704329 0.978 1.36275883292e-38
0.00542989239041 -0.115837704329 0.978 1.35368556549e-38
0.00723985652055 -0.115837704329 0.978 1.23401299508e-38
0.00904982065069 -0.115837704329 0.978 1.31680535173e-38
0.0108597847808 -0.115837704329 0.978 1.25220044785e-38
0.012669748911 -0.115837704329 0.978 1.32580827397e-38
0.0144797130411 -0.115837704329 0.978 1.34439593758e-38
0.0162896771712 -0.115837704329 0.978 1.2246512003e-38
0.0180996413014 -0.115837704329 0.978 1.19699195082e-38
0.0199096054315 -0.115837704329 0.978 1.20603004566e-38
0.0216529451152 -0.115482373947 0.975 1.22439083905e-38
0.0234092395523 -0.115245487027 0.973 1.1692165337e-38
0.0252099502871 -0.115245487027 0.973 1.0122711057e-38
0.0270106610218 -0.115245487027 0.973 1.06712129071e-38
0.0287225391613 -0.114890156645 0.97 1.3988813646e-38
0.0305176978589 -0.114890156645 0.97 1.74950389674e-38
0.0322129198867 -0.114534826264 0.967 2.34978358497e-38
0.0340025265471 -0.114534826264 0.967 2.35015408828e-38
0.0337933998122 -0.108138879399 0.913 1.71425241218e-38
0.0354830698028 -0.108138879399 0.913 7.36664984903e-39
0.0371727397934 -0.108138879399 0.913 1.1020259539e-39
0.038862409784 -0.108138879399 0.913 5.34670333608e-39
0.04064091237 -0.10837576632 0.915 4.60695227157e-39
0.0423342837187 -0.10837576632 0.915 1.35294175627e-38
0.0440276550675 -0.10837576632 0.915 1.99737411703e-38
-0.0253394978219 -0.114027740199 0.978 8.37472434609e-39
-0.0235295336918 -0.114027740199 0.978 7.542793066e-39
-0.0217195695617 -0.114027740199 0.978 1.39946724749e-38
-0.0199096054315 -0.114027740199 0.978 1.65703459329e-38
-0.0180996413014 -0.114027740199 0.978 1.19602015034e-38
-0.0161564282782 -0.113094997948 0.97 4.49995612732e-39
-0.0143612695806 -0.113094997948 0.97 4.20389539297e-44
-0.0125661108831 -0.113094997948 0.97 3.92363570011e-44
-0.0107709521855 -0.113094997948 0.97 1.37098459504e-38
-0.0089757934879 -0.113094997948 0.97 2.01749003674e-38
-0.00720284293916 -0.113444776292 0.973 2.34990269533e-38
-0.00541323627879 -0.113677961855 0.975 2.30344320527e-38
-0.00360882418586 -0.113677961855 0.975 1.99912770193e-38
-0.00180996413014 -0.114027740199 0.978 1.69462414433e-38
0.0 -0.114027740199 0.978 1.69416297701e-38
0.00180996413014 -0.114027740199 0.978 1.46342026733e-38
0.00361992826028 -0.114027740199 0.978 1.54643290809e-38
0.00542989239041 -0.114027740199 0.978 1.28845932587e-38
0.00723985652055 -0.114027740199 0.978 1.28853527625e-38
0.00904982065069 -0.114027740199 0.978 1.3529259216e-38
0.0108597847808 -0.114027740199 0.978 1.22396344302e-38
0.0127086131714 -0.114377518543 0.981 1.27938451702e-38
0.0144797130411 -0.114027740199 0.978 1.27920388965e-38
0.0162896771712 -0.114027740199 0.978 1.18715315405e-38
0.0180996413014 -0.114027740199 0.978 1.45415950616e-38
0.0199096054315 -0.114027740199 0.978 1.71205363476e-38
0.0216529451152 -0.113677961855 0.975 1.74879918374e-38
0.0234092395523 -0.113444776292 0.973 1.90589272899e-38
0.0252099502871 -0.113444776292 0.973 2.34013270231e-38
0.0270106610218 -0.113444776292 0.973 2.34997640363e-38
0.0287225391613 -0.113094997948 0.97 2.35008052011e-38
0.0305176978589 -0.113094997948 0.97 1.6493099355e-38
0.0322129198867 -0.112745219603 0.967 6.61978999741e-39
0.0321037298216 -0.106449209408 0.913 1.92855522841e-39
0.0337933998122 -0.106449209408 0.913 5.88545355016e-44
0.0354830698028 -0.106449209408 0.913 4.79347490626e-39
0.0371727397934 -0.106449209408 0.913 4.23739203147e-39
0.038862409784 -0.106449209408 0.913 6.80420087531e-39
0.04064091237 -0.106682394971 0.915 1.65695752187e-38
0.0423342837187 -0.106682394971 0.915 2.05239610123e-38
0.0440276550675 -0.106682394971 0.915 2.27312303014e-38
0.0457210264162 -0.106682394971 0.915 1.64655624389e-38
-0.0253394978219 -0.112217776069 0.978 9.30422243305e-39
-0.0235295336918 -0.112217776069 0.978 1.16040895246e-38
-0.0217195695617 -0.112217776069 0.978 7.5492642623e-39
-0.0200317502501 -0.112906228682 0.984 1.10486904835e-38
-0.0181551616735 -0.112562002376 0.981 1.56461895956e-38
-0.0152903104736 -0.105333249929 0.918 1.426321451e-38
-0.01354697079 -0.104989023622 0.915 8.36315522596e-39
-0.0118535994412 -0.104989023622 0.915 5.69386942542e-39
-0.0107709521855 -0.11129983925 0.97 6.42851275703e-40
-0.0089757934879 -0.11129983925 0.97 2.94272677508e-44
-0.00720284293916 -0.111644065557 0.973 4.04076183095e-39
-0.00541323627879 -0.111873549762 0.975 1.27831854928e-38
-0.00361992826028 -0.112217776069 0.978 1.43580291667e-38
-0.00180996413014 -0.112217776069 0.978 2.13622331679e-38
0.0 -0.112217776069 0.978 2.30235719896e-38
0.00180996413014 -0.112217776069 0.978 2.24704458546e-38
0.00363103233469 -0.112562002376 0.981 2.34867249541e-38
0.00544654850204 -0.112562002376 0.981 2.34907677002e-38
0.00726206466939 -0.112562002376 0.981 2.34946703164e-38
0.00907758083674 -0.112562002376 0.981 2.34953779721e-38
0.0108930970041 -0.112562002376 0.981 2.34971856472e-38
0.0127086131714 -0.112562002376 0.981 2.3495020641e-38
0.0144797130411 -0.112217776069 0.978 2.34975443796e-38
0.0162896771712 -0.112217776069 0.978 2.34953737683e-38
0.0180996413014 -0.112217776069 0.978 2.27563780036e-38
0.0199096054315 -0.112217776069 0.978 2.17408023559e-38
0.0216529451152 -0.111873549762 0.975 1.87908546898e-38
0.0234092395523 -0.111644065557 0.973 1.61147025268e-38
0.0251322217661 -0.11129983925 0.97 9.93552560811e-39
0.0269273804637 -0.11129983925 0.97 4.77549764826e-39
0.0287225391613 -0.11129983925 0.97 0.0
0.0305176978589 -0.11129983925 0.97 8.28334146933e-40
0.030414059831 -0.104759539418 0.913 5.24653852185e-39
0.0321037298216 -0.104759539418 0.913 5.34127330453e-39
0.0337933998122 -0.104759539418 0.913 3.5931338521e-39
0.0355607983237 -0.104989023622 0.915 7.82266179659e-39
0.0372541696725 -0.104989023622 0.915 1.35307824274e-38
0.0389475410212 -0.104989023622 0.915 1.91471600477e-38
0.04064091237 -0.104989023622 0.915 2.02437237402e-38
0.0423342837187 -0.104989023622 0.915 2.2726223462e-38
0.0440276550675 -0.104989023622 0.915 2.14430082153e-38
0.0457210264162 -0.104989023622 0.915 1.08491848185e-38
-0.0253394978219 -0.110407811938 0.978 1.23516332099e-38
-0.0235295336918 -0.110407811938 0.978 1.18630957237e-38
-0.0206091621199 -0.104763240776 0.928 7.46247904581e-39
-0.0187288721851 -0.10386010939 0.92 6.07919147065e-39
-0.0169892338596 -0.103634326543 0.918 1.06813470976e-38
-0.0152903104736 -0.103634326543 0.918 1.58330163121e-38
-0.01354697079 -0.103295652274 0.915 1.62854297252e-38
-0.0118276899343 -0.103069869427 0.913 1.35275440266e-38
-0.0101047077204 -0.102731195157 0.91 8.82771789675e-39
-0.008420589767 -0.102731195157 0.91 6.80089381094e-39
-0.00723985652055 -0.110407811938 0.978 2.84696484063e-39
-0.00542989239041 -0.110407811938 0.978 1.28570255141e-39
-0.00361992826028 -0.110407811938 0.978 3.58162078392e-39
-0.00181551616735 -0.110746486208 0.981 1.18629808172e-38
0.0 -0.110746486208 0.981 9.73456259275e-39
0.00181551616735 -0.110746486208 0.981 1.20354764543e-38
0.00363103233469 -0.110746486208 0.981 1.01058506339e-38
0.00544654850204 -0.110746486208 0.981 1.22230892992e-38
0.00726206466939 -0.110746486208 0.981 9.92756062764e-39
0.00907758083674 -0.110746486208 0.981 9.83429020186e-39
0.0108930970041 -0.110746486208 0.981 9.18677820746e-39
0.0127086131714 -0.110746486208 0.981 8.90804312733e-39
0.0145241293388 -0.110746486208 0.981 7.1631925224e-39
0.0162896771712 -0.110407811938 0.978 7.25500419648e-39
0.0180996413014 -0.110407811938 0.978 5.78563625795e-39
0.0184438676083 -0.102279629464 0.906 2.8469003809e-39
0.0201205828455 -0.102279629464 0.906 1.65305854902e-39
0.0217972980826 -0.102279629464 0.906 1.83856524233e-39
0.0234740133197 -0.102279629464 0.906 4.23490332539e-39
0.0269273804637 -0.109504680552 0.97 5.5267183407e-39
0.0287225391613 -0.109504680552 0.97 4.69770316271e-39
0.0305176978589 -0.109504680552 0.97 4.69695767193e-39
0.030414059831 -0.103069869427 0.913 4.96739145996e-39
0.0321037298216 -0.103069869427 0.913 9.56646703286e-39
0.033867426975 -0.103295652274 0.915 1.51838017401e-38
0.0355607983237 -0.103295652274 0.915 1.77615687379e-38
0.0372541696725 -0.103295652274 0.915 1.97856869164e-38
0.0389475410212 -0.103295652274 0.915 2.05160086435e-38
0.040774161263 -0.103634326543 0.918 2.18985381162e-38
0.042473084649 -0.103634326543 0.918 2.06118980961e-38
0.0441720080349 -0.103634326543 0.918 1.40735908018e-38
0.0458709314209 -0.103634326543 0.918 1.50978194676e-38
-0.0222544158128 -0.102712688367 0.925 1.59231842631e-38
-0.0205425376733 -0.102712688367 0.925 9.11158453187e-39
-0.0187288721851 -0.102157484646 0.92 6.9942898146e-39
-0.0169892338596 -0.101935403157 0.918 4.69553815659e-39
-0.0152903104736 -0.101935403157 0.918 7.91229865546e-39
-0.01354697079 -0.101602280925 0.915 1.38044644253e-38
-0.0118276899343 -0.101380199437 0.913 1.45391007504e-38
-0.0101047077204 -0.101047077204 0.91 1.58261975938e-38
-0.008420589767 -0.101047077204 0.91 1.43547094907e-38
-0.00675867996244 -0.101380199437 0.913 1.23307216329e-38
-0.00544654850204 -0.108930970041 0.981 9.74894832278e-39
-0.00363103233469 -0.108930970041 0.981 5.14281020562e-39
-0.00181551616735 -0.108930970041 0.981 1.18730827779e-38
0.0 -0.108930970041 0.981 1.92855662971e-39
0.00181551616735 -0.108930970041 0.981 2.02224324113e-39
0.00363103233469 -0.108930970041 0.981 2.29588740395e-39
0.00544654850204 -0.108930970041 0.981 2.57390501927e-39
0.00726206466939 -0.108930970041 0.981 2.4850066447e-39
0.00907758083674 -0.108930970041 0.981 2.30166355622e-39
0.0108930970041 -0.108930970041 0.981 3.2225716836e-39
0.0127086131714 -0.108930970041 0.981 3.12820404112e-39
0.013413721897 -0.100602914227 0.906 4.50930138678e-39
0.0150904371341 -0.100602914227 0.906 4.69590389549e-39
0.0167671523712 -0.100602914227 0.906 4.51151263576e-39
0.0184438676083 -0.100602914227 0.906 4.78840921231e-39
0.0201205828455 -0.100602914227 0.906 4.42076174461e-39
0.0217972980826 -0.100602914227 0.906 4.14343076554e-39
0.0234740133197 -0.100602914227 0.906 3.40405384772e-39
0.025261769301 -0.101047077204 0.91 7.17545948915e-39
0.0269458872544 -0.101047077204 0.91 1.06709242396e-38
0.0286300052078 -0.101047077204 0.91 1.3610422423e-38
0.030414059831 -0.101380199437 0.913 1.5827743226e-38
0.0321740556262 -0.101602280925 0.915 1.89616169207e-38
0.0339784677192 -0.101935403157 0.918 1.99657103288e-38
0.0356773911051 -0.101935403157 0.918 1.9685192797e-38
0.0373763144911 -0.101935403157 0.918 1.95919251738e-38
0.039075237877 -0.101935403157 0.918 2.18089194742e-38
0.0408629938583 -0.102157484646 0.92 1.90513140354e-38
0.042473084649 -0.101935403157 0.918 1.40792716658e-38
0.0441720080349 -0.101935403157 0.918 9.4778321024e-39
0.0458709314209 -0.101935403157 0.918 2.00839911296e-38
-0.024225389022 -0.102092710878 0.935 2.24946574894e-38
-0.022446886436 -0.101874330748 0.933 1.2884420899e-38
-0.0205425376733 -0.101000810227 0.925 1.67540141226e-38
-0.0187288721851 -0.100454859902 0.92 1.09497153717e-38
-0.0169892338596 -0.100236479772 0.918 6.34318068704e-39
-0.0152903104736 -0.100236479772 0.918 5.0632584918e-39
-0.01354697079 -0.0999089095762 0.915 5.97800791243e-39
-0.0118276899343 -0.099690529446 0.913 9.29162335856e-39
-0.0101380199437 -0.099690529446 0.913 1.39001927286e-38
-0.00844834995305 -0.099690529446 0.913 1.46316186789e-38
-0.0067364718136 -0.0993629592506 0.91 1.61009866174e-38
-0.0050523538602 -0.0993629592506 0.91 1.63780065082e-38
-0.00336083319052 -0.0991445791204 0.908 1.53649279744e-38
-0.00168041659526 -0.0991445791204 0.908 1.70305477628e-38
0.0 -0.0991445791204 0.908 1.07616134736e-38
0.00168041659526 -0.0991445791204 0.908 1.19602141151e-38
0.00363103233469 -0.107115453873 0.981 1.09439588376e-38
0.00544654850204 -0.107115453873 0.981 1.09399959655e-38
0.00726206466939 -0.107115453873 0.981 1.13087588668e-38
0.00907758083674 -0.107115453873 0.981 9.46849384943e-39
0.0108930970041 -0.107115453873 0.981 1.02049448561e-38
0.0117370066599 -0.0989261989902 0.906 7.71566284975e-39
0.013413721897 -0.0989261989902 0.906 1.02946237539e-38
0.0150904371341 -0.0989261989902 0.906 8.45178314994e-39
0.0167671523712 -0.0989261989902 0.906 1.01059389157e-38
0.0184438676083 -0.0989261989902 0.906 1.08474626227e-38
0.0201205828455 -0.0989261989902 0.906 1.24133281774e-38
0.0217972980826 -0.0989261989902 0.906 1.45359408223e-38
0.0234740133197 -0.0989261989902 0.906 1.54610948841e-38
0.025261769301 -0.0993629592506 0.91 1.59220926516e-38
0.0269458872544 -0.0993629592506 0.91 1.81279284123e-38
0.0286300052078 -0.0993629592506 0.91 2.10713516327e-38
0.0303141231612 -0.0993629592506 0.91 1.86753218353e-38
0.0321037298216 -0.099690529446 0.913 1.94114239186e-38
0.033867426975 -0.0999089095762 0.915 1.97784478085e-38
0.0355607983237 -0.0999089095762 0.915 2.12532233578e-38
0.0373763144911 -0.100236479772 0.918 1.95983697455e-38
0.039075237877 -0.100236479772 0.918 1.58248201174e-38
0.0408629938583 -0.100454859902 0.92 1.00277086263e-38
0.042473084649 -0.100236479772 0.918 9.11910530072e-39
0.0441720080349 -0.100236479772 0.918 5.71007824476e-39
0.0458709314209 -0.100236479772 0.918 2.35062982911e-38
-0.024173570008 -0.100147647176 0.933 2.35098856151e-38
-0.022446886436 -0.100147647176 0.933 3.85713147629e-39
-0.0206535784175 -0.0998256290181 0.93 1.65706836458e-38
-0.0187288721851 -0.0987522351576 0.92 1.70266409427e-38
-0.017026247441 -0.0987522351576 0.92 1.34374727652e-38
-0.0152903104736 -0.0985375563856 0.918 1.01230697894e-38
-0.01354697079 -0.0982155382274 0.915 5.05531312951e-39
-0.0118535994412 -0.0982155382274 0.915 4.51115950855e-39
-0.0101380199437 -0.0980008594554 0.913 3.58165301379e-39
-0.00844834995305 -0.0980008594554 0.913 1.03943905993e-38
-0.0067364718136 -0.0976788412972 0.91 1.28864121442e-38
-0.0050523538602 -0.0976788412972 0.91 1.29779491637e-38
-0.00336083319052 -0.0974641625252 0.908 1.48135744819e-38
-0.00168041659526 -0.0974641625252 0.908 1.81322668323e-38
0.0 -0.0974641625252 0.908 1.6746363033e-38
0.00168041659526 -0.0974641625252 0.908 1.74796050661e-38
0.0033682359068 -0.0976788412972 0.91 1.79387727378e-38
0.00504124978578 -0.0974641625252 0.908 1.74789632714e-38
0.00672166638105 -0.0974641625252 0.908 1.73860291572e-38
0.00840208297631 -0.0974641625252 0.908 1.73859899209e-38
0.0100824995716 -0.0974641625252 0.908 1.73874542778e-38
0.0117370066599 -0.0972494837531 0.906 1.80335243361e-38
0.013413721897 -0.0972494837531 0.906 1.72981102903e-38
0.0150904371341 -0.0972494837531 0.906 1.78512840695e-38
0.0167671523712 -0.0972494837531 0.906 1.75725489893e-38
0.0184438676083 -0.0972494837531 0.906 1.87710949802e-38
0.0201649991431 -0.0974641625252 0.908 1.78477107584e-38
0.0218454157384 -0.0974641625252 0.908 1.95029525304e-38
0.0235258323337 -0.0974641625252 0.908 1.91297797429e-38
0.025261769301 -0.0976788412972 0.91 1.93181324734e-38
0.0269458872544 -0.0976788412972 0.91 1.90423134953e-38
0.0286300052078 -0.0976788412972 0.91 1.96851745801e-38
0.0303141231612 -0.0976788412972 0.91 1.96859200709e-38
0.0321037298216 -0.0980008594554 0.913 1.93235597023e-38
0.033867426975 -0.0982155382274 0.915 1.7118016813e-38
0.0355607983237 -0.0982155382274 0.915 1.49068112765e-38
0.0373763144911 -0.0985375563856 0.918 1.03871851226e-38
0.039075237877 -0.0985375563856 0.918 9.11122019426e-39
0.0408629938583 -0.0987522351576 0.92 8.29548091793e-39
0.0425656186024 -0.0987522351576 0.92 8.29547811533e-39
0.0442682433465 -0.0987522351576 0.92 1.4548977102e-38
0.0459708680906 -0.0987522351576 0.92 2.35098856151e-38
-0.024173570008 -0.0984209636042 0.933 2.35098856151e-38
-0.022446886436 -0.0984209636042 0.933 4.59230730132e-40
-0.0206535784175 -0.0981044974833 0.93 1.25202850853e-38
-0.0188306595339 -0.0975770539484 0.925 1.50037460978e-38
-0.017026247441 -0.0970496104135 0.92 1.61946914457e-38
-0.0152903104736 -0.0968386329996 0.918 1.60103548366e-38
-0.01354697079 -0.0965221668787 0.915 1.30628818637e-38
-0.0118535994412 -0.0965221668787 0.915 9.19293831551e-39
-0.0101380199437 -0.0963111894648 0.913 7.07283259352e-39
-0.00844834995305 -0.0963111894648 0.913 3.03060920827e-39
-0.0067364718136 -0.0959947233438 0.91 2.66790552156e-39
-0.0050523538602 -0.0959947233438 0.91 3.21860040375e-39
-0.0033682359068 -0.0959947233438 0.91 5.32645877716e-39
-0.0016841179534 -0.0959947233438 0.91 1.42668242549e-38
0.0 -0.0959947233438 0.91 1.18697378784e-38
0.00168041659526 -0.0957837459299 0.908 1.37118413994e-38
0.00336083319052 -0.0957837459299 0.908 1.42643061215e-38
0.00504124978578 -0.0957837459299 0.908 1.56472629903e-38
0.00672166638105 -0.0957837459299 0.908 1.54592774e-38
0.00840208297631 -0.0957837459299 0.908 1.65620320291e-38
0.0100824995716 -0.0957837459299 0.908 1.75725658049e-38
0.0117629161668 -0.0957837459299 0.908 1.79399063883e-38
0.0134433327621 -0.0957837459299 0.908 1.72031036557e-38
0.0151237493574 -0.0957837459299 0.908 1.80328082725e-38
0.0168041659526 -0.0957837459299 0.908 1.8678174879e-38
0.0184845825479 -0.0957837459299 0.908 1.81260730931e-38
0.0201649991431 -0.0957837459299 0.908 1.7296690775e-38
0.0218454157384 -0.0957837459299 0.908 1.83119287098e-38
0.0235258323337 -0.0957837459299 0.908 1.81275402526e-38
0.025261769301 -0.0959947233438 0.91 1.61961431909e-38
0.0269458872544 -0.0959947233438 0.91 1.48178750669e-38
0.0286300052078 -0.0959947233438 0.91 1.42614544792e-38
0.030414059831 -0.0963111894648 0.913 1.28731754789e-38
0.0321037298216 -0.0963111894648 0.913 1.0572260216e-38
0.033867426975 -0.0965221668787 0.915 5.97082065261e-39
0.0355607983237 -0.0965221668787 0.915 6.35290429709e-39
0.0373763144911 -0.0968386329996 0.918 8.29186416659e-39
0.0391603691142 -0.0970496104135 0.92 8.11108545431e-39
0.0408629938583 -0.0970496104135 0.92 7.00403864801e-39
0.0425656186024 -0.0970496104135 0.92 1.39053845394e-38
0.0442682433465 -0.0970496104135 0.92 1.85940829581e-38
-0.024173570008 -0.0966942800322 0.933 2.35098856151e-38
-0.022446886436 -0.0966942800322 0.933 1.04108740732e-38
-0.0206535784175 -0.0963833659485 0.93 8.83250473231e-39
-0.0188917319432 -0.0961760898927 0.928 9.30027217268e-39
-0.0170817678131 -0.0956578997532 0.923 1.55551178071e-38
-0.0153236226969 -0.0953469856695 0.92 1.65649635454e-38
-0.0135913870877 -0.0951397096136 0.918 1.53628176189e-38
-0.0118535994412 -0.0948287955299 0.915 1.72063042214e-38
-0.0101602280925 -0.0948287955299 0.915 1.55536436411e-38
-0.00846685674374 -0.0948287955299 0.915 1.22392700926e-38
-0.0067364718136 -0.0943106053904 0.91 9.56489057209e-39
-0.0050523538602 -0.0943106053904 0.91 8.64373021098e-39
-0.0033682359068 -0.0943106053904 0.91 4.68363132353e-39
-0.0016841179534 -0.0943106053904 0.91 1.03997926049e-38
0.0 -0.0943106053904 0.91 2.84837594818e-39
0.00168041659526 -0.0941033293346 0.908 3.22151650586e-39
0.00336083319052 -0.0941033293346 0.908 3.67919319599e-39
0.00504124978578 -0.0941033293346 0.908 3.67349131254e-39
0.00672166638105 -0.0941033293346 0.908 5.87862502275e-39
0.00840208297631 -0.0941033293346 0.908 9.10183709975e-39
0.0100824995716 -0.0941033293346 0.908 8.17484313313e-39
0.0117629161668 -0.0941033293346 0.908 1.01116800355e-38
0.0134433327621 -0.0941033293346 0.908 9.74215342653e-39
0.0151237493574 -0.0941033293346 0.908 9.74285687836e-39
0.0168041659526 -0.0941033293346 0.908 8.72729103971e-39
0.0184845825479 -0.0941033293346 0.908 9.83040440121e-39
0.0201649991431 -0.0941033293346 0.908 8.7280267214e-39
0.0218454157384 -0.0941033293346 0.908 8.08411746536e-39
0.0235258323337 -0.0941033293346 0.908 9.29162055596e-39
0.025261769301 -0.0943106053904 0.91 4.77696060386e-39
0.0269458872544 -0.0943106053904 0.91 4.78880017458e-39
0.0287243898404 -0.0946215194741 0.913 5.06574019138e-39
0.030414059831 -0.0946215194741 0.913 6.35612588226e-39
0.0321740556262 -0.0948287955299 0.915 6.72420494988e-39
0.0339784677192 -0.0951397096136 0.918 6.72596498075e-39
0.0356773911051 -0.0951397096136 0.918 7.00043871226e-39
0.0373763144911 -0.0951397096136 0.918 6.72780068174e-39
0.03928806597 -0.0956578997532 0.923 7.73617085277e-39
0.0409962427514 -0.0956578997532 0.923 1.54669298909e-38
0.0427044195327 -0.0956578997532 0.923 2.10825620204e-38
0.044412596314 -0.0956578997532 0.923 9.28691639702e-39
-0.0223747099523 -0.0946622344137 0.93 1.35520387238e-38
-0.0206535784175 -0.0946622344137 0.93 1.2405494919e-38
-0.0188917319432 -0.094458659716 0.928 7.54458953063e-39
-0.0171187813945 -0.0941532976695 0.925 7.54784194436e-39
-0.0153735910318 -0.0939497229719 0.923 1.32552339e-38
-0.0135913870877 -0.0934407862277 0.918 1.43554675931e-38
-0.0118924637017 -0.0934407862277 0.918 1.72956468076e-38
-0.0101602280925 -0.0931354241812 0.915 1.5453220988e-38
-0.00846685674374 -0.0931354241812 0.915 1.61875041859e-38
-0.00675867996244 -0.0929318494835 0.913 1.62843759487e-38
-0.00506900997183 -0.0929318494835 0.913 1.5272016281e-38
-0.00337933998122 -0.0929318494835 0.913 1.47238955841e-38
-0.00168966999061 -0.0929318494835 0.913 1.58323759187e-38
0.0 -0.092626487437 0.91 9.47268793573e-39
0.0016841179534 -0.092626487437 0.91 1.05697238658e-38
0.0033682359068 -0.092626487437 0.91 1.07537648009e-38
0.0050523538602 -0.092626487437 0.91 1.08477807175e-38
0.0067364718136 -0.092626487437 0.91 9.37879953733e-39
0.00840208297631 -0.0924229127394 0.908 6.06483096399e-39
0.0100824995716 -0.0924229127394 0.908 5.60561284554e-39
0.0117629161668 -0.0924229127394 0.908 4.87311209928e-39
0.0134433327621 -0.0924229127394 0.908 3.21825568433e-39
0.0151237493574 -0.0924229127394 0.908 4.23342075162e-39
0.0168041659526 -0.0924229127394 0.908 3.22182759412e-39
0.0184845825479 -0.0924229127394 0.908 4.51291673682e-39
0.0201649991431 -0.0924229127394 0.908 4.23597952261e-39
0.0218454157384 -0.0924229127394 0.908 2.39564724292e-39
0.0235258323337 -0.0924229127394 0.908 4.79167704033e-39
0.025261769301 -0.092626487437 0.91 4.88387267019e-39
0.0269458872544 -0.092626487437 0.91 5.25048177573e-39
0.0287243898404 -0.0929318494835 0.913 5.43342829674e-39
0.0304806842775 -0.0931354241812 0.915 6.1699367566e-39
0.0322795443332 -0.0934407862277 0.918 5.51955069906e-39
0.0339784677192 -0.0934407862277 0.918 7.63718032666e-39
0.0356773911051 -0.0934407862277 0.918 9.84516988313e-39
0.0374577443701 -0.0936443609254 0.92 1.52752785038e-38
0.03928806597 -0.0939497229719 0.923 1.88733869655e-38
0.0410850753467 -0.0941532976695 0.925 1.96102079149e-38
0.0427969534861 -0.0941532976695 0.925 1.23329244741e-38
-0.024225389022 -0.0934407862277 0.935 2.35098856151e-38
-0.0223747099523 -0.0929411028789 0.93 1.92681607688e-38
-0.0206535784175 -0.0929411028789 0.93 1.56437849675e-38
-0.0188917319432 -0.0927412295394 0.928 1.12216499504e-38
-0.0171187813945 -0.0924414195301 0.925 8.19250509898e-39
-0.015406903255 -0.0924414195301 0.925 3.31476591217e-39
-0.0136654142505 -0.0922415461905 0.923 9.66147647004e-39
-0.0119572374691 -0.0922415461905 0.923 1.40828239574e-38
-0.0101935403157 -0.0917418628417 0.918 1.59216470387e-38
-0.00846685674374 -0.0914420528324 0.915 1.67453316773e-38
-0.006773485395 -0.0914420528324 0.915 1.61936404719e-38
-0.00508011404625 -0.0914420528324 0.915 1.63740226167e-38
-0.00337933998122 -0.0912421794929 0.913 1.69282515736e-38
-0.00168966999061 -0.0912421794929 0.913 1.75722154803e-38
0.0 -0.0912421794929 0.913 1.69322592872e-38
0.00168966999061 -0.0912421794929 0.913 1.7942060184e-38
0.00337933998122 -0.0912421794929 0.913 1.73870885389e-38
0.00506900997183 -0.0912421794929 0.913 1.71104974454e-38
0.00675867996244 -0.0912421794929 0.913 1.61910284515e-38
0.008420589767 -0.0909423694836 0.91 1.61910284515e-38
0.0101047077204 -0.0909423694836 0.91 1.51805170965e-38
0.0117888256738 -0.0909423694836 0.91 1.48156792322e-38
0.0134729436272 -0.0909423694836 0.91 1.5276622349e-38
0.0151570615806 -0.0909423694836 0.91 1.38018706218e-38
0.016841179534 -0.0909423694836 0.91 1.38923020169e-38
0.0185252974874 -0.0909423694836 0.91 1.33370318952e-38
0.0202094154408 -0.0909423694836 0.91 1.30615646431e-38
0.0218935333942 -0.0909423694836 0.91 1.28796873128e-38
0.0235776513476 -0.0909423694836 0.91 1.20466896446e-38
0.0253450498591 -0.0912421794929 0.913 1.28717657726e-38
0.0270347198498 -0.0912421794929 0.913 1.18561649015e-38
0.0287873129287 -0.0914420528324 0.915 1.4990488413e-38
0.0305806209472 -0.0917418628417 0.918 1.31511888903e-38
0.0322795443332 -0.0917418628417 0.918 1.69308117459e-38
0.0340524948819 -0.0919417361813 0.92 1.74864714286e-38
0.035755119626 -0.0919417361813 0.92 1.95129956365e-38
0.0374577443701 -0.0919417361813 0.92 2.04317051266e-38
0.0393731972073 -0.0924414195301 0.925 1.77601800511e-38
0.0410850753467 -0.0924414195301 0.925 1.09554228603e-38
0.0427969534861 -0.0924414195301 0.925 9.58511831542e-39
-0.024225389022 -0.0917104012975 0.935 2.35098856151e-38
-0.0224950040919 -0.0917104012975 0.935 2.35098856151e-38
-0.020720202864 -0.0915142293162 0.933 9.28732978007e-39
-0.0188917319432 -0.0910237993627 0.928 1.74887149074e-38
-0.0171743017665 -0.0910237993627 0.928 1.30658400047e-38
-0.015406903255 -0.0907295413906 0.925 6.2513325792e-39
-0.0136950251156 -0.0907295413906 0.925 5.33984818399e-39
-0.0119572374691 -0.0905333694092 0.923 4.78523246869e-39
-0.0102490606878 -0.0905333694092 0.923 8.83103757282e-39
-0.00849461692979 -0.0900429394558 0.918 1.22381700733e-38
-0.006773485395 -0.0897486814837 0.915 1.37146986469e-38
-0.00508011404625 -0.0897486814837 0.915 1.57379718424e-38
-0.0033867426975 -0.0897486814837 0.915 1.61914320255e-38
-0.00169337134875 -0.0897486814837 0.915 1.84981150328e-38
0.0 -0.0897486814837 0.915 1.60117645429e-38
0.00169337134875 -0.0897486814837 0.915 1.73859745066e-38
0.0033867426975 -0.0897486814837 0.915 1.75700350599e-38
0.00506900997183 -0.0895525095023 0.913 1.73823787747e-38
0.00675867996244 -0.0895525095023 0.913 1.82135617615e-38
0.00844834995305 -0.0895525095023 0.913 1.91340691175e-38
0.0101380199437 -0.0895525095023 0.913 1.87642720579e-38
0.0117888256738 -0.0892582515302 0.91 1.74749779786e-38
0.0134729436272 -0.0892582515302 0.91 1.91305588648e-38
0.0152070299155 -0.0895525095023 0.913 1.95014895748e-38
0.0168966999061 -0.0895525095023 0.913 1.89490767007e-38
0.0185863698967 -0.0895525095023 0.913 1.90412569163e-38
0.0202760398873 -0.0895525095023 0.913 2.00557423538e-38
0.0219657098779 -0.0895525095023 0.913 1.87675342808e-38
0.0236553798685 -0.0895525095023 0.913 1.89505060251e-38
0.0253450498591 -0.0895525095023 0.913 2.01472667617e-38
0.0270347198498 -0.0895525095023 0.913 1.97809869613e-38
0.0287873129287 -0.0897486814837 0.915 2.01461345126e-38
0.0305806209472 -0.0900429394558 0.918 2.22680745342e-38
0.0322795443332 -0.0900429394558 0.918 2.11638975872e-38
0.0340524948819 -0.0902391114372 0.92 2.13471846237e-38
0.035755119626 -0.0902391114372 0.92 1.72087691054e-38
0.0374577443701 -0.0902391114372 0.92 1.29728806672e-38
0.0393731972073 -0.0907295413906 0.925 9.84946065903e-39
0.0410850753467 -0.0907295413906 0.925 8.111459601e-39
0.0427969534861 -0.0907295413906 0.925 7.74119590907e-39
-0.0224950040919 -0.0899800163674 0.935 2.35098856151e-38
-0.020720202864 -0.0897875457442 0.933 3.12250636156e-39
-0.0189324468827 -0.0894988398093 0.93 1.76691404925e-38
-0.0171743017665 -0.089306369186 0.928 1.66553164678e-38
-0.0154568715899 -0.089306369186 0.928 1.40771038571e-38
-0.0137394414132 -0.089306369186 0.928 9.01394205487e-39
-0.0119831469761 -0.0890176632512 0.925 6.34207085866e-39
-0.0102712688367 -0.0890176632512 0.925 4.23601175248e-39
-0.00849461692979 -0.0883440160698 0.918 2.48781764941e-39
-0.00679569354383 -0.0883440160698 0.918 2.66976504462e-39
-0.00509677015787 -0.0883440160698 0.918 7.35409001089e-39
-0.00339784677192 -0.0883440160698 0.918 1.08510751702e-38
-0.00169337134875 -0.0880553101349 0.915 1.4086737784e-38
0.0 -0.0880553101349 0.915 1.21511116036e-38
0.00169337134875 -0.0880553101349 0.915 1.5829095479e-38
0.0033867426975 -0.0880553101349 0.915 1.69322046366e-38
0.00508011404625 -0.0880553101349 0.915 1.90484021372e-38
0.006773485395 -0.0880553101349 0.915 1.74811114619e-38
0.00846685674374 -0.0880553101349 0.915 1.86770944779e-38
0.0101602280925 -0.0880553101349 0.915 1.86731582305e-38
0.0118535994412 -0.0880553101349 0.915 1.8579555697e-38
0.01354697079 -0.0880553101349 0.915 1.90394156101e-38
0.0152070299155 -0.0878628395117 0.913 1.89464590752e-38
0.0168966999061 -0.0878628395117 0.913 2.03316033708e-38
0.0185863698967 -0.0878628395117 0.913 1.8307244169e-38
0.0202760398873 -0.0878628395117 0.913 1.9593606732e-38
0.0219657098779 -0.0878628395117 0.913 1.95940383319e-38
0.0236553798685 -0.0878628395117 0.913 1.9595132746e-38
0.0254005702312 -0.0880553101349 0.915 2.0331998537e-38
0.02709394158 -0.0880553101349 0.915 1.85838688936e-38
0.0288816975613 -0.0883440160698 0.918 2.03318962422e-38
0.0306472453938 -0.0885364866931 0.92 1.84030355307e-38
0.0324553588448 -0.0888251926279 0.923 1.56432496714e-38
0.0341635356261 -0.0888251926279 0.923 1.16814271869e-38
0.0359494409284 -0.0890176632512 0.925 6.89385314846e-39
0.0376613190678 -0.0890176632512 0.925 7.0886392402e-39
0.0393731972073 -0.0890176632512 0.925 1.25246010846e-38
0.0410850753467 -0.0890176632512 0.925 1.01300230324e-38
-0.0224950040919 -0.0882496314373 0.935 2.35098856151e-38
-0.0207646191617 -0.0882496314373 0.935 1.28569694621e-39
-0.018993519292 -0.0880608621722 0.933 1.3157000075e-38
-0.0172113153479 -0.0877777082745 0.93 1.5922798906e-38
-0.0154901838131 -0.0877777082745 0.93 1.68386161161e-38
-0.0137690522784 -0.0877777082745 0.93 1.74836758381e-38
-0.0120220112366 -0.0875889390094 0.928 1.3617882936e-38
-0.0102712688367 -0.0873057851117 0.925 8.73481601246e-39
-0.00854088390653 -0.0871170158466 0.923 5.60203673186e-39
-0.00679569354383 -0.0866450926839 0.918 3.9583234423e-39
-0.00509677015787 -0.0866450926839 0.918 4.14701108311e-39
-0.00339784677192 -0.0866450926839 0.918 3.77503920836e-39
-0.00169892338596 -0.0866450926839 0.918 4.14672802082e-39
0.0 -0.0866450926839 0.918 4.61047233331e-39
0.00169892338596 -0.0866450926839 0.918 5.4208684586e-39
0.00339784677192 -0.0866450926839 0.918 7.4415912909e-39
0.00509677015787 -0.0866450926839 0.918 9.00419322145e-39
0.00679569354383 -0.0866450926839 0.918 1.19537120902e-38
0.00849461692979 -0.0866450926839 0.918 1.27842168484e-38
0.0101935403157 -0.0866450926839 0.918 1.35227768093e-38
0.0118535994412 -0.0863619387862 0.915 1.44444038028e-38
0.01354697079 -0.0863619387862 0.915 1.51844827711e-38
0.0152403421387 -0.0863619387862 0.915 1.49082714295e-38
0.0169337134875 -0.0863619387862 0.915 1.537134452e-38
0.0186270848362 -0.0863619387862 0.915 1.42653528915e-38
0.020320456185 -0.0863619387862 0.915 1.47253263098e-38
0.0220138275337 -0.0863619387862 0.915 1.45401867567e-38
0.0237071988825 -0.0863619387862 0.915 1.43540004336e-38
0.0254005702312 -0.0863619387862 0.915 1.44451072546e-38
0.0271827741753 -0.0866450926839 0.918 1.25065327422e-38
0.0288816975613 -0.0866450926839 0.918 1.06619349099e-38
0.0307471820635 -0.0871170158466 0.923 7.25505604452e-39
0.0324553588448 -0.0871170158466 0.923 6.16271446432e-39
0.0342375627889 -0.0873057851117 0.925 5.15690446558e-39
0.0359494409284 -0.0873057851117 0.925 1.19649855363e-38
0.0376613190678 -0.0873057851117 0.925 1.75869809622e-38
0.0393731972073 -0.0873057851117 0.925 1.37155436299e-38
0.0410850753467 -0.0873057851117 0.925 1.10526953945e-38
-0.0208312436082 -0.0867968483676 0.938 7.73792808105e-39
-0.018993519292 -0.0863341786002 0.933 7.91154055299e-39
-0.01726683572 -0.0863341786002 0.933 8.28466149249e-39
-0.0154901838131 -0.0860565767397 0.93 1.43554479749e-38
-0.0137690522784 -0.0860565767397 0.93 1.61017503251e-38
-0.0120220112366 -0.0858715088327 0.928 1.74792561428e-38
-0.0103045810599 -0.0858715088327 0.928 1.6836409071e-38
-0.00855939069723 -0.0855939069723 0.925 1.58276885753e-38
-0.00681049897639 -0.0851312372049 0.92 1.03010052671e-38
-0.00510787423229 -0.0851312372049 0.92 9.36728506784e-39
-0.00340524948819 -0.0851312372049 0.92 9.09643369287e-39
-0.00169892338596 -0.0849461692979 0.918 5.05275435851e-39
0.0 -0.0849461692979 0.918 5.80971196687e-39
0.00169892338596 -0.0849461692979 0.918 3.03856718225e-39
0.00339784677192 -0.0849461692979 0.918 3.68392117701e-39
0.00509677015787 -0.0849461692979 0.918 4.05445672084e-39
0.00679569354383 -0.0849461692979 0.918 4.05270229517e-39
0.00849461692979 -0.0849461692979 0.918 3.22186963307e-39
0.0101935403157 -0.0849461692979 0.918 4.14308604612e-39
0.0118924637017 -0.0849461692979 0.918 2.76080880715e-39
0.0135913870877 -0.0849461692979 0.918 4.23597952261e-39
0.0152403421387 -0.0846685674374 0.915 3.77464824608e-39
0.0169337134875 -0.0846685674374 0.915 3.68427570552e-39
0.0186270848362 -0.0846685674374 0.915 3.1282250606e-39
0.020320456185 -0.0846685674374 0.915 5.3402041138e-39
0.0220138275337 -0.0846685674374 0.915 3.40547476436e-39
0.0237071988825 -0.0846685674374 0.915 4.14303980327e-39
0.0254838507894 -0.0849461692979 0.918 4.87521965217e-39
0.0271827741753 -0.0849461692979 0.918 5.24397975085e-39
0.0289446206497 -0.0851312372049 0.92 4.50899169982e-39
0.0307471820635 -0.0854088390653 0.923 8.64629038328e-39
0.0325256846495 -0.0855939069723 0.925 1.41679122015e-38
0.0342375627889 -0.0855939069723 0.925 1.85013380193e-38
0.0359494409284 -0.0855939069723 0.925 1.82273141046e-38
0.0376613190678 -0.0855939069723 0.925 1.25119207348e-38
0.0393731972073 -0.0855939069723 0.925 1.12316916552e-38
-0.0190953066409 -0.0850609114002 0.938 7.43884054202e-39
-0.0173038493014 -0.084788861577 0.935 6.16597388454e-39
-0.0155734643713 -0.084788861577 0.935 6.26320718239e-39
-0.013813468576 -0.0846074950282 0.933 1.17822870452e-38
-0.0120479207436 -0.0843354452049 0.93 1.47249493605e-38
-0.0103045810599 -0.0841540786561 0.928 1.69297131279e-38
-0.00855939069723 -0.0838820288328 0.925 1.65566342274e-38
-0.00683270712523 -0.083700662284 0.923 1.77554674844e-38
-0.00510787423229 -0.0834286124608 0.92 1.81243158649e-38
-0.00340524948819 -0.0834286124608 0.92 1.76669124279e-38
-0.0017026247441 -0.0834286124608 0.92 1.52784958851e-38
0.0 -0.0834286124608 0.92 1.35325634777e-38
0.00170817678131 -0.083700662284 0.923 1.05719351148e-38
0.00340524948819 -0.0834286124608 0.92 1.038035099e-38
0.00510787423229 -0.0834286124608 0.92 1.04772353646e-38
0.00683270712523 -0.083700662284 0.923 8.26561924765e-39
0.00851312372049 -0.0834286124608 0.92 8.63764156916e-39
0.0102157484646 -0.0834286124608 0.92 6.79912116838e-39
0.0119183732087 -0.0834286124608 0.92 6.61722842382e-39
0.0135913870877 -0.0832472459119 0.918 6.25240737512e-39
0.0152903104736 -0.0832472459119 0.918 5.79002372345e-39
0.0169892338596 -0.0832472459119 0.918 6.98569284852e-39
0.0186881572455 -0.0832472459119 0.918 7.08146599336e-39
0.0203870806315 -0.0832472459119 0.918 9.01398129123e-39
0.0221341216733 -0.0834286124608 0.92 9.19223766628e-39
0.0239144749383 -0.083700662284 0.923 1.1310614186e-38
0.0256226517196 -0.083700662284 0.923 1.3149459688e-38
0.0273308285009 -0.083700662284 0.923 1.52720569186e-38
0.0290390052822 -0.083700662284 0.923 1.68436509814e-38
0.0307471820635 -0.083700662284 0.923 1.95158598906e-38
0.0325256846495 -0.0838820288328 0.925 1.97892322015e-38
0.0343486035331 -0.0841540786561 0.928 1.73030989128e-38
0.0359494409284 -0.0838820288328 0.925 1.06745003533e-38
0.0376613190678 -0.0838820288328 0.925 8.74961512555e-39
0.0393731972073 -0.0838820288328 0.925 8.66247117665e-39
0.0416624872164 -0.0850609114002 0.938 8.29548091793e-39
-0.0190953066409 -0.0833249744329 0.938 1.25126297918e-38
-0.0173593696735 -0.0833249744329 0.938 9.56640957963e-39
-0.0155734643713 -0.0830584766468 0.935 6.07415380267e-39
-0.0138430794411 -0.0830584766468 0.935 3.40948387927e-39
-0.012086785004 -0.0828808114561 0.933 5.24042185405e-39
-0.0103267892088 -0.0826143136701 0.93 1.25162619574e-38
-0.00858715088327 -0.0824366484794 0.928 1.55571552951e-38
-0.00683270712523 -0.0819924855027 0.923 1.67481735106e-38
-0.00512453034392 -0.0819924855027 0.923 1.67438995503e-38
-0.00341635356261 -0.0819924855027 0.923 1.72023567636e-38
-0.00170817678131 -0.0819924855027 0.923 1.8213231055e-38
0.0 -0.0819924855027 0.923 1.94193903004e-38
0.00170817678131 -0.0819924855027 0.923 1.86774448025e-38
0.00341635356261 -0.0819924855027 0.923 1.78476939428e-38
0.00512453034392 -0.0819924855027 0.923 1.84012306583e-38
0.00683270712523 -0.0819924855027 0.923 1.79420755983e-38
0.00851312372049 -0.0817259877167 0.92 1.79427790501e-38
0.0102157484646 -0.0817259877167 0.92 1.76694333639e-38
0.0119183732087 -0.0817259877167 0.92 1.60106729314e-38
0.0135913870877 -0.081548322526 0.918 1.69333312806e-38
0.0152903104736 -0.081548322526 0.918 1.67489035871e-38
0.017026247441 -0.0817259877167 0.92 1.75786824727e-38
0.0186881572455 -0.081548322526 0.918 1.71180896805e-38
0.0203870806315 -0.081548322526 0.918 1.83140993211e-38
0.0221341216733 -0.0817259877167 0.92 1.73896052709e-38
0.0239144749383 -0.0819924855027 0.923 1.9047711297e-38
0.0256226517196 -0.0819924855027 0.923 2.04248527771e-38
0.0273308285009 -0.0819924855027 0.923 2.09780685953e-38
0.0290390052822 -0.0819924855027 0.923 1.81253850556e-38
0.03081380651 -0.0821701506934 0.925 1.58265773456e-38
0.0326311733564 -0.0824366484794 0.928 9.65784710702e-39
0.0344226306959 -0.0826143136701 0.93 6.71842739631e-39
0.0361437622307 -0.0826143136701 0.93 7.19055567751e-39
0.0378648937655 -0.0826143136701 0.93 7.92490053255e-39
0.0397988533933 -0.0830584766468 0.935 9.5847707934e-39
0.0416624872164 -0.0833249744329 0.938 8.20258183624e-39
0.0433984241838 -0.0833249744329 0.938 1.29931826793e-38
-0.0210533250966 -0.0824588566283 0.948 2.35098856151e-38
-0.0191360215804 -0.0817630012981 0.94 1.03018292306e-38
-0.0173963832549 -0.0817630012981 0.94 1.67514987918e-38
-0.0156234327062 -0.0815890374655 0.938 1.07616709268e-38
-0.0138430794411 -0.0813280917167 0.935 6.5271809845e-39
