# .PCD v0.7 - Point Cloud Data file format
VERSION 0.7
FIELDS x y z rgb
SIZE 4 4 4 4
TYPE F F F F
COUNT 1 1 1 1
WIDTH 848
HEIGHT 1
VIEWPOINT 0 0 0 1 0 0 0
POINTS 848
DATA ascii
0.0198485330222 -0.122700022319 0.975 1.42743800562e-38
0.0216085288175 -0.122448329966 0.973 1.44605761883e-38
0.0234092395523 -0.122448329966 0.973 1.28007395586e-38
0.0252099502871 -0.122448329966 0.973 1.33521140706e-38
0.0269273804637 -0.122070791436 0.97 1.35372087821e-38
0.0287225391613 -0.122070791436 0.97 1.31687807912e-38
0.0305176978589 -0.122070791436 0.97 1.2985105595e-38
0.0322129198867 -0.121693252905 0.967 1.25244861781e-38
0.0340025265471 -0.121693252905 0.967 1.33527390497e-38
0.0356810924633 -0.121315714375 0.964 1.2985053747e-38
0.0374651470864 -0.121315714375 0.964 1.24315716821e-38
0.0390456270119 -0.120686483491 0.959 1.12333970354e-38
0.0406927313839 -0.120308944961 0.956 9.7582389316e-39
0.0423731479792 -0.120057252608 0.954 1.61983095984e-38
0.0439998948814 -0.119679714077 0.951 2.35098085437e-38
0.0457598906767 -0.119679714077 0.951 1.65822079244e-38
0.0475198864719 -0.119679714077 0.951 3.67341984632e-40
0.0492798822672 -0.119679714077 0.951 1.57483078199e-38
-0.0263166563707 -0.117547731789 0.948 1.01364171573e-38
-0.0245622126127 -0.117547731789 0.948 4.6836635534e-39
-0.0228077688546 -0.117547731789 0.948 2.75506488474e-39
-0.0211199495431 -0.117919718282 0.951 2.34914375209e-38
-0.019522813506 -0.118911682264 0.959 2.34954718591e-38
-0.0178035326502 -0.119283668757 0.962 1.92508014835e-38
-0.0160564916085 -0.119531659752 0.964 1.74065385616e-38
-0.014316853283 -0.119903646245 0.967 1.63956432507e-38
-0.0125661108831 -0.120275632738 0.97 1.73147114732e-38
-0.0107709521855 -0.120275632738 0.97 1.6947352673e-38
-0.00900355367395 -0.120647619231 0.973 1.60268439157e-38
-0.00720284293916 -0.120647619231 0.973 1.52889257496e-38
-0.00541323627879 -0.120895610226 0.975 1.52882040808e-38
-0.00360882418586 -0.120895610226 0.975 1.47353960406e-38
-0.00180996413014 -0.121267596719 0.978 1.54732413392e-38
0.0 -0.121267596719 0.978 1.47371560714e-38
0.00180996413014 -0.121267596719 0.978 1.53828786077e-38
0.00361992826028 -0.121267596719 0.978 1.30798207595e-38
0.00542989239041 -0.121267596719 0.978 1.38159438623e-38
0.00723985652055 -0.121267596719 0.978 1.42744052796e-38
0.00904982065069 -0.121267596719 0.978 1.37230672014e-38
0.0108597847808 -0.121267596719 0.978 1.47353806263e-38
0.012669748911 -0.121267596719 0.978 1.33513769876e-38
0.0144797130411 -0.121267596719 0.978 1.30755285823e-38
0.0162896771712 -0.121267596719 0.978 1.41807775227e-38
0.0180441209293 -0.120895610226 0.975 1.32605868601e-38
0.0198485330222 -0.120895610226 0.975 1.35378968197e-38
0.0216085288175 -0.120647619231 0.973 1.40006700323e-38
0.0234092395523 -0.120647619231 0.973 1.29854615248e-38
0.0252099502871 -0.120647619231 0.973 1.38148690664e-38
0.0269273804637 -0.120275632738 0.97 1.24315870964e-38
0.0287225391613 -0.120275632738 0.97 1.33527993055e-38
0.0305176978589 -0.120275632738 0.97 1.42758304001e-38
0.0322129198867 -0.119903646245 0.967 1.30762054095e-38
0.0340025265471 -0.119903646245 0.967 1.25241358535e-38
0.0357921332074 -0.119903646245 0.967 1.23401173391e-38
0.0374651470864 -0.119531659752 0.964 8.92635529566e-39
0.0391677718305 -0.119283668757 0.962 1.45365994326e-38
0.0408204282397 -0.118911682264 0.959 2.34935590867e-38
0.0425952294675 -0.118911682264 0.959 2.35041206733e-38
0.0442312297651 -0.118539695771 0.956 1.25259351207e-38
0.0460004789557 -0.118539695771 0.956 2.66322938858e-39
0.0477697281463 -0.118539695771 0.956 5.15475627503e-39
-0.0263166563707 -0.115793288031 0.948 1.45661836458e-38
-0.0245622126127 -0.115793288031 0.948 1.37988564288e-38
-0.0228077688546 -0.115793288031 0.948 4.87131283206e-39
-0.0211199495431 -0.116159722487 0.951 2.84693961725e-39
-0.019522813506 -0.117136881036 0.959 1.70220558941e-38
-0.0178035326502 -0.117503315492 0.962 2.34957479149e-38
-0.0160564916085 -0.117747605129 0.964 2.30297531171e-38
-0.014316853283 -0.118114039585 0.967 1.8511463802e-38
-0.0125661108831 -0.11848047404 0.97 1.69462834823e-38
-0.0107709521855 -0.11848047404 0.97 1.501306193e-38
-0.00900355367395 -0.118846908496 0.973 1.49204991599e-38
-0.00721764837172 -0.119091198133 0.975 1.63934656329e-38
-0.00541323627879 -0.119091198133 0.975 1.49183453642e-38
-0.00360882418586 -0.119091198133 0.975 1.49197802938e-38
-0.00180996413014 -0.119457632589 0.978 1.51045414963e-38
0.0 -0.119457632589 0.978 1.48297076311e-38
0.00180996413014 -0.119457632589 0.978 1.39981140639e-38
0.00361992826028 -0.119457632589 0.978 1.36322602583e-38
0.00542989239041 -0.119457632589 0.978 1.40003225103e-38
0.00723985652055 -0.119457632589 0.978 1.35368010043e-38
0.00904982065069 -0.119457632589 0.978 1.36300924496e-38
0.0108597847808 -0.119457632589 0.978 1.33527838913e-38
0.012669748911 -0.119457632589 0.978 1.28918267614e-38
0.0144797130411 -0.119457632589 0.978 1.28911177044e-38
0.0162896771712 -0.119457632589 0.978 1.298257485e-38
0.0180996413014 -0.119457632589 0.978 1.27989276797e-38
0.0198485330222 -0.119091198133 0.975 1.27074481134e-38
0.0216529451152 -0.119091198133 0.975 1.34435487954e-38
0.0234092395523 -0.118846908496 0.973 1.32591547331e-38
0.0252099502871 -0.118846908496 0.973 1.27078012406e-38
0.0270106610218 -0.118846908496 0.973 1.13255898626e-38
0.0287225391613 -0.11848047404 0.97 1.25215574643e-38
0.0305176978589 -0.11848047404 0.97 1.17829961022e-38
0.0323128565565 -0.11848047404 0.97 1.02152766296e-38
0.034108015254 -0.11848047404 0.97 9.84397597684e-39
0.0357921332074 -0.118114039585 0.967 1.39869765438e-38
0.0375817398678 -0.118114039585 0.967 2.32147623495e-38
0.0391677718305 -0.117503315492 0.962 2.34968731576e-38
0.0409481250955 -0.117503315492 0.962 1.74098596389e-38
0.0427284783606 -0.117503315492 0.962 2.47956540276e-39
0.0445088316256 -0.117503315492 0.962 2.39179647474e-39
0.0462891848906 -0.117503315492 0.962 8.19394002861e-39
-0.0196246008548 -0.115963550506 0.964 2.4796158495e-39
-0.0178405462316 -0.115963550506 0.964 1.04836449037e-38
-0.0161064599433 -0.116324432924 0.967 1.82277274876e-38
-0.0143612695806 -0.116685315343 0.97 2.34860677451e-38
-0.0125661108831 -0.116685315343 0.97 2.12813179907e-38
-0.0108042644087 -0.117046197761 0.973 1.98075906127e-38
-0.00902206046465 -0.11728678604 0.975 1.75877054335e-38
-0.00723985652055 -0.117647668459 0.978 1.50958464393e-38
-0.00542989239041 -0.117647668459 0.978 1.45487795189e-38
-0.00361992826028 -0.117647668459 0.978 1.35350451773e-38
-0.00180996413014 -0.117647668459 0.978 1.41800614591e-38
0.0 -0.117647668459 0.978 1.3997480677e-38
0.00181551616735 -0.118008550878 0.981 1.40006476116e-38
0.00363103233469 -0.118008550878 0.981 1.29858370728e-38
0.00544654850204 -0.118008550878 0.981 1.33513769876e-38
0.00726206466939 -0.118008550878 0.981 1.34431830565e-38
0.00907758083674 -0.118008550878 0.981 1.30736886774e-38
0.0108597847808 -0.117647668459 0.978 1.26145280122e-38
0.012669748911 -0.117647668459 0.978 1.31683912302e-38
0.0144797130411 -0.117647668459 0.978 1.30755047602e-38
0.0162896771712 -0.117647668459 0.978 1.19680894124e-38
0.0180996413014 -0.117647668459 0.978 1.34432531214e-38
0.0199096054315 -0.117647668459 0.978 1.16922466123e-38
0.0217195695617 -0.117647668459 0.978 1.23357593009e-38
0.0234573572081 -0.11728678604 0.975 1.25194022673e-38
0.025261769301 -0.11728678604 0.975 1.16921863565e-38
0.0270661813939 -0.11728678604 0.975 1.02152640179e-38
0.0288113717566 -0.117046197761 0.973 1.21484785637e-38
0.0306120824914 -0.117046197761 0.973 1.3990235964e-38
0.0323128565565 -0.116685315343 0.97 1.83241760583e-38
0.034108015254 -0.116685315343 0.97 2.35029309709e-38
0.0357921332074 -0.116324432924 0.967 2.35008037998e-38
0.0375817398678 -0.116324432924 0.967 1.80594665745e-38
0.0392492017096 -0.115963550506 0.964 2.93981207428e-39
0.0410332563327 -0.115963550506 0.964 1.6530781672e-39
0.0428173109559 -0.115963550506 0.964 4.42402536874e-39
0.0446013655791 -0.115963550506 0.964 9.38598399455e-39
-0.0179515869758 -0.114890156645 0.97 1.56123426325e-39
-0.0161564282782 -0.114890156645 0.97 6.2509696429e-39
-0.0143612695806 -0.114890156645 0.97 1.03846095361e-38
-0.0125661108831 -0.114890156645 0.97 1.12233399163e-38
-0.0107709521855 -0.114890156645 0.97 1.68451826007e-38
-0.00902206046465 -0.115482373947 0.975 2.34884891889e-38
-0.00721764837172 -0.115482373947 0.975 2.34914515338e-38
-0.00542989239041 -0.115837704329 0.978 2.24826833941e-38
-0.00361992826028 -0.115837704329 0.978 1.86089871686e-38
-0.00180996413014 -0.115837704329 0.978 1.83220278678e-38
0.0 -0.115837704329 0.978 1.62937268134e-38
0.00181551616735 -0.11619303471 0.981 1.33438674291e-38
0.00363103233469 -0.11619303471 0.981 1.21499275064e-38
0.00544654850204 -0.11619303471 0.981 1.13194423663e-38
0.00726206466939 -0.11619303471 0.981 1.24279255035e-38
0.00907758083674 -0.11619303471 0.981 1.16892954778e-38
0.0108930970041 -0.11619303471 0.981 1.1690371675e-38
0.0127086131714 -0.11619303471 0.981 1.12297592646e-38
0.0145241293388 -0.11619303471 0.981 1.23360900073e-38
0.0162896771712 -0.115837704329 0.978 1.10429115286e-38
0.0180996413014 -0.115837704329 0.978 1.11325862226e-38
0.0199096054315 -0.115837704329 0.978 1.27935340819e-38
0.0217195695617 -0.115837704329 0.978 1.50069732881e-38
0.0234573572081 -0.115482373947 0.975 1.62001368916e-38
0.025261769301 -0.115482373947 0.975 1.85043059694e-38
0.0270661813939 -0.115482373947 0.975 2.34977741925e-38
0.0288705934869 -0.115482373947 0.975 2.33171201958e-38
0.0306120824914 -0.115245487027 0.973 2.21178861674e-38
0.0324127932262 -0.115245487027 0.973 1.8796287524e-38
0.034108015254 -0.114890156645 0.97 8.74637952739e-39
0.0359031739516 -0.114890156645 0.97 1.46937214242e-39
0.0375817398678 -0.114534826264 0.967 1.65778372744e-39
0.0393713465282 -0.114534826264 0.967 2.85812758419e-39
0.0411609531886 -0.114534826264 0.967 6.99678832976e-39
0.040774161263 -0.108731096701 0.918 1.29733346879e-38
0.042473084649 -0.108731096701 0.918 2.11690165305e-38
-0.0189324468827 -0.108431286692 0.93 1.54640025784e-38
-0.0171743017665 -0.108198101129 0.928 1.06687774503e-38
-0.0161564282782 -0.113094997948 0.97 3.67378558522e-39
-0.0143612695806 -0.113094997948 0.97 1.7498966807e-39
-0.0125661108831 -0.113094997948 0.97 2.38847399608e-39
-0.0107709521855 -0.113094997948 0.97 5.78570211898e-39
-0.00900355367395 -0.113444776292 0.973 7.25509948478e-39
-0.00721764837172 -0.113677961855 0.975 1.23189801531e-38
-0.00541323627879 -0.113677961855 0.975 1.14128080804e-38
-0.00361992826028 -0.114027740199 0.978 1.81408441802e-38
-0.00180996413014 -0.114027740199 0.978 1.95216402467e-38
0.0 -0.114027740199 0.978 2.34941756581e-38
0.00181551616735 -0.114377518543 0.981 2.34990115391e-38
0.00363103233469 -0.114377518543 0.981 2.34989919209e-38
0.00544654850204 -0.114377518543 0.981 2.34986065638e-38
0.00726206466939 -0.114377518543 0.981 2.28532637794e-38
0.00907758083674 -0.114377518543 0.981 2.2577381743e-38
0.0108930970041 -0.114377518543 0.981 2.21174783896e-38
0.0127086131714 -0.114377518543 0.981 2.25784411246e-38
0.0145241293388 -0.114377518543 0.981 2.13817126179e-38
0.0163396455061 -0.114377518543 0.981 2.24887734372e-38
0.0180996413014 -0.114027740199 0.978 2.21203314333e-38
0.0199096054315 -0.114027740199 0.978 2.29490004905e-38
0.0216529451152 -0.113677961855 0.975 1.92594657119e-38
0.0234573572081 -0.113677961855 0.975 1.93462761517e-38
0.025261769301 -0.113677961855 0.975 1.4640708902e-38
0.0270661813939 -0.113677961855 0.975 8.8320521129e-39
0.0288705934869 -0.113677961855 0.975 1.74493328154e-39
0.0306750055798 -0.113677961855 0.975 6.0255833966e-44
0.0324127932262 -0.113444776292 0.973 2.52233723578e-44
0.0321037298216 -0.106449209408 0.913 4.32749412142e-39
0.0337933998122 -0.106449209408 0.913 4.05305542238e-39
0.0355607983237 -0.106682394971 0.915 5.2404680969e-39
0.0372541696725 -0.106682394971 0.915 1.23208228606e-38
0.039075237877 -0.107032173315 0.918 1.9328581956e-38
0.040774161263 -0.107032173315 0.918 1.9510176224e-38
0.042473084649 -0.107032173315 0.918 2.16213248462e-38
0.044412596314 -0.107615137222 0.923 2.01572888483e-38
-0.022446886436 -0.107054381464 0.933 9.56037558844e-39
-0.020720202864 -0.107054381464 0.933 9.57361785893e-39
-0.0189324468827 -0.106710155157 0.93 1.40842939195e-38
-0.0171743017665 -0.106480670953 0.928 1.58284466778e-38
-0.0153735910318 -0.105906960441 0.923 1.46349593744e-38
-0.0136654142505 -0.105906960441 0.923 7.63065447971e-39
-0.0118535994412 -0.104989023622 0.915 9.56244390497e-39
-0.0101602280925 -0.104989023622 0.915 2.38776073517e-39
-0.00900355367395 -0.111644065557 0.973 2.85088146983e-39
-0.00721764837172 -0.111873549762 0.975 1.10205257857e-39
-0.00541323627879 -0.111873549762 0.975 4.5917748079e-40
-0.00361992826028 -0.112217776069 0.978 2.75512233798e-39
-0.00180996413014 -0.112217776069 0.978 4.22443282327e-39
0.0 -0.112562002376 0.981 3.03057137321e-39
0.00181551616735 -0.112562002376 0.981 3.12240686937e-39
0.00363103233469 -0.112562002376 0.981 3.489748854e-39
0.00544654850204 -0.112562002376 0.981 7.07139766389e-39
0.00726206466939 -0.112562002376 0.981 5.69387923451e-39
0.00907758083674 -0.112562002376 0.981 5.51021104479e-39
0.0108930970041 -0.112562002376 0.981 6.8917245761e-39
0.0127086131714 -0.112562002376 0.981 6.34177518468e-39
0.0145241293388 -0.112562002376 0.981 1.10208340713e-39
0.0163396455061 -0.112562002376 0.981 1.83686406599e-40
0.0180996413014 -0.112217776069 0.978 6.42882104269e-40
0.0199096054315 -0.112217776069 0.978 5.6051938573e-45
0.0216529451152 -0.111873549762 0.975 2.94272677508e-44
0.0234573572081 -0.111873549762 0.975 2.10194769649e-44
0.025261769301 -0.111873549762 0.975 2.66650282179e-39
0.0270661813939 -0.111873549762 0.975 4.51367764189e-39
0.0288705934869 -0.111873549762 0.975 4.51688241147e-39
0.0306750055798 -0.111873549762 0.975 3.40832920933e-39
0.030414059831 -0.104759539418 0.913 2.66648600621e-39
0.0321037298216 -0.104759539418 0.913 9.65827029916e-39
0.0337933998122 -0.104759539418 0.913 1.37993679027e-38
0.0355607983237 -0.104989023622 0.915 1.83169705816e-38
0.0372541696725 -0.104989023622 0.915 2.03366410388e-38
0.039075237877 -0.105333249929 0.918 2.18996493459e-38
0.040774161263 -0.105333249929 0.918 2.10695187343e-38
0.0427044195327 -0.105906960441 0.923 2.07029208392e-38
0.044412596314 -0.105906960441 0.923 1.24187133674e-38
0.0461207730953 -0.105906960441 0.923 1.42774517024e-38
-0.022446886436 -0.105327697892 0.933 1.55501852365e-38
-0.0206535784175 -0.104989023622 0.93 6.7191728871e-39
-0.0188917319432 -0.104763240776 0.928 6.1649173055e-39
-0.0171187813945 -0.104424566506 0.925 1.15060757036e-38
-0.0153735910318 -0.10419878366 0.923 1.54663889897e-38
-0.0135913870877 -0.103634326543 0.918 1.56422211184e-38
-0.0118535994412 -0.103295652274 0.915 1.53645776497e-38
-0.0101602280925 -0.103295652274 0.915 1.38016057764e-38
-0.00844834995305 -0.103069869427 0.913 1.03007123957e-38
-0.00675867996244 -0.103069869427 0.913 9.09393097381e-39
-0.00542989239041 -0.110407811938 0.978 5.51054595512e-39
-0.00361992826028 -0.110407811938 0.978 3.40335179719e-39
-0.00180996413014 -0.110407811938 0.978 3.7742656916e-39
0.0 -0.110746486208 0.981 4.14343076554e-39
0.00181551616735 -0.110746486208 0.981 3.86858428864e-39
0.00363103233469 -0.110746486208 0.981 3.96085418732e-39
0.00544654850204 -0.110746486208 0.981 3.59243040028e-39
0.00726206466939 -0.110746486208 0.981 3.59243040028e-39
0.00907758083674 -0.110746486208 0.981 3.59348697932e-39
0.0108930970041 -0.110746486208 0.981 3.50163606888e-39
0.0127086131714 -0.110746486208 0.981 3.50164167407e-39
0.0145241293388 -0.110746486208 0.981 3.6860329338e-39
0.0163396455061 -0.110746486208 0.981 4.60833395185e-39
0.0180996413014 -0.110407811938 0.978 4.32856331215e-39
0.0199096054315 -0.110407811938 0.978 5.34267740559e-39
0.0201649991431 -0.102505412311 0.908 4.41788908276e-39
0.0218454157384 -0.102505412311 0.908 4.60259703594e-39
0.0235258323337 -0.102505412311 0.908 6.25745064829e-39
0.0253450498591 -0.103069869427 0.913 5.51699192806e-39
0.0270347198498 -0.103069869427 0.913 1.14921131657e-38
0.0307693902124 -0.110407811938 0.978 1.3793716466e-38
0.030414059831 -0.103069869427 0.913 1.66574492441e-38
0.0321037298216 -0.103069869427 0.913 1.7946037069e-38
0.033867426975 -0.103295652274 0.915 2.07965023532e-38
0.0356773911051 -0.103634326543 0.918 1.92224041701e-38
0.0373763144911 -0.103634326543 0.918 2.05127506246e-38
0.039075237877 -0.103634326543 0.918 2.1253576485e-38
0.0408629938583 -0.10386010939 0.92 1.93214143144e-38
0.0427044195327 -0.10419878366 0.923 1.30644162855e-38
0.044412596314 -0.10419878366 0.923 9.3002581597e-39
0.0461207730953 -0.10419878366 0.923 2.11902714256e-38
-0.0223747099523 -0.103267892088 0.93 1.53711791668e-38
-0.0206535784175 -0.103267892088 0.93 1.51881625809e-38
-0.0188306595339 -0.102712688367 0.925 8.92214159117e-39
-0.0171187813945 -0.102712688367 0.925 2.84695643284e-39
-0.0153735910318 -0.102490606878 0.923 1.10480290706e-38
-0.0135913870877 -0.101935403157 0.918 1.20570214182e-38
-0.0118535994412 -0.101602280925 0.915 1.4078863888e-38
-0.0101602280925 -0.101602280925 0.915 1.55457515282e-38
-0.00844834995305 -0.101380199437 0.913 1.84916536456e-38
-0.00675867996244 -0.101380199437 0.913 1.72077741835e-38
-0.00508011404625 -0.101602280925 0.915 1.37086310246e-38
-0.0033867426975 -0.101602280925 0.915 1.31562209531e-38
-0.00169337134875 -0.101602280925 0.915 1.0294215976e-38
0.0 -0.108597847808 0.978 9.83000643245e-39
0.00180996413014 -0.108597847808 0.978 8.4550075377e-39
0.00363103233469 -0.108930970041 0.981 6.15589994988e-39
0.00544654850204 -0.108930970041 0.981 6.25240176993e-39
0.00726206466939 -0.108930970041 0.981 3.95113057728e-39
0.00910534102278 -0.109264092273 0.984 3.95544937915e-39
0.0108930970041 -0.108930970041 0.981 5.06321645285e-39
0.0117629161668 -0.100824995716 0.908 4.04510445489e-39
0.0134433327621 -0.100824995716 0.908 6.53044320732e-39
0.0151237493574 -0.100824995716 0.908 6.89453417952e-39
0.0168041659526 -0.100824995716 0.908 1.0113157004e-38
0.0184845825479 -0.100824995716 0.908 1.00215919585e-38
0.0201649991431 -0.100824995716 0.908 1.20427085557e-38
0.0218454157384 -0.100824995716 0.908 1.37919592378e-38
0.0235258323337 -0.100824995716 0.908 1.60131700453e-38
0.025261769301 -0.101047077204 0.91 1.63805498649e-38
0.0270347198498 -0.101380199437 0.913 1.89540961518e-38
0.0287243898404 -0.101380199437 0.913 1.98713314759e-38
0.0304806842775 -0.101602280925 0.915 1.99606698582e-38
0.0321740556262 -0.101602280925 0.915 1.95018230839e-38
0.0339784677192 -0.101935403157 0.918 2.05131009492e-38
0.0356773911051 -0.101935403157 0.918 2.07911718139e-38
0.0373763144911 -0.101935403157 0.918 2.01483457615e-38
0.0391603691142 -0.102157484646 0.92 1.71123667776e-38
0.0409962427514 -0.102490606878 0.923 1.1962735051e-38
0.0427044195327 -0.102490606878 0.923 1.04066449544e-38
0.044412596314 -0.102490606878 0.923 6.17211017052e-39
0.0461207730953 -0.102490606878 0.923 2.35062982911e-38
-0.0240958414871 -0.101546760553 0.93 2.35098856151e-38
-0.0223747099523 -0.101546760553 0.93 9.38207577314e-39
-0.0206535784175 -0.101546760553 0.93 1.59220674282e-38
-0.0188306595339 -0.101000810227 0.925 1.56419436613e-38
-0.0171187813945 -0.101000810227 0.925 1.10321467538e-38
-0.0153735910318 -0.100782430097 0.923 1.12294705971e-38
-0.0135913870877 -0.100236479772 0.918 2.84695363024e-39
-0.0118535994412 -0.0999089095762 0.915 5.51453124796e-39
-0.0101602280925 -0.0999089095762 0.915 1.13141258399e-38
-0.00846685674374 -0.0999089095762 0.915 1.31597564291e-38
-0.006773485395 -0.0999089095762 0.915 1.55514323922e-38
-0.00508011404625 -0.0999089095762 0.915 1.73866835636e-38
-0.00337933998122 -0.099690529446 0.913 1.87671265029e-38
-0.00168966999061 -0.099690529446 0.913 1.83991203028e-38
0.0 -0.099690529446 0.913 1.63729870571e-38
0.0016841179534 -0.0993629592506 0.91 1.67442526775e-38
0.0033682359068 -0.0993629592506 0.91 1.56400701252e-38
0.00544654850204 -0.107115453873 0.981 1.53670985857e-38
0.00672166638105 -0.0991445791204 0.908 1.51844995867e-38
0.00840208297631 -0.0991445791204 0.908 1.58302249255e-38
0.0100824995716 -0.0991445791204 0.908 1.55539911632e-38
0.0117629161668 -0.0991445791204 0.908 1.5185599606e-38
0.0134433327621 -0.0991445791204 0.908 1.61957872611e-38
0.0151237493574 -0.0991445791204 0.908 1.65609558318e-38
0.0168041659526 -0.0991445791204 0.908 1.82211427862e-38
0.0184845825479 -0.0991445791204 0.908 1.84948079684e-38
0.0201649991431 -0.0991445791204 0.908 1.95036195485e-38
0.0218454157384 -0.0991445791204 0.908 1.90404960112e-38
0.0235258323337 -0.0991445791204 0.908 1.95000826712e-38
0.025261769301 -0.0993629592506 0.91 1.95925865867e-38
0.0270347198498 -0.099690529446 0.913 1.89465557648e-38
0.0287243898404 -0.099690529446 0.913 1.9775520496e-38
0.0304806842775 -0.0999089095762 0.915 2.02357867857e-38
0.0322795443332 -0.100236479772 0.918 1.96869794525e-38
0.0339784677192 -0.100236479772 0.918 2.05138590517e-38
0.0356773911051 -0.100236479772 0.918 1.62858361017e-38
0.0374577443701 -0.100454859902 0.92 1.18639981599e-38
0.0391603691142 -0.100454859902 0.92 6.06658819226e-39
0.0409962427514 -0.100782430097 0.923 9.2149358988e-39
0.0427044195327 -0.100782430097 0.923 7.82980701746e-39
0.044412596314 -0.100782430097 0.923 1.46393776685e-38
0.0461207730953 -0.100782430097 0.923 2.35098856151e-38
-0.0240958414871 -0.0998256290181 0.93 2.35098856151e-38
-0.0223747099523 -0.0998256290181 0.93 1.83674215302e-39
-0.0206535784175 -0.0998256290181 0.93 1.40811143733e-38
-0.0188306595339 -0.0992889320879 0.925 1.60121372883e-38
-0.0171187813945 -0.0992889320879 0.925 1.61957928663e-38
-0.0153735910318 -0.0990742533158 0.923 1.59227736826e-38
-0.0135913870877 -0.0985375563856 0.918 1.1222225884e-38
-0.0118535994412 -0.0982155382274 0.915 7.7174424988e-39
-0.0101602280925 -0.0982155382274 0.915 4.68367756638e-39
-0.00846685674374 -0.0982155382274 0.915 2.38888177394e-39
-0.006773485395 -0.0982155382274 0.915 7.2626552861e-39
-0.00508011404625 -0.0982155382274 0.915 1.11247683784e-38
-0.00337933998122 -0.0980008594554 0.913 1.32469872585e-38
-0.00168966999061 -0.0980008594554 0.913 1.39869765438e-38
0.0 -0.0980008594554 0.913 1.67488573442e-38
0.0016841179534 -0.0976788412972 0.91 1.79413259036e-38
0.0033682359068 -0.0976788412972 0.91 1.78466401664e-38
0.0050523538602 -0.0976788412972 0.91 1.80285623382e-38
0.00672166638105 -0.0974641625252 0.908 1.8213968138e-38
0.00840208297631 -0.0974641625252 0.908 1.77530320277e-38
0.0100824995716 -0.0974641625252 0.908 1.83965335058e-38
0.0117629161668 -0.0974641625252 0.908 1.79359939629e-38
0.0134433327621 -0.0974641625252 0.908 1.87613881857e-38
0.0151237493574 -0.0974641625252 0.908 1.86691911545e-38
0.0168041659526 -0.0974641625252 0.908 1.97765868841e-38
0.0184845825479 -0.0974641625252 0.908 1.90409037891e-38
0.0201649991431 -0.0974641625252 0.908 1.88539467519e-38
0.0218935333942 -0.0976788412972 0.91 1.87621070518e-38
0.0235776513476 -0.0976788412972 0.91 1.91305434505e-38
0.025261769301 -0.0976788412972 0.91 1.91305560622e-38
0.0270347198498 -0.0980008594554 0.913 1.95022154474e-38
0.0287243898404 -0.0980008594554 0.913 1.96862339618e-38
0.0304806842775 -0.0982155382274 0.915 1.85852729947e-38
0.0322795443332 -0.0985375563856 0.918 1.60116874715e-38
0.0339784677192 -0.0985375563856 0.918 1.11261780847e-38
0.0356773911051 -0.0985375563856 0.918 7.72503613518e-39
0.0374577443701 -0.0987522351576 0.92 6.91147027276e-39
0.0391603691142 -0.0987522351576 0.92 9.12123107049e-39
0.0409962427514 -0.0990742533158 0.923 6.54161575998e-39
0.0427044195327 -0.0990742533158 0.923 1.32589445383e-38
0.044412596314 -0.0990742533158 0.923 2.18151048056e-38
-0.0240958414871 -0.0981044974833 0.93 2.35098856151e-38
-0.0223747099523 -0.0981044974833 0.93 4.78806169029e-39
-0.0206535784175 -0.0981044974833 0.93 8.27501215126e-39
-0.0188917319432 -0.0978935200693 0.928 1.41786699698e-38
-0.0171187813945 -0.0975770539484 0.925 1.54621066216e-38
-0.0153735910318 -0.0973660765345 0.923 1.6932201834e-38
-0.0135913870877 -0.0968386329996 0.918 1.6193246707e-38
-0.0118924637017 -0.0968386329996 0.918 1.60989211035e-38
-0.0101602280925 -0.0965221668787 0.915 1.28803627387e-38
-0.00846685674374 -0.0965221668787 0.915 1.03925212672e-38
-0.006773485395 -0.0965221668787 0.915 6.15375175934e-39
-0.00508011404625 -0.0965221668787 0.915 1.47046375393e-39
-0.0033867426975 -0.0965221668787 0.915 1.74954635608e-39
-0.00168966999061 -0.0963111894648 0.913 3.49628170744e-39
0.0 -0.0963111894648 0.913 7.62996644216e-39
0.00168966999061 -0.0963111894648 0.913 9.64887739555e-39
0.00337933998122 -0.0963111894648 0.913 1.29696464703e-38
0.0050523538602 -0.0959947233438 0.91 1.34348873696e-38
0.0067364718136 -0.0959947233438 0.91 1.48178007981e-38
0.00840208297631 -0.0957837459299 0.908 1.55525043855e-38
0.0100824995716 -0.0957837459299 0.908 1.67492721286e-38
0.0117629161668 -0.0957837459299 0.908 1.80335817893e-38
0.0134433327621 -0.0957837459299 0.908 1.8215456317e-38
0.0151237493574 -0.0957837459299 0.908 1.66485075586e-38
0.0168041659526 -0.0957837459299 0.908 1.92313640725e-38
0.0184845825479 -0.0957837459299 0.908 1.77551606e-38
0.0202094154408 -0.0959947233438 0.91 1.76615580665e-38
0.0218935333942 -0.0959947233438 0.91 1.84959500267e-38
0.0235776513476 -0.0959947233438 0.91 1.64701615004e-38
0.025261769301 -0.0959947233438 0.91 1.57326342966e-38
0.0270347198498 -0.0963111894648 0.913 1.36164536116e-38
0.0287243898404 -0.0963111894648 0.913 1.23207177632e-38
0.0304806842775 -0.0965221668787 0.915 1.02063363454e-38
0.0322795443332 -0.0968386329996 0.918 5.42411526714e-39
0.0339784677192 -0.0968386329996 0.918 6.54192404564e-39
0.0356773911051 -0.0968386329996 0.918 7.46425028707e-39
0.0374577443701 -0.0970496104135 0.92 7.46571604526e-39
0.0391603691142 -0.0970496104135 0.92 6.36007334003e-39
0.0409962427514 -0.0973660765345 0.923 1.36262416814e-38
0.0427044195327 -0.0973660765345 0.923 2.30161521142e-38
-0.0240958414871 -0.0963833659485 0.93 2.35098856151e-38
-0.0223747099523 -0.0963833659485 0.93 1.06027650823e-38
-0.0206535784175 -0.0963833659485 0.93 1.02964944873e-38
-0.0188917319432 -0.0961760898927 0.928 5.88759473422e-39
-0.0171187813945 -0.095865175809 0.925 1.1784502498e-38
-0.015406903255 -0.095865175809 0.925 1.58320620278e-38
-0.0136654142505 -0.0956578997532 0.923 1.53649854276e-38
-0.0118924637017 -0.0951397096136 0.918 1.74786129468e-38
-0.0101935403157 -0.0951397096136 0.918 1.56386842411e-38
-0.00846685674374 -0.0948287955299 0.915 1.65569747429e-38
-0.006773485395 -0.0948287955299 0.915 1.55471710435e-38
-0.00508011404625 -0.0948287955299 0.915 1.14059333101e-38
-0.0033867426975 -0.0948287955299 0.915 1.03864690591e-38
-0.00168966999061 -0.0946215194741 0.913 7.2550756627e-39
0.0 -0.0946215194741 0.913 4.13407990088e-39
0.00168966999061 -0.0946215194741 0.913 3.59029201882e-39
0.00337933998122 -0.0946215194741 0.913 3.3140078097e-39
0.00506900997183 -0.0946215194741 0.913 2.48571009652e-39
0.0067364718136 -0.0943106053904 0.91 4.14091683609e-39
0.00840208297631 -0.0941033293346 0.908 5.51341441308e-39
0.0100824995716 -0.0941033293346 0.908 6.5225244697e-39
0.0117888256738 -0.0943106053904 0.91 8.35707639323e-39
0.0134729436272 -0.0943106053904 0.91 1.0383219448e-38
0.0151570615806 -0.0943106053904 0.91 1.09374470036e-38
0.016841179534 -0.0943106053904 0.91 9.37409958228e-39
0.0185252974874 -0.0943106053904 0.91 1.08467017177e-38
0.0202094154408 -0.0943106053904 0.91 1.02945817149e-38
0.0218935333942 -0.0943106053904 0.91 8.45752426975e-39
0.0236553798685 -0.0946215194741 0.913 9.3805567656e-39
0.0253450498591 -0.0946215194741 0.913 6.25455696697e-39
0.0270347198498 -0.0946215194741 0.913 5.43346613179e-39
0.0287873129287 -0.0948287955299 0.915 5.89408134481e-39
0.0305806209472 -0.0951397096136 0.918 6.08059557171e-39
0.0322795443332 -0.0951397096136 0.918 7.18553342381e-39
0.0340524948819 -0.0953469856695 0.92 6.90822626681e-39
0.035755119626 -0.0953469856695 0.92 6.63307851075e-39
0.0374577443701 -0.0953469856695 0.92 8.10317932837e-39
0.03928806597 -0.0956578997532 0.923 1.5284927845e-38
0.0409962427514 -0.0956578997532 0.923 2.23703020598e-38
0.0427044195327 -0.0956578997532 0.923 2.00662044482e-38
-0.024225389022 -0.0951711711578 0.935 2.35098856151e-38
-0.0224950040919 -0.0951711711578 0.935 1.63186110715e-38
-0.020720202864 -0.0949675964602 0.933 1.50895377937e-38
-0.0188917319432 -0.094458659716 0.928 6.53297955754e-39
-0.0171743017665 -0.094458659716 0.928 4.05410919882e-39
-0.015406903255 -0.0941532976695 0.925 7.08291633727e-39
-0.0136654142505 -0.0939497229719 0.923 1.27003028925e-38
-0.0119183732087 -0.0936443609254 0.92 1.55514898454e-38
-0.0101935403157 -0.0934407862277 0.918 1.66513507932e-38
-0.00849461692979 -0.0934407862277 0.918 1.59069320035e-38
-0.00679569354383 -0.0934407862277 0.918 1.86735057525e-38
-0.00508011404625 -0.0931354241812 0.915 1.70154669887e-38
-0.0033867426975 -0.0931354241812 0.915 1.86760673261e-38
-0.00169337134875 -0.0931354241812 0.915 1.6650997666e-38
0.0 -0.0931354241812 0.915 1.32469298053e-38
0.00168966999061 -0.0929318494835 0.913 1.10317557916e-38
0.00337933998122 -0.0929318494835 0.913 9.09358205049e-39
0.00506900997183 -0.0929318494835 0.913 4.95918685745e-39
0.0067364718136 -0.092626487437 0.91 4.42001765513e-39
0.008420589767 -0.092626487437 0.91 4.5125664122e-39
0.0101047077204 -0.092626487437 0.91 4.69770596531e-39
0.0117888256738 -0.092626487437 0.91 5.15793582125e-39
0.0134729436272 -0.092626487437 0.91 4.32999543918e-39
0.0151570615806 -0.092626487437 0.91 5.34232708097e-39
0.016841179534 -0.092626487437 0.91 4.69842202883e-39
0.0185252974874 -0.092626487437 0.91 5.06432768253e-39
0.0202760398873 -0.0929318494835 0.913 5.52566596555e-39
0.0219657098779 -0.0929318494835 0.913 4.79167704033e-39
0.0236553798685 -0.0929318494835 0.913 5.52853582481e-39
0.0254005702312 -0.0931354241812 0.915 5.80439964439e-39
0.02709394158 -0.0931354241812 0.915 6.08134386509e-39
0.0287873129287 -0.0931354241812 0.915 5.89659387296e-39
0.0305806209472 -0.0934407862277 0.918 6.44761525769e-39
0.0323498701378 -0.0936443609254 0.92 5.43165285158e-39
0.0340524948819 -0.0936443609254 0.92 7.08326385929e-39
0.035755119626 -0.0936443609254 0.92 1.34393743273e-38
0.0374577443701 -0.0936443609254 0.92 1.96988666674e-38
0.03928806597 -0.0939497229719 0.923 2.1263971317e-38
0.0410850753467 -0.0941532976695 0.925 1.96059045273e-38
0.0427969534861 -0.0941532976695 0.925 1.05794306603e-38
-0.024225389022 -0.0934407862277 0.935 2.35098856151e-38
-0.0224950040919 -0.0934407862277 0.935 2.11117202389e-38
-0.020720202864 -0.0932409128882 0.933 1.45403423008e-38
-0.0189324468827 -0.0929411028789 0.93 1.46367432274e-38
-0.0171743017665 -0.0927412295394 0.928 6.89591305721e-39
-0.015406903255 -0.0924414195301 0.925 4.68725087747e-39
-0.0136950251156 -0.0924414195301 0.925 7.64614163034e-39
-0.0119572374691 -0.0922415461905 0.923 7.9986760941e-39
-0.0102490606878 -0.0922415461905 0.923 1.31572382958e-38
-0.00849461692979 -0.0917418628417 0.918 1.5183763905e-38
-0.00679569354383 -0.0917418628417 0.918 1.79438902798e-38
-0.00509677015787 -0.0917418628417 0.918 1.68318198185e-38
-0.0033867426975 -0.0914420528324 0.915 1.76579301048e-38
-0.00169337134875 -0.0914420528324 0.915 1.75660819969e-38
0.0 -0.0914420528324 0.915 1.81199396098e-38
0.00169337134875 -0.0914420528324 0.915 1.80310510443e-38
0.0033867426975 -0.0914420528324 0.915 1.71116058725e-38
0.00508011404625 -0.0914420528324 0.915 1.61042348273e-38
0.00675867996244 -0.0912421794929 0.913 1.31586634163e-38
0.00844834995305 -0.0912421794929 0.913 1.07530207114e-38
0.0101380199437 -0.0912421794929 0.913 1.02942313903e-38
0.0118276899343 -0.0912421794929 0.913 7.53452120116e-39
0.0135173599249 -0.0912421794929 0.913 4.04084310626e-39
0.0152070299155 -0.0912421794929 0.913 4.32785705773e-39
0.0168966999061 -0.0912421794929 0.913 4.51221328499e-39
0.0185863698967 -0.0912421794929 0.913 4.23739203147e-39
0.020320456185 -0.0914420528324 0.915 5.06500450969e-39
0.0220138275337 -0.0914420528324 0.915 4.60616614313e-39
0.0237071988825 -0.0914420528324 0.915 5.25083490294e-39
0.0254005702312 -0.0914420528324 0.915 5.06538706417e-39
0.02709394158 -0.0914420528324 0.915 4.23601175248e-39
0.0288816975613 -0.0917418628417 0.918 5.80047320609e-39
0.0306472453938 -0.0919417361813 0.92 1.03951388927e-38
0.0323498701378 -0.0919417361813 0.92 1.40767927688e-38
0.0341635356261 -0.0922415461905 0.923 1.86886033422e-38
0.0358717124074 -0.0922415461905 0.923 2.04355979337e-38
0.0375798891887 -0.0922415461905 0.923 1.77605499939e-38
0.03928806597 -0.0922415461905 0.923 1.47221621779e-38
0.0410850753467 -0.0924414195301 0.925 1.03064955545e-38
0.0427969534861 -0.0924414195301 0.925 6.81712364975e-39
-0.024225389022 -0.0917104012975 0.935 2.35098856151e-38
-0.0224950040919 -0.0917104012975 0.935 2.35098856151e-38
-0.020720202864 -0.0915142293162 0.933 6.15882586108e-39
-0.0189324468827 -0.0912199713441 0.93 1.6752537154e-38
-0.0171743017665 -0.0910237993627 0.928 1.5922465397e-38
-0.0154568715899 -0.0910237993627 0.928 1.00237583659e-38
-0.0136950251156 -0.0907295413906 0.925 1.15940099848e-38
-0.0119831469761 -0.0907295413906 0.925 3.6734408658e-39
-0.0102712688367 -0.0907295413906 0.925 1.3779598384e-39
-0.00854088390653 -0.0905333694092 0.923 6.24988503789e-39
-0.00679569354383 -0.0900429394558 0.918 9.4669692367e-39
-0.00509677015787 -0.0900429394558 0.918 1.45358539418e-38
-0.00339784677192 -0.0900429394558 0.918 1.52738113443e-38
-0.00169892338596 -0.0900429394558 0.918 1.76654508736e-38
0.0 -0.0900429394558 0.918 1.77537102561e-38
0.00169892338596 -0.0900429394558 0.918 1.77526592823e-38
0.00339784677192 -0.0900429394558 0.918 1.71965609932e-38
0.00509677015787 -0.0900429394558 0.918 1.76586713917e-38
0.006773485395 -0.0897486814837 0.915 1.8857196363e-38
0.00846685674374 -0.0897486814837 0.915 1.83050973797e-38
0.0101602280925 -0.0897486814837 0.915 1.90455462909e-38
0.0118535994412 -0.0897486814837 0.915 1.63783568328e-38
0.01354697079 -0.0897486814837 0.915 1.60128197206e-38
0.0152403421387 -0.0897486814837 0.915 1.42606893702e-38
0.0169337134875 -0.0897486814837 0.915 1.35239300779e-38
0.0186270848362 -0.0897486814837 0.915 1.35214161485e-38
0.020320456185 -0.0897486814837 0.915 1.23150116758e-38
0.0220138275337 -0.0897486814837 0.915 1.42550883802e-38
0.0237071988825 -0.0897486814837 0.915 1.34339414931e-38
0.0254005702312 -0.0897486814837 0.915 1.39849628779e-38
0.02709394158 -0.0897486814837 0.915 1.50912782064e-38
0.0288816975613 -0.0900429394558 0.918 1.68450957202e-38
0.0306472453938 -0.0902391114372 0.92 1.9882459187e-38
0.0324553588448 -0.0905333694092 0.923 1.8774704725e-38
0.0341635356261 -0.0905333694092 0.923 1.63819315452e-38
0.0358717124074 -0.0905333694092 0.923 1.26055835241e-38
0.0376613190678 -0.0907295413906 0.925 9.20337238388e-39
0.0393731972073 -0.0907295413906 0.925 8.38585906368e-39
0.0410850753467 -0.0907295413906 0.925 9.86100595708e-39
0.0427969534861 -0.0907295413906 0.925 4.23816274562e-39
-0.0225671805756 -0.0902687223023 0.938 2.35098856151e-38
-0.0207646191617 -0.0899800163674 0.935 3.67395233974e-40
-0.0189324468827 -0.0894988398093 0.93 1.40849763519e-38
-0.0172113153479 -0.0894988398093 0.93 1.50934011735e-38
-0.0154568715899 -0.089306369186 0.928 1.67446282255e-38
-0.0137394414132 -0.089306369186 0.928 1.79474481766e-38
-0.0120220112366 -0.089306369186 0.928 9.65389684665e-39
-0.0102712688367 -0.0890176632512 0.925 6.6144118139e-39
-0.00855939069723 -0.0890176632512 0.925 3.77286999833e-39
-0.00681049897639 -0.0885364866931 0.92 3.40877902614e-39
-0.00510787423229 -0.0885364866931 0.92 2.57791973937e-39
-0.00340524948819 -0.0885364866931 0.92 7.17186515859e-39
-0.0017026247441 -0.0885364866931 0.92 9.65138011461e-39
0.0 -0.0885364866931 0.92 1.30579100567e-38
0.00169892338596 -0.0883440160698 0.918 1.49082013646e-38
0.00339784677192 -0.0883440160698 0.918 1.69314731588e-38
0.00509677015787 -0.0883440160698 0.918 1.8219367341e-38
0.00679569354383 -0.0883440160698 0.918 1.84913229392e-38
0.00849461692979 -0.0883440160698 0.918 1.81207453564e-38
0.0101935403157 -0.0883440160698 0.918 1.81203950318e-38
0.0118924637017 -0.0883440160698 0.918 1.79359589305e-38
0.01354697079 -0.0880553101349 0.915 1.95921760062e-38
0.0152403421387 -0.0880553101349 0.915 1.97776883047e-38
0.0169337134875 -0.0880553101349 0.915 1.95018777345e-38
0.0186270848362 -0.0880553101349 0.915 1.95036503771e-38
0.020320456185 -0.0880553101349 0.915 2.13471790185e-38
0.0220138275337 -0.0880553101349 0.915 1.98742181508e-38
0.0237071988825 -0.0880553101349 0.915 1.96915490868e-38
0.0254005702312 -0.0880553101349 0.915 1.90491602396e-38
0.0271827741753 -0.0883440160698 0.918 1.66577799505e-38
0.0288816975613 -0.0883440160698 0.918 1.49071952323e-38
0.0307471820635 -0.0888251926279 0.923 1.27870530765e-38
0.0325256846495 -0.0890176632512 0.925 9.56098235067e-39
0.0342375627889 -0.0890176632512 0.925 6.07090979672e-39
0.0359494409284 -0.0890176632512 0.925 7.18911093879e-39
0.0376613190678 -0.0890176632512 0.925 8.29548091793e-39
0.0395008940631 -0.089306369186 0.928 9.12343951687e-39
0.0412183242397 -0.089306369186 0.928 8.29438229993e-39
-0.0225671805756 -0.0885327853349 0.938 2.35098856151e-38
-0.0207646191617 -0.0882496314373 0.935 3.58624787145e-39
-0.018993519292 -0.0880608621722 0.933 6.34715056559e-39
-0.0172113153479 -0.0877777082745 0.93 1.25216863838e-38
-0.0154901838131 -0.0877777082745 0.93 1.56454427035e-38
-0.0137690522784 -0.0877777082745 0.93 1.76676158798e-38
-0.0120220112366 -0.0875889390094 0.928 1.68364300905e-38
-0.0103045810599 -0.0875889390094 0.928 1.48117023471e-38
-0.00855939069723 -0.0873057851117 0.925 1.16818321621e-38
-0.00683270712523 -0.0871170158466 0.923 1.0016199762e-38
-0.00512453034392 -0.0871170158466 0.923 4.95917844966e-39
-0.00341635356261 -0.0871170158466 0.923 3.3100799701e-39
-0.00170817678131 -0.0871170158466 0.923 5.33367966815e-39
0.0 -0.0871170158466 0.923 1.37760390859e-39
0.00170817678131 -0.0871170158466 0.923 4.04766182459e-39
0.00340524948819 -0.086833861949 0.92 5.695252507e-39
0.00510787423229 -0.086833861949 0.92 1.03878493381e-38
0.00681049897639 -0.086833861949 0.92 1.26848311562e-38
0.00849461692979 -0.0866450926839 0.918 1.42643243384e-38
0.0101935403157 -0.0866450926839 0.918 1.48171323787e-38
0.0118924637017 -0.0866450926839 0.918 1.4815312092e-38
0.0135913870877 -0.0866450926839 0.918 1.59220520139e-38
0.0152403421387 -0.0863619387862 0.915 1.55500437054e-38
0.0169337134875 -0.0863619387862 0.915 1.66560423404e-38
0.0186270848362 -0.0863619387862 0.915 1.55514351948e-38
0.020320456185 -0.0863619387862 0.915 1.48145736077e-38
0.0220138275337 -0.0863619387862 0.915 1.33391058169e-38
0.0237071988825 -0.0863619387862 0.915 1.2227102618e-38
0.0254838507894 -0.0866450926839 0.918 8.35708620232e-39
0.0271827741753 -0.0866450926839 0.918 7.35662636111e-39
0.0289446206497 -0.086833861949 0.92 6.53907100197e-39
0.0307471820635 -0.0871170158466 0.923 4.14595170147e-39
0.0325256846495 -0.0873057851117 0.925 6.82067874396e-39
0.0343486035331 -0.0875889390094 0.928 7.09763837894e-39
0.0360660337097 -0.0875889390094 0.928 7.27988144812e-39
0.0377834638864 -0.0875889390094 0.928 8.0171017676e-39
0.0395860253003 -0.0877777082745 0.93 9.67626577403e-39
0.0413071568351 -0.0877777082745 0.93 9.86135908429e-39
0.0430282883699 -0.0877777082745 0.93 7.64830943906e-39
-0.0225671805756 -0.0867968483676 0.938 2.35098856151e-38
-0.0208312436082 -0.0867968483676 0.938 1.31796436569e-38
-0.0190342342316 -0.0865192465071 0.935 1.07539021282e-38
-0.01726683572 -0.0863341786002 0.933 3.21789975452e-39
-0.015540152148 -0.0863341786002 0.933 9.38351070276e-39
-0.013813468576 -0.0863341786002 0.933 1.5648370016e-38
-0.0120479207436 -0.0860565767397 0.93 1.43551172685e-38
-0.0103267892088 -0.0860565767397 0.93 1.67434763581e-38
-0.00858715088327 -0.0858715088327 0.928 1.78465995287e-38
-0.00684751255778 -0.0855939069723 0.925 1.73867900623e-38
-0.00513563441834 -0.0855939069723 0.925 1.57329720095e-38
-0.00342375627889 -0.0855939069723 0.925 1.24182397285e-38
-0.00170817678131 -0.0854088390653 0.923 1.05625968618e-38
0.0 -0.0854088390653 0.923 9.92511536182e-39
0.00170817678131 -0.0854088390653 0.923 5.97367369628e-39
0.00341635356261 -0.0854088390653 0.923 3.4037021218e-39
0.00512453034392 -0.0854088390653 0.923 3.95829681762e-39
0.00683270712523 -0.0854088390653 0.923 3.22186963307e-39
0.00854088390653 -0.0854088390653 0.923 2.48247029447e-39
0.0102490606878 -0.0854088390653 0.923 4.2306125495e-39
0.0119572374691 -0.0854088390653 0.923 4.31991309673e-39
0.0135913870877 -0.0849461692979 0.918 5.24073294231e-39
0.0152903104736 -0.0849461692979 0.918 5.42373691656e-39
0.0169892338596 -0.0849461692979 0.918 6.34499817115e-39
0.0186881572455 -0.0849461692979 0.918 4.68977041211e-39
0.0203870806315 -0.0849461692979 0.918 5.7953542628e-39
0.0220860040175 -0.0849461692979 0.918 4.32821018494e-39
0.0237849274034 -0.0849461692979 0.918 4.32785986032e-39
0.0254838507894 -0.0849461692979 0.918 5.71110960043e-39
0.0271827741753 -0.0849461692979 0.918 5.89407573962e-39
0.0290390052822 -0.0854088390653 0.923 8.47049188574e-39
0.03081380651 -0.0855939069723 0.925 7.73688971889e-39
0.0325256846495 -0.0855939069723 0.925 6.72993065541e-39
0.0343486035331 -0.0858715088327 0.928 7.37422106463e-39
0.0360660337097 -0.0858715088327 0.928 7.74156445056e-39
0.0377834638864 -0.0858715088327 0.928 7.92560118178e-39
0.0395860253003 -0.0860565767397 0.93 8.20148321824e-39
0.0413071568351 -0.0860565767397 0.93 9.03269282962e-39
-0.0226152982314 -0.085242277949 0.94 2.35098856151e-38
-0.0208756599059 -0.085242277949 0.94 1.77926775638e-38
-0.0190953066409 -0.0850609114002 0.938 1.29740409423e-38
-0.0173593696735 -0.0850609114002 0.938 7.72611933889e-39
-0.0156234327062 -0.0850609114002 0.938 5.33549294836e-39
-0.0138430794411 -0.084788861577 0.935 4.96453701499e-39
-0.012086785004 -0.0846074950282 0.933 1.04948300681e-38
-0.010360101432 -0.0846074950282 0.933 1.37122211513e-38
-0.00860565767397 -0.0843354452049 0.93 1.65659122245e-38
-0.00686972070662 -0.0841540786561 0.928 1.76633180974e-38
-0.00515229052996 -0.0841540786561 0.928 1.82121576604e-38
-0.00343486035331 -0.0841540786561 0.928 1.87661119628e-38
-0.00171187813945 -0.0838820288328 0.925 1.83065561314e-38
0.0 -0.0838820288328 0.925 1.74804080101e-38
0.00171187813945 -0.0838820288328 0.925 1.66560227223e-38
0.00342375627889 -0.0838820288328 0.925 1.4447663223e-38
0.00513563441834 -0.0838820288328 0.925 1.25104787986e-38
0.00684751255778 -0.0838820288328 0.925 1.13941315744e-38
0.00855939069723 -0.0838820288328 0.925 1.12143926256e-38
0.0102712688367 -0.0838820288328 0.925 7.25506164972e-39
0.0119831469761 -0.0838820288328 0.925 1.04794283967e-38
0.0136654142505 -0.083700662284 0.923 8.27099182597e-39
0.0153735910318 -0.083700662284 0.923 8.36069874976e-39
0.017026247441 -0.0834286124608 0.92 8.54544593929e-39
0.0187288721851 -0.0834286124608 0.92 1.10343299768e-38
0.0204314969292 -0.0834286124608 0.92 1.11232661865e-38
0.0221341216733 -0.0834286124608 0.92 1.30597695798e-38
0.0239144749383 -0.083700662284 0.923 1.49047345522e-38
0.0256226517196 -0.083700662284 0.923 1.58298717983e-38
0.0273900502311 -0.0838820288328 0.925 1.40910705989e-38
0.0291019283706 -0.0838820288328 0.925 7.45922663208e-39
0.03081380651 -0.0838820288328 0.925 7.2784353081e-39
0.0326311733564 -0.0841540786561 0.928 7.0065119398e-39
0.0344226306959 -0.0843354452049 0.93 7.28269665673e-39
0.0361437622307 -0.0843354452049 0.93 7.74156445056e-39
0.0378648937655 -0.0843354452049 0.93 8.5706202662e-39
0.0395860253003 -0.0843354452049 0.93 8.84650230267e-39
0.0413071568351 -0.0843354452049 0.93 8.93975170898e-39
-0.0226874747151 -0.0837691374096 0.943 2.35098856151e-38
-0.0208756599059 -0.0835026396236 0.94 2.3324774088e-38
-0.0190953066409 -0.0833249744329 0.938 9.65900598085e-39
-0.0173593696735 -0.0833249744329 0.938 1.72167326846e-38
-0.0156234327062 -0.0833249744329 0.938 9.84336921461e-39
-0.0138430794411 -0.0830584766468 0.935 5.78891529636e-39
-0.012086785004 -0.0828808114561 0.933 3.78005865945e-39
-0.010360101432 -0.0828808114561 0.933 3.49806135649e-39
-0.00860565767397 -0.0826143136701 0.93 8.18095980093e-39
-0.00686972070662 -0.0824366484794 0.928 1.26959658738e-38
-0.00515229052996 -0.0824366484794 0.928 1.44472302218e-38
-0.00343486035331 -0.0824366484794 0.928 1.56400154746e-38
-0.00171187813945 -0.0821701506934 0.925 1.79406126427e-38
0.0 -0.0821701506934 0.925 1.79377539938e-38
0.00171187813945 -0.0821701506934 0.925 1.88593375471e-38
0.00342375627889 -0.0821701506934 0.925 1.77504886709e-38
0.00513563441834 -0.0821701506934 0.925 2.00549562254e-38
0.00686972070662 -0.0824366484794 0.928 1.83072749976e-38
0.00855939069723 -0.0821701506934 0.925 1.90458812012e-38
0.0102712688367 -0.0821701506934 0.925 1.74818023021e-38
0.0119831469761 -0.0821701506934 0.925 1.81257830244e-38
0.0136950251156 -0.0821701506934 0.925 1.84037389825e-38
0.0153735910318 -0.0819924855027 0.923 1.90498216525e-38
0.0170817678131 -0.0819924855027 0.923 1.86825245094e-38
0.0187899445944 -0.0819924855027 0.923 1.8771089375e-38
0.0204314969292 -0.0817259877167 0.92 1.91416669578e-38
0.0221341216733 -0.0817259877167 0.92 1.76712060064e-38
0.0239662939522 -0.0821701506934 0.925 1.48171267735e-38
0.0256781720917 -0.0821701506934 0.925 1.19551217964e-38
0.0273900502311 -0.0821701506934 0.925 7.26154405641e-39
0.0291963130031 -0.0824366484794 0.928 5.89911340759e-39
0.0309803676263 -0.0826143136701 0.93 6.4529906386e-39
0.0327014991611 -0.0826143136701 0.93 6.45119137138e-39
0.0345336714401 -0.0828808114561 0.933 7.09869776058e-39
0.0362603550121 -0.0828808114561 0.933 7.4664166945e-39
0.0379870385841 -0.0828808114561 0.933 7.55575787939e-39
0.0397988533933 -0.0830584766468 0.935 8.84542750675e-39
0.0415292383234 -0.0830584766468 0.935 7.09583911171e-39
-0.0226874747151 -0.0820239470469 0.943 2.35098856151e-38
-0.0208756599059 -0.0817630012981 0.94 2.35098856151e-38
-0.0191360215804 -0.0817630012981 0.94 1.19392871238e-39
-0.0173593696735 -0.0815890374655 0.938 1.27028042103e-38
-0.0156234327062 -0.0815890374655 0.938 1.69372983565e-38
-0.0138430794411 -0.0813280917167 0.935 1.29718100752e-38
-0.012112694511 -0.0813280917167 0.935 9.66468123963e-39
-0.010360101432 -0.0811541278841 0.933 4.41423169377e-39
-0.00860565767397 -0.0808931821353 0.93 4.33105201822e-39
-0.00686972070662 -0.0807192183028 0.928 6.4501628183e-40
-0.00515229052996 -0.0807192183028 0.928 3.95867656951e-39
-0.00343486035331 -0.0807192183028 0.928 6.80446712202e-39
-0.00171743017665 -0.0807192183028 0.928 9.28009627739e-39
0.0 -0.0807192183028 0.928 1.25073398901e-38
0.00171743017665 -0.0807192183028 0.928 1.37122239539e-38
0.00343486035331 -0.0807192183028 0.928 1.4816072997e-38
0.00515229052996 -0.0807192183028 0.928 1.50919242049e-38
0.00686972070662 -0.0807192183028 0.928 1.64730705961e-38
0.00855939069723 -0.0804582725539 0.925 1.60120826376e-38
0.0102712688367 -0.0804582725539 0.925 1.55500254885e-38
0.0119831469761 -0.0804582725539 0.925 1.68374642487e-38
0.0136950251156 -0.0804582725539 0.925 1.61949997314e-38
0.015406903255 -0.0804582725539 0.925 1.50922871412e-38
0.0170817678131 -0.0802843087214 0.923 1.37083227389e-38
0.0187899445944 -0.0802843087214 0.923 1.28742993202e-38
0.0204981213757 -0.0802843087214 0.923 1.10343019509e-38
0.022206298157 -0.0802843087214 0.923 6.89203566436e-39
0.0239662939522 -0.0804582725539 0.925 4.69695767193e-39
0.0256781720917 -0.0804582725539 0.925 5.80692058033e-39
0.0274788828265 -0.0807192183028 0.928 6.45083544157e-39
0.0292592360915 -0.0808931821353 0.93 6.17460588308e-39
0.0310803042961 -0.0811541278841 0.933 6.63593715961e-39
0.0328069878681 -0.0811541278841 0.933 7.09654536614e-39
0.0346076986028 -0.0813280917167 0.935 7.09799430875e-39
0.036338083533 -0.0813280917167 0.935 7.83555934765e-39
0.0380684684631 -0.0813280917167 0.935 8.29332852349e-39
0.0399265502491 -0.0815890374655 0.938 9.2149358988e-39
