# .PCD v0.7 - Point Cloud Data file format
VERSION 0.7
FIELDS x y z rgb
SIZE 4 4 4 4
TYPE F F F F
COUNT 1 1 1 1
WIDTH 851
HEIGHT 1
VIEWPOINT 0 0 0 1 0 0 0
POINTS 851
DATA ascii
0.0143612695806 -0.125661108831 0.97 1.57491780263e-38
0.0161564282782 -0.125661108831 0.97 1.48283007274e-38
0.0179515869758 -0.125661108831 0.97 1.50140988908e-38
0.0197467456734 -0.125661108831 0.97 1.40921425922e-38
0.021541904371 -0.125661108831 0.97 1.40907202743e-38
0.0232648865848 -0.125272466226 0.967 1.49204935547e-38
0.0250544932452 -0.125272466226 0.967 1.3721957373e-38
0.0268440999056 -0.125272466226 0.967 1.54739602053e-38
0.028633706566 -0.125272466226 0.967 1.36297449275e-38
0.0303289285938 -0.124883823621 0.964 1.42733262797e-38
0.0320463587704 -0.124624728552 0.962 1.4366228164e-38
0.0338267120354 -0.124624728552 0.962 1.38137550341e-38
0.0356070653005 -0.124624728552 0.962 1.39992379053e-38
0.0372708257841 -0.124236085947 0.959 1.32631232103e-38
0.0389234821933 -0.123847443342 0.956 1.29858496845e-38
0.0406076001467 -0.123588348273 0.954 1.42751241457e-38
0.0421066501932 -0.122811063063 0.948 1.37201553032e-38
0.0436297590675 -0.122163325389 0.943 1.34450131523e-38
0.0452305964628 -0.121774682784 0.94 1.02185612732e-38
0.0468702981185 -0.121515587715 0.938 1.82283874992e-38
0.0486062350858 -0.121515587715 0.938 2.349867803e-38
0.0503421720532 -0.121515587715 0.938 2.35062100093e-38
-0.0246399411336 -0.121439709873 0.951 2.35077093986e-38
-0.0228799453383 -0.121439709873 0.951 2.0633738734e-38
-0.0212309902873 -0.122078194152 0.956 1.9620678417e-38
-0.0194617410967 -0.122078194152 0.956 1.84228526936e-38
-0.0177480122781 -0.122461284719 0.959 1.91604037195e-38
-0.0160231793852 -0.122844375287 0.962 1.88827126067e-38
-0.0142724369853 -0.123099768998 0.964 1.85143028327e-38
-0.0124883823621 -0.123099768998 0.964 1.76838485212e-38
-0.010704327739 -0.123099768998 0.964 1.75923591457e-38
-0.00894803330186 -0.123482859566 0.967 1.71324529897e-38
-0.00718063479032 -0.123865950133 0.97 1.71328201299e-38
-0.00538547609274 -0.123865950133 0.97 1.63031253222e-38
-0.00359031739516 -0.123865950133 0.97 1.62105317236e-38
-0.00179515869758 -0.123865950133 0.97 1.59339266171e-38
0.0 -0.123865950133 0.97 1.53807682522e-38
0.00179515869758 -0.123865950133 0.97 1.54729666847e-38
0.00360142146958 -0.124249040701 0.973 1.52882040808e-38
0.00540213220437 -0.124249040701 0.973 1.51037525653e-38
0.00720284293916 -0.124249040701 0.973 1.51038086172e-38
0.00900355367395 -0.124249040701 0.973 1.52896081819e-38
0.0108042644087 -0.124249040701 0.973 1.47364400079e-38
0.0126049751435 -0.124249040701 0.973 1.56576522171e-38
0.0144056858783 -0.124249040701 0.973 1.47353834289e-38
0.0162063966131 -0.124249040701 0.973 1.50123038275e-38
0.0179515869758 -0.123865950133 0.97 1.47357365561e-38
0.0197467456734 -0.123865950133 0.97 1.39988875807e-38
0.021541904371 -0.123865950133 0.97 1.43655247122e-38
0.0233370630686 -0.123865950133 0.97 1.47360994924e-38
0.0250544932452 -0.123482859566 0.967 1.38155571039e-38
0.0268440999056 -0.123482859566 0.967 1.4643535321e-38
0.028633706566 -0.123482859566 0.967 1.39059702821e-38
0.0303289285938 -0.123099768998 0.964 1.35375619094e-38
0.0321129832169 -0.123099768998 0.964 1.31694870456e-38
0.0338267120354 -0.122844375287 0.962 1.35386128832e-38
0.0356070653005 -0.122844375287 0.962 1.40902914769e-38
0.0372708257841 -0.122461284719 0.959 1.28939343143e-38
0.0389234821933 -0.122078194152 0.956 1.21546274614e-38
0.0406076001467 -0.12182280044 0.954 1.31666508175e-38
0.0422398990862 -0.121439709873 0.951 1.30744537864e-38
0.0437685599977 -0.120801225594 0.946 1.16936885485e-38
0.0455193023976 -0.120801225594 0.946 1.20570018e-38
0.0469702347883 -0.120035044459 0.94 2.3508377818e-38
0.0487098731137 -0.120035044459 0.94 1.04994837803e-38
0.0504495114392 -0.120035044459 0.94 2.35098856151e-38
-0.0247176696545 -0.120057252608 0.954 1.97114811562e-38
-0.0229521218221 -0.120057252608 0.954 2.34986990495e-38
-0.0211865739896 -0.120057252608 0.954 1.95274079912e-38
-0.0194617410967 -0.120308944961 0.956 1.87909149456e-38
-0.0177480122781 -0.120686483491 0.959 1.80525890017e-38
-0.0160231793852 -0.121064022022 0.962 1.85128651005e-38
-0.0142724369853 -0.121315714375 0.964 1.83306556624e-38
-0.0124883823621 -0.121315714375 0.964 1.69484540936e-38
-0.0107376399622 -0.121693252905 0.967 1.75001607133e-38
-0.00894803330186 -0.121693252905 0.967 1.69455548071e-38
-0.00718063479032 -0.122070791436 0.97 1.56551691162e-38
-0.00538547609274 -0.122070791436 0.97 1.60243650187e-38
-0.00359031739516 -0.122070791436 0.97 1.50130843507e-38
-0.00180071073479 -0.122448329966 0.973 1.63015180329e-38
0.0 -0.122448329966 0.973 1.51041435276e-38
0.00180071073479 -0.122448329966 0.973 1.4827594473e-38
0.00360142146958 -0.122448329966 0.973 1.51052547572e-38
0.00540213220437 -0.122448329966 0.973 1.51945833304e-38
0.00720284293916 -0.122448329966 0.973 1.55662581299e-38
0.00902206046465 -0.122700022319 0.975 1.49197774912e-38
0.0108264725576 -0.122700022319 0.975 1.49205159755e-38
0.0126308846505 -0.122700022319 0.975 1.50094465799e-38
0.0144352967434 -0.122700022319 0.975 1.4366270203e-38
0.0162063966131 -0.122448329966 0.973 1.40900322367e-38
0.0180071073479 -0.122448329966 0.973 1.46432060159e-38
0.0198078180827 -0.122448329966 0.973 1.38141838314e-38
0.021541904371 -0.122070791436 0.97 1.38141684171e-38
0.0233370630686 -0.122070791436 0.97 1.35372087821e-38
0.0251322217661 -0.122070791436 0.97 1.48289831598e-38
0.0268440999056 -0.121693252905 0.967 1.34457011898e-38
0.028633706566 -0.121693252905 0.967 1.44594929846e-38
0.0304233132263 -0.121693252905 0.967 1.31695052625e-38
0.0321129832169 -0.121315714375 0.964 1.39992379053e-38
0.0338267120354 -0.121064022022 0.962 1.2800389234e-38
0.0356070653005 -0.121064022022 0.962 1.30751544356e-38
0.0372708257841 -0.120686483491 0.959 1.32591841603e-38
0.0389234821933 -0.120308944961 0.956 1.37193915955e-38
0.0406076001467 -0.120057252608 0.954 1.32573792879e-38
0.0422398990862 -0.119679714077 0.951 1.00309302115e-38
0.0438610939512 -0.119302175547 0.948 1.4170703588e-38
0.0455193023976 -0.119050483194 0.946 2.35096838282e-38
0.0472700447975 -0.119050483194 0.946 1.82446201406e-38
0.0490207871974 -0.119050483194 0.946 0.0
0.0507715295974 -0.119050483194 0.946 2.35098856151e-38
-0.0229521218221 -0.118291704775 0.954 2.13741147776e-38
-0.0211865739896 -0.118291704775 0.954 2.34987158651e-38
-0.0194617410967 -0.118539695771 0.956 1.96198740717e-38
-0.0178035326502 -0.119283668757 0.962 1.78675293226e-38
-0.0160564916085 -0.119531659752 0.964 1.83306794845e-38
-0.0142724369853 -0.119531659752 0.964 1.75948898908e-38
-0.0125272466226 -0.119903646245 0.967 1.83320919934e-38
-0.0107376399622 -0.119903646245 0.967 1.74086839495e-38
-0.00894803330186 -0.119903646245 0.967 1.58406603952e-38
-0.00718063479032 -0.120275632738 0.97 1.60236237318e-38
-0.00538547609274 -0.120275632738 0.97 1.59332231653e-38
-0.00359031739516 -0.120275632738 0.97 1.48272413458e-38
-0.00180071073479 -0.120647619231 0.973 1.51952909862e-38
0.0 -0.120647619231 0.973 1.48268756069e-38
0.00180071073479 -0.120647619231 0.973 1.54733170093e-38
0.00360882418586 -0.120895610226 0.975 1.28918365705e-38
0.00541323627879 -0.120895610226 0.975 1.51956553238e-38
0.00721764837172 -0.120895610226 0.975 1.39978338043e-38
0.00902206046465 -0.120895610226 0.975 1.42729759551e-38
0.0108264725576 -0.120895610226 0.975 1.43655247122e-38
0.0126308846505 -0.120895610226 0.975 1.39970995239e-38
0.0144352967434 -0.120895610226 0.975 1.40910832106e-38
0.0162063966131 -0.120647619231 0.973 1.4275111534e-38
0.0180071073479 -0.120647619231 0.973 1.35378996223e-38
0.0198078180827 -0.120647619231 0.973 1.31691339184e-38
0.021541904371 -0.120275632738 0.97 1.37205056278e-38
0.0233370630686 -0.120275632738 0.97 1.36283128005e-38
0.0251322217661 -0.120275632738 0.97 1.35371961705e-38
0.0269273804637 -0.120275632738 0.97 1.33517301148e-38
0.028633706566 -0.119903646245 0.967 1.38137760536e-38
0.0304233132263 -0.119903646245 0.967 1.29850943846e-38
0.0321129832169 -0.119531659752 0.964 1.29858370728e-38
0.0338970378401 -0.119531659752 0.964 1.29840798445e-38
0.0356070653005 -0.119283668757 0.962 1.32599002238e-38
0.0372708257841 -0.118911682264 0.959 1.27067292473e-38
0.0389234821933 -0.118539695771 0.956 1.19670062087e-38
0.0406927313839 -0.118539695771 0.956 9.93617020541e-39
0.0423731479792 -0.118291704775 0.954 1.76745551098e-38
0.0439998948814 -0.117919718282 0.951 2.35080457103e-38
0.0456155377093 -0.117547731789 0.948 1.59371888399e-38
0.0473699814673 -0.117547731789 0.948 1.65303893084e-39
0.0491244252253 -0.117547731789 0.948 1.04128330884e-38
-0.021408655478 -0.117747605129 0.964 1.72181662129e-38
-0.0196246008548 -0.117747605129 0.964 2.3504438768e-38
-0.0178405462316 -0.117747605129 0.964 1.88877768994e-38
-0.0160564916085 -0.117747605129 0.964 1.74083308223e-38
-0.014316853283 -0.118114039585 0.967 1.67655019674e-38
-0.0125272466226 -0.118114039585 0.967 1.67644481909e-38
-0.0107376399622 -0.118114039585 0.967 1.6300884646e-38
-0.0089757934879 -0.11848047404 0.97 1.60268228962e-38
-0.00718063479032 -0.11848047404 0.97 1.48257811928e-38
-0.00540213220437 -0.118846908496 0.973 1.59325042992e-38
-0.00360142146958 -0.118846908496 0.973 1.49205103703e-38
-0.00180071073479 -0.118846908496 0.973 1.46424871498e-38
0.0 -0.119091198133 0.975 1.46428528887e-38
0.00180441209293 -0.119091198133 0.975 1.41818719368e-38
0.00360882418586 -0.119091198133 0.975 1.49212026117e-38
0.00541323627879 -0.119091198133 0.975 1.42769234129e-38
0.00721764837172 -0.119091198133 0.975 1.33545971715e-38
0.00902206046465 -0.119091198133 0.975 1.36297575392e-38
0.0108264725576 -0.119091198133 0.975 1.36301106664e-38
0.0126308846505 -0.119091198133 0.975 1.36297603418e-38
0.0144352967434 -0.119091198133 0.975 1.38145215443e-38
0.0162397088364 -0.119091198133 0.975 1.29829826278e-38
0.0180441209293 -0.119091198133 0.975 1.32599002238e-38
0.0198078180827 -0.118846908496 0.973 1.37230111494e-38
0.0216085288175 -0.118846908496 0.973 1.27989220745e-38
0.0233370630686 -0.11848047404 0.97 1.31677003901e-38
0.0251322217661 -0.11848047404 0.97 1.27996255264e-38
0.0269273804637 -0.11848047404 0.97 1.29818685955e-38
0.0287225391613 -0.11848047404 0.97 1.27070823745e-38
0.0304233132263 -0.118114039585 0.967 1.28921518627e-38
0.0322129198867 -0.118114039585 0.967 1.27070977888e-38
0.0338970378401 -0.117747605129 0.964 1.25220044785e-38
0.0356070653005 -0.117503315492 0.962 1.19684187176e-38
0.0372708257841 -0.117136881036 0.959 1.02174500436e-38
0.0389234821933 -0.11677044658 0.956 1.42606963767e-38
0.0406927313839 -0.11677044658 0.956 2.34936880062e-38
0.0423731479792 -0.116526156943 0.954 2.349723189e-38
0.0439998948814 -0.116159722487 0.951 6.53180526943e-39
0.0457598906767 -0.116159722487 0.951 1.56127209831e-39
0.0475198864719 -0.116159722487 0.951 6.35042259751e-39
-0.0237460631429 -0.118730315715 0.987 1.62916164579e-38
-0.021408655478 -0.115963550506 0.964 5.87750818787e-39
-0.0196246008548 -0.115963550506 0.964 2.479622856e-39
-0.0178405462316 -0.115963550506 0.964 2.15646773558e-38
-0.0161064599433 -0.116324432924 0.967 2.14718329247e-38
-0.014316853283 -0.116324432924 0.967 1.80566317477e-38
-0.0125661108831 -0.116685315343 0.97 1.72268164283e-38
-0.0107709521855 -0.116685315343 0.97 1.54718722706e-38
-0.0089757934879 -0.116685315343 0.97 1.57506297715e-38
-0.00720284293916 -0.117046197761 0.973 1.44595224119e-38
-0.00540213220437 -0.117046197761 0.973 1.55629959071e-38
-0.00360882418586 -0.11728678604 0.975 1.53814590923e-38
-0.00180441209293 -0.11728678604 0.975 1.57495311535e-38
0.0 -0.11728678604 0.975 1.37216042458e-38
0.00180441209293 -0.11728678604 0.975 1.36297575392e-38
0.00361992826028 -0.117647668459 0.978 1.36286028693e-38
0.00542989239041 -0.117647668459 0.978 1.37230111494e-38
0.00723985652055 -0.117647668459 0.978 1.40006882492e-38
0.00904982065069 -0.117647668459 0.978 1.23386697978e-38
0.0108597847808 -0.117647668459 0.978 1.30747858941e-38
0.012669748911 -0.117647668459 0.978 1.26138245604e-38
0.0144797130411 -0.117647668459 0.978 1.39981841289e-38
0.0162896771712 -0.117647668459 0.978 1.23386697978e-38
0.0180441209293 -0.11728678604 0.975 1.31665737461e-38
0.0198485330222 -0.11728678604 0.975 1.2524114834e-38
0.0216529451152 -0.11728678604 0.975 1.27074481134e-38
0.0234092395523 -0.117046197761 0.973 1.2523767312e-38
0.0252099502871 -0.117046197761 0.973 1.26152370692e-38
0.0270106610218 -0.117046197761 0.973 1.21520911112e-38
0.0287225391613 -0.116685315343 0.97 1.26134770384e-38
0.0305176978589 -0.116685315343 0.97 1.15103664795e-38
0.0322129198867 -0.116324432924 0.967 1.10450372984e-38
0.0340025265471 -0.116324432924 0.967 1.1412768844e-38
0.0356070653005 -0.115722962227 0.962 1.44490252851e-38
0.0372708257841 -0.115362079808 0.959 2.34907592924e-38
0.0390456270119 -0.115362079808 0.959 2.34996519325e-38
0.0406927313839 -0.115001197389 0.956 1.3163511909e-38
0.0424619805745 -0.115001197389 0.956 3.30618295907e-39
0.0442312297651 -0.115001197389 0.956 1.38122206123e-39
0.0460004789557 -0.115001197389 0.956 7.45093234646e-39
-0.0255726833847 -0.116903695473 0.987 4.22484620631e-39
-0.0237460631429 -0.116903695473 0.987 1.27017672494e-38
-0.0218528184547 -0.116548365092 0.984 1.74912316395e-38
-0.0199706778408 -0.11619303471 0.981 1.04804555484e-38
-0.0180071073479 -0.115245487027 0.973 2.29588740395e-39
-0.0161564282782 -0.114890156645 0.97 6.44439927772e-39
-0.0143612695806 -0.114890156645 0.97 2.06412763184e-38
-0.0125661108831 -0.114890156645 0.97 1.96304692894e-38
-0.0107709521855 -0.114890156645 0.97 1.91629821087e-38
-0.0089757934879 -0.114890156645 0.97 1.62018941198e-38
-0.00720284293916 -0.115245487027 0.973 1.64791101924e-38
-0.00541323627879 -0.115482373947 0.975 1.34417032853e-38
-0.00360882418586 -0.115482373947 0.975 1.52888682963e-38
-0.00180441209293 -0.115482373947 0.975 1.3351026663e-38
0.0 -0.115482373947 0.975 1.48278495093e-38
0.00180441209293 -0.115482373947 0.975 1.32613477652e-38
0.00361992826028 -0.115837704329 0.978 1.40907356885e-38
0.00542989239041 -0.115837704329 0.978 1.29851308184e-38
0.00723985652055 -0.115837704329 0.978 1.3261365982e-38
0.00904982065069 -0.115837704329 0.978 1.24283655112e-38
0.0108597847808 -0.115837704329 0.978 1.36257512269e-38
0.012669748911 -0.115837704329 0.978 1.41807775227e-38
0.0144797130411 -0.115837704329 0.978 1.24294318994e-38
0.0162896771712 -0.115837704329 0.978 1.25220072811e-38
0.0180996413014 -0.115837704329 0.978 1.27070949862e-38
0.0199096054315 -0.115837704329 0.978 1.20628241951e-38
0.0216529451152 -0.115482373947 0.975 1.24315688795e-38
0.0234573572081 -0.115482373947 0.975 1.20609492578e-38
0.0252099502871 -0.115245487027 0.973 1.09549898591e-38
0.0270106610218 -0.115245487027 0.973 1.05815298054e-38
0.0288113717566 -0.115245487027 0.973 1.03042296549e-38
0.0305176978589 -0.114890156645 0.97 1.39862702893e-38
0.0322129198867 -0.114534826264 0.967 2.20059252227e-38
0.0340025265471 -0.114534826264 0.967 2.1558936236e-38
0.0337933998122 -0.108138879399 0.913 2.14718034975e-38
0.0354830698028 -0.108138879399 0.913 1.25198745048e-38
0.0371727397934 -0.108138879399 0.913 2.75511673278e-39
0.038862409784 -0.108138879399 0.913 3.31839667649e-39
0.0405520797746 -0.108138879399 0.913 4.79098620018e-39
0.0422417497652 -0.108138879399 0.913 1.02189270121e-38
0.0440276550675 -0.10837576632 0.915 1.94258965292e-38
-0.0273160230683 -0.114727296887 0.984 2.35098856151e-38
-0.0254949548638 -0.114727296887 0.984 1.09565915432e-38
-0.0236738866592 -0.114727296887 0.984 8.09348514559e-39
-0.0217861940082 -0.114377518543 0.981 1.24269726205e-38
-0.0199706778408 -0.114377518543 0.981 1.65660145193e-38
-0.0180996413014 -0.114027740199 0.978 1.34313687091e-38
-0.0161564282782 -0.113094997948 0.97 5.96931705936e-39
-0.0143612695806 -0.113094997948 0.97 1.83670992316e-40
-0.0125661108831 -0.113094997948 0.97 3.64337600724e-44
-0.0107709521855 -0.113094997948 0.97 1.3162882726e-38
-0.00900355367395 -0.113444776292 0.973 2.24783701974e-38
-0.00721764837172 -0.113677961855 0.975 2.22958734932e-38
-0.00541323627879 -0.113677961855 0.975 2.19302607108e-38
-0.00360882418586 -0.113677961855 0.975 1.72246626326e-38
-0.00180996413014 -0.114027740199 0.978 1.73997184419e-38
0.0 -0.114027740199 0.978 1.51881149367e-38
0.00180996413014 -0.114027740199 0.978 1.33448637523e-38
0.00361992826028 -0.114027740199 0.978 1.45440879716e-38
0.00542989239041 -0.114027740199 0.978 1.2699131407e-38
0.00723985652055 -0.114027740199 0.978 1.22406868053e-38
0.00904982065069 -0.114027740199 0.978 1.16871430833e-38
0.0108597847808 -0.114027740199 0.978 1.0950665452e-38
0.012669748911 -0.114027740199 0.978 1.29778636845e-38
0.0144797130411 -0.114027740199 0.978 1.18722490053e-38
0.0162896771712 -0.114027740199 0.978 1.07662826001e-38
0.0180996413014 -0.114027740199 0.978 1.14102044678e-38
0.0198485330222 -0.113677961855 0.975 1.40813596005e-38
0.0216529451152 -0.113677961855 0.975 1.54650745717e-38
0.0234573572081 -0.113677961855 0.975 1.71235225146e-38
0.0252099502871 -0.113444776292 0.973 1.97053350611e-38
0.0270106610218 -0.113444776292 0.973 2.34960716149e-38
0.0287225391613 -0.113094997948 0.97 2.27603885198e-38
0.0305176978589 -0.113094997948 0.97 2.32210121406e-38
0.0322129198867 -0.112745219603 0.967 1.60260675963e-38
0.0321037298216 -0.106449209408 0.913 5.14284243549e-39
0.0337933998122 -0.106449209408 0.913 1.56120343469e-39
0.0354830698028 -0.106449209408 0.913 4.60585505487e-39
0.0371727397934 -0.106449209408 0.913 5.7115005627e-39
0.038862409784 -0.106449209408 0.913 5.52422262814e-39
0.0405520797746 -0.106449209408 0.913 1.24237930743e-38
0.0423342837187 -0.106682394971 0.915 2.11664577595e-38
0.0440276550675 -0.106682394971 0.915 2.20873210453e-38
0.0457210264162 -0.106682394971 0.915 1.88608439429e-38
-0.0272327425102 -0.112562002376 0.981 2.35098856151e-38
-0.0254172263429 -0.112562002376 0.981 6.35354749308e-39
-0.0236017101755 -0.112562002376 0.981 1.59271919767e-38
-0.0217861940082 -0.112562002376 0.981 6.71801821716e-39
-0.0199706778408 -0.112562002376 0.981 1.08639881355e-38
-0.0181551616735 -0.112562002376 0.981 1.66574492441e-38
-0.0162896771712 -0.112217776069 0.978 1.56400701252e-38
-0.0144352967434 -0.111873549762 0.975 1.00237583659e-38
-0.0126049751435 -0.111644065557 0.973 4.95919806784e-39
-0.0108042644087 -0.111644065557 0.973 0.0
-0.00900355367395 -0.111644065557 0.973 2.80259692865e-44
-0.00721764837172 -0.111873549762 0.975 1.8367673764e-39
-0.00541323627879 -0.111873549762 0.975 1.22348125621e-38
-0.00361992826028 -0.112217776069 0.978 1.84174829179e-38
-0.00180996413014 -0.112217776069 0.978 2.09056340763e-38
0.0 -0.112217776069 0.978 2.34870822852e-38
0.00180996413014 -0.112217776069 0.978 2.24755409758e-38
0.00361992826028 -0.112217776069 0.978 2.34925277311e-38
0.00542989239041 -0.112217776069 0.978 2.34918018585e-38
0.00723985652055 -0.112217776069 0.978 2.34960926344e-38
0.00904982065069 -0.112217776069 0.978 2.34939304308e-38
0.0108597847808 -0.112217776069 0.978 2.34986149716e-38
0.012669748911 -0.112217776069 0.978 2.34957353033e-38
0.0144797130411 -0.112217776069 0.978 2.3498250634e-38
0.0162896771712 -0.112217776069 0.978 2.34986429976e-38
0.0180441209293 -0.111873549762 0.975 2.34957395071e-38
0.0198485330222 -0.111873549762 0.975 2.34982380223e-38
0.0216529451152 -0.111873549762 0.975 2.16482788222e-38
0.0234573572081 -0.111873549762 0.975 2.03570285301e-38
0.0252099502871 -0.111644065557 0.973 1.51941937695e-38
0.0270106610218 -0.111644065557 0.973 1.07655595301e-38
0.0287225391613 -0.11129983925 0.97 4.04078985692e-39
0.0286300052078 -0.104415313111 0.91 0.0
0.0303141231612 -0.104415313111 0.91 2.75921272819e-40
0.0321037298216 -0.104759539418 0.913 5.62073425727e-39
0.0337933998122 -0.104759539418 0.913 5.15545412167e-39
0.0355607983237 -0.104989023622 0.915 5.70604951167e-39
0.0372541696725 -0.104989023622 0.915 1.04823122689e-38
0.0389475410212 -0.104989023622 0.915 1.75788001818e-38
0.04064091237 -0.104989023622 0.915 2.02476866123e-38
0.0423342837187 -0.104989023622 0.915 2.19882926842e-38
0.0440276550675 -0.104989023622 0.915 2.26379332509e-38
0.0457210264162 -0.104989023622 0.915 1.20463183005e-38
-0.0254172263429 -0.110746486208 0.981 1.20732918946e-38
-0.0222544158128 -0.104424566506 0.925 1.31484507531e-38
-0.0204981213757 -0.10419878366 0.923 1.08676160972e-38
-0.0187288721851 -0.10386010939 0.92 5.61603710482e-39
-0.0169892338596 -0.103634326543 0.918 9.75726783176e-39
-0.0152403421387 -0.103295652274 0.915 1.6107515267e-38
-0.0135173599249 -0.103069869427 0.913 1.54592745974e-38
-0.0117888256738 -0.102731195157 0.91 1.50000788997e-38
-0.0100824995716 -0.102505412311 0.908 1.02120928795e-38
-0.00840208297631 -0.102505412311 0.908 6.7069409528e-39
-0.00721764837172 -0.110069137669 0.975 2.38780137282e-39
-0.00542989239041 -0.110407811938 0.978 0.0
-0.00361992826028 -0.110407811938 0.978 1.37757588262e-39
-0.00180996413014 -0.110407811938 0.978 6.33670808944e-39
0.0 -0.110407811938 0.978 1.14849203006e-38
0.00180996413014 -0.110407811938 0.978 1.46280635847e-38
0.00361992826028 -0.110407811938 0.978 1.18654330895e-38
0.00542989239041 -0.110407811938 0.978 1.31525649654e-38
0.00723985652055 -0.110407811938 0.978 1.19576273181e-38
0.00904982065069 -0.110407811938 0.978 1.18686616812e-38
0.0108597847808 -0.110407811938 0.978 1.19612146422e-38
0.012669748911 -0.110407811938 0.978 1.08534489698e-38
0.0144797130411 -0.110407811938 0.978 1.07598198116e-38
0.0162896771712 -0.110407811938 0.978 8.82230608208e-39
0.0180441209293 -0.110069137669 0.975 8.63253663885e-39
0.0198485330222 -0.110069137669 0.975 7.07136123013e-39
0.0201649991431 -0.102505412311 0.908 4.5917748079e-39
0.0218454157384 -0.102505412311 0.908 1.65305294383e-39
0.025261769301 -0.110069137669 0.975 1.37761511898e-39
0.0252062489289 -0.102505412311 0.908 4.4204058148e-39
0.0268866655242 -0.102505412311 0.908 5.1568792422e-39
0.0285670821194 -0.102505412311 0.908 6.35609365239e-39
0.0303141231612 -0.102731195157 0.91 4.78809672275e-39
0.0321037298216 -0.103069869427 0.913 5.70286295896e-39
0.033867426975 -0.103295652274 0.915 1.31548140494e-38
0.0355607983237 -0.103295652274 0.915 1.68433398932e-38
0.0372541696725 -0.103295652274 0.915 1.96945156357e-38
0.0389475410212 -0.103295652274 0.915 2.0330899919e-38
0.040774161263 -0.103634326543 0.918 2.07915067242e-38
0.0423342837187 -0.103295652274 0.915 2.10709858938e-38
0.0440276550675 -0.103295652274 0.915 1.61926007084e-38
0.0457210264162 -0.103295652274 0.915 1.2143202675e-38
-0.0239662939522 -0.102712688367 0.925 1.89915780831e-38
-0.0222544158128 -0.102712688367 0.925 1.37120165617e-38
-0.0204981213757 -0.102490606878 0.923 8.92792474994e-39
-0.0187288721851 -0.102157484646 0.92 5.70822292559e-39
-0.0169892338596 -0.101935403157 0.918 5.61852861349e-39
-0.0152403421387 -0.101602280925 0.915 6.34569882038e-39
-0.0135173599249 -0.101380199437 0.913 1.28843438276e-38
-0.0117888256738 -0.101047077204 0.91 1.51858896748e-38
-0.0100824995716 -0.100824995716 0.908 1.50890851743e-38
-0.00840208297631 -0.100824995716 0.908 1.54610374308e-38
-0.0067364718136 -0.101047077204 0.91 1.32522925745e-38
-0.00542989239041 -0.108597847808 0.978 8.55007302682e-39
-0.00361992826028 -0.108597847808 0.978 8.82240277168e-39
-0.00180996413014 -0.108597847808 0.978 4.22448887521e-39
0.0 -0.108597847808 0.978 0.0
0.00180996413014 -0.108597847808 0.978 9.93950809835e-39
0.00361992826028 -0.108597847808 0.978 4.31633137786e-39
0.00542989239041 -0.108597847808 0.978 4.86808984559e-39
0.00723985652055 -0.108597847808 0.978 3.39793017343e-39
0.00904982065069 -0.108597847808 0.978 2.57146115475e-39
0.0108930970041 -0.108930970041 0.981 5.15080040947e-39
0.012669748911 -0.108597847808 0.978 3.03243930407e-39
0.0144797130411 -0.108597847808 0.978 3.03529094644e-39
0.0151237493574 -0.100824995716 0.908 2.76336757814e-39
0.0168041659526 -0.100824995716 0.908 3.49837384605e-39
0.0184845825479 -0.100824995716 0.908 4.23598652911e-39
0.0201649991431 -0.100824995716 0.908 4.23668297444e-39
0.0218454157384 -0.100824995716 0.908 4.5125664122e-39
0.0235258323337 -0.100824995716 0.908 4.78735543586e-39
0.0252062489289 -0.100824995716 0.908 4.04438839138e-39
0.0268866655242 -0.100824995716 0.908 6.89601955589e-39
0.0285670821194 -0.100824995716 0.908 1.01084528451e-38
0.0303141231612 -0.101047077204 0.91 1.60992363956e-38
0.0321037298216 -0.101380199437 0.913 1.76759143693e-38
0.033867426975 -0.101602280925 0.915 1.9511570516e-38
0.0355607983237 -0.101602280925 0.915 1.95043832562e-38
0.0372541696725 -0.101602280925 0.915 1.99588747949e-38
0.039075237877 -0.101935403157 0.918 2.12539478291e-38
0.040774161263 -0.101935403157 0.918 1.99703962709e-38
0.042473084649 -0.101935403157 0.918 1.55486760381e-38
0.0441720080349 -0.101935403157 0.918 1.05849055334e-38
0.0458709314209 -0.101935403157 0.918 1.6212843866e-38
-0.0223265922965 -0.101328380423 0.928 1.18674173282e-38
-0.0204981213757 -0.100782430097 0.923 1.64759880995e-38
-0.0187288721851 -0.100454859902 0.92 1.04004694321e-38
-0.0169892338596 -0.100236479772 0.918 6.34536110745e-39
-0.0152903104736 -0.100236479772 0.918 5.70897822546e-39
-0.0135173599249 -0.099690529446 0.913 4.9689132701e-39
-0.0118276899343 -0.099690529446 0.913 8.18924007356e-39
-0.0101047077204 -0.0993629592506 0.91 1.27017448286e-38
-0.008420589767 -0.0993629592506 0.91 1.38973032511e-38
-0.0067364718136 -0.0993629592506 0.91 1.73910640226e-38
-0.0050523538602 -0.0993629592506 0.91 1.56379499607e-38
-0.0033682359068 -0.0993629592506 0.91 1.65594732581e-38
-0.0016841179534 -0.0993629592506 0.91 1.51859120955e-38
0.0 -0.106787883678 0.978 1.18719295092e-38
0.00180996413014 -0.106787883678 0.978 1.38062749029e-38
0.00361992826028 -0.106787883678 0.978 8.17593474464e-39
0.00542989239041 -0.106787883678 0.978 9.09971413257e-39
0.00723985652055 -0.106787883678 0.978 9.56027609625e-39
0.00904982065069 -0.106787883678 0.978 1.00219829208e-38
0.0108597847808 -0.106787883678 0.978 7.90585408382e-39
0.012669748911 -0.106787883678 0.978 7.72360120555e-39
0.0134433327621 -0.0991445791204 0.908 8.1852729976e-39
0.0151237493574 -0.0991445791204 0.908 6.70441721427e-39
0.0168041659526 -0.0991445791204 0.908 9.46631062642e-39
0.0184845825479 -0.0991445791204 0.908 9.37733237783e-39
0.0201649991431 -0.0991445791204 0.908 1.16768575526e-38
0.0218454157384 -0.0991445791204 0.908 1.13029883197e-38
0.0235258323337 -0.0991445791204 0.908 1.41632402724e-38
0.0252062489289 -0.0991445791204 0.908 1.57361921934e-38
0.0268866655242 -0.0991445791204 0.908 1.76701802559e-38
0.0285670821194 -0.0991445791204 0.908 1.94150700972e-38
0.0303141231612 -0.0993629592506 0.91 1.91345399538e-38
0.0321037298216 -0.099690529446 0.913 2.07918584501e-38
0.033867426975 -0.0999089095762 0.915 1.90398261906e-38
0.0355607983237 -0.0999089095762 0.915 2.10699685511e-38
0.0372541696725 -0.0999089095762 0.915 2.03352131157e-38
0.0389475410212 -0.0999089095762 0.915 1.58258921107e-38
0.040774161263 -0.100236479772 0.918 1.18708897458e-38
0.042473084649 -0.100236479772 0.918 9.48210746401e-39
0.0441720080349 -0.100236479772 0.918 7.09228401751e-39
0.0458709314209 -0.100236479772 0.918 2.34933839244e-38
-0.0223265922965 -0.099610950246 0.928 3.58163199431e-39
-0.0205425376733 -0.0992889320879 0.925 1.75837369563e-38
-0.0187899445944 -0.0990742533158 0.923 1.67539959057e-38
-0.017026247441 -0.0987522351576 0.92 1.30683567368e-38
-0.0152903104736 -0.0985375563856 0.918 8.73985648304e-39
-0.01354697079 -0.0982155382274 0.915 5.5177780565e-39
-0.0118276899343 -0.0980008594554 0.913 3.86723623952e-39
-0.0101047077204 -0.0976788412972 0.91 3.9568590854e-39
-0.008420589767 -0.0976788412972 0.91 8.4629543013e-39
-0.0067364718136 -0.0976788412972 0.91 1.20523999358e-38
-0.0050523538602 -0.0976788412972 0.91 1.38965759772e-38
-0.0033682359068 -0.0976788412972 0.91 1.64701474875e-38
-0.0016841179534 -0.0976788412972 0.91 1.50862377358e-38
0.0 -0.0976788412972 0.91 1.71141268084e-38
0.0016841179534 -0.0976788412972 0.91 1.82218868756e-38
0.00361992826028 -0.104977919548 0.978 1.48074381959e-38
0.00542989239041 -0.104977919548 0.978 1.72966459334e-38
0.0067364718136 -0.0976788412972 0.91 1.6466924501e-38
0.008420589767 -0.0976788412972 0.91 1.71116058725e-38
0.0101047077204 -0.0976788412972 0.91 1.68374838669e-38
0.0117888256738 -0.0976788412972 0.91 1.66567093585e-38
0.0134433327621 -0.0974641625252 0.908 1.71173287754e-38
0.0151237493574 -0.0974641625252 0.908 1.62839961969e-38
0.0168041659526 -0.0974641625252 0.908 1.80339321139e-38
0.0184845825479 -0.0974641625252 0.908 1.64676826035e-38
0.0201649991431 -0.0974641625252 0.908 1.87703733115e-38
0.0218454157384 -0.0974641625252 0.908 1.91384874115e-38
0.0235258323337 -0.0974641625252 0.908 1.91370006339e-38
0.0252062489289 -0.0974641625252 0.908 1.95955279122e-38
0.0268866655242 -0.0974641625252 0.908 2.01453371737e-38
0.0285670821194 -0.0974641625252 0.908 1.93160249205e-38
0.0303141231612 -0.0976788412972 0.91 1.9592278301e-38
0.0319982411146 -0.0976788412972 0.91 1.89522786677e-38
0.0337933998122 -0.0980008594554 0.913 1.68378524084e-38
0.0354830698028 -0.0980008594554 0.913 1.45380441713e-38
0.0372541696725 -0.0982155382274 0.915 1.13094749303e-38
0.0389475410212 -0.0982155382274 0.915 8.46333405318e-39
0.040774161263 -0.0985375563856 0.918 8.10679607971e-39
0.042473084649 -0.0985375563856 0.918 7.92525646236e-39
0.0441720080349 -0.0985375563856 0.918 1.19710741782e-38
0.0458709314209 -0.0985375563856 0.918 2.35091681503e-38
-0.0240440224732 -0.0978935200693 0.928 2.35098856151e-38
-0.0223265922965 -0.0978935200693 0.928 1.46943239826e-39
-0.0206091621199 -0.0978935200693 0.928 1.23287261839e-38
-0.0188306595339 -0.0975770539484 0.925 1.56462498515e-38
-0.017026247441 -0.0970496104135 0.92 1.62868870756e-38
-0.0152903104736 -0.0968386329996 0.918 1.59188052054e-38
-0.01354697079 -0.0965221668787 0.915 1.24215397864e-38
-0.0118535994412 -0.0965221668787 0.915 8.36530762041e-39
-0.0101380199437 -0.0963111894648 0.913 4.31634258824e-39
-0.00844834995305 -0.0963111894648 0.913 4.14059734004e-39
-0.0067364718136 -0.0959947233438 0.91 2.75764187262e-39
-0.0050523538602 -0.0959947233438 0.91 5.15330452982e-39
-0.0033682359068 -0.0959947233438 0.91 7.62961892014e-39
-0.0016841179534 -0.0959947233438 0.91 1.13119930636e-38
0.0 -0.0959947233438 0.91 1.21499078882e-38
0.0016841179534 -0.0959947233438 0.91 1.65696270667e-38
0.0033682359068 -0.0959947233438 0.91 1.50919396192e-38
0.00504124978578 -0.0957837459299 0.908 1.4903897977e-38
0.00672166638105 -0.0957837459299 0.908 1.65609404176e-38
0.00840208297631 -0.0957837459299 0.908 1.79431840254e-38
0.0100824995716 -0.0957837459299 0.908 1.79417364841e-38
0.0117629161668 -0.0957837459299 0.908 1.80328236868e-38
0.0134433327621 -0.0957837459299 0.908 1.83090616531e-38
0.0151237493574 -0.0957837459299 0.908 1.81250613556e-38
0.0168041659526 -0.0957837459299 0.908 1.82161611701e-38
0.0184845825479 -0.0957837459299 0.908 1.89558505775e-38
0.0201649991431 -0.0957837459299 0.908 1.64697971628e-38
0.0218454157384 -0.0957837459299 0.908 1.7576181155e-38
0.0235258323337 -0.0957837459299 0.908 1.65620488446e-38
0.0252062489289 -0.0957837459299 0.908 1.63787491964e-38
0.0268866655242 -0.0957837459299 0.908 1.49993908622e-38
0.0285670821194 -0.0957837459299 0.908 1.37075380118e-38
0.0303141231612 -0.0959947233438 0.91 1.26887968308e-38
0.0319982411146 -0.0959947233438 0.91 1.08488316913e-38
0.0337933998122 -0.0963111894648 0.913 6.89349721865e-39
0.0354830698028 -0.0963111894648 0.913 6.81353352309e-39
0.0372541696725 -0.0965221668787 0.915 8.19825883047e-39
0.0389475410212 -0.0965221668787 0.915 8.10569465911e-39
0.040774161263 -0.0968386329996 0.918 7.83270630398e-39
0.042473084649 -0.0968386329996 0.918 1.31710649077e-38
0.0441720080349 -0.0968386329996 0.918 1.64775463433e-38
-0.0240440224732 -0.0961760898927 0.928 2.35098856151e-38
-0.0223265922965 -0.0961760898927 0.928 9.67470052365e-39
-0.0206091621199 -0.0961760898927 0.928 7.16903593699e-39
-0.0188306595339 -0.095865175809 0.925 1.06813891365e-38
-0.0170817678131 -0.0956578997532 0.923 1.58334871484e-38
-0.0153236226969 -0.0953469856695 0.92 1.62847206682e-38
-0.0135913870877 -0.0951397096136 0.918 1.65610132851e-38
-0.0118535994412 -0.0948287955299 0.915 1.55485807498e-38
-0.0101602280925 -0.0948287955299 0.915 1.47260311629e-38
-0.00844834995305 -0.0946215194741 0.913 9.47484033018e-39
-0.00675867996244 -0.0946215194741 0.913 9.65212140149e-39
-0.00506900997183 -0.0946215194741 0.913 7.07462905815e-39
-0.00337933998122 -0.0946215194741 0.913 3.48981751763e-39
-0.0016841179534 -0.0943106053904 0.91 2.11228227266e-39
0.0 -0.0943106053904 0.91 2.52233723578e-44
0.0016841179534 -0.0943106053904 0.91 1.27954650712e-38
0.0033682359068 -0.0943106053904 0.91 5.51017741363e-39
0.00504124978578 -0.0941033293346 0.908 5.87865024612e-39
0.00672166638105 -0.0941033293346 0.908 8.54759412984e-39
0.00840208297631 -0.0941033293346 0.908 8.63830017943e-39
0.0100824995716 -0.0941033293346 0.908 9.55594468269e-39
0.0117629161668 -0.0941033293346 0.908 1.00165655009e-38
0.0134433327621 -0.0941033293346 0.908 8.54072916866e-39
0.0151237493574 -0.0941033293346 0.908 1.08420325912e-38
0.0168041659526 -0.0941033293346 0.908 1.01080450672e-38
0.0184845825479 -0.0941033293346 0.908 9.27898785031e-39
0.0201649991431 -0.0941033293346 0.908 9.09463442564e-39
0.0218454157384 -0.0941033293346 0.908 8.45144543701e-39
0.0235258323337 -0.0941033293346 0.908 7.99514061807e-39
0.0252062489289 -0.0941033293346 0.908 6.70907372906e-39
0.0268866655242 -0.0941033293346 0.908 4.69408781268e-39
0.0285670821194 -0.0941033293346 0.908 4.69842202883e-39
0.0303141231612 -0.0943106053904 0.91 6.17531494011e-39
0.0319982411146 -0.0943106053904 0.91 6.08098793528e-39
0.0337933998122 -0.0946215194741 0.913 6.72561465614e-39
0.0355607983237 -0.0948287955299 0.915 6.72598039504e-39
0.0372541696725 -0.0948287955299 0.915 5.61782516166e-39
0.039075237877 -0.0951397096136 0.918 9.57575063519e-39
0.040774161263 -0.0951397096136 0.918 1.42698566647e-38
0.042473084649 -0.0951397096136 0.918 2.10832906956e-38
0.0441720080349 -0.0951397096136 0.918 9.46913704543e-39
-0.0240958414871 -0.0946622344137 0.93 2.35098856151e-38
-0.0223747099523 -0.0946622344137 0.93 1.54877896198e-38
-0.0206091621199 -0.094458659716 0.928 1.23136902514e-38
-0.0188917319432 -0.094458659716 0.928 7.9166370755e-39
-0.0171187813945 -0.0941532976695 0.925 7.73008221095e-39
-0.0153735910318 -0.0939497229719 0.923 1.35297272496e-38
-0.0136654142505 -0.0939497229719 0.923 1.44473311153e-38
-0.0118924637017 -0.0934407862277 0.918 1.58230194488e-38
-0.0101602280925 -0.0931354241812 0.915 1.54546054709e-38
-0.00846685674374 -0.0931354241812 0.915 1.69285990956e-38
-0.00675867996244 -0.0929318494835 0.913 1.65627508952e-38
-0.00506900997183 -0.0929318494835 0.913 1.47228081765e-38
-0.00337933998122 -0.0929318494835 0.913 1.38948748009e-38
-0.00168966999061 -0.0929318494835 0.913 1.23314979523e-38
0.0 -0.0929318494835 0.913 8.17914652072e-39
0.0016841179534 -0.092626487437 0.91 1.5364635103e-38
0.0033682359068 -0.092626487437 0.91 6.88769584301e-39
0.0050523538602 -0.092626487437 0.91 7.16792610861e-39
0.0067364718136 -0.092626487437 0.91 7.35012153364e-39
0.008420589767 -0.092626487437 0.91 5.96939693337e-39
0.0101047077204 -0.092626487437 0.91 5.14286625756e-39
0.0117888256738 -0.092626487437 0.91 5.51669345149e-39
0.0134433327621 -0.0924229127394 0.908 4.50864137521e-39
0.0151237493574 -0.0924229127394 0.908 3.67815623513e-39
0.0168041659526 -0.0924229127394 0.908 4.32458222321e-39
0.0184845825479 -0.0924229127394 0.908 4.60259423334e-39
0.0201649991431 -0.0924229127394 0.908 4.51039860348e-39
0.0218454157384 -0.0924229127394 0.908 4.51110205531e-39
0.0235258323337 -0.0924229127394 0.908 4.60511236668e-39
0.0252062489289 -0.0924229127394 0.908 4.60511236668e-39
0.0268866655242 -0.0924229127394 0.908 5.61638742943e-39
0.0285670821194 -0.0924229127394 0.908 4.32637728655e-39
0.0303141231612 -0.092626487437 0.91 5.80043396974e-39
0.0321037298216 -0.0929318494835 0.913 7.17545948915e-39
0.033867426975 -0.0931354241812 0.915 8.46189491966e-39
0.0355607983237 -0.0931354241812 0.915 1.2049996709e-38
0.0373763144911 -0.0934407862277 0.918 1.58274083156e-38
0.0391603691142 -0.0936443609254 0.92 1.89649015643e-38
0.0408629938583 -0.0936443609254 0.92 2.00676085492e-38
0.0425656186024 -0.0936443609254 0.92 1.4449874472e-38
0.0442682433465 -0.0936443609254 0.92 1.06774669021e-38
-0.0240958414871 -0.0929411028789 0.93 2.35098856151e-38
-0.0223747099523 -0.0929411028789 0.93 2.01897681441e-38
-0.0206091621199 -0.0927412295394 0.928 1.39838936871e-38
-0.0188917319432 -0.0927412295394 0.928 1.1501424794e-38
-0.0171187813945 -0.0924414195301 0.925 6.89996701366e-39
-0.015406903255 -0.0924414195301 0.925 3.95833605398e-39
-0.0136654142505 -0.0922415461905 0.923 9.66292401136e-39
-0.0119572374691 -0.0922415461905 0.923 1.33466504079e-38
-0.0101935403157 -0.0917418628417 0.918 1.58308653189e-38
-0.00849461692979 -0.0917418628417 0.918 1.58222963788e-38
-0.006773485395 -0.0914420528324 0.915 1.6742437996e-38
-0.00508011404625 -0.0914420528324 0.915 1.62825738789e-38
-0.0033867426975 -0.0914420528324 0.915 1.69282361593e-38
-0.00168966999061 -0.0912421794929 0.913 1.63750791957e-38
0.0 -0.0912421794929 0.913 1.60059645686e-38
0.00168966999061 -0.0912421794929 0.913 2.06132839803e-38
0.00337933998122 -0.0912421794929 0.913 1.55456912724e-38
0.0050523538602 -0.0909423694836 0.91 1.69304432044e-38
0.0067364718136 -0.0909423694836 0.91 1.61017349108e-38
0.008420589767 -0.0909423694836 0.91 1.74868245558e-38
0.0101047077204 -0.0909423694836 0.91 1.61045907571e-38
0.0117888256738 -0.0909423694836 0.91 1.45387097881e-38
0.0134729436272 -0.0909423694836 0.91 1.44466066439e-38
0.0151570615806 -0.0909423694836 0.91 1.46320769035e-38
0.016841179534 -0.0909423694836 0.91 1.40781422192e-38
0.0185252974874 -0.0909423694836 0.91 1.42614544792e-38
0.0202094154408 -0.0909423694836 0.91 1.44451450896e-38
0.0218935333942 -0.0909423694836 0.91 1.46306125466e-38
0.0235776513476 -0.0909423694836 0.91 1.35249866569e-38
0.025261769301 -0.0909423694836 0.91 1.43536949506e-38
0.0269458872544 -0.0909423694836 0.91 1.53688810373e-38
0.0287243898404 -0.0912421794929 0.913 1.52752911155e-38
0.0304806842775 -0.0914420528324 0.915 1.58273354481e-38
0.0322795443332 -0.0917418628417 0.918 1.78534294574e-38
0.0339784677192 -0.0917418628417 0.918 1.84980449679e-38
0.0356773911051 -0.0917418628417 0.918 1.93250520852e-38
0.0373763144911 -0.0917418628417 0.918 2.12564883832e-38
0.0391603691142 -0.0919417361813 0.92 1.90491490292e-38
0.0408629938583 -0.0919417361813 0.92 1.17794606262e-38
0.0425656186024 -0.0919417361813 0.92 1.04084400177e-38
0.0442682433465 -0.0919417361813 0.92 1.29902833928e-38
-0.0223747099523 -0.0912199713441 0.93 2.35098856151e-38
-0.0206535784175 -0.0912199713441 0.93 1.17712490172e-38
-0.0188917319432 -0.0910237993627 0.928 1.64738343037e-38
-0.0171743017665 -0.0910237993627 0.928 1.20506567206e-38
-0.015406903255 -0.0907295413906 0.925 8.00514308651e-39
-0.0136950251156 -0.0907295413906 0.925 4.69590109289e-39
-0.0119572374691 -0.0905333694092 0.923 4.41749952179e-39
-0.0102490606878 -0.0905333694092 0.923 9.38561825565e-39
-0.00849461692979 -0.0900429394558 0.918 1.30693432509e-38
-0.006773485395 -0.0897486814837 0.915 1.47256373981e-38
-0.00508011404625 -0.0897486814837 0.915 1.6379047673e-38
-0.0033867426975 -0.0897486814837 0.915 1.72041111893e-38
-0.00169337134875 -0.0897486814837 0.915 1.67446310281e-38
0.0 -0.0897486814837 0.915 1.65562264495e-38
0.00168966999061 -0.0895525095023 0.913 2.05213644063e-38
0.00337933998122 -0.0895525095023 0.913 1.4714895044e-38
0.00506900997183 -0.0895525095023 0.913 1.85752326912e-38
0.00675867996244 -0.0895525095023 0.913 1.81192515722e-38
0.00844834995305 -0.0895525095023 0.913 1.83043336721e-38
0.0101380199437 -0.0895525095023 0.913 1.83954769268e-38
0.0118276899343 -0.0895525095023 0.913 1.78448366952e-38
0.0134729436272 -0.0892582515302 0.91 1.78433723383e-38
0.0151570615806 -0.0892582515302 0.91 1.91319461503e-38
0.016841179534 -0.0892582515302 0.91 1.97777415541e-38
0.0185863698967 -0.0895525095023 0.913 2.00561052901e-38
0.0202760398873 -0.0895525095023 0.913 1.74735738775e-38
0.0219657098779 -0.0895525095023 0.913 1.98695462217e-38
0.0236553798685 -0.0895525095023 0.913 1.89486689229e-38
0.0253450498591 -0.0895525095023 0.913 1.93182123474e-38
0.0270347198498 -0.0895525095023 0.913 1.95008267607e-38
0.0287873129287 -0.0897486814837 0.915 1.95914991791e-38
0.0304806842775 -0.0897486814837 0.915 2.11595661736e-38
0.0322795443332 -0.0900429394558 0.918 2.08858883797e-38
0.0339784677192 -0.0900429394558 0.918 2.14393956679e-38
0.0356773911051 -0.0900429394558 0.918 1.86803384838e-38
0.0373763144911 -0.0900429394558 0.918 1.50894635248e-38
0.0391603691142 -0.0902391114372 0.92 8.2742484436e-39
0.0408629938583 -0.0902391114372 0.92 1.02308254374e-38
0.0425656186024 -0.0902391114372 0.92 6.26535677423e-39
-0.022446886436 -0.0897875457442 0.933 2.35098856151e-38
-0.0206535784175 -0.0894988398093 0.93 3.48988758255e-39
-0.0189324468827 -0.0894988398093 0.93 1.77619975352e-38
-0.0171743017665 -0.089306369186 0.928 1.73024683285e-38
-0.0154568715899 -0.089306369186 0.928 1.34331960023e-38
-0.0136950251156 -0.0890176632512 0.925 8.829503151e-39
-0.0119831469761 -0.0890176632512 0.925 5.60232399804e-39
-0.0102490606878 -0.0888251926279 0.923 4.69555357087e-39
-0.00849461692979 -0.0883440160698 0.918 2.94419113198e-39
-0.00679569354383 -0.0883440160698 0.918 7.44772337298e-39
-0.00509677015787 -0.0883440160698 0.918 9.6553065529e-39
-0.00339784677192 -0.0883440160698 0.918 1.19591028854e-38
-0.00169337134875 -0.0880553101349 0.915 1.37146986469e-38
0.0 -0.0880553101349 0.915 1.30668825708e-38
0.00169337134875 -0.0880553101349 0.915 1.85934747946e-38
0.0033867426975 -0.0880553101349 0.915 1.6471666495e-38
0.00508011404625 -0.0880553101349 0.915 1.78484730648e-38
0.006773485395 -0.0880553101349 0.915 1.77545019897e-38
0.00846685674374 -0.0880553101349 0.915 1.95969292106e-38
0.0101380199437 -0.0878628395117 0.913 1.78441514603e-38
0.0118276899343 -0.0878628395117 0.913 1.86756721599e-38
0.0135173599249 -0.0878628395117 0.913 1.92288459391e-38
0.0152070299155 -0.0878628395117 0.913 1.8855764236e-38
0.0168966999061 -0.0878628395117 0.913 1.94086255256e-38
0.0185863698967 -0.0878628395117 0.913 1.83025806477e-38
0.0202760398873 -0.0878628395117 0.913 1.99616717866e-38
0.0219657098779 -0.0878628395117 0.913 2.0608165037e-38
0.0236553798685 -0.0878628395117 0.913 1.92248774619e-38
0.0253450498591 -0.0878628395117 0.913 1.93185654746e-38
0.02709394158 -0.0880553101349 0.915 2.06997146683e-38
0.0288816975613 -0.0883440160698 0.918 1.97802470757e-38
0.0306472453938 -0.0885364866931 0.92 1.72048580814e-38
0.0323498701378 -0.0885364866931 0.92 1.69336633883e-38
0.0340524948819 -0.0885364866931 0.92 1.20466462043e-38
0.035755119626 -0.0885364866931 0.92 8.26957931711e-39
0.0376613190678 -0.0890176632512 0.925 6.62623176645e-39
0.0393731972073 -0.0890176632512 0.925 1.33504409202e-38
0.0410850753467 -0.0890176632512 0.925 1.37237846662e-38
0.0427969534861 -0.0890176632512 0.925 7.46676701911e-39
-0.022446886436 -0.0880608621722 0.933 2.35098856151e-38
-0.0206535784175 -0.0877777082745 0.93 8.26519465422e-40
-0.0189324468827 -0.0877777082745 0.93 1.20525092371e-38
-0.0172113153479 -0.0877777082745 0.93 1.61079258474e-38
-0.0154568715899 -0.0875889390094 0.928 1.61006657201e-38
-0.0137394414132 -0.0875889390094 0.928 1.60092309953e-38
-0.0119831469761 -0.0873057851117 0.925 1.37097632737e-38
-0.0102712688367 -0.0873057851117 0.925 7.9018519754e-39
-0.00854088390653 -0.0871170158466 0.923 5.60205494874e-39
-0.00679569354383 -0.0866450926839 0.918 3.86684387595e-39
-0.00509677015787 -0.0866450926839 0.918 3.68243019545e-39
-0.00339784677192 -0.0866450926839 0.918 4.23528307728e-39
-0.00169892338596 -0.0866450926839 0.918 3.95798572937e-39
0.0 -0.0863619387862 0.915 3.21462211741e-39
0.00169337134875 -0.0863619387862 0.915 9.92984194154e-39
0.0033867426975 -0.0863619387862 0.915 8.18529541838e-39
0.00508011404625 -0.0863619387862 0.915 1.03850229191e-38
0.006773485395 -0.0863619387862 0.915 1.29657396502e-38
0.00846685674374 -0.0863619387862 0.915 1.28796312609e-38
0.0101602280925 -0.0863619387862 0.915 1.34324378999e-38
0.0118535994412 -0.0863619387862 0.915 1.4356157032e-38
0.01354697079 -0.0863619387862 0.915 1.38948201502e-38
0.0152403421387 -0.0863619387862 0.915 1.49989774791e-38
0.0169337134875 -0.0863619387862 0.915 1.5276260814e-38
0.0186270848362 -0.0863619387862 0.915 1.59219917581e-38
0.0202760398873 -0.0861731695211 0.913 1.41695713388e-38
0.0219657098779 -0.0861731695211 0.913 1.47214138845e-38
0.0237071988825 -0.0863619387862 0.915 1.42618258232e-38
0.0254005702312 -0.0863619387862 0.915 1.28763676368e-38
0.02709394158 -0.0863619387862 0.915 1.34248568752e-38
0.0288816975613 -0.0866450926839 0.918 1.11150643866e-38
0.0306472453938 -0.086833861949 0.92 8.82492230632e-39
0.0325256846495 -0.0873057851117 0.925 4.50539877056e-39
0.0342375627889 -0.0873057851117 0.925 4.60581581851e-39
0.0359494409284 -0.0873057851117 0.925 1.12309938085e-38
0.0377834638864 -0.0875889390094 0.928 1.63837868644e-38
0.0395008940631 -0.0875889390094 0.928 1.77703366624e-38
0.0412183242397 -0.0875889390094 0.928 1.08660956884e-38
-0.020720202864 -0.0863341786002 0.933 8.75389609235e-39
-0.018993519292 -0.0863341786002 0.933 4.60449159146e-39
-0.0172113153479 -0.0860565767397 0.93 1.00356567912e-38
-0.0154901838131 -0.0860565767397 0.93 1.5093074671e-38
-0.0137394414132 -0.0858715088327 0.928 1.67456974162e-38
-0.0120220112366 -0.0858715088327 0.928 1.62825864906e-38
-0.0103045810599 -0.0858715088327 0.928 1.7297038297e-38
-0.00855939069723 -0.0855939069723 0.925 1.39859592011e-38
-0.00681049897639 -0.0851312372049 0.92 1.09499479872e-38
-0.00510787423229 -0.0851312372049 0.92 8.5472606208e-39
-0.00340524948819 -0.0851312372049 0.92 6.33886188518e-39
-0.00169892338596 -0.0849461692979 0.918 3.95652417507e-39
0.0 -0.0849461692979 0.918 3.22328914842e-39
0.00169337134875 -0.0846685674374 0.915 5.07406390426e-39
0.0033867426975 -0.0846685674374 0.915 4.1509487318e-39
0.00508011404625 -0.0846685674374 0.915 3.13435854397e-39
0.006773485395 -0.0846685674374 0.915 3.31689168194e-39
0.00846685674374 -0.0846685674374 0.915 3.03782169147e-39
0.0101602280925 -0.0846685674374 0.915 4.14126716071e-39
0.0118535994412 -0.0846685674374 0.915 4.41281217842e-39
0.01354697079 -0.0846685674374 0.915 4.41139266308e-39
0.0152403421387 -0.0846685674374 0.915 4.96633768352e-39
0.0169337134875 -0.0846685674374 0.915 4.04907153085e-39
0.0186270848362 -0.0846685674374 0.915 3.67957855307e-39
0.020320456185 -0.0846685674374 0.915 4.60263907489e-39
0.0220138275337 -0.0846685674374 0.915 4.05053168384e-39
0.0237071988825 -0.0846685674374 0.915 4.32708073838e-39
0.0254005702312 -0.0846685674374 0.915 5.24363222883e-39
0.0271827741753 -0.0849461692979 0.918 4.04872120623e-39
0.0288816975613 -0.0849461692979 0.918 3.68462603014e-39
0.0306472453938 -0.0851312372049 0.92 7.54281969067e-39
0.0325256846495 -0.0855939069723 0.925 1.26902864111e-38
0.0342375627889 -0.0855939069723 0.925 1.77623898988e-38
0.0358717124074 -0.0854088390653 0.923 1.96995953426e-38
0.0375798891887 -0.0854088390653 0.923 1.78552091065e-38
0.0395008940631 -0.0858715088327 0.928 1.02153396881e-38
0.0412183242397 -0.0858715088327 0.928 9.67591264682e-39
-0.0208312436082 -0.0850609114002 0.938 1.79774219507e-38
-0.0190342342316 -0.084788861577 0.935 4.31634539084e-39
-0.01726683572 -0.0846074950282 0.933 6.81283007126e-39
-0.0154901838131 -0.0843354452049 0.93 7.35914169186e-39
-0.0137690522784 -0.0843354452049 0.93 1.18727296506e-38
-0.0120220112366 -0.0841540786561 0.928 1.56468552124e-38
-0.0103045810599 -0.0841540786561 0.928 1.7206602698e-38
-0.00855939069723 -0.0838820288328 0.925 1.63743407115e-38
-0.00683270712523 -0.083700662284 0.923 1.82190352333e-38
