# .PCD v0.7 - Point Cloud Data file format
VERSION 0.7
FIELDS x y z rgb
SIZE 4 4 4 4
TYPE F F F F
COUNT 1 1 1 1
WIDTH 845
HEIGHT 1
VIEWPOINT 0 0 0 1 0 0 0
POINTS 845
DATA ascii
0.046220709765 -0.0873057851117 0.925 1.41706475361e-38
0.0478289498766 -0.0871170158466 0.923 1.30664719903e-38
0.0492687781928 -0.0866450926839 0.918 1.2882439463e-38
0.0509677015787 -0.0866450926839 0.918 1.3342693141e-38
0.0526666249647 -0.0866450926839 0.918 1.29710463675e-38
0.05418788316 -0.0863619387862 0.915 1.34330937075e-38
0.0558812545087 -0.0863619387862 0.915 1.3155793557e-38
0.0574487796807 -0.0861731695211 0.913 1.34330937075e-38
0.058944128369 -0.0858900156234 0.91 1.35242117389e-38
0.0603617485364 -0.0855124770932 0.906 1.31550760922e-38
0.0613537125177 -0.0845686307677 0.896 1.03860206436e-38
0.0626602919409 -0.0840967076049 0.891 2.33762017417e-38
0.0640205410571 -0.0837191690747 0.887 2.34895990173e-38
0.0656620933919 -0.0837191690747 0.887 1.9704094912e-38
-0.00681049897639 -0.0851312372049 0.92 8.81620763117e-39
-0.0017026247441 -0.0851312372049 0.92 1.71065135539e-38
0.0 -0.0851312372049 0.92 1.77626589481e-38
0.00170817678131 -0.0854088390653 0.923 1.67502922738e-38
0.00341635356261 -0.0854088390653 0.923 1.7489281032e-38
0.00513563441834 -0.0855939069723 0.925 1.63811566272e-38
0.00684751255778 -0.0855939069723 0.925 1.59194680195e-38
0.00858715088327 -0.0858715088327 0.928 1.54588556091e-38
0.0103045810599 -0.0858715088327 0.928 1.4908560097e-38
0.0120220112366 -0.0858715088327 0.928 1.52773370113e-38
0.0137690522784 -0.0860565767397 0.93 1.48152896712e-38
0.0154901838131 -0.0860565767397 0.93 1.43525570962e-38
0.0172113153479 -0.0860565767397 0.93 1.45376307883e-38
0.018993519292 -0.0863341786002 0.933 1.49996781283e-38
0.020720202864 -0.0863341786002 0.933 1.44472302218e-38
0.022446886436 -0.0863341786002 0.933 1.38944235828e-38
0.024173570008 -0.0863341786002 0.933 1.39862590789e-38
0.02590025358 -0.0863341786002 0.933 1.36189170943e-38
0.0276861588823 -0.0865192465071 0.935 1.31575872191e-38
0.0294165438124 -0.0865192465071 0.935 1.35242117389e-38
0.0311469287426 -0.0865192465071 0.935 1.32479877856e-38
0.0328773136727 -0.0865192465071 0.935 1.29735574944e-38
0.0346076986028 -0.0865192465071 0.935 1.29735574944e-38
0.036338083533 -0.0865192465071 0.935 1.29739162268e-38
0.0380684684631 -0.0865192465071 0.935 1.278809284e-38
0.0397988533933 -0.0865192465071 0.935 1.33391058169e-38
0.0414404057281 -0.0863341786002 0.933 1.27884515724e-38
0.0431670893001 -0.0863341786002 0.933 1.29735574944e-38
0.0447494199046 -0.0860565767397 0.93 1.30661104553e-38
0.0463706147697 -0.0858715088327 0.928 1.33419756762e-38
0.0479325879045 -0.0855939069723 0.925 1.31565110219e-38
0.0493761175788 -0.0851312372049 0.92 1.31575872191e-38
0.0509677015787 -0.0849461692979 0.918 1.26969748087e-38
0.0526666249647 -0.0849461692979 0.918 1.2880645801e-38
0.05418788316 -0.0846685674374 0.915 1.35234942741e-38
0.0558812545087 -0.0846685674374 0.915 1.30628818637e-38
0.0574487796807 -0.0844834995305 0.913 1.27884515724e-38
0.0591384496713 -0.0844834995305 0.913 1.31568697543e-38
0.0604949974294 -0.0840208297631 0.908 1.11289554582e-38
0.0620384637735 -0.0838357618561 0.906 1.70143557591e-38
0.0637151790106 -0.0838357618561 0.906 2.34950402592e-38
0.0653918942478 -0.0838357618561 0.906 7.53230434699e-39
-0.00170817678131 -0.083700662284 0.923 2.17325248858e-38
0.0 -0.083700662284 0.923 1.59144457658e-38
0.00170817678131 -0.083700662284 0.923 1.638008043e-38
0.00342375627889 -0.0838820288328 0.925 1.66541631992e-38
0.00515229052996 -0.0841540786561 0.928 1.60095098537e-38
0.00686972070662 -0.0841540786561 0.928 1.56414504042e-38
0.00860565767397 -0.0843354452049 0.93 1.52748258844e-38
0.0103267892088 -0.0843354452049 0.93 1.46323361437e-38
0.0120479207436 -0.0843354452049 0.93 1.50929485541e-38
0.013813468576 -0.0846074950282 0.933 1.43528835988e-38
0.015540152148 -0.0846074950282 0.933 1.44465127569e-38
0.01726683572 -0.0846074950282 0.933 1.44468714894e-38
0.018993519292 -0.0846074950282 0.933 1.41706475361e-38
0.0207646191617 -0.084788861577 0.935 1.34338111724e-38
0.0224950040919 -0.084788861577 0.935 1.36164059675e-38
0.024225389022 -0.084788861577 0.935 1.36164059675e-38
0.0260390545103 -0.0850609114002 0.938 1.29739162268e-38
0.0277749914776 -0.0850609114002 0.938 1.27884515724e-38
0.029510928445 -0.0850609114002 0.938 1.29728400295e-38
0.0312468654123 -0.0850609114002 0.938 1.35256466685e-38
0.0329828023797 -0.0850609114002 0.938 1.31575872191e-38
0.034718739347 -0.0850609114002 0.938 1.26973335411e-38
0.036338083533 -0.084788861577 0.935 1.33412582114e-38
0.0380684684631 -0.084788861577 0.935 1.33419756762e-38
0.0397988533933 -0.084788861577 0.935 1.26054980449e-38
0.0415292383234 -0.084788861577 0.935 1.27906039668e-38
0.0431670893001 -0.0846074950282 0.933 1.26051393125e-38
0.0448937728721 -0.0846074950282 0.933 1.30653929905e-38
0.0463706147697 -0.0841540786561 0.928 1.33405407466e-38
0.0479325879045 -0.0838820288328 0.925 1.26054980449e-38
0.0495371266579 -0.083700662284 0.923 1.32515751097e-38
0.0509677015787 -0.0832472459119 0.918 1.28817430177e-38
0.0526666249647 -0.0832472459119 0.918 1.28810045334e-38
0.05418788316 -0.0829751960887 0.915 1.30628818637e-38
0.0558812545087 -0.0829751960887 0.915 1.35234942741e-38
0.0574487796807 -0.0827938295399 0.913 1.32454766588e-38
0.0591384496713 -0.0827938295399 0.913 1.12189972924e-38
0.0604949974294 -0.0823404131678 0.908 1.64561667327e-38
0.0620384637735 -0.082159046619 0.906 2.34935660932e-38
0.0637151790106 -0.082159046619 0.906 1.77641499297e-38
-0.00171187813945 -0.0821701506934 0.925 2.3499349252e-38
0.0 -0.0819924855027 0.923 2.21899255202e-38
0.00170817678131 -0.0819924855027 0.923 1.57332859004e-38
0.00343486035331 -0.0824366484794 0.928 1.64697635317e-38
0.00516339460438 -0.0826143136701 0.93 1.61035075534e-38
0.00688452613918 -0.0826143136701 0.93 1.54588556091e-38
0.00860565767397 -0.0826143136701 0.93 1.50925898217e-38
0.010360101432 -0.0828808114561 0.933 1.51855015151e-38
0.012086785004 -0.0828808114561 0.933 1.44454365597e-38
0.013813468576 -0.0828808114561 0.933 1.43543185284e-38
0.0155734643713 -0.0830584766468 0.935 1.43553947256e-38
0.0173038493014 -0.0830584766468 0.935 1.33416169438e-38
0.0190342342316 -0.0830584766468 0.935 1.33419756762e-38
0.0207646191617 -0.0830584766468 0.935 1.31579459515e-38
0.0225671805756 -0.0833249744329 0.938 1.32490639828e-38
0.0243031175429 -0.0833249744329 0.938 1.31565110219e-38
0.0260390545103 -0.0833249744329 0.938 1.29739162268e-38
0.0277749914776 -0.0833249744329 0.938 1.26058567773e-38
0.029510928445 -0.0833249744329 0.938 1.22381560603e-38
0.0313134898588 -0.0835026396236 0.94 1.26051393125e-38
0.0330531281843 -0.0835026396236 0.94 1.2789886502e-38
0.034718739347 -0.0833249744329 0.938 1.26976922735e-38
0.0364546763144 -0.0833249744329 0.938 1.33391058169e-38
0.0381906132817 -0.0833249744329 0.938 1.30635993285e-38
0.0399265502491 -0.0833249744329 0.938 1.29739162268e-38
0.0415292383234 -0.0830584766468 0.935 1.2789886502e-38
0.0432596232536 -0.0830584766468 0.935 1.26962573438e-38
0.0449900081837 -0.0830584766468 0.935 1.25136625487e-38
0.0466204564441 -0.0828808114561 0.933 1.2789886502e-38
0.0480880449463 -0.0824366484794 0.928 1.23303502888e-38
0.0496444660439 -0.0821701506934 0.925 1.26051393125e-38
0.0510787423229 -0.0817259877167 0.92 1.30646755257e-38
0.052781367067 -0.0817259877167 0.92 1.2695539879e-38
0.0543655483507 -0.081548322526 0.918 1.28788535402e-38
0.0558812545087 -0.08128182474 0.915 1.39855416141e-38
0.0575746258575 -0.08128182474 0.915 1.08520140401e-38
0.0592679972062 -0.08128182474 0.915 1.74724472335e-38
0.0608281196619 -0.0811041595493 0.913 2.34953387358e-38
0.0625177896526 -0.0811041595493 0.913 1.91471390283e-38
0.0642074596432 -0.0811041595493 0.913 7.4390339212e-39
0.0 -0.0807192183028 0.928 2.34924674752e-38
0.00171743017665 -0.0807192183028 0.928 2.34925431454e-38
0.00343486035331 -0.0807192183028 0.928 1.60120209805e-38
0.00518005071601 -0.0811541278841 0.933 1.55313195553e-38
0.00690673428801 -0.0811541278841 0.933 1.54595730739e-38
0.00863341786002 -0.0811541278841 0.933 1.39859003465e-38
0.010360101432 -0.0811541278841 0.933 1.45369133235e-38
0.012086785004 -0.0811541278841 0.933 1.45369133235e-38
0.0138430794411 -0.0813280917167 0.935 1.41699300713e-38
0.0155734643713 -0.0813280917167 0.935 1.31532824302e-38
0.0173038493014 -0.0813280917167 0.935 1.36156885026e-38
0.0190342342316 -0.0813280917167 0.935 1.2882439463e-38
0.0208312436082 -0.0815890374655 0.938 1.30653929905e-38
0.0225671805756 -0.0815890374655 0.938 1.2695539879e-38
0.0381906132817 -0.0815890374655 0.938 1.30632405961e-38
0.0399265502491 -0.0815890374655 0.938 1.27877341076e-38
0.0416624872164 -0.0815890374655 0.938 1.33391058169e-38
0.0432596232536 -0.0813280917167 0.935 1.32490639828e-38
0.0449900081837 -0.0813280917167 0.935 1.25136625487e-38
0.0466204564441 -0.0811541278841 0.933 1.27906039668e-38
0.0480880449463 -0.0807192183028 0.928 1.2789886502e-38
0.0496444660439 -0.0804582725539 0.925 1.34348873696e-38
0.0510787423229 -0.0800233629726 0.92 1.26962573438e-38
0.052781367067 -0.0800233629726 0.92 1.26019107208e-38
0.0543655483507 -0.07984939914 0.918 1.27830705863e-38
0.0560644717366 -0.07984939914 0.918 1.11160410916e-38
0.0575746258575 -0.0795884533912 0.915 1.87711103944e-38
0.0592679972062 -0.0795884533912 0.915 2.3496119259e-38
0.060961368555 -0.0795884533912 0.915 1.75794041414e-38
0.0626547399037 -0.0795884533912 0.915 7.43975138602e-39
0.001726683572 -0.0794274443121 0.933 2.06196528818e-38
0.00345336714401 -0.0794274443121 0.933 2.35018155373e-38
0.00518005071601 -0.0794274443121 0.933 1.85057114718e-38
0.00690673428801 -0.0794274443121 0.933 1.32476290532e-38
0.00863341786002 -0.0794274443121 0.933 1.37921848468e-38
0.0103823095809 -0.0795977067866 0.935 1.3521700612e-38
0.012112694511 -0.0795977067866 0.935 1.3708600196e-38
0.0138430794411 -0.0795977067866 0.935 1.38915537235e-38
0.0155734643713 -0.0795977067866 0.935 1.33391058169e-38
0.0449900081837 -0.0795977067866 0.935 1.29735574944e-38
0.0467203931138 -0.0795977067866 0.935 1.24214725241e-38
0.0481916829742 -0.0791720506005 0.93 1.32487052504e-38
0.049805475123 -0.0790017881261 0.928 1.23292740916e-38
0.0512453034392 -0.0785761319401 0.923 1.21434507049e-38
0.052781367067 -0.0783207382285 0.92 1.00183199266e-38
0.0543655483507 -0.0781504757541 0.918 1.53473136527e-38
0.0560644717366 -0.0781504757541 0.918 2.34909372573e-38
0.0575746258575 -0.0778950820425 0.915 2.34936123361e-38
0.0592679972062 -0.0778950820425 0.915 1.1312985183e-38
0.060961368555 -0.0778950820425 0.915 9.1835496158e-39
0.0626547399037 -0.0778950820425 0.915 1.79478405402e-38
-0.00487468866951 -0.0731203300427 0.878 1.36974935044e-38
0.0 -0.072703927252 0.873 7.53231275478e-39
0.00161564282782 -0.072703927252 0.873 3.85709083864e-39
0.00345336714401 -0.0777007607401 0.933 9.74248273167e-39
0.00518005071601 -0.0777007607401 0.933 2.34896158329e-38
0.00690673428801 -0.0777007607401 0.933 2.34914501326e-38
0.00865192465071 -0.0778673218564 0.935 1.76756046823e-38
0.0103823095809 -0.0778673218564 0.935 1.37046541395e-38
0.012112694511 -0.0778673218564 0.935 1.37821403394e-38
0.0138430794411 -0.0778673218564 0.935 1.35206244148e-38
0.0449900081837 -0.0778673218564 0.935 1.26022694532e-38
0.0467203931138 -0.0778673218564 0.935 1.23253280351e-38
0.0481916829742 -0.0774509190657 0.93 1.20487453494e-38
0.049805475123 -0.0772843579495 0.928 9.55806624857e-39
0.0512453034392 -0.0768679551588 0.923 1.54413071485e-38
0.0529534802205 -0.0768679551588 0.923 2.19150944576e-38
0.0543655483507 -0.0764515523681 0.918 2.3497889099e-38
0.0560644717366 -0.0764515523681 0.918 1.8970229301e-38
0.0575746258575 -0.0762017106937 0.915 6.42848473106e-39
0.0592679972062 -0.0762017106937 0.915 9.37481564579e-39
0.060961368555 -0.0762017106937 0.915 1.84945403204e-38
-0.00487468866951 -0.0714954338195 0.878 1.63754477372e-38
-0.00323868837192 -0.0712511441823 0.875 1.13047903895e-38
-0.00161934418596 -0.0712511441823 0.875 1.85849254727e-38
0.0 -0.0710882844242 0.873 1.55388529359e-38
0.00161564282782 -0.0710882844242 0.873 8.72652452945e-39
0.00323128565565 -0.0710882844242 0.873 5.42188159739e-39
0.0483471400161 -0.0759740771681 0.933 1.70171891846e-38
0.049805475123 -0.0755669277728 0.928 2.34881416669e-38
0.0513563441834 -0.0753226381356 0.925 2.34935829088e-38
0.0529534802205 -0.0751597783775 0.923 1.74997207056e-38
0.0543655483507 -0.0747526289822 0.918 9.37941750995e-39
0.053071923681 -0.0707625649079 0.869 6.24481373874e-39
0.0546801637925 -0.0707625649079 0.869 1.04843623685e-38
0.0594623185085 -0.0747526289822 0.918 1.99689136971e-38
0.0611612418945 -0.0747526289822 0.918 2.34687631104e-38
-0.00649958489268 -0.0698705375964 0.878 7.5326630794e-39
-0.00487468866951 -0.0698705375964 0.878 2.01514804662e-38
-0.00323868837192 -0.0696317999964 0.875 1.34241408117e-38
-0.00161934418596 -0.0696317999964 0.875 1.18564970092e-38
0.0 -0.0694726415964 0.873 1.81235549598e-38
0.00161564282782 -0.0694726415964 0.873 1.72015958586e-38
0.00322388293937 -0.0693134831964 0.871 1.19547574588e-38
0.00482472033463 -0.0691543247964 0.869 7.25536853408e-39
0.00643296044618 -0.0691543247964 0.869 4.04076883744e-39
0.0436223563512 -0.0694726415964 0.873 2.34918102663e-38
0.045237999179 -0.0694726415964 0.873 2.28439073096e-38
0.0496444660439 -0.0736107599962 0.925 1.50014801982e-38
0.0512453034392 -0.0734516015962 0.923 8.26521847629e-39
0.0529534802205 -0.0734516015962 0.923 7.16317570682e-39
0.0514636835694 -0.0691543247964 0.869 8.27129310514e-39
0.053071923681 -0.0691543247964 0.869 1.59148647541e-38
0.0545543176158 -0.0689951663964 0.867 2.13488970105e-38
0.0561588563692 -0.0689951663964 0.867 2.33740507485e-38
0.0577633951226 -0.0689951663964 0.867 1.73817313749e-38
-0.00487468866951 -0.0682456413732 0.878 1.68210017944e-38
-0.00324979244634 -0.0682456413732 0.878 1.90509160666e-38
-0.00161934418596 -0.0680124558104 0.875 1.18557473146e-38
0.0 -0.0678569987686 0.873 1.06572531718e-38
0.00161194146968 -0.0677015417267 0.871 1.64658707245e-38
0.00322388293937 -0.0677015417267 0.871 1.85834162742e-38
0.00482472033463 -0.0675460846849 0.869 1.53584105352e-38
0.00643296044618 -0.0675460846849 0.869 1.20473104198e-38
0.0435224196815 -0.0677015417267 0.871 8.26519465422e-39
0.0451343611511 -0.0677015417267 0.871 6.24481373874e-39
0.0467463026208 -0.0677015417267 0.871 6.98487869411e-39
0.0483582440905 -0.0677015417267 0.871 8.46142128078e-39
0.0498554434579 -0.0675460846849 0.869 1.27770239834e-38
0.0514636835694 -0.0675460846849 0.869 1.99668033416e-38
0.053071923681 -0.0675460846849 0.869 2.26343179009e-38
0.0545543176158 -0.067390627643 0.867 2.17083328692e-38
0.0561588563692 -0.067390627643 0.867 1.774977541e-38
0.0577633951226 -0.067390627643 0.867 1.22313513549e-38
0.059367933876 -0.067390627643 0.867 1.95995258167e-38
-0.00489689681835 -0.0669242565174 0.882 9.55089160043e-39
-0.00325719516262 -0.0667725008337 0.88 1.49990405375e-38
-0.00162489622317 -0.06662074515 0.878 1.9507899114e-38
0.0 -0.0662413559407 0.873 1.38790177075e-38
0.00161194146968 -0.066089600257 0.871 8.35703015038e-39
0.00322388293937 -0.066089600257 0.871 1.40755988625e-38
0.00482472033463 -0.0659378445733 0.869 1.92287856833e-38
0.00643296044618 -0.0659378445733 0.869 1.79333917517e-38
0.0386865952724 -0.066089600257 0.871 4.22443282327e-39
0.0402060027886 -0.0659378445733 0.869 4.5917748079e-39
0.0418142429001 -0.0659378445733 0.869 6.89307402652e-39
0.0434224830117 -0.0659378445733 0.869 7.2651145649e-39
0.0450307231232 -0.0659378445733 0.869 1.14945318068e-38
0.0467463026208 -0.066089600257 0.871 1.50785992578e-38
0.0483582440905 -0.066089600257 0.871 1.88582081005e-38
0.0498554434579 -0.0659378445733 0.869 2.14328908404e-38
0.0514636835694 -0.0659378445733 0.869 2.23497478139e-38
0.053071923681 -0.0659378445733 0.869 2.11544682498e-38
0.0545543176158 -0.0657860888896 0.867 1.63729268013e-38
0.0561588563692 -0.0657860888896 0.867 1.26041359828e-38
0.0577633951226 -0.0657860888896 0.867 1.62894262284e-38
-0.00489689681835 -0.065291957578 0.882 1.55377767386e-38
-0.00325719516262 -0.0651439032524 0.88 9.18713693987e-39
-0.00162859758131 -0.0651439032524 0.88 1.65602467748e-38
0.0 -0.0647737674385 0.875 1.80277986305e-38
0.00161564282782 -0.0646257131129 0.873 1.49838939024e-38
0.00322388293937 -0.0644776587873 0.871 7.90143999366e-39
0.00483582440905 -0.0644776587873 0.871 1.03925058529e-38
0.00641815501362 -0.0641815501362 0.867 1.72012273171e-38
0.00799493358098 -0.0639594686478 0.864 1.8118856406e-38
0.00959392029717 -0.0639594686478 0.864 1.89454319234e-38
0.0367766944725 -0.0639594686478 0.864 8.09271162884e-39
0.0383756811887 -0.0639594686478 0.864 8.4524529706e-39
0.0401134688351 -0.0641815501362 0.867 1.30496704217e-38
0.0417180075885 -0.0641815501362 0.867 1.59973563921e-38
0.0433225463419 -0.0641815501362 0.867 1.71079610952e-38
0.0450307231232 -0.0643296044618 0.869 1.98698362905e-38
0.0466389632348 -0.0643296044618 0.869 2.12459366058e-38
0.0482472033463 -0.0643296044618 0.869 2.24383533171e-38
0.0498554434579 -0.0643296044618 0.869 2.23494549426e-38
0.0514636835694 -0.0643296044618 0.869 1.81192151385e-38
0.053071923681 -0.0643296044618 0.869 1.28763648342e-38
0.0545543176158 -0.0641815501362 0.867 1.0025923372e-38
0.0561588563692 -0.0641815501362 0.867 1.45352345679e-38
0.0577633951226 -0.0641815501362 0.867 2.18096019066e-38
-0.00488579274393 -0.0635153056711 0.88 1.41563458839e-38
-0.00325719516262 -0.0635153056711 0.88 1.38829441458e-38
-0.00162859758131 -0.0635153056711 0.88 1.04736003963e-38
0.0 -0.0633709527037 0.878 1.60102847717e-38
0.00161934418596 -0.0631544232525 0.875 1.92284325561e-38
0.00323128565565 -0.0630100702851 0.873 1.5723241393e-38
0.00483582440905 -0.0628657173177 0.871 6.3366492349e-39
0.00641815501362 -0.0625770113828 0.867 7.53054151352e-39
0.00799493358098 -0.0623604819316 0.864 1.35174448686e-38
0.00959392029717 -0.0623604819316 0.864 1.72026538389e-38
0.0111929070134 -0.0623604819316 0.864 1.82099744374e-38
0.0127918937296 -0.0623604819316 0.864 1.99548488644e-38
0.0143908804458 -0.0623604819316 0.864 1.93138711247e-38
0.0191878405943 -0.0623604819316 0.864 1.69239299692e-38
0.0207868273105 -0.0623604819316 0.864 1.49013854489e-38
0.0223858140267 -0.0623604819316 0.864 1.39769544571e-38
0.0239848007429 -0.0623604819316 0.864 1.3783603295e-38
0.0255837874591 -0.0623604819316 0.864 1.29498811555e-38
0.0271827741753 -0.0623604819316 0.864 1.46105123214e-38
0.0287817608915 -0.0623604819316 0.864 1.38754486003e-38
0.0303807476077 -0.0623604819316 0.864 1.37839340015e-38
0.0351777077563 -0.0623604819316 0.864 1.65587291686e-38
0.0367766944725 -0.0623604819316 0.864 1.7292695673e-38
0.0383756811887 -0.0623604819316 0.864 1.86770818662e-38
0.0401134688351 -0.0625770113828 0.867 1.97769400114e-38
0.0417180075885 -0.0625770113828 0.867 2.1154473855e-38
0.0433225463419 -0.0625770113828 0.867 2.13327400392e-38
0.0450307231232 -0.0627213643502 0.869 2.15171284963e-38
0.0466389632348 -0.0627213643502 0.869 2.14299971591e-38
0.0482472033463 -0.0627213643502 0.869 1.81199326033e-38
0.0498554434579 -0.0627213643502 0.869 1.48077562907e-38
0.0514636835694 -0.0627213643502 0.869 1.0299601166e-38
0.053071923681 -0.0627213643502 0.869 9.56963116479e-39
0.0546801637925 -0.0627213643502 0.869 1.51823794221e-38
0.056288403904 -0.0627213643502 0.869 2.21802397452e-38
0.0578966440156 -0.0627213643502 0.869 1.36942508997e-38
-0.00489689681835 -0.0620273596991 0.882 7.25502241336e-39
-0.0032645978789 -0.0620273596991 0.882 2.05152477385e-38
-0.00162859758131 -0.0618867080898 0.88 1.16702826602e-38
0.0 -0.0617460564805 0.878 9.27541033533e-39
0.00161934418596 -0.0615350790666 0.875 1.5734025786e-38
0.00323128565565 -0.0613944274573 0.873 1.94117924601e-38
0.00483582440905 -0.061253775848 0.871 1.53544644787e-38
0.00643296044618 -0.0611131242387 0.869 1.20372911358e-38
0.00802269376702 -0.0609724726294 0.867 6.24481373874e-39
0.00959392029717 -0.0607614952154 0.864 8.08192163067e-39
0.0111929070134 -0.0607614952154 0.864 1.38854917064e-38
0.0127918937296 -0.0607614952154 0.864 1.57311335059e-38
0.0143908804458 -0.0607614952154 0.864 1.81213675329e-38
0.015989867162 -0.0607614952154 0.864 1.90364939028e-38
0.0175888538782 -0.0607614952154 0.864 1.97726464329e-38
0.0191878405943 -0.0607614952154 0.864 1.92172950359e-38
0.0207868273105 -0.0607614952154 0.864 1.90318303815e-38
0.0223858140267 -0.0607614952154 0.864 1.93977374365e-38
0.0239848007429 -0.0607614952154 0.864 2.04111564859e-38
0.0255837874591 -0.0607614952154 0.864 1.99548488644e-38
0.0271827741753 -0.0607614952154 0.864 2.00456081633e-38
0.0287817608915 -0.0607614952154 0.864 2.0873203826e-38
0.0303807476077 -0.0607614952154 0.864 2.07824627439e-38
0.0319797343239 -0.0607614952154 0.864 2.03207825441e-38
0.0336953138215 -0.0609724726294 0.867 2.09654092649e-38
0.0351777077563 -0.0607614952154 0.864 2.20728077971e-38
0.0367766944725 -0.0607614952154 0.864 1.976836967e-38
0.0383756811887 -0.0607614952154 0.864 2.05966211403e-38
0.0401134688351 -0.0609724726294 0.867 2.09661155194e-38
0.0417180075885 -0.0609724726294 0.867 2.14275182621e-38
0.0433225463419 -0.0609724726294 0.867 1.9403477155e-38
0.0450307231232 -0.0611131242387 0.869 1.70150367901e-38
0.0466389632348 -0.0611131242387 0.869 1.4438620644e-38
0.0483582440905 -0.061253775848 0.871 1.03864270202e-38
0.0499701855602 -0.061253775848 0.871 9.66255126596e-39
0.0515821270299 -0.061253775848 0.871 8.09766662021e-39
0.0531940684996 -0.061253775848 0.871 1.47181544643e-38
0.0548060099692 -0.061253775848 0.871 2.34662968251e-38
0.0564179514389 -0.061253775848 0.871 1.92291780469e-38
-0.00325719516262 -0.0602581105085 0.88 1.48056235144e-38
-0.00162859758131 -0.0602581105085 0.88 1.86817481901e-38
0.0 -0.0601211602573 0.878 1.13936999745e-38
0.00161934418596 -0.0599157348806 0.875 8.54323469032e-39
0.00323868837192 -0.0599157348806 0.875 1.46259560318e-38
0.00483582440905 -0.0596418343783 0.871 1.96879729732e-38
0.00643296044618 -0.0595048841271 0.869 1.87621070518e-38
0.00802269376702 -0.059367933876 0.867 1.47105398084e-38
0.00962723252043 -0.059367933876 0.867 7.89785266959e-39
0.0111929070134 -0.0591625084992 0.864 5.88001370953e-39
0.0127918937296 -0.0591625084992 0.864 7.72135632541e-39
0.0143908804458 -0.0591625084992 0.864 9.64884376439e-39
0.015989867162 -0.0591625084992 0.864 1.57279497558e-38
0.0175888538782 -0.0591625084992 0.864 1.52716028979e-38
0.0192544650409 -0.059367933876 0.867 1.79402146739e-38
0.0208590037943 -0.059367933876 0.867 1.88535543883e-38
0.0223858140267 -0.0591625084992 0.864 2.1799523768e-38
0.0239848007429 -0.0591625084992 0.864 2.09733546272e-38
0.0255837874591 -0.0591625084992 0.864 1.95857132177e-38
0.0271827741753 -0.0591625084992 0.864 2.10593859451e-38
0.0287817608915 -0.0591625084992 0.864 2.07828102659e-38
0.0303807476077 -0.0591625084992 0.864 1.94899624937e-38
0.0319797343239 -0.0591625084992 0.864 2.07802921326e-38
0.0336953138215 -0.059367933876 0.867 2.11501508493e-38
0.0351777077563 -0.0591625084992 0.864 2.0320758722e-38
0.0367766944725 -0.0591625084992 0.864 2.06002589111e-38
0.0385089300817 -0.059367933876 0.867 1.94074232115e-38
0.0401134688351 -0.059367933876 0.867 1.60044876e-38
0.0417180075885 -0.059367933876 0.867 1.53555406759e-38
0.0433225463419 -0.059367933876 0.867 1.19468961745e-38
0.0450307231232 -0.0595048841271 0.869 9.2854716583e-39
0.0466389632348 -0.0595048841271 0.869 8.46721705122e-39
0.0483582440905 -0.0596418343783 0.871 8.55613084008e-39
0.0500849276625 -0.0597787846294 0.873 1.08578518495e-38
0.0517005704903 -0.0597787846294 0.873 1.62897036855e-38
0.0534383581368 -0.0599157348806 0.875 2.28226426054e-38
0.0550577023227 -0.0599157348806 0.875 2.08843455501e-38
0.0566770465087 -0.0599157348806 0.875 1.28799297375e-38
-0.00163785097666 -0.0589626351597 0.885 1.40803226397e-38
0.0 -0.0589626351597 0.885 1.80350167189e-38
0.00163785097666 -0.0589626351597 0.885 1.15773709668e-38
0.00327570195332 -0.0589626351597 0.885 7.34685510692e-39
0.00483582440905 -0.0580298929086 0.871 1.21409802157e-38
0.00644776587873 -0.0580298929086 0.871 1.84847942896e-38
0.00805970734842 -0.0580298929086 0.871 1.92198061627e-38
0.00964944066926 -0.0578966440156 0.869 1.75656910347e-38
0.0112576807808 -0.0578966440156 0.869 1.17585308323e-38
0.0127918937296 -0.057563521783 0.864 7.98968816575e-39
0.0143908804458 -0.057563521783 0.864 6.89560477155e-39
0.016045387534 -0.0577633951226 0.867 5.33116153481e-39
0.0176499262875 -0.0577633951226 0.867 6.80264823662e-39
0.0192544650409 -0.0577633951226 0.867 9.83286508132e-39
0.0208590037943 -0.0577633951226 0.867 1.28670167721e-38
0.0223858140267 -0.057563521783 0.864 1.37875213255e-38
0.0239848007429 -0.057563521783 0.864 1.48974856352e-38
0.0255837874591 -0.057563521783 0.864 1.60992195801e-38
0.0271827741753 -0.057563521783 0.864 1.56382218126e-38
0.0287817608915 -0.057563521783 0.864 1.65587291686e-38
0.0303807476077 -0.057563521783 0.864 1.72952067999e-38
0.0319797343239 -0.057563521783 0.864 1.60981223634e-38
0.0335787210401 -0.057563521783 0.864 1.47155620621e-38
0.0351777077563 -0.057563521783 0.864 1.4428934869e-38
0.0367766944725 -0.057563521783 0.864 1.44292936014e-38
0.0385089300817 -0.0577633951226 0.867 1.08427010105e-38
0.0401134688351 -0.0577633951226 0.867 8.45822772158e-39
0.0417180075885 -0.0577633951226 0.867 9.20118215438e-39
0.0433225463419 -0.0577633951226 0.867 8.19064557592e-39
0.0450307231232 -0.0578966440156 0.869 8.55942809537e-39
0.0466389632348 -0.0578966440156 0.869 9.29408403867e-39
0.0483582440905 -0.0580298929086 0.871 1.3336369081e-38
0.0500849276625 -0.0581631418016 0.873 2.10716837405e-38
0.0517005704903 -0.0581631418016 0.873 2.28215285731e-38
0.0536215753646 -0.0584962640342 0.878 1.76564657479e-38
0.0553723177646 -0.0586295129272 0.88 1.31526462407e-38
0.0570009153459 -0.0586295129272 0.88 9.19830809123e-39
-0.00164525369294 -0.0575838792528 0.889 8.64187769441e-39
0.0 -0.0573247841831 0.885 1.32530450718e-38
0.00163785097666 -0.0573247841831 0.885 1.84033410138e-38
0.00327570195332 -0.0573247841831 0.885 1.47134096677e-38
0.00489689681835 -0.0571304628807 0.882 5.23462328101e-39
0.00646257131129 -0.0565474989738 0.873 1.02898971742e-38
0.00807821413911 -0.0565474989738 0.873 1.453121144e-38
0.0096716488181 -0.0564179514389 0.871 1.84905045809e-38
0.0112835902878 -0.0564179514389 0.871 1.92227096531e-38
0.0128659208924 -0.056288403904 0.869 1.66469773407e-38
0.0144408487806 -0.0561588563692 0.867 1.22223718344e-38
0.016045387534 -0.0561588563692 0.867 8.54074598424e-39
0.017690641227 -0.056288403904 0.869 6.61648013044e-39
0.0192544650409 -0.0561588563692 0.867 6.25162965447e-39
0.0208590037943 -0.0561588563692 0.867 6.06978035016e-39
0.0224635425477 -0.0561588563692 0.867 7.72925404355e-39
0.0240680813011 -0.0561588563692 0.867 5.51766315002e-39
0.0256726200545 -0.0561588563692 0.867 6.62148696985e-39
0.0271827741753 -0.0559645350669 0.864 6.62076530114e-39
0.0287817608915 -0.0559645350669 0.864 6.98774855337e-39
0.0303807476077 -0.0559645350669 0.864 6.98774855337e-39
0.0319797343239 -0.0559645350669 0.864 7.35941774766e-39
0.0335787210401 -0.0559645350669 0.864 6.89918368782e-39
0.0352998525749 -0.0561588563692 0.867 7.8207336099e-39
0.0369043913283 -0.0561588563692 0.867 8.00550882541e-39
0.0385089300817 -0.0561588563692 0.867 8.18955116182e-39
0.0401134688351 -0.0561588563692 0.867 8.46649678381e-39
0.0417180075885 -0.0561588563692 0.867 8.92492597122e-39
0.0434224830117 -0.056288403904 0.869 9.10541181213e-39
0.0450307231232 -0.056288403904 0.869 1.45305388168e-38
0.0467463026208 -0.0564179514389 0.871 1.75703825819e-38
0.0484692848347 -0.0565474989738 0.873 2.31888635513e-38
0.0500849276625 -0.0565474989738 0.873 2.0698548788e-38
0.0518190139508 -0.0566770465087 0.875 1.61856474654e-38
0.0540490822297 -0.0573247841831 0.885 1.24161405834e-38
0.0558127793831 -0.0574543317179 0.887 1.20578299674e-38
0.0574543317179 -0.0574543317179 0.887 1.01209762495e-38
-0.00164525369294 -0.0559386255599 0.889 1.17711369133e-38
0.0 -0.0559386255599 0.889 8.3656761619e-39
0.00163785097666 -0.0556869332064 0.885 1.27913816875e-38
0.00327570195332 -0.0556869332064 0.885 1.80346257567e-38
0.00489689681835 -0.0554981639413 0.882 1.66466186083e-38
0.00649958489268 -0.0552464715878 0.878 1.04818021963e-38
0.00809672092981 -0.0550577023227 0.875 6.33665904399e-39
0.00969385696694 -0.054931856146 0.873 1.13998600826e-38
0.0113094997948 -0.054931856146 0.873 1.42553209958e-38
0.0128955317575 -0.0548060099692 0.871 1.84008200778e-38
0.0145074732272 -0.0548060099692 0.871 1.91315579906e-38
0.0160824011154 -0.0546801637925 0.869 1.81213675329e-38
0.017690641227 -0.0546801637925 0.869 1.37957721709e-38
0.0192988813385 -0.0546801637925 0.869 1.25947360727e-38
0.0209071214501 -0.0546801637925 0.869 9.09637764093e-39
0.0224635425477 -0.0545543176158 0.867 7.53696786828e-39
0.0240680813011 -0.0545543176158 0.867 6.90096333687e-39
0.0256726200545 -0.0545543176158 0.867 6.99245691621e-39
0.0272771588079 -0.0545543176158 0.867 7.36088210455e-39
0.0288816975613 -0.0545543176158 0.867 7.54455309687e-39
0.0304862363147 -0.0545543176158 0.867 7.36016323844e-39
0.0320907750681 -0.0545543176158 0.867 7.6360452749e-39
0.0336953138215 -0.0545543176158 0.867 7.63747880323e-39
0.035381282454 -0.0546801637925 0.869 7.54492303966e-39
0.0369895225655 -0.0546801637925 0.869 7.17290352075e-39
0.0385977626771 -0.0546801637925 0.869 9.46808046638e-39
0.0402060027886 -0.0546801637925 0.869 1.26852067042e-38
0.0418142429001 -0.0546801637925 0.869 1.62760872683e-38
0.0435224196815 -0.0548060099692 0.871 1.82157141559e-38
0.0451343611511 -0.0548060099692 0.871 2.28175460829e-38
0.0469609813929 -0.0550577023227 0.875 2.12484855677e-38
0.0488579274393 -0.0553723177646 0.88 1.78401521545e-38
0.0504865250206 -0.0553723177646 0.88 1.15820863362e-38
0.0521151226019 -0.0553723177646 0.88 1.15961231429e-38
0.0541712270483 -0.0558127793831 0.887 1.18766560889e-38
0.0559386255599 -0.0559386255599 0.889 1.26113512686e-38
0.0575838792528 -0.0559386255599 0.889 1.18712680963e-38
-0.0016415523348 -0.0541712270483 0.887 1.22324163418e-38
0.0 -0.0541712270483 0.887 9.47273417858e-39
0.00163785097666 -0.0540490822297 0.885 5.79283612946e-39
0.00327570195332 -0.0540490822297 0.885 1.09446202505e-38
0.00489689681835 -0.0538658650018 0.882 1.79370099043e-38
0.00651439032524 -0.0537437201832 0.88 1.80313565273e-38
0.00812448111586 -0.0536215753646 0.878 1.43399692321e-38
0.00974937733903 -0.0536215753646 0.878 9.18498454543e-39
0.0113354093017 -0.0534383581368 0.875 6.24481373874e-39
0.0129251426226 -0.0533162133182 0.873 1.02942313903e-38
0.0145074732272 -0.0531940684996 0.871 1.48088450996e-38
0.0161194146968 -0.0531940684996 0.871 1.67441938229e-38
0.0177313561665 -0.0531940684996 0.871 1.92241109516e-38
0.0193432976362 -0.0531940684996 0.871 1.91322964749e-38
0.0209552391059 -0.0531940684996 0.871 1.75682021615e-38
0.0225671805756 -0.0531940684996 0.871 1.64661762076e-38
0.0241791220453 -0.0531940684996 0.871 1.37007080831e-38
0.0257318417847 -0.053071923681 0.869 1.31400093311e-38
0.0273400818963 -0.053071923681 0.869 1.38829833821e-38
0.0289483220078 -0.053071923681 0.869 1.19468961745e-38
0.030626887924 -0.0531940684996 0.871 1.29603236317e-38
0.0321648022309 -0.053071923681 0.869 1.35102576088e-38
0.0337730423424 -0.053071923681 0.869 1.44307747739e-38
0.035381282454 -0.053071923681 0.869 1.56307178593e-38
0.0369895225655 -0.053071923681 0.869 1.71093834131e-38
0.0385977626771 -0.053071923681 0.869 1.84926878039e-38
0.0402985367421 -0.0531940684996 0.871 2.03330228862e-38
0.0419104782118 -0.0531940684996 0.871 1.99598711181e-38
0.0435224196815 -0.0531940684996 0.871 1.8856768967e-38
0.0451343611511 -0.0531940684996 0.871 1.61874467327e-38
0.047121990472 -0.0536215753646 0.878 1.43453502182e-38
0.0488579274393 -0.0537437201832 0.88 1.00187178953e-38
0.0504865250206 -0.0537437201832 0.88 1.04051203417e-38
0.0524112312531 -0.0540490822297 0.885 1.09575878664e-38
0.0542933718669 -0.0542933718669 0.889 1.09543284462e-38
0.0560644717366 -0.0544155166855 0.891 1.27953697829e-38
0.0577134267877 -0.0544155166855 0.891 1.81269489047e-38
0.0 -0.0525296747135 0.887 1.01170498112e-38
0.00163785097666 -0.0524112312531 0.885 7.63709624875e-39
0.00327570195332 -0.0524112312531 0.885 6.06942442035e-39
0.00489689681835 -0.0522335660624 0.882 7.71921934525e-39
0.00651439032524 -0.0521151226019 0.88 1.44447541274e-38
0.00812448111586 -0.0519966791415 0.878 1.76643718738e-38
0.00974937733903 -0.0519966791415 0.878 1.77519376136e-38
0.0113354093017 -0.0518190139508 0.875 1.39715510503e-38
0.0129547534877 -0.0518190139508 0.875 1.14816216441e-38
0.0145740976737 -0.0518190139508 0.875 5.60197507473e-39
0.0161564282782 -0.0517005704903 0.873 7.80601717343e-39
0.0177720711061 -0.0517005704903 0.873 1.24043262361e-38
0.0193877139339 -0.0517005704903 0.873 1.39755349418e-38
0.0210033567617 -0.0517005704903 0.873 1.54523984258e-38
0.0226708186035 -0.0518190139508 0.875 1.65601640982e-38
0.0242901627894 -0.0518190139508 0.875 1.76654676892e-38
0.0259983395707 -0.0519966791415 0.878 1.76639837141e-38
0.0275288511614 -0.0518190139508 0.875 1.73892087035e-38
0.0291481953473 -0.0518190139508 0.875 1.73888359581e-38
0.0307675395333 -0.0518190139508 0.875 1.7111195292e-38
0.0323868837192 -0.0518190139508 0.875 1.89543497868e-38
0.0339284993843 -0.0517005704903 0.873 1.66498836337e-38
0.0355441422121 -0.0517005704903 0.873 1.78476547065e-38
0.0371597850399 -0.0517005704903 0.873 1.70182653818e-38
0.0387754278677 -0.0517005704903 0.873 1.47148445973e-38
0.0403910706956 -0.0517005704903 0.873 1.41534802286e-38
0.0420067135234 -0.0517005704903 0.873 1.31461666366e-38
0.0436223563512 -0.0517005704903 0.873 1.02067048869e-38
0.0456007322767 -0.0521151226019 0.88 9.10896970893e-39
0.047229329858 -0.0521151226019 0.88 9.48279129766e-39
0.0489689681835 -0.0522335660624 0.882 1.00356147522e-38
0.0507733802764 -0.0524112312531 0.885 1.11387351202e-38
0.0524112312531 -0.0524112312531 0.885 1.15071448943e-38
0.0540490822297 -0.0524112312531 0.885 1.20599683488e-38
0.0556869332064 -0.0524112312531 0.885 8.83094088322e-39
0.0147406587899 -0.0507733802764 0.885 1.59144695879e-38
0.0162489622317 -0.0503717829183 0.878 1.32415306023e-38
0.0178738584549 -0.0503717829183 0.878 1.17639482522e-38
0.0194987546781 -0.0503717829183 0.878 8.17340540091e-39
0.0211236509012 -0.0503717829183 0.878 7.99112309537e-39
0.0227485471244 -0.0503717829183 0.878 5.5126689223e-39
0.0243734433476 -0.0503717829183 0.878 7.53697907867e-39
0.0259983395707 -0.0503717829183 0.878 1.03896331911e-38
0.0276232357939 -0.0503717829183 0.878 9.55918448474e-39
0.0292481320171 -0.0503717829183 0.878 1.01137875884e-38
0.0308730282403 -0.0503717829183 0.878 1.12201183311e-38
0.0323868837192 -0.0501996697648 0.875 9.46731956132e-39
0.0340062279052 -0.0501996697648 0.875 9.28728633981e-39
0.0356255720912 -0.0501996697648 0.875 7.35549691455e-39
0.0372449162771 -0.0501996697648 0.875 7.54419996965e-39
0.0388642604631 -0.0501996697648 0.875 7.82186025387e-39
0.0404836046491 -0.0501996697648 0.875 8.00625151359e-39
0.0422473018025 -0.0503717829183 0.878 8.65055453451e-39
0.0438721980256 -0.0503717829183 0.878 8.7438193551e-39
0.0456007322767 -0.0504865250206 0.88 8.83779043011e-39
0.0476050177091 -0.0508881223787 0.887 1.03114575523e-38
0.0492465700439 -0.0508881223787 0.887 1.04040217237e-38
0.0508881223787 -0.0508881223787 0.887 1.113909105e-38
0.052648118174 -0.0510028644811 0.889 1.11380162541e-38
0.0542933718669 -0.0510028644811 0.889 1.23362063151e-38
0.0131028078133 -0.0491355292998 0.885 1.30528751913e-38
0.0147406587899 -0.0491355292998 0.885 1.52698036307e-38
0.0163229893945 -0.0489689681835 0.882 1.74824651163e-38
0.0179552883339 -0.0489689681835 0.882 1.65580439336e-38
0.0195875872734 -0.0489689681835 0.882 1.7019341579e-38
0.0212198862128 -0.0489689681835 0.882 1.54549585981e-38
0.0228003661383 -0.0488579274393 0.88 1.43478613451e-38
0.0244289637197 -0.0488579274393 0.88 1.41573842461e-38
0.026057561301 -0.0488579274393 0.88 1.41548689154e-38
0.0276861588823 -0.0488579274393 0.88 1.16685128202e-38
0.0293147564636 -0.0488579274393 0.88 1.08477372772e-38
0.0309433540449 -0.0488579274393 0.88 6.98956043228e-39
0.0325719516262 -0.0488579274393 0.88 7.1778809329e-39
0.0341228206866 -0.0487468866951 0.878 7.54814742743e-39
0.0357477169098 -0.0487468866951 0.878 7.54740473924e-39
0.0373726131329 -0.0487468866951 0.878 7.73216594176e-39
0.0389975093561 -0.0487468866951 0.878 8.00801154446e-39
0.0407149395328 -0.0488579274393 0.88 8.74524167304e-39
0.0423435371141 -0.0488579274393 0.88 8.74487593414e-39
0.0439721346954 -0.0488579274393 0.88 9.29695109532e-39
0.0457043703046 -0.0489689681835 0.882 9.48136197323e-39
0.0476050177091 -0.0492465700439 0.887 1.01278103821e-38
0.0492465700439 -0.0492465700439 0.887 1.00363336183e-38
0.0508881223787 -0.0492465700439 0.887 1.13234795072e-38
0.0525296747135 -0.0492465700439 0.887 1.18770218278e-38
0.0541712270483 -0.0492465700439 0.887 1.24301773901e-38
0.0131324186784 -0.0476050177091 0.887 5.97935736286e-39
0.0147739710132 -0.0476050177091 0.887 5.79285014245e-39
0.0163785097666 -0.0474976783231 0.885 7.44409541126e-39
0.0180163607432 -0.0474976783231 0.885 8.54610735217e-39
0.0195875872734 -0.047336669244 0.882 1.30511179631e-38
0.0212198862128 -0.047336669244 0.882 1.28684783264e-38
0.0228521851523 -0.047336669244 0.882 1.39715664645e-38
0.0244844840917 -0.047336669244 0.882 1.54463111853e-38
0.0261167830312 -0.047336669244 0.882 1.49882014939e-38
0.0276861588823 -0.047229329858 0.88 1.35217370458e-38
0.0293147564636 -0.047229329858 0.88 1.04825196611e-38
0.0310136798495 -0.047336669244 0.882 8.64836150241e-39
0.032645978789 -0.047336669244 0.882 7.18080684409e-39
0.0342005492075 -0.047229329858 0.88 7.64034585989e-39
0.0358291467888 -0.047229329858 0.88 7.91797951943e-39
0.0374577443701 -0.047229329858 0.88 8.28497398204e-39
0.0391751745468 -0.047336669244 0.882 8.28497398204e-39
0.0408074734862 -0.047336669244 0.882 8.47188337511e-39
0.0425841253931 -0.0474976783231 0.885 8.65414185857e-39
0.0442219763698 -0.0474976783231 0.885 8.92926719387e-39
0.0460671034023 -0.0477123570952 0.889 9.85014589398e-39
0.0477123570952 -0.0477123570952 0.889 1.04051203417e-38
0.0493576107881 -0.0477123570952 0.889 1.08650250964e-38
0.0510028644811 -0.0477123570952 0.889 1.09543438605e-38
0.052648118174 -0.0477123570952 0.889 1.2428401945e-38
0.0131324186784 -0.0459634653743 0.887 6.80878312129e-39
0.0147739710132 -0.0459634653743 0.887 6.71731756793e-39
0.016415523348 -0.0459634653743 0.887 6.90062982784e-39
0.0180570756828 -0.0459634653743 0.887 6.71728814066e-39
0.0196986280176 -0.0459634653743 0.887 6.16485985226e-39
0.0213401803524 -0.0459634653743 0.887 6.80916007058e-39
0.0229299136732 -0.0458598273464 0.885 6.89990956043e-39
0.0245677646499 -0.0458598273464 0.885 7.26653408025e-39
0.0262056156265 -0.0458598273464 0.885 6.62044580509e-39
0.0278434666032 -0.0458598273464 0.885 7.17682435386e-39
0.0294813175799 -0.0458598273464 0.885 6.71909021049e-39
0.0311191685565 -0.0458598273464 0.885 7.63920940683e-39
0.0327570195332 -0.0458598273464 0.885 7.45628951049e-39
0.0343948705098 -0.0458598273464 0.885 7.6399703119e-39
0.0359105766679 -0.0457043703046 0.882 8.10057291323e-39
0.0375428756073 -0.0457043703046 0.882 8.28532430666e-39
0.0393084234398 -0.0458598273464 0.885 8.19241821847e-39
0.04103880837 -0.0459634653743 0.887 7.91870959593e-39
0.0426803607048 -0.0459634653743 0.887 8.65374669241e-39
0.0443219130396 -0.0459634653743 0.887 8.74667239877e-39
0.0461707414302 -0.0461707414302 0.891 9.66792104168e-39
0.0478196964812 -0.0461707414302 0.891 1.0312568782e-38
0.0493576107881 -0.0460671034023 0.889 1.06809841613e-38
0.0510028644811 -0.0460671034023 0.889 1.15997132695e-38
0.052648118174 -0.0460671034023 0.889 1.1875205745e-38
0.0131620295435 -0.0444218497093 0.889 6.98991215819e-39
0.0148072832364 -0.0444218497093 0.889 6.80843279668e-39
0.0164525369294 -0.0444218497093 0.889 6.62512053677e-39
0.0180977906223 -0.0444218497093 0.889 6.80843279668e-39
0.0196986280176 -0.0443219130396 0.887 6.53184730838e-39
0.0213401803524 -0.0443219130396 0.887 6.62512053677e-39
0.0229817326872 -0.0443219130396 0.887 7.17827049387e-39
0.024623285022 -0.0443219130396 0.887 7.72964780842e-39
0.0262056156265 -0.0442219763698 0.885 7.45307773441e-39
0.0278434666032 -0.0442219763698 0.885 7.73254148975e-39
0.0294813175799 -0.0442219763698 0.885 7.27228360784e-39
0.0311894943612 -0.0443219130396 0.887 7.3648533844e-39
0.032831046696 -0.0443219130396 0.887 7.91655720149e-39
0.0344725990308 -0.0443219130396 0.887 7.64032063652e-39
0.0361141513656 -0.0443219130396 0.887 7.73324494158e-39
0.0377557037004 -0.0443219130396 0.887 8.0998694614e-39
0.0394860886305 -0.0444218497093 0.889 8.37716961191e-39
0.0412238762769 -0.0445217863791 0.891 8.28498379113e-39
0.042872831328 -0.0445217863791 0.891 8.92891546795e-39
0.0445217863791 -0.0445217863791 0.891 9.02218309114e-39
0.046326198472 -0.0446716913837 0.894 9.57463660291e-39
0.0479807055603 -0.0446716913837 0.894 1.06806128172e-38
0.0496352126486 -0.0446716913837 0.894 1.0953961306e-38
0.0514044618392 -0.0447716280535 0.896 1.01213237715e-38
0.0530626702856 -0.0447716280535 0.896 1.67454045448e-38
0.0131916404086 -0.042872831328 0.891 1.09503207326e-38
0.0148072832364 -0.0427765960164 0.889 1.10313858488e-38
0.0164525369294 -0.0427765960164 0.889 8.18093878145e-39
0.0180977906223 -0.0427765960164 0.889 6.90096333687e-39
0.0197430443153 -0.0427765960164 0.889 7.26974305373e-39
0.0213401803524 -0.0426803607048 0.887 7.08537421478e-39
0.0229817326872 -0.0426803607048 0.887 6.80806425518e-39
0.024623285022 -0.0426803607048 0.887 7.17719149406e-39
0.0262648373568 -0.0426803607048 0.887 7.45413711605e-39
0.0279063896916 -0.0426803607048 0.887 7.45520910938e-39
0.0295479420264 -0.0426803607048 0.887 6.71837134437e-39
0.0311894943612 -0.0426803607048 0.887 7.27120460803e-39
0.0329050738588 -0.0427765960164 0.889 7.91474672387e-39
0.0344725990308 -0.0426803607048 0.887 7.82291403031e-39
0.0361141513656 -0.0426803607048 0.887 7.8236581198e-39
0.0377557037004 -0.0426803607048 0.887 8.0998694614e-39
0.0395749212258 -0.042872831328 0.891 8.28426492502e-39
0.0414552111606 -0.0431134196071 0.896 8.56192941313e-39
0.0430171842954 -0.0430171842954 0.894 8.74524167304e-39
0.0446716913837 -0.0430171842954 0.894 9.85051443548e-39
0.0464298364999 -0.0431134196071 0.896 9.94521698829e-39
0.0480880449463 -0.0431134196071 0.896 9.57103666715e-39
0.0497462533928 -0.0431134196071 0.896 1.18651500272e-38
0.0515192039415 -0.0432096549187 0.898 1.8403440506e-38
0.0531811137461 -0.0432096549187 0.898 2.34659198758e-38
0.00830954902282 -0.0415477451141 0.898 1.09334645134e-38
0.00997145882739 -0.0415477451141 0.898 6.15300066336e-39
0.011607459125 -0.0414552111606 0.896 6.42848473106e-39
0.0132656675714 -0.0414552111606 0.896 9.83327005657e-39
0.0148072832364 -0.0411313423234 0.889 1.10224399594e-38
0.0164525369294 -0.0411313423234 0.889 8.64189731259e-39
0.0180977906223 -0.0411313423234 0.889 6.80626638925e-39
0.0197430443153 -0.0411313423234 0.889 6.99026248281e-39
0.0213882980082 -0.0411313423234 0.889 6.71731756793e-39
0.0230335517011 -0.0411313423234 0.889 6.71623716681e-39
0.0246788053941 -0.0411313423234 0.889 7.45230702026e-39
0.026324059087 -0.0411313423234 0.889 6.90168360428e-39
0.0279693127799 -0.0411313423234 0.889 7.2686710604e-39
0.0296145664729 -0.0411313423234 0.889 7.91220336716e-39
0.0312598201658 -0.0411313423234 0.889 7.2686710604e-39
0.0329050738588 -0.0411313423234 0.889 8.46722966291e-39
0.0345503275517 -0.0411313423234 0.889 9.29013798219e-39
0.0361955812446 -0.0411313423234 0.889 1.09475293461e-38
0.0378408349376 -0.0411313423234 0.889 8.7416291256e-39
0.0397970027142 -0.0414552111606 0.896 8.65412644429e-39
0.0414552111606 -0.0414552111606 0.896 8.65554876223e-39
0.0432096549187 -0.0415477451141 0.898 9.29804971332e-39
0.0447716280535 -0.0414552111606 0.896 8.55977561739e-39
0.0464298364999 -0.0414552111606 0.896 8.55764984762e-39
0.0480880449463 -0.0414552111606 0.896 1.71208866722e-38
0.0498572941369 -0.0415477451141 0.898 2.05220454373e-38
0.051691317095 -0.0416865460443 0.901 2.34679405482e-38
0.0533587789368 -0.0416865460443 0.901 1.73784341196e-38
0.00830954902282 -0.0398858353096 0.898 1.78440673824e-38
0.00997145882739 -0.0398858353096 0.898 1.55431885533e-38
0.011607459125 -0.0397970027142 0.896 1.46237265659e-38
0.0132656675714 -0.0397970027142 0.896 1.39744209095e-38
0.0148905637946 -0.0397081701189 0.894 1.28637951869e-38
0.0164895505108 -0.0395749212258 0.891 1.34162472974e-38
0.0181385055618 -0.0395749212258 0.891 1.28627259962e-38
0.0197874606129 -0.0395749212258 0.891 1.35084429273e-38
0.021436415664 -0.0395749212258 0.891 1.43381839779e-38
0.0230853707151 -0.0395749212258 0.891 1.41567270371e-38
0.0247343257662 -0.0395749212258 0.891 1.46180078669e-38
0.0263832808172 -0.0395749212258 0.891 1.24114266154e-38
0.0280322358683 -0.0395749212258 0.891 1.21466792965e-38
0.0296811909194 -0.0395749212258 0.891 1.18751188645e-38
0.0313301459705 -0.0395749212258 0.891 1.03139182324e-38
0.0329791010215 -0.0395749212258 0.891 1.04068327284e-38
0.034744648854 -0.0397081701189 0.894 1.0032702854e-38
0.0363991559423 -0.0397081701189 0.894 1.0949261351e-38
0.0381387942678 -0.0397970027142 0.896 9.47560123524e-39
0.0397970027142 -0.0397970027142 0.896 8.3786339688e-39
0.0415477451141 -0.0398858353096 0.898 8.74739126488e-39
0.0432096549187 -0.0398858353096 0.898 9.20693308327e-39
0.0448715647232 -0.0398858353096 0.898 6.89951859816e-39
0.0465334745278 -0.0398858353096 0.898 1.86839005845e-38
0.0481953843324 -0.0398858353096 0.898 2.32782832089e-38
0.0500238552532 -0.0400190842026 0.901 2.34608233533e-38
0.0518060591973 -0.0401079167979 0.903 1.88528355222e-38
0.0534772223972 -0.0401079167979 0.903 1.0382792052e-38
0.00997145882739 -0.038223925505 0.898 1.6193180846e-38
0.011607459125 -0.0381387942678 0.896 1.57314922383e-38
0.0132656675714 -0.0381387942678 0.896 1.56411126913e-38
0.0149238760178 -0.0381387942678 0.896 1.50882850328e-38
0.0165450708829 -0.0380536630306 0.894 1.4074507251e-38
0.0181995779711 -0.0380536630306 0.894 1.47173557241e-38
0.0198540850594 -0.0380536630306 0.894 1.3794711388e-38
0.0215085921477 -0.0380536630306 0.894 1.43435565562e-38
0.023163099236 -0.0380536630306 0.894 1.3235073419e-38
0.0248176063243 -0.0380536630306 0.894 1.34162599091e-38
0.0263832808172 -0.0379259661748 0.891 1.30550373949e-38
0.0280322358683 -0.0379259661748 0.891 1.05740580819e-38
0.0297811275891 -0.0380536630306 0.894 9.0135510926e-39
0.0314356346774 -0.0380536630306 0.894 7.36090032143e-39
0.0330901417657 -0.0380536630306 0.894 7.63925144579e-39
0.034744648854 -0.0380536630306 0.894 8.00695496542e-39
0.0364805858214 -0.0381387942678 0.896 8.19240560679e-39
0.0381387942678 -0.0381387942678 0.896 8.099872264e-39
0.0397970027142 -0.0381387942678 0.896 8.65447536761e-39
0.0415477451141 -0.038223925505 0.898 8.92961751848e-39
0.0432096549187 -0.038223925505 0.898 8.56047906922e-39
0.0448715647232 -0.038223925505 0.898 9.93657938456e-39
0.0466889315697 -0.0383516223608 0.901 2.14462269979e-38
0.0483563934114 -0.0383516223608 0.901 2.1804171875e-38
0.0500238552532 -0.0383516223608 0.901 1.74789338441e-38
0.0518060591973 -0.038436753598 0.903 1.19533799825e-38
0.0132952784365 -0.0365620157004 0.898 7.1689378461e-39
0.0149571882411 -0.0365620157004 0.898 6.43605454536e-39
0.0165820844643 -0.0364805858214 0.896 6.16234452152e-39
0.0182402929107 -0.0364805858214 0.896 5.88610515395e-39
0.0198985013571 -0.0364805858214 0.896 6.25557571095e-39
0.0215567098035 -0.0364805858214 0.896 6.25594425245e-39
0.02321491825 -0.0364805858214 0.896 6.81056697424e-39
0.0248731266964 -0.0364805858214 0.896 7.36193868359e-39
0.0264721134126 -0.0363991559423 0.894 6.99317858491e-39
0.0281266205009 -0.0363991559423 0.894 7.27084027043e-39
