# .PCD v0.7 - Point Cloud Data file format
VERSION 0.7
FIELDS x y z rgb
SIZE 4 4 4 4
TYPE F F F F
COUNT 1 1 1 1
WIDTH 848
HEIGHT 1
VIEWPOINT 0 0 0 1 0 0 0
POINTS 848
DATA ascii
-0.0178035326502 -0.121064022022 0.962 1.87001458376e-38
-0.0160564916085 -0.121315714375 0.964 1.83313563117e-38
-0.0142724369853 -0.121315714375 0.964 1.77792713414e-38
-0.0125272466226 -0.121693252905 0.967 1.62112169585e-38
-0.0107376399622 -0.121693252905 0.967 1.75930752092e-38
-0.0089757934879 -0.122070791436 0.97 1.63019860665e-38
-0.00720284293916 -0.122448329966 0.973 1.60253739536e-38
-0.00540213220437 -0.122448329966 0.973 1.62111917351e-38
-0.00360142146958 -0.122448329966 0.973 1.52903298506e-38
-0.00180441209293 -0.122700022319 0.975 1.59356992597e-38
0.0 -0.122700022319 0.975 1.58438819804e-38
0.00180996413014 -0.123077560849 0.978 1.45531375571e-38
0.00361992826028 -0.123077560849 0.978 1.51977670806e-38
0.00542989239041 -0.123077560849 0.978 1.41829159041e-38
0.00723985652055 -0.123077560849 0.978 1.45505787861e-38
0.00902206046465 -0.122700022319 0.975 1.42751241457e-38
0.0108264725576 -0.122700022319 0.975 1.40921622104e-38
0.0126308846505 -0.122700022319 0.975 1.4092179026e-38
0.0144352967434 -0.122700022319 0.975 1.46442597923e-38
0.0162397088364 -0.122700022319 0.975 1.39056199575e-38
0.0180441209293 -0.122700022319 0.975 1.4273679407e-38
0.0198078180827 -0.122448329966 0.973 1.37223259145e-38
0.0216085288175 -0.122448329966 0.973 1.36297603418e-38
0.0233370630686 -0.122070791436 0.97 1.33546125858e-38
0.0251322217661 -0.122070791436 0.97 1.34468096169e-38
0.0269273804637 -0.122070791436 0.97 1.33535181717e-38
0.028633706566 -0.121693252905 0.967 1.34474962532e-38
0.0304233132263 -0.121693252905 0.967 1.31712470765e-38
0.0322129198867 -0.121693252905 0.967 1.30780046767e-38
0.0338970378401 -0.121315714375 0.964 1.34467731832e-38
0.0356810924633 -0.121315714375 0.964 1.28928525119e-38
0.0373874185655 -0.121064022022 0.962 1.30758578874e-38
0.0390456270119 -0.120686483491 0.959 1.26138245604e-38
0.0406927313839 -0.120308944961 0.956 9.84758572169e-39
0.0424619805745 -0.120308944961 0.956 1.36182136425e-38
0.0441386958117 -0.120057252608 0.954 2.35067354962e-38
0.0459042436441 -0.120057252608 0.954 2.29444616848e-38
0.0476697914766 -0.120057252608 0.954 1.83670992316e-40
0.0494353393091 -0.120057252608 0.954 1.26251526572e-38
-0.0261778554405 -0.116927754301 0.943 9.48784858382e-39
-0.0244326650778 -0.116927754301 0.943 2.75511112759e-39
-0.0228799453383 -0.117919718282 0.951 9.29050932628e-39
-0.0211865739896 -0.118291704775 0.954 2.35094848438e-38
-0.019522813506 -0.118911682264 0.959 2.036150708e-38
-0.0178035326502 -0.119283668757 0.962 1.85117692851e-38
-0.0160564916085 -0.119531659752 0.964 1.79618955638e-38
-0.0142724369853 -0.119531659752 0.964 1.74087091729e-38
-0.0125272466226 -0.119903646245 0.967 1.67626082861e-38
-0.0107376399622 -0.119903646245 0.967 1.64885297207e-38
-0.0089757934879 -0.120275632738 0.97 1.5567286683e-38
-0.00720284293916 -0.120647619231 0.973 1.53818220286e-38
-0.00540213220437 -0.120647619231 0.973 1.53825507038e-38
-0.00360882418586 -0.120895610226 0.975 1.42751297509e-38
-0.00180441209293 -0.120895610226 0.975 1.51041014886e-38
0.0 -0.121267596719 0.978 1.44591454626e-38
0.00180996413014 -0.121267596719 0.978 1.47350331043e-38
0.00361992826028 -0.121267596719 0.978 1.45506418445e-38
0.00542989239041 -0.121267596719 0.978 1.42758332027e-38
0.00723985652055 -0.121267596719 0.978 1.4736102295e-38
0.00904982065069 -0.121267596719 0.978 1.28000206925e-38
0.0108597847808 -0.121267596719 0.978 1.36287023615e-38
0.012669748911 -0.121267596719 0.978 1.35379150366e-38
0.0144352967434 -0.120895610226 0.975 1.33535181717e-38
0.0162397088364 -0.120895610226 0.975 1.39974204212e-38
0.0180441209293 -0.120895610226 0.975 1.42750386665e-38
0.0198078180827 -0.120647619231 0.973 1.36315147675e-38
0.0216085288175 -0.120647619231 0.973 1.38166473141e-38
0.0233370630686 -0.120275632738 0.97 1.29854447092e-38
0.0251322217661 -0.120275632738 0.97 1.39081394921e-38
0.0269273804637 -0.120275632738 0.97 1.29854587222e-38
0.0287225391613 -0.120275632738 0.97 1.31698345677e-38
0.0304233132263 -0.119903646245 0.967 1.28935966014e-38
0.0322129198867 -0.119903646245 0.967 1.2799290616e-38
0.0338970378401 -0.119531659752 0.964 1.25226813057e-38
0.0356810924633 -0.119531659752 0.964 1.27992205511e-38
0.0373874185655 -0.119283668757 0.962 1.10464638202e-38
0.0390456270119 -0.118911682264 0.959 1.10443534648e-38
0.0408204282397 -0.118911682264 0.959 1.71302389382e-38
0.0424619805745 -0.118539695771 0.956 2.35051982718e-38
0.0442312297651 -0.118539695771 0.956 1.76896470942e-38
0.0460004789557 -0.118539695771 0.956 9.1835496158e-41
0.0477697281463 -0.118539695771 0.956 4.69375009975e-39
-0.0261778554405 -0.115182563938 0.943 1.09665785974e-38
-0.0244326650778 -0.115182563938 0.943 1.49084045529e-38
-0.0228799453383 -0.116159722487 0.951 1.83670992316e-39
-0.0211865739896 -0.116526156943 0.954 0.0
-0.019522813506 -0.117136881036 0.959 2.15593594281e-38
-0.0178035326502 -0.117503315492 0.962 2.22043630983e-38
-0.0160564916085 -0.117747605129 0.964 1.83314011532e-38
-0.0142724369853 -0.117747605129 0.964 1.65785897717e-38
-0.0125272466226 -0.118114039585 0.967 1.56563181809e-38
-0.0107376399622 -0.118114039585 0.967 1.6303039843e-38
-0.0089757934879 -0.11848047404 0.97 1.45517362586e-38
-0.00720284293916 -0.118846908496 0.973 1.56569487652e-38
-0.00541323627879 -0.119091198133 0.975 1.56594879181e-38
-0.00360882418586 -0.119091198133 0.975 1.49219481025e-38
-0.00180996413014 -0.119457632589 0.978 1.44588161575e-38
0.0 -0.119457632589 0.978 1.43673239794e-38
0.00180996413014 -0.119457632589 0.978 1.4458086081e-38
0.00361992826028 -0.119457632589 0.978 1.41832844456e-38
0.00542989239041 -0.119457632589 0.978 1.36311812585e-38
0.00723985652055 -0.119457632589 0.978 1.33539133378e-38
0.00904982065069 -0.119457632589 0.978 1.38134831822e-38
0.0108597847808 -0.119457632589 0.978 1.35357836616e-38
0.012669748911 -0.119457632589 0.978 1.2799628329e-38
0.0144797130411 -0.119457632589 0.978 1.34446474134e-38
0.0162397088364 -0.119091198133 0.975 1.33520958537e-38
0.0180441209293 -0.119091198133 0.975 1.27996703679e-38
0.0198485330222 -0.119091198133 0.975 1.40903797587e-38
0.0216529451152 -0.119091198133 0.975 1.25244805729e-38
0.0234092395523 -0.118846908496 0.973 1.35368150173e-38
0.0252099502871 -0.118846908496 0.973 1.27084990872e-38
0.0269273804637 -0.11848047404 0.97 1.22471580016e-38
0.0287225391613 -0.11848047404 0.97 1.21546092445e-38
0.0305176978589 -0.11848047404 0.97 1.26148250875e-38
0.0322129198867 -0.118114039585 0.967 1.16921891591e-38
0.0340025265471 -0.118114039585 0.967 1.04940117098e-38
0.0356810924633 -0.117747605129 0.964 1.16897032556e-38
0.0374651470864 -0.117747605129 0.964 1.54686506854e-38
0.0391677718305 -0.117503315492 0.962 2.35052094822e-38
0.0408204282397 -0.117136881036 0.959 2.3501212979e-38
0.0425952294675 -0.117136881036 0.959 8.3814603878e-39
0.0442312297651 -0.11677044658 0.956 1.65311179836e-39
0.0460004789557 -0.11677044658 0.956 7.37281135838e-39
0.0477697281463 -0.11677044658 0.956 1.61101791353e-38
-0.0230002394779 -0.115001197389 0.956 1.38088532921e-38
-0.0212309902873 -0.115001197389 0.956 3.95179619405e-39
-0.019522813506 -0.115362079808 0.959 1.56120343469e-39
-0.0178035326502 -0.115722962227 0.962 1.23319856041e-38
-0.0161064599433 -0.116324432924 0.967 2.32173785737e-38
-0.014316853283 -0.116324432924 0.967 2.16515396437e-38
-0.0125272466226 -0.116324432924 0.967 1.90711185866e-38
-0.0107709521855 -0.116685315343 0.97 1.74068664654e-38
-0.00900355367395 -0.117046197761 0.973 1.4730008048e-38
-0.00721764837172 -0.11728678604 0.975 1.39970995239e-38
-0.00541323627879 -0.11728678604 0.975 1.49186984914e-38
-0.00360882418586 -0.11728678604 0.975 1.45517306534e-38
-0.00180996413014 -0.117647668459 0.978 1.44570365084e-38
0.0 -0.117647668459 0.978 1.46414151565e-38
0.00180996413014 -0.117647668459 0.978 1.41800642617e-38
0.00361992826028 -0.117647668459 0.978 1.39974470459e-38
0.00542989239041 -0.117647668459 0.978 1.40924929168e-38
0.00723985652055 -0.117647668459 0.978 1.26156252289e-38
0.00904982065069 -0.117647668459 0.978 1.3258098154e-38
0.0108597847808 -0.117647668459 0.978 1.29836888822e-38
0.012669748911 -0.117647668459 0.978 1.30755047602e-38
0.0144797130411 -0.117647668459 0.978 1.30769382886e-38
0.0162896771712 -0.117647668459 0.978 1.2799628329e-38
0.0180996413014 -0.117647668459 0.978 1.33542468469e-38
0.0199096054315 -0.117647668459 0.978 1.22468230913e-38
0.0217195695617 -0.117647668459 0.978 1.25234141848e-38
0.0234573572081 -0.11728678604 0.975 1.26141804902e-38
0.025261769301 -0.11728678604 0.975 1.16940192549e-38
0.0270106610218 -0.117046197761 0.973 1.19691067551e-38
0.0288113717566 -0.117046197761 0.973 1.04021636019e-38
0.0305176978589 -0.116685315343 0.97 1.06751981999e-38
0.0323128565565 -0.116685315343 0.97 1.53722189303e-38
0.0340025265471 -0.116324432924 0.967 2.12750976268e-38
0.0357921332074 -0.116324432924 0.967 2.35033373474e-38
0.0374651470864 -0.115963550506 0.964 2.24874099738e-38
0.0391677718305 -0.115722962227 0.962 1.06817422637e-38
0.0408204282397 -0.115362079808 0.959 2.47955839627e-39
0.0425952294675 -0.115362079808 0.959 2.48902416739e-39
0.0443700306954 -0.115362079808 0.959 7.3681324228e-39
0.0461448319232 -0.115362079808 0.959 1.69420221336e-38
0.047919633151 -0.115362079808 0.959 2.04282299064e-38
-0.0231445924453 -0.113942608962 0.962 1.59293121413e-38
-0.0195838859153 -0.113942608962 0.962 6.52821234017e-39
-0.0178035326502 -0.113942608962 0.962 1.01019045774e-39
-0.0161064599433 -0.114534826264 0.967 3.76777627841e-39
-0.014316853283 -0.114534826264 0.967 1.21346085116e-38
-0.0125661108831 -0.114890156645 0.97 1.78633100129e-38
-0.0107709521855 -0.114890156645 0.97 2.34938996023e-38
-0.00900355367395 -0.115245487027 0.973 2.34032117696e-38
-0.00721764837172 -0.115482373947 0.975 2.04526195062e-38
-0.00541323627879 -0.115482373947 0.975 1.68529317812e-38
-0.00361992826028 -0.115837704329 0.978 1.6388062226e-38
-0.00180996413014 -0.115837704329 0.978 1.42661236056e-38
0.0 -0.115837704329 0.978 1.20555920937e-38
0.00180996413014 -0.115837704329 0.978 1.15027588301e-38
0.00361992826028 -0.115837704329 0.978 1.24264919752e-38
0.00542989239041 -0.115837704329 0.978 1.14159750149e-38
0.00723985652055 -0.115837704329 0.978 1.25230764718e-38
0.00904982065069 -0.115837704329 0.978 1.34435053551e-38
0.0108597847808 -0.115837704329 0.978 1.19677418904e-38
0.012669748911 -0.115837704329 0.978 1.24308654277e-38
0.0144797130411 -0.115837704329 0.978 1.24297696123e-38
0.0162896771712 -0.115837704329 0.978 1.11379307749e-38
0.0180996413014 -0.115837704329 0.978 1.14163001161e-38
0.0199096054315 -0.115837704329 0.978 1.05854758618e-38
0.0217195695617 -0.115837704329 0.978 1.15956663196e-38
0.0234573572081 -0.115482373947 0.975 1.27942375338e-38
0.025261769301 -0.115482373947 0.975 1.48178722643e-38
0.0270661813939 -0.115482373947 0.975 1.67547596134e-38
0.0288113717566 -0.115245487027 0.973 2.24804020802e-38
0.0306120824914 -0.115245487027 0.973 2.10108393611e-38
0.0323128565565 -0.114890156645 0.97 2.1471097243e-38
0.0340025265471 -0.114534826264 0.967 1.45512626198e-38
0.0357921332074 -0.114534826264 0.967 4.40820190648e-39
0.0355607983237 -0.10837576632 0.915 6.30584308946e-44
0.0372541696725 -0.10837576632 0.915 2.4882856831e-39
0.0389475410212 -0.10837576632 0.915 5.06574019138e-39
0.04064091237 -0.10837576632 0.915 1.12252078472e-38
0.0423342837187 -0.10837576632 0.915 1.8869173261e-38
0.0440276550675 -0.10837576632 0.915 2.17228769459e-38
-0.0169892338596 -0.107032173315 0.918 1.00277408562e-38
-0.0162397088364 -0.113677961855 0.975 3.21427739799e-39
-0.0144352967434 -0.113677961855 0.975 2.3877285053e-39
-0.0125661108831 -0.113094997948 0.97 6.70698159046e-39
-0.0107709521855 -0.113094997948 0.97 9.47030853094e-39
-0.00900355367395 -0.113444776292 0.973 1.13169578641e-38
-0.00721764837172 -0.113677961855 0.975 1.63826574178e-38
-0.00541323627879 -0.113677961855 0.975 2.10861171146e-38
-0.00361992826028 -0.114027740199 0.978 2.29332218698e-38
-0.00180996413014 -0.114027740199 0.978 2.34954438332e-38
0.0 -0.114027740199 0.978 2.35000513025e-38
0.00180996413014 -0.114027740199 0.978 2.20224563407e-38
0.00363103233469 -0.114377518543 0.981 2.04547564863e-38
0.00544654850204 -0.114377518543 0.981 1.89770480194e-38
0.00726206466939 -0.114377518543 0.981 1.76827723239e-38
0.00907758083674 -0.114377518543 0.981 1.83238201285e-38
0.0108930970041 -0.114377518543 0.981 1.86904600626e-38
0.0127086131714 -0.114377518543 0.981 1.78607372289e-38
0.0145241293388 -0.114377518543 0.981 1.7769226834e-38
0.0162896771712 -0.114027740199 0.978 1.98011068047e-38
0.0180996413014 -0.114027740199 0.978 2.091210247e-38
0.0199096054315 -0.114027740199 0.978 2.29447601614e-38
0.0216529451152 -0.113677961855 0.975 2.21185770076e-38
0.0234573572081 -0.113677961855 0.975 2.23958575399e-38
0.025261769301 -0.113677961855 0.975 2.03647454808e-38
0.0270661813939 -0.113677961855 0.975 1.68580086855e-38
0.0288113717566 -0.113444776292 0.973 1.08607833659e-38
0.0306120824914 -0.113444776292 0.973 5.60741491537e-39
0.0323128565565 -0.113094997948 0.97 3.22298646795e-44
0.0321037298216 -0.106449209408 0.913 2.76664801785e-39
0.0337933998122 -0.106449209408 0.913 5.52853862741e-39
0.0355607983237 -0.106682394971 0.915 4.60624881974e-39
0.0372541696725 -0.106682394971 0.915 7.72865148521e-39
0.0389475410212 -0.106682394971 0.915 1.60152804007e-38
0.04064091237 -0.106682394971 0.915 1.99717835563e-38
0.0423342837187 -0.106682394971 0.915 2.23603276173e-38
0.044412596314 -0.107615137222 0.923 2.30074234261e-38
-0.0187288721851 -0.105562734134 0.92 1.36233129676e-38
-0.0169892338596 -0.105333249929 0.918 1.62897008829e-38
-0.0152903104736 -0.105333249929 0.918 1.44501841589e-38
-0.0135173599249 -0.104759539418 0.913 7.72314998744e-39
-0.0118276899343 -0.104759539418 0.913 5.51201311462e-39
-0.0108042644087 -0.111644065557 0.973 5.32493416443e-44
-0.00900355367395 -0.111644065557 0.973 3.77136640508e-39
-0.00721764837172 -0.111873549762 0.975 6.06115115422e-39
-0.00541323627879 -0.111873549762 0.975 7.53051068496e-39
-0.00361992826028 -0.112217776069 0.978 9.0917561586e-39
-0.00180996413014 -0.112217776069 0.978 9.82675682131e-39
0.0 -0.112562002376 0.981 1.08520140401e-38
0.00181551616735 -0.112562002376 0.981 1.14145653086e-38
0.00363103233469 -0.112562002376 0.981 1.35379570755e-38
0.00544654850204 -0.112562002376 0.981 1.59342951586e-38
0.00726206466939 -0.112562002376 0.981 1.63009168758e-38
0.00907758083674 -0.112562002376 0.981 1.69430815153e-38
0.0108930970041 -0.112562002376 0.981 1.75877278543e-38
0.0127086131714 -0.112562002376 0.981 1.6573219996e-38
0.0145241293388 -0.112562002376 0.981 1.66668603646e-38
0.0163396455061 -0.112562002376 0.981 1.43609158416e-38
0.0180996413014 -0.112217776069 0.978 1.14114011767e-38
0.0199096054315 -0.112217776069 0.978 6.98819977147e-39
0.0216529451152 -0.111873549762 0.975 1.92857484659e-39
0.0234092395523 -0.111644065557 0.973 3.50324616081e-44
0.0252099502871 -0.111644065557 0.973 1.26116861789e-44
0.0270106610218 -0.111644065557 0.973 8.29074032522e-40
0.0288113717566 -0.111644065557 0.973 3.59098005636e-39
0.0287243898404 -0.104759539418 0.913 4.60335794101e-39
0.030414059831 -0.104759539418 0.913 4.51115950855e-39
0.0321037298216 -0.104759539418 0.913 3.49701178394e-39
0.0337933998122 -0.104759539418 0.913 9.74654509592e-39
0.0355607983237 -0.104989023622 0.915 1.48107452603e-38
0.0373763144911 -0.105333249929 0.918 1.90491602396e-38
0.039075237877 -0.105333249929 0.918 2.05210308972e-38
0.040774161263 -0.105333249929 0.918 2.03294902127e-38
0.0427044195327 -0.105906960441 0.923 2.24521603109e-38
0.044412596314 -0.105906960441 0.923 1.62833193697e-38
-0.0222544158128 -0.104424566506 0.925 1.51771189477e-38
-0.0187288721851 -0.10386010939 0.92 8.00918302998e-39
-0.017026247441 -0.10386010939 0.92 1.31605719848e-38
-0.0152903104736 -0.103634326543 0.918 1.38952503489e-38
-0.0135173599249 -0.103069869427 0.913 1.60091889563e-38
-0.0118276899343 -0.103069869427 0.913 1.39848605831e-38
-0.0101047077204 -0.102731195157 0.91 1.06759464933e-38
-0.008420589767 -0.102731195157 0.91 7.2611937318e-39
-0.0067364718136 -0.102731195157 0.91 4.77552287163e-39
-0.00542989239041 -0.110407811938 0.978 2.66653084776e-39
-0.00361992826028 -0.110407811938 0.978 3.86286418831e-39
-0.00181551616735 -0.110746486208 0.981 2.75910903211e-39
0.0 -0.110746486208 0.981 9.18411013518e-40
0.00181551616735 -0.110746486208 0.981 1.56126649312e-39
0.00363103233469 -0.110746486208 0.981 3.03417971676e-39
0.00544654850204 -0.110746486208 0.981 2.29842935936e-39
0.00726206466939 -0.110746486208 0.981 4.59185888581e-40
0.00907758083674 -0.110746486208 0.981 1.65376340215e-39
0.0108930970041 -0.110746486208 0.981 1.83699018285e-40
0.0127086131714 -0.110746486208 0.981 3.03892311206e-39
0.0145241293388 -0.110746486208 0.981 2.11368497242e-39
0.0162896771712 -0.110407811938 0.978 3.2185625687e-39
0.0180996413014 -0.110407811938 0.978 3.13142983018e-39
0.0199096054315 -0.110407811938 0.978 4.23850326115e-39
0.0216529451152 -0.110069137669 0.975 4.69699690829e-39
0.0217972980826 -0.102279629464 0.906 4.51295457188e-39
0.0234740133197 -0.102279629464 0.906 5.06538706417e-39
0.0270106610218 -0.109843354822 0.973 4.51150983316e-39
0.0269458872544 -0.102731195157 0.91 4.78630446202e-39
0.0286300052078 -0.102731195157 0.91 8.91892981509e-39
0.030414059831 -0.103069869427 0.913 1.39792105477e-38
0.0321740556262 -0.103295652274 0.915 1.70243722405e-38
0.033867426975 -0.103295652274 0.915 1.94204440768e-38
0.0356773911051 -0.103634326543 0.918 2.07003634695e-38
0.0373763144911 -0.103634326543 0.918 2.06068183892e-38
0.0391603691142 -0.10386010939 0.92 2.05135059245e-38
0.0408629938583 -0.10386010939 0.92 2.12553953704e-38
0.0427044195327 -0.10419878366 0.923 1.58206134194e-38
0.044412596314 -0.10419878366 0.923 8.37365235276e-39
-0.0239662939522 -0.102712688367 0.925 1.52111999276e-38
-0.0222544158128 -0.102712688367 0.925 1.73940179598e-38
-0.0205425376733 -0.102712688367 0.925 1.28854158209e-38
-0.0187288721851 -0.102157484646 0.92 5.88866112235e-39
-0.017026247441 -0.102157484646 0.92 4.87886583078e-39
-0.0152903104736 -0.101935403157 0.918 9.94129335259e-39
-0.01354697079 -0.101602280925 0.915 1.25173409572e-38
-0.0118276899343 -0.101380199437 0.913 1.57341238769e-38
-0.0101047077204 -0.101047077204 0.91 1.58277488312e-38
-0.008420589767 -0.101047077204 0.91 1.54567312407e-38
-0.00675867996244 -0.101380199437 0.913 1.33416463711e-38
-0.00544654850204 -0.108930970041 0.981 1.34338448035e-38
-0.00363103233469 -0.108930970041 0.981 1.08478003357e-38
-0.00181551616735 -0.108930970041 0.981 9.36731869901e-39
0.0 -0.108930970041 0.981 9.00821634935e-39
0.00181551616735 -0.108930970041 0.981 5.60381217701e-39
0.00363103233469 -0.108930970041 0.981 4.41963510065e-39
0.00544654850204 -0.108930970041 0.981 3.22182759412e-39
0.00726206466939 -0.108930970041 0.981 2.39315573425e-39
0.00907758083674 -0.108930970041 0.981 3.68638606101e-39
0.0108930970041 -0.108930970041 0.981 3.68638606101e-39
0.0117629161668 -0.100824995716 0.908 4.51221328499e-39
0.013413721897 -0.100602914227 0.906 4.14343076554e-39
0.0150904371341 -0.100602914227 0.906 3.50023477041e-39
0.0167671523712 -0.100602914227 0.906 3.95943467198e-39
0.0184845825479 -0.100824995716 0.908 3.95652417507e-39
0.0201649991431 -0.100824995716 0.908 6.71485688783e-39
0.0217972980826 -0.100602914227 0.906 1.0299295683e-38
0.0234740133197 -0.100602914227 0.906 1.3151962407e-38
0.0252062489289 -0.100824995716 0.908 1.43529676767e-38
0.0269458872544 -0.101047077204 0.91 1.5737265588e-38
0.0286300052078 -0.101047077204 0.91 1.76701368157e-38
0.030414059831 -0.101380199437 0.913 2.06131718764e-38
0.0321740556262 -0.101602280925 0.915 1.8947256414e-38
0.0339784677192 -0.101935403157 0.918 2.04173320083e-38
0.0356773911051 -0.101935403157 0.918 2.12481618678e-38
0.0373763144911 -0.101935403157 0.918 2.00521396155e-38
0.0391603691142 -0.102157484646 0.92 1.91359888964e-38
0.0408629938583 -0.102157484646 0.92 1.32424428476e-38
0.0427044195327 -0.102490606878 0.923 1.08650853522e-38
0.044412596314 -0.102490606878 0.923 6.17466894151e-39
-0.0239662939522 -0.101000810227 0.925 2.13886658609e-38
-0.0222544158128 -0.101000810227 0.925 1.31610232029e-38
-0.0205425376733 -0.101000810227 0.925 1.62937394251e-38
-0.0187288721851 -0.100454859902 0.92 1.33457087353e-38
-0.017026247441 -0.100454859902 0.92 8.36673554354e-39
-0.0152903104736 -0.100236479772 0.918 3.94900060361e-39
-0.01354697079 -0.0999089095762 0.915 5.33617538072e-39
-0.0118535994412 -0.0999089095762 0.915 8.64590082231e-39
-0.0101380199437 -0.099690529446 0.913 1.31651864606e-38
-0.00844834995305 -0.099690529446 0.913 1.46312711569e-38
-0.00675867996244 -0.099690529446 0.913 1.56393092202e-38
-0.00506900997183 -0.099690529446 0.913 1.81228080677e-38
-0.00337933998122 -0.099690529446 0.913 1.86770608467e-38
-0.00168966999061 -0.099690529446 0.913 1.77566221543e-38
0.0 -0.107115453873 0.981 1.52730658535e-38
0.00181551616735 -0.107115453873 0.981 1.50905173013e-38
0.00363103233469 -0.107115453873 0.981 1.39856088764e-38
0.00544654850204 -0.107115453873 0.981 1.30654756671e-38
0.00726206466939 -0.107115453873 0.981 1.26023633402e-38
0.00907758083674 -0.107115453873 0.981 1.29711136298e-38
0.0100824995716 -0.0991445791204 0.908 1.22306927447e-38
0.0117629161668 -0.0991445791204 0.908 1.17686776345e-38
0.013413721897 -0.0989261989902 0.906 1.42557918321e-38
0.0150904371341 -0.0989261989902 0.906 1.34320819701e-38
0.0167671523712 -0.0989261989902 0.906 1.54610514438e-38
0.0184845825479 -0.0991445791204 0.908 1.60142630581e-38
0.0201649991431 -0.0991445791204 0.908 1.71194811699e-38
0.0218454157384 -0.0991445791204 0.908 1.76658152112e-38
0.0235258323337 -0.0991445791204 0.908 1.93192465056e-38
0.0252062489289 -0.0991445791204 0.908 1.91316532789e-38
0.0270347198498 -0.099690529446 0.913 1.75643093544e-38
0.0287243898404 -0.099690529446 0.913 2.05144868334e-38
0.030414059831 -0.099690529446 0.913 1.93177793462e-38
0.0321740556262 -0.0999089095762 0.915 2.06997174709e-38
0.0339784677192 -0.100236479772 0.918 1.97777233372e-38
0.0356773911051 -0.100236479772 0.918 2.1069183824e-38
0.0373763144911 -0.100236479772 0.918 1.7209161469e-38
0.0391603691142 -0.100454859902 0.92 9.75041267968e-39
0.0408629938583 -0.100454859902 0.92 1.01293349948e-38
0.0427044195327 -0.100782430097 0.923 9.12595765021e-39
-0.02590025358 -0.100147647176 0.933 2.35098856151e-38
-0.0240440224732 -0.099610950246 0.928 2.35098856151e-38
-0.0223265922965 -0.099610950246 0.928 2.47960043522e-39
-0.0205425376733 -0.0992889320879 0.925 1.55590736727e-38
-0.0187899445944 -0.0990742533158 0.923 1.67479072639e-38
-0.0170817678131 -0.0990742533158 0.923 1.60110414729e-38
-0.0153236226969 -0.0987522351576 0.92 1.37129302083e-38
-0.01354697079 -0.0982155382274 0.915 7.90755946405e-39
-0.0118535994412 -0.0982155382274 0.915 2.47962846119e-39
-0.0101380199437 -0.0980008594554 0.913 9.67159104236e-39
-0.00844834995305 -0.0980008594554 0.913 4.31632857526e-39
-0.00675867996244 -0.0980008594554 0.913 1.05690778672e-38
-0.00506900997183 -0.0980008594554 0.913 1.20520047697e-38
-0.00337933998122 -0.0980008594554 0.913 1.42639179619e-38
-0.00168966999061 -0.0980008594554 0.913 1.61953948976e-38
0.0 -0.0980008594554 0.913 1.76687327146e-38
0.00168966999061 -0.0980008594554 0.913 1.72945776169e-38
0.00337933998122 -0.0980008594554 0.913 1.80277383747e-38
0.00506900997183 -0.0980008594554 0.913 1.75678826655e-38
0.0067364718136 -0.0976788412972 0.91 1.83043336721e-38
0.00840208297631 -0.0974641625252 0.908 1.75686407679e-38
0.0100824995716 -0.0974641625252 0.908 1.81207033174e-38
0.0117629161668 -0.0974641625252 0.908 1.84890976772e-38
0.0134433327621 -0.0974641625252 0.908 1.83980511121e-38
0.0151237493574 -0.0974641625252 0.908 1.83969595006e-38
0.0168041659526 -0.0974641625252 0.908 1.96876380628e-38
0.0184845825479 -0.0974641625252 0.908 1.83944231504e-38
0.0201649991431 -0.0974641625252 0.908 1.91326341879e-38
0.0218454157384 -0.0974641625252 0.908 1.88553340373e-38
0.0235258323337 -0.0974641625252 0.908 1.95918523063e-38
0.025261769301 -0.0976788412972 0.91 1.94997169323e-38
0.0269458872544 -0.0976788412972 0.91 1.92245551632e-38
0.0287243898404 -0.0980008594554 0.913 2.03326991862e-38
0.030414059831 -0.0980008594554 0.913 1.8122865521e-38
0.0321740556262 -0.0982155382274 0.915 1.82161639727e-38
0.033867426975 -0.0982155382274 0.915 1.49986271545e-38
0.0356773911051 -0.0985375563856 0.918 1.16796685573e-38
0.0373763144911 -0.0985375563856 0.918 7.81758489225e-39
0.039075237877 -0.0985375563856 0.918 8.20040842232e-39
0.040774161263 -0.0985375563856 0.918 7.64830943906e-39
0.0427044195327 -0.0990742533158 0.923 9.67088759053e-39
-0.02590025358 -0.0984209636042 0.933 2.35098856151e-38
-0.024173570008 -0.0984209636042 0.933 2.35098856151e-38
-0.0223747099523 -0.0981044974833 0.93 2.02046499338e-39
-0.0206535784175 -0.0981044974833 0.93 1.0306864096e-38
-0.0188306595339 -0.0975770539484 0.925 1.52760548232e-38
-0.0170817678131 -0.0973660765345 0.923 1.50879949641e-38
-0.0153236226969 -0.0970496104135 0.92 1.6470539851e-38
-0.0135913870877 -0.0968386329996 0.918 1.5271293211e-38
-0.0118535994412 -0.0965221668787 0.915 1.24193201296e-38
-0.0101602280925 -0.0965221668787 0.915 1.43582645849e-38
-0.00846685674374 -0.0965221668787 0.915 7.90646224735e-39
-0.006773485395 -0.0965221668787 0.915 3.39797081108e-39
-0.00508011404625 -0.0965221668787 0.915 1.83963723565e-39
-0.00337933998122 -0.0963111894648 0.913 4.04294085006e-39
-0.00168966999061 -0.0963111894648 0.913 6.33956533701e-39
0.0 -0.0963111894648 0.913 9.46736440287e-39
0.00168966999061 -0.0963111894648 0.913 1.23225352473e-38
0.00337933998122 -0.0963111894648 0.913 1.3343096715e-38
0.00506900997183 -0.0963111894648 0.913 1.51862582163e-38
0.0067364718136 -0.0959947233438 0.91 1.52794978135e-38
0.00840208297631 -0.0957837459299 0.908 1.44458457389e-38
0.0100824995716 -0.0957837459299 0.908 1.7117331578e-38
0.0117629161668 -0.0957837459299 0.908 1.73917856913e-38
0.0134433327621 -0.0957837459299 0.908 1.73914591888e-38
0.0151237493574 -0.0957837459299 0.908 1.71116324972e-38
0.0168041659526 -0.0957837459299 0.908 1.83094147803e-38
0.0184845825479 -0.0957837459299 0.908 1.86778427713e-38
0.0201649991431 -0.0957837459299 0.908 1.77569724789e-38
0.0218454157384 -0.0957837459299 0.908 1.84955814852e-38
0.0235258323337 -0.0957837459299 0.908 1.72974208515e-38
0.025261769301 -0.0959947233438 0.91 1.65630858055e-38
0.0269458872544 -0.0959947233438 0.91 1.51823191663e-38
0.0287243898404 -0.0963111894648 0.913 1.33402212505e-38
0.030414059831 -0.0963111894648 0.913 1.21399390509e-38
0.0321740556262 -0.0965221668787 0.915 9.37878132045e-39
0.033867426975 -0.0965221668787 0.915 7.17975026505e-39
0.0356773911051 -0.0968386329996 0.918 6.72848311409e-39
0.0373763144911 -0.0968386329996 0.918 8.01815554405e-39
0.039075237877 -0.0968386329996 0.918 6.08098793528e-39
0.040774161263 -0.0968386329996 0.918 1.12331616172e-38
0.042473084649 -0.0968386329996 0.918 2.11787429431e-38
-0.024173570008 -0.0966942800322 0.933 2.35098856151e-38
-0.0223747099523 -0.0963833659485 0.93 9.5814875511e-39
-0.0206535784175 -0.0963833659485 0.93 8.36540991519e-39
-0.0188306595339 -0.095865175809 0.925 1.00360379444e-38
-0.0171187813945 -0.095865175809 0.925 1.5095887077e-38
-0.0153735910318 -0.0956578997532 0.923 1.57344195508e-38
-0.0135913870877 -0.0951397096136 0.918 1.56390317631e-38
-0.0118924637017 -0.0951397096136 0.918 1.52698484723e-38
-0.0101602280925 -0.0948287955299 0.915 1.87740433121e-38
-0.00846685674374 -0.0948287955299 0.915 1.51812836067e-38
-0.006773485395 -0.0948287955299 0.915 1.38945216737e-38
-0.00508011404625 -0.0948287955299 0.915 1.06719808186e-38
-0.00337933998122 -0.0946215194741 0.913 1.07555374435e-38
-0.00168966999061 -0.0946215194741 0.913 6.88771686249e-39
0.0 -0.0946215194741 0.913 3.21430682526e-39
0.00168966999061 -0.0946215194741 0.913 2.8520109164e-39
0.00337933998122 -0.0946215194741 0.913 2.67010275755e-39
0.00506900997183 -0.0946215194741 0.913 2.29877688138e-39
0.0067364718136 -0.0943106053904 0.91 3.21610188859e-39
0.00840208297631 -0.0941033293346 0.908 7.17150922878e-39
0.0100824995716 -0.0941033293346 0.908 7.17110565483e-39
0.0117888256738 -0.0943106053904 0.91 7.35154945678e-39
0.0134433327621 -0.0941033293346 0.908 9.83975666717e-39
0.0151237493574 -0.0941033293346 0.908 9.84046152029e-39
0.0168041659526 -0.0941033293346 0.908 9.37444990689e-39
0.0184845825479 -0.0941033293346 0.908 9.92585945131e-39
0.0201649991431 -0.0941033293346 0.908 8.8201957266e-39
0.0218935333942 -0.0943106053904 0.91 9.37446532118e-39
0.0235776513476 -0.0943106053904 0.91 7.62888183715e-39
0.025261769301 -0.0943106053904 0.91 7.17401475044e-39
0.0270347198498 -0.0946215194741 0.913 3.49556003874e-39
0.0287243898404 -0.0946215194741 0.913 5.61852861349e-39
0.0304806842775 -0.0948287955299 0.915 5.89585118477e-39
0.0321740556262 -0.0948287955299 0.915 6.72707621043e-39
0.0339784677192 -0.0951397096136 0.918 6.72633632485e-39
0.0356773911051 -0.0951397096136 0.918 7.18985502828e-39
0.0373763144911 -0.0951397096136 0.918 4.33213802453e-39
0.039075237877 -0.0951397096136 0.918 1.27946635285e-38
0.0408629938583 -0.0953469856695 0.92 2.11729303571e-38
0.0425656186024 -0.0953469856695 0.92 2.04382337762e-38
-0.0223747099523 -0.0946622344137 0.93 1.48427705354e-38
-0.0206535784175 -0.0946622344137 0.93 1.41582908862e-38
-0.0188917319432 -0.094458659716 0.928 5.7939922007e-39
-0.0171187813945 -0.0941532976695 0.925 7.26839080071e-39
-0.0153735910318 -0.0939497229719 0.923 1.19634791405e-38
-0.0136209979528 -0.0936443609254 0.92 1.44508679926e-38
-0.0118924637017 -0.0934407862277 0.918 1.49071952323e-38
-0.0101935403157 -0.0934407862277 0.918 1.79435245409e-38
-0.00849461692979 -0.0934407862277 0.918 1.52702366319e-38
-0.006773485395 -0.0931354241812 0.915 1.66498864363e-38
-0.00508011404625 -0.0931354241812 0.915 1.7847338013e-38
-0.0033867426975 -0.0931354241812 0.915 1.8033218853e-38
-0.00169337134875 -0.0931354241812 0.915 1.70244114768e-38
0.0 -0.0929318494835 0.913 1.28813632658e-38
0.00168966999061 -0.0929318494835 0.913 1.23271216972e-38
0.00337933998122 -0.0929318494835 0.913 1.11196326196e-38
0.00506900997183 -0.0929318494835 0.913 9.00601070556e-39
0.0067364718136 -0.092626487437 0.91 6.80200504062e-39
0.008420589767 -0.092626487437 0.91 2.93917168088e-39
0.0101047077204 -0.092626487437 0.91 4.69375009975e-39
0.0117888256738 -0.092626487437 0.91 4.6973500355e-39
0.0134729436272 -0.092626487437 0.91 4.42041142e-39
0.0151237493574 -0.0924229127394 0.908 4.33073392347e-39
0.0168041659526 -0.0924229127394 0.908 4.88173709133e-39
0.0184845825479 -0.0924229127394 0.908 4.32999824178e-39
0.0202094154408 -0.092626487437 0.91 5.52777211715e-39
0.0218935333942 -0.092626487437 0.91 5.71220401453e-39
0.0235776513476 -0.092626487437 0.91 5.43813665958e-39
0.025261769301 -0.092626487437 0.91 6.08456124636e-39
0.0270347198498 -0.0929318494835 0.913 6.26716024535e-39
0.0287873129287 -0.0931354241812 0.915 5.62178803371e-39
0.0304806842775 -0.0931354241812 0.915 6.17279120157e-39
0.0322795443332 -0.0934407862277 0.918 5.89624354834e-39
0.0339784677192 -0.0934407862277 0.918 4.88173709133e-39
0.0356773911051 -0.0934407862277 0.918 1.02211396624e-38
0.0373763144911 -0.0934407862277 0.918 1.63895153725e-38
0.0391603691142 -0.0936443609254 0.92 2.15433622048e-38
0.0408629938583 -0.0936443609254 0.92 1.86839314131e-38
0.0425656186024 -0.0936443609254 0.92 1.19670062087e-38
-0.0223747099523 -0.0929411028789 0.93 1.83462114767e-38
-0.0206535784175 -0.0929411028789 0.93 1.67490339078e-38
-0.0188917319432 -0.0927412295394 0.928 1.20485267469e-38
-0.0171187813945 -0.0924414195301 0.925 7.81758489225e-39
-0.015406903255 -0.0924414195301 0.925 4.32785986032e-39
-0.0136654142505 -0.0922415461905 0.923 5.51918496016e-39
-0.0119572374691 -0.0922415461905 0.923 1.09507144975e-38
-0.0102157484646 -0.0919417361813 0.92 1.48193099965e-38
-0.00849461692979 -0.0917418628417 0.918 1.5827729213e-38
-0.00679569354383 -0.0917418628417 0.918 1.68371517592e-38
-0.00509677015787 -0.0917418628417 0.918 1.72019910247e-38
-0.0033867426975 -0.0914420528324 0.915 1.67392682588e-38
-0.00169337134875 -0.0914420528324 0.915 1.71990777252e-38
0.0 -0.0914420528324 0.915 1.81210354252e-38
0.00169337134875 -0.0914420528324 0.915 1.77537579003e-38
0.0033867426975 -0.0914420528324 0.915 1.8491303321e-38
0.00508011404625 -0.0914420528324 0.915 1.79406672933e-38
0.00675867996244 -0.0912421794929 0.913 1.57344195508e-38
0.008420589767 -0.0909423694836 0.91 1.43528892039e-38
0.0101047077204 -0.0909423694836 0.91 1.15914414047e-38
0.0118276899343 -0.0912421794929 0.913 1.12183176626e-38
0.0134729436272 -0.0909423694836 0.91 1.06666054377e-38
0.0151570615806 -0.0909423694836 0.91 1.00230549141e-38
0.016841179534 -0.0909423694836 0.91 7.5370365319e-39
0.0185252974874 -0.0909423694836 0.91 6.6222604866e-39
0.0202760398873 -0.0912421794929 0.913 4.22949991851e-39
0.0219657098779 -0.0912421794929 0.913 5.98086235741e-39
0.0236553798685 -0.0912421794929 0.913 5.33619640019e-39
0.0253450498591 -0.0912421794929 0.913 4.69621358245e-39
0.02709394158 -0.0914420528324 0.915 4.41749952179e-39
0.0287873129287 -0.0914420528324 0.915 7.72938156171e-39
0.0305806209472 -0.0917418628417 0.918 9.38094632657e-39
0.0322795443332 -0.0917418628417 0.918 1.42558324697e-38
0.0339784677192 -0.0917418628417 0.918 1.62887227766e-38
0.0356773911051 -0.0917418628417 0.918 1.94225796557e-38
0.0373763144911 -0.0917418628417 0.918 1.82248099842e-38
0.0391603691142 -0.0919417361813 0.92 1.41693387233e-38
0.0408629938583 -0.0919417361813 0.92 1.09529649828e-38
-0.0224950040919 -0.0917104012975 0.935 2.35098856151e-38
-0.020720202864 -0.0915142293162 0.933 1.03036817472e-38
-0.0188917319432 -0.0910237993627 0.928 1.73954024427e-38
-0.0171743017665 -0.0910237993627 0.928 1.36194103514e-38
-0.015406903255 -0.0907295413906 0.925 8.64796213235e-39
-0.0136950251156 -0.0907295413906 0.925 5.97981979135e-39
-0.0119572374691 -0.0905333694092 0.923 3.68319670571e-39
-0.0102490606878 -0.0905333694092 0.923 5.79395016174e-39
-0.00851312372049 -0.0902391114372 0.92 7.26974025113e-39
-0.00679569354383 -0.0900429394558 0.918 1.29732744321e-38
-0.00509677015787 -0.0900429394558 0.918 1.3527799063e-38
-0.00339784677192 -0.0900429394558 0.918 1.68399753756e-38
-0.00169892338596 -0.0900429394558 0.918 1.78487799491e-38
0.0 -0.0900429394558 0.918 1.8123574578e-38
0.00169337134875 -0.0897486814837 0.915 1.82143184626e-38
0.0033867426975 -0.0897486814837 0.915 1.6645542411e-38
0.00508011404625 -0.0897486814837 0.915 1.83029043476e-38
0.006773485395 -0.0897486814837 0.915 1.9777665884e-38
0.00844834995305 -0.0895525095023 0.913 1.79366623823e-38
0.0101380199437 -0.0895525095023 0.913 1.8952589756e-38
0.0118276899343 -0.0895525095023 0.913 1.76643984985e-38
0.0135173599249 -0.0895525095023 0.913 1.86764176507e-38
0.0152070299155 -0.0895525095023 0.913 1.81254116803e-38
0.0168966999061 -0.0895525095023 0.913 1.77602248927e-38
0.0185863698967 -0.0895525095023 0.913 1.64741523985e-38
0.0202760398873 -0.0895525095023 0.913 1.67489218039e-38
0.0220138275337 -0.0897486814837 0.915 1.66556093392e-38
0.0237071988825 -0.0897486814837 0.915 1.57348021053e-38
0.0254005702312 -0.0897486814837 0.915 1.76712312298e-38
0.02709394158 -0.0897486814837 0.915 1.65674396398e-38
0.0288816975613 -0.0900429394558 0.918 1.7487229531e-38
0.0305806209472 -0.0900429394558 0.918 1.88669227756e-38
0.0322795443332 -0.0900429394558 0.918 2.07068346658e-38
0.0339784677192 -0.0900429394558 0.918 1.71165580613e-38
0.0356773911051 -0.0900429394558 0.918 1.41671302769e-38
0.0373763144911 -0.0900429394558 0.918 9.19831089382e-39
0.0393731972073 -0.0907295413906 0.925 8.93868251825e-39
0.0410850753467 -0.0907295413906 0.925 9.67661609865e-39
-0.0224950040919 -0.0899800163674 0.935 2.35098856151e-38
-0.020720202864 -0.0897875457442 0.933 1.92857064269e-39
-0.0189324468827 -0.0894988398093 0.93 1.52806791081e-38
-0.0171743017665 -0.089306369186 0.928 1.6657481474e-38
-0.0154568715899 -0.089306369186 0.928 1.56422813742e-38
-0.0137394414132 -0.089306369186 0.928 1.21431452218e-38
-0.0119831469761 -0.0890176632512 0.925 7.90363162445e-39
-0.0102712688367 -0.0890176632512 0.925 5.05140490809e-39
-0.00854088390653 -0.0888251926279 0.923 3.87150039074e-39
-0.00681049897639 -0.0885364866931 0.92 2.02473054591e-39
-0.00510787423229 -0.0885364866931 0.92 3.4037049244e-39
-0.00339784677192 -0.0883440160698 0.918 7.44157727792e-39
-0.00169892338596 -0.0883440160698 0.918 1.17640057054e-38
0.0 -0.0883440160698 0.918 1.34320399311e-38
0.00169892338596 -0.0883440160698 0.918 1.42628445672e-38
0.00339784677192 -0.0883440160698 0.918 1.72105459519e-38
0.00509677015787 -0.0883440160698 0.918 1.83097356777e-38
0.006773485395 -0.0880553101349 0.915 1.84923599e-38
0.00846685674374 -0.0880553101349 0.915 1.84913201366e-38
0.0101602280925 -0.0880553101349 0.915 1.77537957353e-38
0.0118535994412 -0.0880553101349 0.915 1.9502565772e-38
0.0135173599249 -0.0878628395117 0.913 1.96847822166e-38
0.0152070299155 -0.0878628395117 0.913 1.87635910269e-38
0.0168966999061 -0.0878628395117 0.913 1.96844290893e-38
0.0186270848362 -0.0880553101349 0.915 1.86720988489e-38
0.020320456185 -0.0880553101349 0.915 1.91294294183e-38
0.0220138275337 -0.0880553101349 0.915 2.21707669676e-38
0.0237071988825 -0.0880553101349 0.915 1.94993189635e-38
0.0254005702312 -0.0880553101349 0.915 2.02412476458e-38
0.0271827741753 -0.0883440160698 0.918 1.95997738465e-38
0.0288816975613 -0.0883440160698 0.918 1.6287179947e-38
0.0305806209472 -0.0883440160698 0.918 1.47228053739e-38
0.0323498701378 -0.0885364866931 0.92 1.12162101097e-38
0.0341635356261 -0.0888251926279 0.923 6.89885438268e-39
0.0359494409284 -0.0890176632512 0.925 7.09299027193e-39
0.0377834638864 -0.089306369186 0.928 8.29295998199e-39
0.0395008940631 -0.089306369186 0.928 9.39895721574e-39
0.0412183242397 -0.089306369186 0.928 9.49437302947e-39
-0.0224950040919 -0.0882496314373 0.935 2.35098856151e-38
-0.0207646191617 -0.0882496314373 0.935 5.51012976948e-40
-0.018993519292 -0.0880608621722 0.933 1.04865862292e-38
-0.0172113153479 -0.0877777082745 0.93 1.37155856689e-38
-0.0154568715899 -0.0875889390094 0.928 1.56411673419e-38
-0.0137394414132 -0.0875889390094 0.928 1.70193752102e-38
-0.0120220112366 -0.0875889390094 0.928 1.68378958486e-38
-0.0102712688367 -0.0873057851117 0.925 1.27866999493e-38
-0.00855939069723 -0.0873057851117 0.925 1.20566724949e-38
-0.00683270712523 -0.0871170158466 0.923 4.59180423517e-39
-0.00512453034392 -0.0871170158466 0.923 3.86467326463e-39
-0.00341635356261 -0.0871170158466 0.923 3.8675291109e-39
-0.0017026247441 -0.086833861949 0.92 2.85486536137e-39
0.0 -0.086833861949 0.92 2.76080880715e-39
0.0017026247441 -0.086833861949 0.92 4.1380778054e-39
0.00339784677192 -0.0866450926839 0.918 6.52036927266e-39
0.00509677015787 -0.0866450926839 0.918 8.6325856843e-39
0.00679569354383 -0.0866450926839 0.918 1.23164592172e-38
0.00849461692979 -0.0866450926839 0.918 1.28756936122e-38
0.0101935403157 -0.0866450926839 0.918 1.46316186789e-38
0.0118535994412 -0.0863619387862 0.915 1.47224158129e-38
0.01354697079 -0.0863619387862 0.915 1.55507317429e-38
0.0152403421387 -0.0863619387862 0.915 1.69329024832e-38
0.0169337134875 -0.0863619387862 0.915 1.62886597181e-38
0.0186270848362 -0.0863619387862 0.915 1.58272934092e-38
0.020320456185 -0.0863619387862 0.915 1.66559456508e-38
0.0220138275337 -0.0863619387862 0.915 1.49057546975e-38
0.0237071988825 -0.0863619387862 0.915 1.52730686561e-38
0.0254838507894 -0.0866450926839 0.918 1.22306773304e-38
0.0271827741753 -0.0866450926839 0.918 1.05726105406e-38
0.0288816975613 -0.0866450926839 0.918 4.68364673782e-39
0.0306472453938 -0.086833861949 0.92 6.07848521622e-39
0.0325256846495 -0.0873057851117 0.925 6.63346106523e-39
0.0343486035331 -0.0875889390094 0.928 7.19055287491e-39
0.0360660337097 -0.0875889390094 0.928 7.28093802716e-39
0.0377834638864 -0.0875889390094 0.928 8.57059644413e-39
0.0395860253003 -0.0877777082745 0.93 9.86100875968e-39
0.0413071568351 -0.0877777082745 0.93 9.30962864253e-39
-0.0207646191617 -0.0865192465071 0.935 1.00460249985e-38
-0.018993519292 -0.0863341786002 0.933 8.18275626556e-39
-0.01726683572 -0.0863341786002 0.933 6.90244310805e-39
-0.0154901838131 -0.0860565767397 0.93 1.26127581722e-38
-0.0137690522784 -0.0860565767397 0.93 1.63833216333e-38
-0.0120220112366 -0.0858715088327 0.928 1.70208423697e-38
-0.0103045810599 -0.0858715088327 0.928 1.8678174879e-38
-0.00855939069723 -0.0855939069723 0.925 1.80375348523e-38
-0.00684751255778 -0.0855939069723 0.925 1.53660251911e-38
-0.00513563441834 -0.0855939069723 0.925 1.24218634863e-38
-0.00342375627889 -0.0855939069723 0.925 1.03882599186e-38
-0.00170817678131 -0.0854088390653 0.923 1.0200981984e-38
0.0 -0.0854088390653 0.923 6.06407005892e-39
0.00170817678131 -0.0854088390653 0.923 3.03136731074e-39
0.00341635356261 -0.0854088390653 0.923 4.96888244153e-39
0.00510787423229 -0.0851312372049 0.92 3.95939263302e-39
0.00681049897639 -0.0851312372049 0.92 3.58847733731e-39
0.00849461692979 -0.0849461692979 0.918 3.58666685969e-39
0.0101935403157 -0.0849461692979 0.918 3.03420914403e-39
0.0118924637017 -0.0849461692979 0.918 3.95038508649e-39
0.01354697079 -0.0846685674374 0.915 5.51739550202e-39
0.0152403421387 -0.0846685674374 0.915 4.40959339585e-39
0.0169337134875 -0.0846685674374 0.915 6.25385631773e-39
0.0186270848362 -0.0846685674374 0.915 6.16060410883e-39
0.020320456185 -0.0846685674374 0.915 6.16349779016e-39
0.0220138275337 -0.0846685674374 0.915 4.14092944778e-39
0.0237071988825 -0.0846685674374 0.915 4.41890642545e-39
0.0254838507894 -0.0849461692979 0.918 4.23668297444e-39
0.0271827741753 -0.0849461692979 0.918 4.42001765513e-39
0.0289446206497 -0.0851312372049 0.92 8.37150135962e-39
0.0307471820635 -0.0854088390653 0.923 1.13167014265e-38
0.0325256846495 -0.0855939069723 0.925 1.32567332893e-38
0.0343486035331 -0.0858715088327 0.928 8.74815497255e-39
0.0360660337097 -0.0858715088327 0.928 8.01850586866e-39
0.0377834638864 -0.0858715088327 0.928 8.47877355966e-39
0.0395860253003 -0.0860565767397 0.93 9.21599528044e-39
0.0414404057281 -0.0863341786002 0.933 8.66425362829e-39
-0.0226874747151 -0.0855143277723 0.943 2.35098856151e-38
-0.0208756599059 -0.085242277949 0.94 1.53033829458e-38
-0.0190953066409 -0.0850609114002 0.938 1.2686417426e-38
-0.0173038493014 -0.084788861577 0.935 7.54701237567e-39
-0.015540152148 -0.0846074950282 0.933 4.42075894201e-39
-0.013813468576 -0.0846074950282 0.933 7.63391950513e-39
-0.0120479207436 -0.0843354452049 0.93 1.32481237116e-38
-0.0103267892088 -0.0843354452049 0.93 1.48186121499e-38
-0.00858715088327 -0.0841540786561 0.928 1.87768907506e-38
-0.00684751255778 -0.0838820288328 0.925 1.70201136945e-38
-0.00513563441834 -0.0838820288328 0.925 1.79388105729e-38
-0.00342375627889 -0.0838820288328 0.925 1.81214488082e-38
-0.00171187813945 -0.0838820288328 0.925 1.78481017207e-38
0.0 -0.0838820288328 0.925 1.56422365327e-38
0.00171187813945 -0.0838820288328 0.925 1.39855668375e-38
0.00342375627889 -0.0838820288328 0.925 1.32458578119e-38
0.00513563441834 -0.0838820288328 0.925 1.15799731781e-38
0.00684751255778 -0.0838820288328 0.925 1.06598147454e-38
0.00854088390653 -0.083700662284 0.923 1.0751966935e-38
0.0102157484646 -0.0834286124608 0.92 1.00215919585e-38
0.0119183732087 -0.0834286124608 0.92 9.37838615428e-39
0.0135913870877 -0.0832472459119 0.918 7.44484370464e-39
0.0152903104736 -0.0832472459119 0.918 5.23470035242e-39
0.0169892338596 -0.0832472459119 0.918 8.45867473579e-39
0.0186881572455 -0.0832472459119 0.918 8.0909291772e-39
0.0203870806315 -0.0832472459119 0.918 9.65358575839e-39
0.0221341216733 -0.0834286124608 0.92 1.1401317433e-38
0.0239144749383 -0.083700662284 0.923 1.38859527336e-38
0.0256226517196 -0.083700662284 0.923 1.51830954856e-38
0.0273308285009 -0.083700662284 0.923 1.76726675607e-38
0.0290390052822 -0.083700662284 0.923 1.72167565067e-38
0.0307471820635 -0.083700662284 0.923 1.53753382207e-38
0.0325256846495 -0.0838820288328 0.925 8.74302622017e-39
0.0343486035331 -0.0841540786561 0.928 8.83638212516e-39
0.0360660337097 -0.0841540786561 0.928 7.74156445056e-39
0.0377834638864 -0.0841540786561 0.928 9.03159701422e-39
0.0395860253003 -0.0843354452049 0.93 8.8472057545e-39
0.0414404057281 -0.0846074950282 0.933 8.20253699469e-39
0.0431670893001 -0.0846074950282 0.933 1.37329351452e-38
-0.0226874747151 -0.0837691374096 0.943 2.35098856151e-38
-0.0208756599059 -0.0835026396236 0.94 2.00975725143e-38
-0.0190953066409 -0.0833249744329 0.938 1.47196440445e-38
-0.0173038493014 -0.0830584766468 0.935 1.39867607438e-38
-0.0155734643713 -0.0830584766468 0.935 7.35768013756e-39
-0.013813468576 -0.0828808114561 0.933 4.60260824633e-39
-0.0120479207436 -0.0826143136701 0.93 3.70266494527e-40
-0.0103267892088 -0.0826143136701 0.93 4.41105775275e-39
-0.00858715088327 -0.0824366484794 0.928 1.57433990714e-38
-0.00684751255778 -0.0821701506934 0.925 1.26040631153e-38
-0.00513563441834 -0.0821701506934 0.925 1.61936376693e-38
-0.00342375627889 -0.0821701506934 0.925 1.73838935784e-38
-0.00171187813945 -0.0821701506934 0.925 1.77526845056e-38
0.0 -0.0821701506934 0.925 1.72916264823e-38
0.00171187813945 -0.0821701506934 0.925 1.92266781304e-38
0.00342375627889 -0.0821701506934 0.925 1.83984014367e-38
0.00513563441834 -0.0821701506934 0.925 1.86757141989e-38
0.00684751255778 -0.0821701506934 0.925 1.85834737275e-38
0.00854088390653 -0.0819924855027 0.923 1.85852729947e-38
0.0102157484646 -0.0817259877167 0.92 1.85866953126e-38
0.0119183732087 -0.0817259877167 0.92 1.74843162315e-38
0.0135913870877 -0.081548322526 0.918 1.72106230233e-38
0.0152903104736 -0.081548322526 0.918 1.7947445374e-38
0.0169892338596 -0.081548322526 0.918 1.76672655551e-38
0.0186881572455 -0.081548322526 0.918 1.72996138835e-38
0.0203870806315 -0.081548322526 0.918 1.85899211017e-38
0.0221341216733 -0.0817259877167 0.92 2.024729565e-38
0.0239144749383 -0.0819924855027 0.923 1.98785509656e-38
0.0256226517196 -0.0819924855027 0.923 1.71165580613e-38
0.0273308285009 -0.0819924855027 0.923 1.5273772108e-38
0.0291019283706 -0.0821701506934 0.925 1.08520686908e-38
0.0309137431798 -0.0824366484794 0.928 6.53047543719e-39
0.0326311733564 -0.0824366484794 0.928 6.91326253349e-39
0.0345336714401 -0.0828808114561 0.933 7.46571324267e-39
0.0362603550121 -0.0828808114561 0.933 7.92560118178e-39
0.0379870385841 -0.0828808114561 0.933 8.84685262728e-39
0.0397988533933 -0.0830584766468 0.935 9.03269282962e-39
0.0415292383234 -0.0830584766468 0.935 6.17568067901e-39
0.0432596232536 -0.0830584766468 0.935 2.15651972375e-38
-0.0227596511988 -0.0822848927957 0.946 2.35098856151e-38
-0.0210089087989 -0.0822848927957 0.946 2.35098856151e-38
-0.0191360215804 -0.0817630012981 0.94 4.13263095827e-39
-0.0173963832549 -0.0817630012981 0.94 1.70273261776e-38
-0.0156234327062 -0.0815890374655 0.938 1.51837695102e-38
-0.0138430794411 -0.0813280917167 0.935 1.10407563316e-38
-0.012086785004 -0.0811541278841 0.933 4.68368457288e-39
-0.0103267892088 -0.0808931821353 0.93 2.94492541237e-39
-0.00858715088327 -0.0807192183028 0.928 9.66579807451e-39
-0.00686972070662 -0.0807192183028 0.928 4.87416307313e-39
-0.00515229052996 -0.0807192183028 0.928 6.80268887427e-39
-0.00343486035331 -0.0807192183028 0.928 1.19512261867e-38
-0.00171187813945 -0.0804582725539 0.925 1.38018706218e-38
0.0 -0.0804582725539 0.925 1.51866505798e-38
0.00171743017665 -0.0807192183028 0.928 1.5460347992e-38
0.00342375627889 -0.0804582725539 0.925 1.58251312056e-38
0.00513563441834 -0.0804582725539 0.925 1.75736209827e-38
0.00684751255778 -0.0804582725539 0.925 1.8676728739e-38
0.00854088390653 -0.0802843087214 0.923 1.83083161623e-38
0.0102490606878 -0.0802843087214 0.923 1.82150485391e-38
