# .PCD v0.7 - Point Cloud Data file format
VERSION 0.7
FIELDS x y z rgb
SIZE 4 4 4 4
TYPE F F F F
COUNT 1 1 1 1
WIDTH 843
HEIGHT 1
VIEWPOINT 0 0 0 1 0 0 0
POINTS 843
DATA ascii
0.0270661813939 -0.0523279506949 0.975 1.61024257509e-38
0.0288705934869 -0.0523279506949 0.975 1.62878862014e-38
0.0306750055798 -0.0523279506949 0.975 1.58283499882e-38
0.0324794176727 -0.0523279506949 0.975 1.56439615311e-38
0.034213503961 -0.0522206113089 0.973 1.5827273791e-38
0.0360142146958 -0.0522206113089 0.973 1.60120209805e-38
0.0378149254306 -0.0522206113089 0.973 1.56432440663e-38
0.0396156361654 -0.0522206113089 0.973 1.5827273791e-38
0.0412886500444 -0.0520596022298 0.97 1.64726333909e-38
0.0430838087419 -0.0520596022298 0.97 1.54584968767e-38
0.0447401665093 -0.0518985931508 0.967 1.52759020816e-38
0.0465297731697 -0.0518985931508 0.967 1.59205442168e-38
0.0481694748254 -0.0517375840717 0.964 1.53691725074e-38
0.0499535294486 -0.0517375840717 0.964 1.58283499882e-38
0.0516302446857 -0.0516302446857 0.962 1.53680963102e-38
0.0532440368344 -0.0514692356066 0.959 1.74889657398e-38
0.0548467249088 -0.0513082265276 0.956 1.55517673025e-38
0.0566159740994 -0.0513082265276 0.956 1.57343620976e-38
0.0582630784714 -0.0512008871415 0.954 1.61042152091e-38
0.0600286263038 -0.0512008871415 0.954 1.57357970272e-38
0.0617941741363 -0.0512008871415 0.954 1.59212911088e-38
0.0633598486293 -0.0510398780625 0.951 1.50007543256e-38
0.0651198444245 -0.0510398780625 0.951 1.29721225647e-38
0.0668798402198 -0.0510398780625 0.951 2.01593711779e-38
0.0751357195496 -0.0558701504343 1.041 2.34909835002e-38
-0.00770622764611 -0.0539435935228 1.041 2.34990003287e-38
-0.0052966434974 -0.0494353393091 0.954 2.34885606551e-38
-0.00351999159051 -0.0492798822672 0.951 2.34909933093e-38
-0.00175999579526 -0.0492798822672 0.951 1.90501453525e-38
0.0 -0.0494353393091 0.954 2.07142881723e-38
0.00176554783247 -0.0494353393091 0.954 1.97016034033e-38
0.00353849838121 -0.049538977337 0.956 2.20972618566e-38
0.00532440368344 -0.0496944343788 0.959 1.87782345958e-38
0.00712141306009 -0.0498498914207 0.962 1.96083133594e-38
0.00892027311581 -0.0499535294486 0.964 1.90555067204e-38
0.010704327739 -0.0499535294486 0.964 1.77637113232e-38
0.0125272466226 -0.0501089864904 0.967 1.77601239992e-38
0.0143612695806 -0.0502644435323 0.97 1.67474224146e-38
0.0161564282782 -0.0502644435323 0.97 1.82250510076e-38
0.0180071073479 -0.0504199005741 0.973 1.69325283365e-38
0.0198078180827 -0.0504199005741 0.973 1.67481398794e-38
0.0216529451152 -0.050523538602 0.975 1.6381874092e-38
0.0234573572081 -0.050523538602 0.975 1.62918322579e-38
0.025261769301 -0.050523538602 0.975 1.61060088711e-38
0.0270661813939 -0.050523538602 0.975 1.60116622481e-38
0.0289594260822 -0.0506789956439 0.978 1.58265563262e-38
0.0307693902124 -0.0506789956439 0.978 1.55514085701e-38
0.0325793543425 -0.0506789956439 0.978 1.54606492712e-38
0.0342838297657 -0.050523538602 0.975 1.51840665855e-38
0.0360882418586 -0.050523538602 0.975 1.54606492712e-38
0.0378926539515 -0.050523538602 0.975 1.54592143415e-38
0.0396156361654 -0.0504199005741 0.973 1.50000368607e-38
0.0414163469002 -0.0504199005741 0.973 1.50929485541e-38
0.0430838087419 -0.0502644435323 0.97 1.54606492712e-38
0.0448789674395 -0.0502644435323 0.97 1.57368732244e-38
0.0465297731697 -0.0501089864904 0.967 1.50904374273e-38
0.04831937983 -0.0501089864904 0.967 1.50925898217e-38
0.0501089864904 -0.0501089864904 0.967 1.51855015151e-38
0.0517375840717 -0.0499535294486 0.964 1.58294261854e-38
0.0534105979507 -0.0498498914207 0.962 1.51829903882e-38
0.0550188380623 -0.0496944343788 0.959 1.59205442168e-38
0.0566159740994 -0.049538977337 0.956 1.49993193959e-38
0.05838522329 -0.049538977337 0.956 1.57375906893e-38
0.0601544724806 -0.049538977337 0.956 1.5276260814e-38
0.0617941741363 -0.0494353393091 0.954 1.52776957437e-38
0.0633598486293 -0.0492798822672 0.951 1.50933072865e-38
0.0651198444245 -0.0492798822672 0.951 1.43546772608e-38
0.0668798402198 -0.0492798822672 0.951 1.49978844663e-38
0.0749191900984 -0.0537881364809 1.038 2.34863690243e-38
-0.00770622764611 -0.0520170366112 1.041 2.34982758574e-38
-0.0052966434974 -0.0476697914766 0.954 2.34931779336e-38
-0.00353109566493 -0.0476697914766 0.954 2.3482348699e-38
-0.00176554783247 -0.0476697914766 0.954 1.97880775316e-38
0.0 -0.0476697914766 0.954 2.04381160671e-38
0.00176554783247 -0.0476697914766 0.954 2.06228380332e-38
0.00353849838121 -0.0477697281463 0.956 1.98849156632e-38
0.00532440368344 -0.047919633151 0.959 1.92384798661e-38
0.00712141306009 -0.0480695381556 0.962 1.98856219177e-38
0.00892027311581 -0.0481694748254 0.964 1.85019826166e-38
0.0107376399622 -0.04831937983 0.967 1.77662224501e-38
0.0125661108831 -0.0484692848347 0.97 1.69350394634e-38
0.0143612695806 -0.0484692848347 0.97 1.69325297378e-38
0.0162063966131 -0.0486191898393 0.973 1.69325283365e-38
0.0180441209293 -0.0487191265091 0.975 1.64711984613e-38
0.0198485330222 -0.0487191265091 0.975 1.61034977443e-38
0.0217195695617 -0.0488690315137 0.978 1.59201854844e-38
0.0235295336918 -0.0488690315137 0.978 1.54599528258e-38
0.0253394978219 -0.0488690315137 0.978 1.59201854844e-38
0.0271494619521 -0.0488690315137 0.978 1.45376307883e-38
0.0289594260822 -0.0488690315137 0.978 1.56425266014e-38
0.0307693902124 -0.0488690315137 0.978 1.56446789959e-38
0.0325793543425 -0.0488690315137 0.978 1.53680963102e-38
0.0343893184726 -0.0488690315137 0.978 1.5001113058e-38
0.0361992826028 -0.0488690315137 0.978 1.50925898217e-38
0.0380092467329 -0.0488690315137 0.978 1.51829903882e-38
0.039819210863 -0.0488690315137 0.978 1.52751846168e-38
0.0415014781374 -0.0487191265091 0.975 1.50907961597e-38
0.043217057635 -0.0486191898393 0.973 1.50904374273e-38
0.0450177683697 -0.0486191898393 0.973 1.57361557596e-38
0.0466741261371 -0.0484692848347 0.97 1.48156484036e-38
0.0484692848347 -0.0484692848347 0.97 1.57375906893e-38
0.0502644435323 -0.0484692848347 0.97 1.47234695893e-38
0.0518985931508 -0.04831937983 0.967 1.49078426322e-38
0.0536881998112 -0.04831937983 0.967 1.52780544761e-38
0.055305693318 -0.0481694748254 0.964 1.48156484036e-38
0.0569713044808 -0.0480695381556 0.962 1.49078426322e-38
0.0585684405179 -0.047919633151 0.959 1.49078426322e-38
0.0601544724806 -0.0477697281463 0.956 1.58283499882e-38
0.0619237216712 -0.0477697281463 0.956 1.48167246008e-38
0.0633598486293 -0.0475198864719 0.951 1.54592143415e-38
0.0651198444245 -0.0475198864719 0.951 1.48134960092e-38
0.0668798402198 -0.0475198864719 0.951 1.26944636818e-38
0.0749191900984 -0.0518671316066 1.038 2.27405237128e-38
0.0768401949727 -0.0518671316066 1.038 2.34978792899e-38
-0.00963278455764 -0.0500904796997 1.041 2.34975864185e-38
-0.00770622764611 -0.0500904796997 1.041 2.34921647948e-38
-0.00530774757182 -0.0460004789557 0.956 2.34949561813e-38
-0.00353109566493 -0.0459042436441 0.954 1.95115102601e-38
-0.00176554783247 -0.0459042436441 0.954 2.08039684714e-38
0.0 -0.0460004789557 0.956 2.00675146622e-38
0.00176924919061 -0.0460004789557 0.956 2.12649802519e-38
0.00354960245563 -0.0461448319232 0.959 1.97930605489e-38
0.00534105979507 -0.0462891848906 0.962 1.94253598319e-38
0.00713621849265 -0.0463854202022 0.964 1.85020106425e-38
0.00894803330186 -0.0465297731697 0.967 1.80410226841e-38
0.0107376399622 -0.0465297731697 0.967 1.75807577957e-38
0.0125661108831 -0.0466741261371 0.97 1.63815153596e-38
0.0144056858783 -0.0468184791045 0.973 1.6749227287e-38
0.0162397088364 -0.0469147144162 0.975 1.65659038167e-38
0.0180441209293 -0.0469147144162 0.975 1.64729921233e-38
0.0199096054315 -0.0470590673836 0.978 1.61045739415e-38
0.0217195695617 -0.0470590673836 0.978 1.61967681701e-38
0.0235295336918 -0.0470590673836 0.978 1.55496149081e-38
0.0253394978219 -0.0470590673836 0.978 1.72101872195e-38
0.0272327425102 -0.047203420351 0.981 1.51833491207e-38
0.0289594260822 -0.0470590673836 0.978 1.54592143415e-38
0.0307693902124 -0.0470590673836 0.978 1.52755433492e-38
0.0326792910123 -0.047203420351 0.981 1.54584968767e-38
0.0344948071796 -0.047203420351 0.981 1.50904374273e-38
0.0363103233469 -0.047203420351 0.981 1.50922310893e-38
0.0381258395143 -0.047203420351 0.981 1.48156484036e-38
0.0399413556816 -0.047203420351 0.981 1.52741084196e-38
0.041756871849 -0.047203420351 0.981 1.50904374273e-38
0.0434391391233 -0.0470590673836 0.978 1.53652264509e-38
0.0451103023232 -0.0469147144162 0.975 1.54588556091e-38
0.0468184791045 -0.0468184791045 0.973 1.43553947256e-38
0.0486191898393 -0.0468184791045 0.973 1.46309012141e-38
0.0502644435323 -0.0466741261371 0.97 1.49074838998e-38
0.0520596022298 -0.0466741261371 0.97 1.44468714894e-38
0.0536881998112 -0.0465297731697 0.967 1.48163658684e-38
0.0554778064715 -0.0465297731697 0.967 1.45401419151e-38
0.0569713044808 -0.0462891848906 0.962 1.44475889542e-38
0.0585684405179 -0.0461448319232 0.959 1.47223779778e-38
0.0603432417457 -0.0461448319232 0.959 1.43546772608e-38
0.0619237216712 -0.0460004789557 0.956 1.44475889542e-38
0.0631599752897 -0.0456155377093 0.948 1.53659439157e-38
0.0649144190478 -0.0456155377093 0.948 1.48134960092e-38
0.0666688628058 -0.0456155377093 0.948 1.34320175103e-38
0.0749191900984 -0.0499461267323 1.038 1.95115677134e-38
0.0765440863216 -0.049753656109 1.034 2.34910535651e-38
-0.00963278455764 -0.0481639227882 1.041 2.34975738068e-38
-0.00703998318103 -0.0439998948814 0.951 2.34910815911e-38
-0.00527998738577 -0.0439998948814 0.951 2.34924422519e-38
-0.00353109566493 -0.0441386958117 0.954 2.01554517461e-38
-0.00176924919061 -0.0442312297651 0.956 2.0805783153e-38
0.0 -0.0442312297651 0.956 2.13575037856e-38
0.00176924919061 -0.0442312297651 0.956 1.95146842012e-38
0.00354960245563 -0.0443700306954 0.959 2.09912450047e-38
0.00535216386949 -0.0446013655791 0.964 1.7764442801e-38
0.00715842664149 -0.0447401665093 0.967 1.81339231671e-38
0.00894803330186 -0.0447401665093 0.967 1.71183517233e-38
0.0107709521855 -0.0448789674395 0.97 1.77658637177e-38
0.0126049751435 -0.0450177683697 0.973 1.60138146425e-38
0.0144352967434 -0.0451103023232 0.975 1.64737095882e-38
0.0162896771712 -0.0452491032535 0.978 1.59212616816e-38
0.0180996413014 -0.0452491032535 0.978 1.6931826286e-38
0.0199096054315 -0.0452491032535 0.978 1.60120209805e-38
0.0217861940082 -0.0453879041837 0.981 1.58272807975e-38
0.0236017101755 -0.0453879041837 0.981 1.61042152091e-38
0.0254172263429 -0.0453879041837 0.981 1.56439615311e-38
0.0273160230683 -0.0455267051139 0.984 1.54602905388e-38
0.0291370912729 -0.0455267051139 0.984 1.52780544761e-38
0.0309581594775 -0.0455267051139 0.984 1.48156484036e-38
0.032779227682 -0.0455267051139 0.984 1.52748258844e-38
0.0346002958866 -0.0455267051139 0.984 1.50900786949e-38
0.0364213640911 -0.0455267051139 0.984 1.59230553436e-38
0.0382424322957 -0.0455267051139 0.984 1.45394244503e-38
0.0400635005002 -0.0455267051139 0.984 1.46319774113e-38
0.0418845687048 -0.0455267051139 0.984 1.47223779778e-38
0.0437056369094 -0.0455267051139 0.984 1.47230954426e-38
0.0452491032535 -0.0452491032535 0.978 1.45394286542e-38
0.0469147144162 -0.0451103023232 0.975 1.44461540245e-38
0.0486191898393 -0.0450177683697 0.973 1.46309012141e-38
0.0504199005741 -0.0450177683697 0.973 1.49986019311e-38
0.0520596022298 -0.0448789674395 0.97 1.45397831827e-38
0.0538547609274 -0.0448789674395 0.97 1.48174420656e-38
0.0554778064715 -0.0447401665093 0.967 1.47252478371e-38
0.0569713044808 -0.0445088316256 0.962 1.45397831827e-38
0.0585684405179 -0.0443700306954 0.959 1.4908560097e-38
0.0603432417457 -0.0443700306954 0.959 1.43553947256e-38
0.0619237216712 -0.0442312297651 0.956 1.45397831827e-38
0.0631599752897 -0.0438610939512 0.948 1.45397831827e-38
0.0649144190478 -0.0438610939512 0.948 1.47238325256e-38
0.0665282111965 -0.0437685599977 0.946 1.27884515724e-38
0.0682789535964 -0.0437685599977 0.946 1.66527282696e-38
0.0765440863216 -0.047840053951 1.034 2.34877829345e-38
-0.00877221879024 -0.0421066501932 0.948 2.35022317229e-38
-0.00701777503219 -0.0421066501932 0.948 2.34882061266e-38
-0.00527998738577 -0.0422398990862 0.951 2.34892150615e-38
-0.00353109566493 -0.0423731479792 0.954 1.94174733241e-38
-0.00176554783247 -0.0423731479792 0.954 2.08036293572e-38
0.0 -0.0424619805745 0.956 2.00675118596e-38
0.00176924919061 -0.0424619805745 0.956 2.04362733596e-38
0.00354960245563 -0.0425952294675 0.959 1.93328152787e-38
0.00535216386949 -0.0428173109559 0.964 1.89644055046e-38
0.00715842664149 -0.0429505598489 0.967 1.66574128103e-38
0.0089757934879 -0.0430838087419 0.97 1.75804004646e-38
0.0108042644087 -0.043217057635 0.973 1.6103857878e-38
0.0126308846505 -0.0433058902303 0.975 1.69353981958e-38
0.0144797130411 -0.0434391391233 0.978 1.62886036662e-38
0.0162896771712 -0.0434391391233 0.978 1.60120209805e-38
0.0181551616735 -0.0435723880163 0.981 1.63797216976e-38
0.0199706778408 -0.0435723880163 0.981 1.59194680195e-38
0.0217861940082 -0.0435723880163 0.981 1.51833491207e-38
0.0236738866592 -0.0437056369094 0.984 1.76736919099e-38
0.0255726833847 -0.0438388858024 0.987 1.50915458544e-38
0.0273993036265 -0.0438388858024 0.987 1.49978844663e-38
0.0292259238682 -0.0438388858024 0.987 1.5001113058e-38
0.03105254411 -0.0438388858024 0.987 1.46319774113e-38
0.0328791643518 -0.0438388858024 0.987 1.50918723569e-38
0.0347057845935 -0.0438388858024 0.987 1.4816007136e-38
0.0365324048353 -0.0438388858024 0.987 1.4448306419e-38
0.0383590250771 -0.0438388858024 0.987 1.43553947256e-38
0.0401856453188 -0.0438388858024 0.987 1.46319774113e-38
0.0420122655606 -0.0438388858024 0.987 1.44475889542e-38
0.0438388858024 -0.0438388858024 0.987 1.44475889542e-38
0.0456655060441 -0.0438388858024 0.987 1.42628417646e-38
0.0473477733185 -0.0437056369094 0.984 1.45405006475e-38
0.0490189365184 -0.0435723880163 0.981 1.43543185284e-38
0.050523538602 -0.0433058902303 0.975 1.42621242998e-38
0.0522206113089 -0.043217057635 0.973 1.44465127569e-38
0.0538547609274 -0.0430838087419 0.97 1.38018706218e-38
0.0554778064715 -0.0429505598489 0.967 1.42621242998e-38
0.0570897479412 -0.0428173109559 0.964 1.41699300713e-38
0.0587516577458 -0.0427284783606 0.962 1.39851828817e-38
0.0603432417457 -0.0425952294675 0.959 1.43543185284e-38
0.0619237216712 -0.0424619805745 0.956 1.40773771103e-38
0.0631599752897 -0.0421066501932 0.948 1.44472302218e-38
0.0647774687966 -0.0420178175978 0.946 1.45397831827e-38
0.0665282111965 -0.0420178175978 0.946 1.36174821647e-38
0.0682789535964 -0.0420178175978 0.946 1.49971670015e-38
0.0700296959964 -0.0420178175978 0.946 2.34895681887e-38
-0.00877221879024 -0.0403522064351 0.948 2.34997177935e-38
-0.00701777503219 -0.0403522064351 0.948 2.34903304951e-38
-0.00527998738577 -0.0404799032909 0.951 2.27465745196e-38
-0.00353109566493 -0.0406076001467 0.954 2.06156339578e-38
-0.00176554783247 -0.0406076001467 0.954 2.13589933659e-38
0.0 -0.0406927313839 0.956 2.06224975177e-38
0.00176924919061 -0.0406927313839 0.956 2.02519227375e-38
0.00354960245563 -0.0408204282397 0.959 1.88693358116e-38
0.00536881998112 -0.0411609531886 0.967 1.78566230166e-38
0.00718063479032 -0.0412886500444 0.97 1.72116221491e-38
0.00900355367395 -0.0414163469002 0.973 1.66591854529e-38
0.0108264725576 -0.0415014781374 0.975 1.70265246349e-38
0.012669748911 -0.0416291749932 0.978 1.61978443673e-38
0.0144797130411 -0.0416291749932 0.978 1.65659038167e-38
0.0163396455061 -0.041756871849 0.981 1.60131139933e-38
0.0181551616735 -0.041756871849 0.981 1.62896798634e-38
0.0200317502501 -0.0418845687048 0.984 1.57379494217e-38
0.0218528184547 -0.0418845687048 0.984 1.5461366736e-38
0.0237460631429 -0.0420122655606 0.987 1.52741084196e-38
0.0255726833847 -0.0420122655606 0.987 1.51822729234e-38
0.0274548239986 -0.0420973967978 0.989 1.50904374273e-38
0.0292851455985 -0.0420973967978 0.989 1.48156484036e-38
0.0311154671984 -0.0420973967978 0.989 1.46319774113e-38
0.0329457887983 -0.0420973967978 0.989 1.44465295725e-38
0.0347761103982 -0.0420973967978 0.989 1.43553947256e-38
0.0366064319981 -0.0420973967978 0.989 1.43553947256e-38
0.038436753598 -0.0420973967978 0.989 1.40795295047e-38
0.0402670751979 -0.0420973967978 0.989 1.39862702893e-38
0.0420973967978 -0.0420973967978 0.989 1.38940648504e-38
0.0438388858024 -0.0420122655606 0.987 1.41713650009e-38
0.0456655060441 -0.0420122655606 0.987 1.3342693141e-38
0.0474921262859 -0.0420122655606 0.987 1.37107525905e-38
0.049168841523 -0.0418845687048 0.984 1.42624830322e-38
0.0506789956439 -0.0416291749932 0.978 1.46305424817e-38
0.0523279506949 -0.0415014781374 0.975 1.41703098231e-38
0.0540213220437 -0.0414163469002 0.973 1.39869765438e-38
0.055649919625 -0.0412886500444 0.97 1.41713678035e-38
0.0572674131319 -0.0411609531886 0.967 1.40791707723e-38
0.0588738025644 -0.0410332563327 0.964 1.389445301e-38
0.0605320110108 -0.0409481250955 0.962 1.38025880866e-38
0.0621180429735 -0.0408204282397 0.959 1.40802469695e-38
0.0635597219688 -0.0406076001467 0.954 1.41717237333e-38
0.0647774687966 -0.0402670751979 0.946 1.42642766943e-38
0.0665282111965 -0.0402670751979 0.946 1.36171234323e-38
0.0682789535964 -0.0402670751979 0.946 1.34316587779e-38
0.0700296959964 -0.0402670751979 0.946 2.3484587974e-38
-0.00877221879024 -0.0385977626771 0.948 2.34961164564e-38
-0.00701777503219 -0.0385977626771 0.948 2.34870991008e-38
-0.00527998738577 -0.0387199074957 0.951 2.29295462639e-38
-0.00353109566493 -0.0388420523143 0.954 2.14464680212e-38
-0.00176924919061 -0.0389234821933 0.956 2.00679224401e-38
0.0 -0.0389234821933 0.956 2.01600578141e-38
0.00176924919061 -0.0389234821933 0.956 2.01590082416e-38
0.00356070653005 -0.0391677718305 0.962 1.80388590793e-38
0.00536881998112 -0.0393713465282 0.967 1.75800403309e-38
0.00718063479032 -0.0394934913468 0.97 1.7951328372e-38
0.00902206046465 -0.0396970660444 0.975 1.68442941774e-38
0.0108264725576 -0.0396970660444 0.975 1.65652115753e-38
0.012669748911 -0.039819210863 0.978 1.67492160766e-38
0.0145241293388 -0.0399413556816 0.981 1.68414103052e-38
0.0163396455061 -0.0399413556816 0.981 1.52759020816e-38
0.0182106820456 -0.0400635005002 0.984 1.60130971777e-38
0.0200928226594 -0.0401856453188 0.987 1.44472330244e-38
0.0219194429012 -0.0401856453188 0.987 1.56464726579e-38
0.0237941807988 -0.0402670751979 0.989 1.47230954426e-38
0.0256245023987 -0.0402670751979 0.989 1.45376307883e-38
0.0274548239986 -0.0402670751979 0.989 1.44454365597e-38
0.0292851455985 -0.0402670751979 0.989 1.48163658684e-38
0.0311154671984 -0.0402670751979 0.989 1.4448306419e-38
0.0329457887983 -0.0402670751979 0.989 1.38018706218e-38
0.0347761103982 -0.0402670751979 0.989 1.38018706218e-38
0.0366064319981 -0.0402670751979 0.989 1.41695713388e-38
0.038436753598 -0.0402670751979 0.989 1.40795295047e-38
0.0402670751979 -0.0402670751979 0.989 1.39851828817e-38
0.0420973967978 -0.0402670751979 0.989 1.39851828817e-38
0.0439277183977 -0.0402670751979 0.989 1.38025880866e-38
0.0456655060441 -0.0401856453188 0.987 1.32519338421e-38
0.0474921262859 -0.0401856453188 0.987 1.32512163773e-38
0.049168841523 -0.0400635005002 0.984 1.38015118894e-38
0.0506789956439 -0.039819210863 0.978 1.36178408971e-38
0.052488959774 -0.039819210863 0.978 1.38947823152e-38
0.0541323627879 -0.0396970660444 0.975 1.38940648504e-38
0.0558220327785 -0.0396156361654 0.973 1.39862590789e-38
0.0574450783226 -0.0394934913468 0.97 1.38025880866e-38
0.0590570197923 -0.0393713465282 0.967 1.39862590789e-38
0.0606578571875 -0.0392492017096 0.964 1.40766596455e-38
0.0623123642758 -0.0391677718305 0.962 1.41695713388e-38
0.0636929708618 -0.0389234821933 0.956 1.38025880866e-38
0.0647774687966 -0.038516332798 0.946 1.38947823152e-38
0.0665282111965 -0.038516332798 0.946 1.39866206139e-38
0.0682789535964 -0.038516332798 0.946 1.30632405961e-38
0.0700296959964 -0.038516332798 0.946 2.34827971145e-38
-0.00877221879024 -0.036843318919 0.948 2.34961290681e-38
-0.00703998318103 -0.0369599117004 0.951 2.34924800869e-38
-0.00527998738577 -0.0369599117004 0.951 2.28398701687e-38
-0.00353109566493 -0.0370765044818 0.954 1.99742204144e-38
-0.00176924919061 -0.0371542330027 0.956 2.13611037214e-38
0.0 -0.0371542330027 0.956 1.97923514919e-38
0.00177480122781 -0.0372708257841 0.959 1.92377736116e-38
0.00356810924633 -0.0374651470864 0.964 1.83165179622e-38
0.00536881998112 -0.0375817398678 0.967 1.85019826166e-38
0.00720284293916 -0.0378149254306 0.973 1.65651863519e-38
0.00902206046465 -0.0378926539515 0.975 1.6934694744e-38
0.0108264725576 -0.0378926539515 0.975 1.66588561478e-38
0.0127086131714 -0.0381258395143 0.981 1.65655450843e-38
0.0145241293388 -0.0381258395143 0.981 1.60123797129e-38
0.016389613841 -0.0382424322957 0.984 1.58287087206e-38
0.0182662024177 -0.0383590250771 0.987 1.57361557596e-38
0.020133537599 -0.038436753598 0.989 1.51855015151e-38
0.0219638591989 -0.038436753598 0.989 1.41706475361e-38
0.0237941807988 -0.038436753598 0.989 1.47220192454e-38
0.0257022309196 -0.0385533463794 0.992 1.4168853874e-38
0.0275381045567 -0.0385533463794 0.992 1.40773771103e-38
0.0293739781938 -0.0385533463794 0.992 1.36164059675e-38
0.0312098518309 -0.0385533463794 0.992 1.45401419151e-38
0.033045725468 -0.0385533463794 0.992 1.35260054009e-38
0.0348815991052 -0.0385533463794 0.992 1.36181996295e-38
0.0367174727423 -0.0385533463794 0.992 1.35260054009e-38
0.0385533463794 -0.0385533463794 0.992 1.35249292037e-38
0.0402670751979 -0.038436753598 0.989 1.40770183779e-38
0.0420973967978 -0.038436753598 0.989 1.39851828817e-38
0.0439277183977 -0.038436753598 0.989 1.39862590789e-38
0.0457580399976 -0.038436753598 0.989 1.36185583619e-38
0.0474921262859 -0.0383590250771 0.987 1.30661104553e-38
0.0493187465277 -0.0383590250771 0.987 1.43532423312e-38
0.0508344526857 -0.0381258395143 0.981 1.39869765438e-38
0.0526499688531 -0.0381258395143 0.981 1.39873352762e-38
0.0542989239041 -0.0380092467329 0.978 1.3988052741e-38
0.0559367748808 -0.0378926539515 0.975 1.38018706218e-38
0.0574450783226 -0.0376983326492 0.97 1.38018706218e-38
0.0592402370202 -0.0376983326492 0.97 1.43528835988e-38
0.0608466264526 -0.0375817398678 0.967 1.41678071041e-38
0.0624419118107 -0.0374651470864 0.964 1.41695713388e-38
0.0636929708618 -0.0371542330027 0.956 1.42621242998e-38
0.0649144190478 -0.036843318919 0.948 1.42624830322e-38
0.0665282111965 -0.0367655903981 0.946 1.31579459515e-38
0.0682789535964 -0.0367655903981 0.946 1.36103075165e-38
0.0700296959964 -0.0367655903981 0.946 2.34874368137e-38
-0.00875371199954 -0.0350148479982 0.946 2.34954059981e-38
-0.00703998318103 -0.0351999159051 0.951 2.34867627892e-38
-0.00527998738577 -0.0351999159051 0.951 2.30231642117e-38
-0.00353109566493 -0.0353109566493 0.954 1.99727854847e-38
-0.00176924919061 -0.0353849838121 0.956 1.97008663203e-38
0.0 -0.0353849838121 0.956 2.03444322582e-38
0.00177480122781 -0.0354960245563 0.959 1.91459283064e-38
0.00357921332074 -0.0357921332074 0.967 1.80392346273e-38
0.00538547609274 -0.0359031739516 0.97 1.72112634167e-38
0.00720284293916 -0.0360142146958 0.973 1.69329375157e-38
0.00902206046465 -0.0360882418586 0.975 1.67485084209e-38
0.0108597847808 -0.0361992826028 0.978 1.65655464856e-38
0.0127086131714 -0.0363103233469 0.981 1.61049326739e-38
0.0145685456365 -0.0364213640911 0.984 1.56436027987e-38
0.0164395821759 -0.0365324048353 0.987 1.56439615311e-38
0.0182662024177 -0.0365324048353 0.987 1.50918723569e-38
0.020133537599 -0.0366064319981 0.989 1.4448306419e-38
0.0220304836454 -0.0367174727423 0.992 1.38025880866e-38
0.0238663572825 -0.0367174727423 0.992 1.38007944246e-38
0.0257022309196 -0.0367174727423 0.992 1.3801153157e-38
0.0275381045567 -0.0367174727423 0.992 1.39869765438e-38
0.0293739781938 -0.0367174727423 0.992 1.38947823152e-38
0.0312098518309 -0.0367174727423 0.992 1.34356048344e-38
0.033045725468 -0.0367174727423 0.992 1.35267228657e-38
0.0348815991052 -0.0367174727423 0.992 1.36185583619e-38
0.0368285134865 -0.0368285134865 0.995 1.37093176608e-38
0.0385533463794 -0.0367174727423 0.992 1.35260054009e-38
0.0403892200165 -0.0367174727423 0.992 1.36171234323e-38
0.0422250936536 -0.0367174727423 0.992 1.37093176608e-38
0.0440609672907 -0.0367174727423 0.992 1.41695713388e-38
0.0457580399976 -0.0366064319981 0.989 1.38011545583e-38
0.0475883615975 -0.0366064319981 0.989 1.37114700553e-38
0.0494186831974 -0.0366064319981 0.989 1.35249292037e-38
0.0509899097276 -0.0364213640911 0.984 1.41717237333e-38
0.0526499688531 -0.0363103233469 0.981 1.44479476866e-38
0.0542989239041 -0.0361992826028 0.978 1.36185583619e-38
0.0559367748808 -0.0360882418586 0.975 1.38040230162e-38
0.0576227435133 -0.0360142146958 0.973 1.38025880866e-38
0.0592402370202 -0.0359031739516 0.97 1.44465127569e-38
0.0608466264526 -0.0357921332074 0.967 1.44468714894e-38
0.0623123642758 -0.0356070653005 0.962 1.39866178113e-38
0.0638928442013 -0.0354960245563 0.959 1.41699300713e-38
0.0649144190478 -0.035088875161 0.948 1.39862590789e-38
0.0665282111965 -0.0350148479982 0.946 1.27873753752e-38
0.0682789535964 -0.0350148479982 0.946 1.56364435648e-38
0.0700296959964 -0.0350148479982 0.946 2.34899283224e-38
-0.00875371199954 -0.0332641055983 0.946 2.34954116033e-38
-0.00701777503219 -0.0333344314029 0.948 2.33902287393e-38
-0.00526333127414 -0.0333344314029 0.948 2.34931443024e-38
-0.00351999159051 -0.0334399201099 0.951 2.07121371792e-38
-0.00176554783247 -0.0335454088169 0.954 2.04388195189e-38
0.0 -0.0336157346215 0.956 2.01582599482e-38
0.00177480122781 -0.0337212233285 0.959 1.88682666209e-38
0.00357921332074 -0.0340025265471 0.967 1.84080101403e-38
0.00540213220437 -0.034213503961 0.973 1.74878517076e-38
0.00721764837172 -0.0342838297657 0.975 1.73963693386e-38
0.00904982065069 -0.0343893184726 0.978 1.65655492882e-38
0.0108597847808 -0.0343893184726 0.978 1.68424865024e-38
0.0127086131714 -0.0344948071796 0.981 1.57354382948e-38
0.0145685456365 -0.0346002958866 0.984 1.48134960092e-38
0.0164728943991 -0.0347761103982 0.989 1.46298250169e-38
0.018303215999 -0.0347761103982 0.989 1.40763009131e-38
0.0201946100083 -0.0348815991052 0.992 1.35260054009e-38
0.0220971080919 -0.0349870878121 0.995 1.38036642838e-38
0.0239385337662 -0.0349870878121 0.995 1.39862590789e-38
0.0257799594405 -0.0349870878121 0.995 1.34338111724e-38
0.0276213851148 -0.0349870878121 0.995 1.36192758267e-38
0.0294628107892 -0.0349870878121 0.995 1.35260054009e-38
0.0313042364635 -0.0349870878121 0.995 1.33423344086e-38
0.0331456621378 -0.0349870878121 0.995 1.29728400295e-38
0.0349870878121 -0.0349870878121 0.995 1.34330937075e-38
0.0368285134865 -0.0349870878121 0.995 1.36178408971e-38
0.0386699391608 -0.0349870878121 0.995 1.30653929905e-38
0.0405113648351 -0.0349870878121 0.995 1.34345286372e-38
0.0423527905094 -0.0349870878121 0.995 1.35256466685e-38
0.0440609672907 -0.0348815991052 0.992 1.43550359932e-38
0.0458968409278 -0.0348815991052 0.992 1.35263641333e-38
0.047732714565 -0.0348815991052 0.992 1.38018706218e-38
0.0494186831974 -0.0347761103982 0.989 1.39848241493e-38
0.0509899097276 -0.0346002958866 0.984 1.36181996295e-38
0.0528109779321 -0.0346002958866 0.984 1.41692140077e-38
0.0544654850204 -0.0344948071796 0.981 1.35256466685e-38
0.0561088880343 -0.0343893184726 0.978 1.35267228657e-38
0.0577411869737 -0.0342838297657 0.975 1.49099950266e-38
0.0592402370202 -0.034108015254 0.97 1.39862590789e-38
0.0608466264526 -0.0340025265471 0.967 1.39848297545e-38
0.0623123642758 -0.0338267120354 0.962 1.39855416141e-38
0.0636929708618 -0.0336157346215 0.956 1.41695713388e-38
0.0653252698012 -0.0335454088169 0.954 1.39869765438e-38
0.0665282111965 -0.0332641055983 0.946 1.20487453494e-38
0.0678458946941 -0.0330531281843 0.94 1.81285772135e-38
0.0695855330196 -0.0330531281843 0.94 2.3491405291e-38
-0.00701777503219 -0.0315799876449 0.948 1.99833022297e-38
-0.00526333127414 -0.0315799876449 0.948 2.34974490913e-38
-0.00351999159051 -0.0316799243146 0.951 1.8959073564e-38
-0.00176554783247 -0.0317798609844 0.954 2.0713216179e-38
0.0 -0.0318464854309 0.956 1.96058316598e-38
0.00178035326502 -0.0320463587704 0.962 1.9883102383e-38
0.00359031739516 -0.0323128565565 0.97 1.70268777621e-38
0.00541323627879 -0.0324794176727 0.975 1.84108659865e-38
0.00723985652055 -0.0325793543425 0.978 1.62896798634e-38
0.00907758083674 -0.0326792910123 0.981 1.60138146425e-38
0.0108930970041 -0.0326792910123 0.981 1.60138146425e-38
0.0127474774319 -0.032779227682 0.984 1.47227367102e-38
0.0146129619341 -0.0328791643518 0.987 1.46301837493e-38
0.016522862734 -0.033045725468 0.992 1.38040230162e-38
0.0183587363711 -0.033045725468 0.992 1.46309012141e-38
0.0202556824175 -0.0331456621378 0.995 1.43550359932e-38
0.0220971080919 -0.0331456621378 0.995 1.37114700553e-38
0.0240107102499 -0.0332455988076 0.998 1.36178422984e-38
0.0258576879614 -0.0332455988076 0.998 1.33419756762e-38
0.027704665673 -0.0332455988076 0.998 1.34334790646e-38
0.0295516433845 -0.0332455988076 0.998 1.37089589284e-38
0.031398621096 -0.0332455988076 0.998 1.35267228657e-38
0.0332455988076 -0.0332455988076 0.998 1.30654154113e-38
0.0350925765191 -0.0332455988076 0.998 1.35256466685e-38
0.0369395542306 -0.0332455988076 0.998 1.36182080373e-38
0.0387865319422 -0.0332455988076 0.998 1.31579459515e-38
0.0406335096537 -0.0332455988076 0.998 1.31579459515e-38
0.0424804873652 -0.0332455988076 0.998 1.35260054009e-38
0.0441942161837 -0.0331456621378 0.995 1.35260054009e-38
0.0460356418581 -0.0331456621378 0.995 1.3340200231e-38
0.047732714565 -0.033045725468 0.992 1.38004356922e-38
0.0495685882021 -0.033045725468 0.992 1.37093176608e-38
0.0511453667694 -0.0328791643518 0.987 1.38933473856e-38
0.0528109779321 -0.032779227682 0.984 1.40770590155e-38
0.0544654850204 -0.0326792910123 0.981 1.35260054009e-38
0.0561088880343 -0.0325793543425 0.978 1.36189170943e-38
0.0577411869737 -0.0324794176727 0.975 1.33416169438e-38
0.0594234542481 -0.0324127932262 0.973 1.41702888037e-38
0.0610353957178 -0.0323128565565 0.97 1.38018706218e-38
0.062636233113 -0.0322129198867 0.967 1.39862590789e-38
0.0636929708618 -0.0318464854309 0.956 1.38018706218e-38
0.0653252698012 -0.0317798609844 0.954 1.38940648504e-38
0.0665282111965 -0.0315133631984 0.946 1.13101153237e-38
0.0678458946941 -0.0313134898588 0.94 2.1079592669e-38
0.0695855330196 -0.0313134898588 0.94 2.34924884947e-38
-0.00701777503219 -0.0298255438868 0.948 2.22900202695e-38
-0.00527998738577 -0.0299199285194 0.951 2.34978302445e-38
-0.00351999159051 -0.0299199285194 0.951 1.84987540249e-38
-0.00182662024177 -0.03105254411 0.987 2.08025727782e-38
0.0 -0.0306750055798 0.975 1.95129353807e-38
0.00180441209293 -0.0306750055798 0.975 1.85931076544e-38
0.00360882418586 -0.0306750055798 0.975 1.74875280076e-38
0.00542989239041 -0.0307693902124 0.978 1.72112634167e-38
0.00728427281823 -0.0309581594775 0.984 1.57368732244e-38
0.00913310120883 -0.03105254411 0.987 1.58287087206e-38
0.0109819295994 -0.0311154671984 0.989 1.47230954426e-38
0.0128511154598 -0.0312098518309 0.992 1.42621242998e-38
0.0146869890969 -0.0312098518309 0.992 1.49996781283e-38
0.0165728310689 -0.0313042364635 0.995 1.44497413486e-38
0.0184697771153 -0.031398621096 0.998 1.46305424817e-38
0.0203167548268 -0.031398621096 0.998 1.35249292037e-38
0.0222303569849 -0.0314930057286 1.001 1.36181996295e-38
0.0240107102499 -0.031398621096 0.998 1.36185583619e-38
0.0258576879614 -0.031398621096 0.998 1.34338111724e-38
0.027704665673 -0.031398621096 0.998 1.37093176608e-38
0.0296404759799 -0.0314930057286 1.001 1.34338111724e-38
0.0314930057286 -0.0314930057286 1.001 1.3155793557e-38
0.0333455354773 -0.0314930057286 1.001 1.36164059675e-38
0.0351980652261 -0.0314930057286 1.001 1.30657517229e-38
0.0370505949748 -0.0314930057286 1.001 1.29739162268e-38
0.0389031247236 -0.0314930057286 1.001 1.37114700553e-38
0.0407556544723 -0.0314930057286 1.001 1.34345286372e-38
0.042608184221 -0.0314930057286 1.001 1.33423344086e-38
0.0444607139698 -0.0314930057286 1.001 1.34345286372e-38
0.0461744427883 -0.031398621096 0.998 1.31579459515e-38
0.0480214204998 -0.031398621096 0.998 1.31579459515e-38
0.0495685882021 -0.0312098518309 0.992 1.35256466685e-38
0.0512490047973 -0.0311154671984 0.989 1.35252879361e-38
0.0529719870112 -0.03105254411 0.987 1.38929886532e-38
0.0544654850204 -0.0308637748449 0.981 1.3801153157e-38
0.0562810011878 -0.0308637748449 0.981 1.38036642838e-38
0.0579188521644 -0.0307693902124 0.978 1.38947823152e-38
0.0594234542481 -0.0306120824914 0.973 1.50925898217e-38
0.0610353957178 -0.0305176978589 0.97 1.39862590789e-38
0.0628305544153 -0.0305176978589 0.97 1.38947823152e-38
0.0644258397734 -0.0304233132263 0.967 1.38947823152e-38
0.0662154464338 -0.0304233132263 0.967 1.39862590789e-38
0.0677940756802 -0.0303289285938 0.964 1.17700102693e-38
0.0695781303034 -0.0303289285938 0.964 2.34841535714e-38
0.0713621849265 -0.0303289285938 0.964 2.3495757724e-38
0.0777747879029 -0.032248082789 1.025 2.35098211554e-38
-0.00960502437159 -0.0307360779891 1.038 2.34914459287e-38
-0.00768401949727 -0.0307360779891 1.038 2.34943298009e-38
-0.00549096479971 -0.0292851455985 0.989 2.34867081385e-38
-0.00366064319981 -0.0292851455985 0.989 2.2834847915e-38
-0.00182662024177 -0.0292259238682 0.987 1.95100206799e-38
0.0 -0.0292259238682 0.987 2.08036139429e-38
0.00181551616735 -0.0290482586776 0.981 1.71187104557e-38
0.00363103233469 -0.0290482586776 0.981 1.71183727428e-38
0.00544654850204 -0.0290482586776 0.981 1.65648430338e-38
0.00730648096706 -0.0292259238682 0.987 1.56453964607e-38
0.00915160799952 -0.0292851455985 0.989 1.54599318063e-38
0.0110152418227 -0.0293739781938 0.992 1.48152896712e-38
0.0128511154598 -0.0293739781938 0.992 1.46309012141e-38
0.0147314053946 -0.0294628107892 0.995 1.45376307883e-38
0.0166227994038 -0.0295516433845 0.998 1.41699300713e-38
0.0185252974874 -0.0296404759799 1.001 1.42628417646e-38
0.0203778272361 -0.0296404759799 1.001 1.43571883876e-38
0.0222969814314 -0.0297293085752 1.004 1.38025880866e-38
0.0241550632173 -0.0297293085752 1.004 1.35252879361e-38
0.0260131450033 -0.0297293085752 1.004 1.36167646999e-38
0.0278712267892 -0.0297293085752 1.004 1.38007944246e-38
0.0298181411705 -0.0298181411705 1.007 1.37071652664e-38
0.0316817749937 -0.0298181411705 1.007 1.36167646999e-38
0.0335454088169 -0.0298181411705 1.007 1.34330993127e-38
0.03540904264 -0.0298181411705 1.007 1.29742749592e-38
0.0372726764632 -0.0298181411705 1.007 1.37111113229e-38
0.0391363102863 -0.0298181411705 1.007 1.26959112231e-38
0.0408777992909 -0.0297293085752 1.004 1.28799283362e-38
0.0427358810768 -0.0297293085752 1.004 1.33419756762e-38
0.0445939628628 -0.0297293085752 1.004 1.38033055514e-38
0.0464520446487 -0.0297293085752 1.004 1.28802870686e-38
0.0481657734673 -0.0296404759799 1.001 1.33401820142e-38
0.0498683982114 -0.0295516433845 0.998 1.31590221487e-38
0.0514044618392 -0.0293739781938 0.992 1.35263641333e-38
0.0530793263972 -0.0292851455985 0.989 1.35260054009e-38
0.0546320461367 -0.0291370912729 0.984 1.33419756762e-38
0.0562810011878 -0.0290482586776 0.981 1.37114700553e-38
0.0579188521644 -0.0289594260822 0.978 1.41702888037e-38
0.0595455990667 -0.0288705934869 0.975 1.38018706218e-38
0.0610353957178 -0.0287225391613 0.97 1.41702888037e-38
0.0628305544153 -0.0287225391613 0.97 1.36189170943e-38
0.0644258397734 -0.028633706566 0.967 1.41713650009e-38
0.0662154464338 -0.028633706566 0.967 1.22327750742e-38
0.0677940756802 -0.0285448739706 0.964 1.57300755256e-38
0.0695781303034 -0.0285448739706 0.964 2.34881318578e-38
0.0713621849265 -0.0285448739706 0.964 2.350655613e-38
-0.00366064319981 -0.0274548239986 0.989 2.34963728941e-38
-0.0018303215999 -0.0274548239986 0.989 1.87753507236e-38
0.0 -0.0273993036265 0.987 1.96065533285e-38
0.00182662024177 -0.0273993036265 0.987 1.81349993644e-38
0.00365324048353 -0.0273993036265 0.987 1.66598917073e-38
0.0054798607253 -0.0273993036265 0.987 1.71208628501e-38
0.00732128639962 -0.0274548239986 0.989 1.60127412479e-38
0.00917936818557 -0.0275381045567 0.992 1.48127785444e-38
0.0110485540459 -0.0276213851148 0.995 1.57357970272e-38
0.0129288439807 -0.027704665673 0.998 1.52773370113e-38
0.0147758216923 -0.027704665673 0.998 1.42621242998e-38
0.0166727677387 -0.0277879462311 1.001 1.48152896712e-38
0.0185808178595 -0.0278712267892 1.004 1.41706475361e-38
0.0204388996454 -0.0278712267892 1.004 1.37118287877e-38
0.0222969814314 -0.0278712267892 1.004 1.35267228657e-38
0.0242272397011 -0.0279545073474 1.007 1.35245704713e-38
0.0260908735242 -0.0279545073474 1.007 1.35245704713e-38
0.0279545073474 -0.0279545073474 1.007 1.34338111724e-38
0.0298181411705 -0.0279545073474 1.007 1.278809284e-38
0.0316817749937 -0.0279545073474 1.007 1.343345244e-38
0.0335454088169 -0.0279545073474 1.007 1.3248346518e-38
0.03540904264 -0.0279545073474 1.007 1.34341699048e-38
0.0372726764632 -0.0279545073474 1.007 1.31568697543e-38
0.0391363102863 -0.0279545073474 1.007 1.30625231313e-38
0.0409999441095 -0.0279545073474 1.007 1.30635993285e-38
0.0427358810768 -0.0278712267892 1.004 1.31568697543e-38
0.0445939628628 -0.0278712267892 1.004 1.30625231313e-38
0.0464520446487 -0.0278712267892 1.004 1.31565110219e-38
0.0481657734673 -0.0277879462311 1.001 1.29710463675e-38
0.050018303216 -0.0277879462311 1.001 1.3897293442e-38
0.0517153759229 -0.027704665673 0.998 1.34366810316e-38
0.0532403354763 -0.0275381045567 0.992 1.26980510059e-38
0.0549096479971 -0.0274548239986 0.989 1.30679041174e-38
0.0566252274947 -0.0273993036265 0.987 1.36192758267e-38
0.0580965173551 -0.0272327425102 0.981 1.40795295047e-38
0.0595455990667 -0.0270661813939 0.975 1.39873352762e-38
0.0612241649829 -0.0270106610218 0.973 1.39862590789e-38
0.0628305544153 -0.0269273804637 0.97 1.38940648504e-38
0.0646257131129 -0.0269273804637 0.97 1.41702888037e-38
0.0662154464338 -0.0268440999056 0.967 1.01115903524e-38
0.0680050530941 -0.0268440999056 0.967 2.28298677003e-38
0.0697946597545 -0.0268440999056 0.967 2.34870864891e-38
0.0756557603682 -0.0283709101381 1.022 2.35080134804e-38
-0.00366064319981 -0.0256245023987 0.989 2.34924198311e-38
-0.0018303215999 -0.0256245023987 0.989 1.92431433873e-38
0.0 -0.0256245023987 0.989 2.00628273189e-38
0.0018303215999 -0.0256245023987 0.989 1.68449976293e-38
0.00366064319981 -0.0256245023987 0.989 1.76736694891e-38
0.00549096479971 -0.0256245023987 0.989 1.65666212815e-38
0.00734349454845 -0.0257022309196 0.992 1.56461139255e-38
0.00917936818557 -0.0257022309196 0.992 1.60145321074e-38
0.0110485540459 -0.0257799594405 0.995 1.51826316558e-38
0.0129288439807 -0.0258576879614 0.998 1.48124604496e-38
0.0148202379899 -0.0259354164824 1.001 1.48145722064e-38
0.0167227360735 -0.0260131450033 1.004 1.44465127569e-38
0.0186363382316 -0.0260908735242 1.007 1.42621242998e-38
0.0204999720547 -0.0260908735242 1.007 1.39866178113e-38
0.0223636058779 -0.0260908735242 1.007 1.33412582114e-38
0.0242272397011 -0.0260908735242 1.007 1.38025880866e-38
0.0261686020451 -0.0261686020451 1.01 1.36181996295e-38
0.0281210684637 -0.0262463305661 1.013 1.39869765438e-38
0.0299958063612 -0.0262463305661 1.013 1.29742749592e-38
0.0318705442588 -0.0262463305661 1.013 1.38976521744e-38
0.0337452821564 -0.0262463305661 1.013 1.36185583619e-38
0.035620020054 -0.0262463305661 1.013 1.40773771103e-38
0.0373837172074 -0.0261686020451 1.01 1.40773771103e-38
0.0392529030677 -0.0261686020451 1.01 1.38940648504e-38
0.0409999441095 -0.0260908735242 1.007 1.36185583619e-38
0.0428635779327 -0.0260908735242 1.007 1.29710463675e-38
0.0447272117558 -0.0260908735242 1.007 1.22374385955e-38
0.0464520446487 -0.0260131450033 1.004 1.31586634163e-38
0.0483101264347 -0.0260131450033 1.004 1.28820807306e-38
0.050018303216 -0.0259354164824 1.001 1.31586634163e-38
0.0518708329647 -0.0259354164824 1.001 1.2880645801e-38
0.0532403354763 -0.0257022309196 0.992 1.33430532747e-38
0.0549096479971 -0.0256245023987 0.989 1.34345286372e-38
0.0566252274947 -0.0255726833847 0.987 1.39862590789e-38
0.0580965173551 -0.0254172263429 0.981 1.35260054009e-38
0.0595455990667 -0.025261769301 0.975 1.38036642838e-38
0.0612241649829 -0.0252099502871 0.973 1.38947823152e-38
0.0628305544153 -0.0251322217661 0.97 1.38025880866e-38
0.0646257131129 -0.0251322217661 0.97 1.25104339571e-38
0.0662154464338 -0.0250544932452 0.967 1.54513460507e-38
0.0680050530941 -0.0250544932452 0.967 2.34884919915e-38
0.0697946597545 -0.0250544932452 0.967 2.34802509552e-38
0.0756557603682 -0.0264795161289 1.022 2.35098477801e-38
-0.00365324048353 -0.0237460631429 0.987 2.15397874925e-38
-0.00182662024177 -0.0237460631429 0.987 2.34956932643e-38
0.0 -0.0237460631429 0.987 1.72073187615e-38
0.0018303215999 -0.0237941807988 0.989 1.73027401804e-38
0.00366064319981 -0.0237941807988 0.989 1.73063275045e-38
0.00549096479971 -0.0237941807988 0.989 1.60138146425e-38
0.00734349454845 -0.0238663572825 0.992 1.60138146425e-38
0.00917936818557 -0.0238663572825 0.992 1.62918322579e-38
0.0110818662692 -0.0240107102499 0.998 1.48145722064e-38
0.0129677082412 -0.0240828867336 1.001 1.54592143415e-38
0.0148646542876 -0.0241550632173 1.004 1.41702888037e-38
0.0167727044084 -0.0242272397011 1.007 1.43543185284e-38
0.0186363382316 -0.0242272397011 1.007 1.42628417646e-38
0.020561044464 -0.0242994161848 1.01 1.41706475361e-38
0.0224302303244 -0.0242994161848 1.01 1.33394645494e-38
0.0242994161848 -0.0242994161848 1.01 1.46316186789e-38
0.0262463305661 -0.0243715926685 1.013 1.47223779778e-38
0.0281210684637 -0.0243715926685 1.013 1.49078426322e-38
0.0299958063612 -0.0243715926685 1.013 1.42628417646e-38
0.0318705442588 -0.0243715926685 1.013 1.45397831827e-38
0.0337452821564 -0.0243715926685 1.013 1.54617254684e-38
0.035620020054 -0.0243715926685 1.013 1.51855589683e-38
0.0374947579515 -0.0243715926685 1.013 1.51862189799e-38
0.0393694958491 -0.0243715926685 1.013 1.50000368607e-38
0.0411220889281 -0.0242994161848 1.01 1.41710062685e-38
0.0429912747885 -0.0242994161848 1.01 1.45405006475e-38
0.0447272117558 -0.0242272397011 1.007 1.33434106058e-38
0.046590845579 -0.0242272397011 1.007 1.33423344086e-38
0.0483101264347 -0.0241550632173 1.004 1.21434507049e-38
0.0501682082206 -0.0241550632173 1.004 1.26962573438e-38
0.0518708329647 -0.0240828867336 1.001 1.30653929905e-38
0.0535623536344 -0.0240107102499 0.998 1.30661104553e-38
0.0550762091134 -0.0238663572825 0.992 1.36171234323e-38
0.056739969597 -0.0237941807988 0.989 1.39848241493e-38
0.0584518477365 -0.0237460631429 0.987 1.38947823152e-38
0.0599120335225 -0.0236017101755 0.981 1.38040230162e-38
0.0615387804247 -0.0235295336918 0.978 1.37114700553e-38
0.0631544232525 -0.0234573572081 0.975 1.32487052504e-38
0.0649588353455 -0.0234573572081 0.975 1.08491441809e-38
0.0667632474384 -0.0234573572081 0.975 2.34860299101e-38
0.0722949271776 -0.0247324750871 1.028 2.16391942042e-38
0.0739808958101 -0.0246602986034 1.025 2.35029365761e-38
0.0758778418565 -0.0246602986034 1.025 2.35098183528e-38
-0.00182662024177 -0.0219194429012 0.987 2.34900600445e-38
0.0 -0.0219194429012 0.987 2.2475748368e-38
0.0018303215999 -0.0219638591989 0.989 1.66484220794e-38
0.00366064319981 -0.0219638591989 0.989 1.64747857854e-38
0.00549096479971 -0.0219638591989 0.989 1.66566631157e-38
0.00734349454845 -0.0220304836454 0.992 1.61953346417e-38
0.00920712837161 -0.0220971080919 0.995 1.60145321074e-38
0.0111151784924 -0.0222303569849 1.001 1.49067790466e-38
0.0130065725016 -0.0222969814314 1.004 1.50904374273e-38
0.0148646542876 -0.0222969814314 1.004 1.45397831827e-38
0.0167727044084 -0.0223636058779 1.007 1.44461540245e-38
0.0186918586037 -0.0224302303244 1.01 1.42621242998e-38
0.020561044464 -0.0224302303244 1.01 1.45394244503e-38
0.0224302303244 -0.0224302303244 1.01 1.50922310893e-38
0.0243715926685 -0.0224968547709 1.013 1.60145321074e-38
0.0262463305661 -0.0224968547709 1.013 1.7489281032e-38
0.0282043490218 -0.0225634792174 1.016 1.62900385958e-38
0.0300846389566 -0.0225634792174 1.016 1.5463160398e-38
0.0319649288914 -0.0225634792174 1.016 1.50007543256e-38
0.0338452188261 -0.0225634792174 1.016 1.48152896712e-38
0.035620020054 -0.0224968547709 1.013 1.38944235828e-38
0.0374947579515 -0.0224968547709 1.013 1.4353959796e-38
0.0393694958491 -0.0224968547709 1.013 1.47223779778e-38
0.0411220889281 -0.0224302303244 1.01 1.46301837493e-38
0.0429912747885 -0.0224302303244 1.01 1.49074838998e-38
0.0448604606488 -0.0224302303244 1.01 1.40784687218e-38
0.046590845579 -0.0223636058779 1.007 1.47230954426e-38
0.0484544794021 -0.0223636058779 1.007 1.37114700553e-38
0.0501682082206 -0.0222969814314 1.004 1.38976521744e-38
0.0520262900066 -0.0222969814314 1.004 1.21438094373e-38
0.0537233627135 -0.0222303569849 1.001 1.33412582114e-38
0.055409331346 -0.0221637325384 0.998 1.30657517229e-38
0.0569120827505 -0.0220304836454 0.992 1.34345286372e-38
0.0585702911969 -0.0219638591989 0.989 1.35260054009e-38
0.0600952507504 -0.0218528184547 0.984 1.34345286372e-38
0.0619163189549 -0.0218528184547 0.984 1.38025880866e-38
0.0635430658572 -0.0217861940082 0.981 1.05765075517e-38
0.0653585820245 -0.0217861940082 0.981 2.00657532301e-38
0.0671740981918 -0.0217861940082 0.981 2.34938743789e-38
0.0720839497637 -0.022763352557 1.025 1.78527274069e-38
0.0739808958101 -0.022763352557 1.025 2.35098253593e-38
-0.00182662024177 -0.0200928226594 0.987 1.58190369586e-38
0.0 -0.0200928226594 0.987 2.3496095437e-38
0.0018303215999 -0.020133537599 0.989 1.95154114751e-38
0.00366064319981 -0.020133537599 0.989 1.74785190598e-38
0.00550762091134 -0.0201946100083 0.992 1.69336213493e-38
0.00734349454845 -0.0201946100083 0.992 1.55503323729e-38
0.00923488855766 -0.0203167548268 0.998 1.56425308053e-38
0.0111484907157 -0.0204388996454 1.004 1.51847840503e-38
0.0130065725016 -0.0204388996454 1.004 1.53684550426e-38
0.0149090705853 -0.0204999720547 1.007 1.49078426322e-38
0.0168226727433 -0.020561044464 1.01 1.50904374273e-38
0.0187473789758 -0.0206221168733 1.013 1.62900385958e-38
0.0206221168733 -0.0206221168733 1.013 1.55535609645e-38
0.0224968547709 -0.0206221168733 1.013 1.69371988643e-38
0.0243715926685 -0.0206221168733 1.013 1.66613266369e-38
0.026324059087 -0.0206831892826 1.016 1.55503323729e-38
0.0282043490218 -0.0206831892826 1.016 1.59194680195e-38
0.0300846389566 -0.0206831892826 1.016 1.59209029492e-38
0.0319649288914 -0.0206831892826 1.016 1.50911548921e-38
0.0338452188261 -0.0206831892826 1.016 1.5830861115e-38
0.0357255087609 -0.0206831892826 1.016 1.46334123409e-38
0.0376057986957 -0.0206831892826 1.016 1.57357970272e-38
0.0393694958491 -0.0206221168733 1.013 1.54588556091e-38
0.0412442337467 -0.0206221168733 1.013 1.43546772608e-38
0.0431189716443 -0.0206221168733 1.013 1.47223779778e-38
0.0448604606488 -0.020561044464 1.01 1.44454365597e-38
0.0467296465092 -0.020561044464 1.01 1.48152896712e-38
0.0485988323696 -0.020561044464 1.01 1.34348873696e-38
0.0503181132253 -0.0204999720547 1.007 1.31608158107e-38
0.0520262900066 -0.0204388996454 1.004 1.38947823152e-38
0.0538843717925 -0.0204388996454 1.004 1.34320175103e-38
0.0555758924622 -0.0203778272361 1.001 1.33419756762e-38
0.0569120827505 -0.0201946100083 0.992 1.2789886502e-38
0.0587479563876 -0.0201946100083 0.992 1.44493826162e-38
0.0604006127969 -0.020133537599 0.989 1.34330937075e-38
0.0622309343968 -0.020133537599 0.989 1.18657918219e-38
0.0637373871595 -0.0200317502501 0.984 1.81274982137e-38
0.065558455364 -0.0200317502501 0.984 2.34967680602e-38
0.0673795235686 -0.0200317502501 0.984 1.67471197341e-38
0.0718729723497 -0.0208053341012 1.022 2.34814154342e-38
0.0737643663589 -0.0208053341012 1.022 2.35097665048e-38
-0.00379389209283 -0.0189694604641 1.025 2.34892963368e-38
-0.0018303215999 -0.018303215999 0.989 7.99291675741e-39
0.0 -0.018303215999 0.989 2.34691638818e-38
0.0018303215999 -0.018303215999 0.989 2.3502175671e-38
0.00367174727423 -0.0183587363711 0.992 1.7115495877e-38
0.00550762091134 -0.0183587363711 0.992 1.66498471999e-38
0.00734349454845 -0.0183587363711 0.992 1.66595329749e-38
0.00923488855766 -0.0184697771153 0.998 1.53673788454e-38
0.0111484907157 -0.0185808178595 1.004 1.52751846168e-38
0.0130454367621 -0.0186363382316 1.007 1.54592143415e-38
0.0149534868829 -0.0186918586037 1.01 1.49056902377e-38
0.0168226727433 -0.0186918586037 1.01 1.61063676035e-38
0.0187473789758 -0.0187473789758 1.013 1.78605690731e-38
