# .PCD v0.7 - Point Cloud Data file format
VERSION 0.7
FIELDS x y z rgb
SIZE 4 4 4 4
TYPE F F F F
COUNT 1 1 1 1
WIDTH 852
HEIGHT 1
VIEWPOINT 0 0 0 1 0 0 0
POINTS 852
DATA ascii
0.0436908314768 -0.115948745073 0.908 1.73956784985e-38
0.0453712480721 -0.115948745073 0.908 1.68410725923e-38
0.0470516646673 -0.115948745073 0.908 1.6014173375e-38
0.0486247418765 -0.115693351361 0.906 1.70275924244e-38
0.0503014571137 -0.115693351361 0.906 1.67521237709e-38
0.0519781723508 -0.115693351361 0.906 1.69353981958e-38
0.0534772223972 -0.115310260794 0.903 1.58298171477e-38
0.0551483855971 -0.115310260794 0.903 1.48138701559e-38
-0.00835581599956 -0.113639097594 0.903 2.34972360939e-38
-0.00668465279965 -0.113639097594 0.903 2.34972445017e-38
-0.00501348959974 -0.113639097594 0.903 2.34867361645e-38
-0.00334232639983 -0.113639097594 0.903 2.34864110633e-38
-0.00167671523712 -0.114016636124 0.906 2.06178536146e-38
0.0 -0.114016636124 0.906 2.11731041181e-38
0.00167671523712 -0.114016636124 0.906 1.93321398528e-38
0.00335343047424 -0.114016636124 0.906 1.97002161178e-38
0.00504124978578 -0.114268328478 0.908 1.95140297948e-38
0.00672166638105 -0.114268328478 0.908 2.09891402544e-38
0.00840208297631 -0.114268328478 0.908 1.9514007374e-38
0.0100824995716 -0.114268328478 0.908 1.96976923793e-38
0.0117888256738 -0.114520020831 0.91 1.96062450428e-38
0.0134729436272 -0.114520020831 0.91 2.05285124297e-38
0.0152070299155 -0.114897559361 0.913 1.85917049547e-38
0.0168966999061 -0.114897559361 0.913 1.8592828796e-38
0.0185863698967 -0.114897559361 0.913 1.85970747304e-38
0.0202760398873 -0.114897559361 0.913 1.74896509748e-38
0.0220138275337 -0.115149251715 0.915 1.82246824661e-38
0.0237071988825 -0.115149251715 0.915 1.77622904066e-38
0.0254005702312 -0.115149251715 0.915 1.84094618855e-38
0.02709394158 -0.115149251715 0.915 1.82232629507e-38
0.0287873129287 -0.115149251715 0.915 1.76690199808e-38
0.0304806842775 -0.115149251715 0.915 1.76693885223e-38
0.0321740556262 -0.115149251715 0.915 1.82214538744e-38
0.033867426975 -0.115149251715 0.915 1.79452369276e-38
0.0355607983237 -0.115149251715 0.915 1.7578993561e-38
0.0371727397934 -0.114897559361 0.913 1.82272188163e-38
0.038862409784 -0.114897559361 0.913 1.68428774647e-38
0.0405520797746 -0.114897559361 0.913 1.74857231352e-38
0.042102948835 -0.114520020831 0.91 1.76693885223e-38
0.0436908314768 -0.114268328478 0.908 1.71198525139e-38
0.0453712480721 -0.114268328478 0.908 1.64762375306e-38
0.0470516646673 -0.114268328478 0.908 1.69364954125e-38
0.0486247418765 -0.114016636124 0.906 1.63811566272e-38
0.0503014571137 -0.114016636124 0.906 1.64722970793e-38
0.0519781723508 -0.114016636124 0.906 1.62886078701e-38
0.0534772223972 -0.113639097594 0.903 1.61982241192e-38
0.0551483855971 -0.113639097594 0.903 1.58294458036e-38
0.056819548797 -0.113639097594 0.903 1.47213045832e-38
-0.011633368632 -0.111347956906 0.898 2.34994095078e-38
-0.00997145882739 -0.111347956906 0.898 2.34993800806e-38
-0.00830954902282 -0.111347956906 0.898 2.34994039026e-38
-0.00666984736709 -0.111719943399 0.901 2.27477838401e-38
-0.00500238552532 -0.111719943399 0.901 2.34849425025e-38
-0.00334232639983 -0.111967934394 0.903 2.04330391627e-38
-0.00167671523712 -0.112339920887 0.906 2.07110567781e-38
0.0 -0.112339920887 0.906 2.02512192857e-38
0.00167671523712 -0.112339920887 0.906 1.99750023389e-38
0.00336083319052 -0.112587911883 0.908 1.98838660907e-38
0.00504124978578 -0.112587911883 0.908 1.96979964611e-38
0.00672166638105 -0.112587911883 0.908 1.97902411364e-38
0.00840208297631 -0.112587911883 0.908 1.96062282272e-38
0.0100824995716 -0.112587911883 0.908 1.89622825374e-38
0.0117888256738 -0.112835902878 0.91 1.89612119454e-38
0.0135173599249 -0.113207889371 0.913 1.85005588973e-38
0.0152070299155 -0.113207889371 0.913 1.90533543259e-38
0.0169337134875 -0.113455880366 0.915 1.93310552478e-38
0.0186270848362 -0.113455880366 0.915 1.75818592163e-38
0.020320456185 -0.113455880366 0.915 1.85959943293e-38
0.0220138275337 -0.113455880366 0.915 1.81346700592e-38
0.0237071988825 -0.113455880366 0.915 1.7950313832e-38
0.0254005702312 -0.113455880366 0.915 1.75796970128e-38
0.02709394158 -0.113455880366 0.915 1.85906063367e-38
0.0287873129287 -0.113455880366 0.915 1.86842242845e-38
0.0304806842775 -0.113455880366 0.915 1.79474019337e-38
0.0321740556262 -0.113455880366 0.915 1.80399927298e-38
0.033867426975 -0.113455880366 0.915 1.73935303079e-38
0.0355607983237 -0.113455880366 0.915 1.71162371639e-38
0.0372541696725 -0.113455880366 0.915 1.7115495877e-38
0.0389475410212 -0.113455880366 0.915 1.73931799833e-38
0.0405520797746 -0.113207889371 0.913 1.70243750431e-38
0.0422417497652 -0.113207889371 0.913 1.73006102068e-38
0.0436908314768 -0.112587911883 0.908 1.6381874092e-38
0.0453712480721 -0.112587911883 0.908 1.6474427053e-38
0.0470516646673 -0.112587911883 0.908 1.65659122245e-38
0.0486247418765 -0.112339920887 0.906 1.65659178297e-38
0.0503014571137 -0.112339920887 0.906 1.65655520908e-38
0.0519781723508 -0.112339920887 0.906 1.67502922738e-38
0.0534772223972 -0.111967934394 0.903 1.61063676035e-38
0.0551483855971 -0.111967934394 0.903 1.45419720109e-38
0.0566937026203 -0.111719943399 0.901 1.58308653189e-38
0.0583611644621 -0.111719943399 0.901 1.44450778273e-38
-0.0132952784365 -0.109686047101 0.898 2.34943564256e-38
-0.011633368632 -0.109686047101 0.898 2.34969137953e-38
-0.00997145882739 -0.109686047101 0.898 2.35015282711e-38
-0.00830954902282 -0.109686047101 0.898 2.21046074632e-38
-0.00666984736709 -0.110052481557 0.901 2.34866899217e-38
-0.00500238552532 -0.110052481557 0.901 2.29227415586e-38
-0.00334232639983 -0.110296771194 0.903 2.04338126795e-38
-0.00167671523712 -0.11066320565 0.906 1.99746520143e-38
0.0 -0.11066320565 0.906 1.99742834728e-38
0.00168041659526 -0.110907495287 0.908 2.02526542153e-38
0.00336083319052 -0.110907495287 0.908 2.01611564321e-38
0.00504124978578 -0.110907495287 0.908 1.96072792011e-38
0.00672166638105 -0.110907495287 0.908 1.99764274594e-38
0.00840208297631 -0.110907495287 0.908 1.93303966375e-38
0.0101047077204 -0.111151784924 0.91 1.90544753647e-38
0.0118276899343 -0.11151821938 0.913 1.8870070092e-38
0.0135173599249 -0.11151821938 0.913 1.88693386142e-38
0.0152403421387 -0.111762509017 0.915 1.93303209674e-38
0.0169337134875 -0.111762509017 0.915 1.74857707793e-38
0.0186270848362 -0.111762509017 0.915 1.90537747155e-38
0.020320456185 -0.111762509017 0.915 1.76712060064e-38
0.0220138275337 -0.111762509017 0.915 1.85023609672e-38
0.0237071988825 -0.111762509017 0.915 1.75800473374e-38
0.0254838507894 -0.112128943473 0.918 1.76729520243e-38
0.0271827741753 -0.112128943473 0.918 1.69336241519e-38
0.0288816975613 -0.112128943473 0.918 1.83158145104e-38
0.0305806209472 -0.112128943473 0.918 1.71183825519e-38
0.0322795443332 -0.112128943473 0.918 1.72102278571e-38
0.0339784677192 -0.112128943473 0.918 1.77637127245e-38
0.0356773911051 -0.112128943473 0.918 1.78573404814e-38
0.0372541696725 -0.111762509017 0.915 1.67481580963e-38
0.0389475410212 -0.111762509017 0.915 1.80410479075e-38
0.04064091237 -0.111762509017 0.915 1.63804517741e-38
0.0422417497652 -0.11151821938 0.913 1.69339632662e-38
0.0437870667884 -0.111151784924 0.91 1.63822328244e-38
0.0453712480721 -0.110907495287 0.908 1.62896798634e-38
0.0470516646673 -0.110907495287 0.908 1.65659150271e-38
0.0486247418765 -0.11066320565 0.906 1.62890128454e-38
0.0503014571137 -0.11066320565 0.906 1.6380817513e-38
0.0519781723508 -0.11066320565 0.906 1.58287087206e-38
0.0534772223972 -0.110296771194 0.903 1.5920198096e-38
0.0551483855971 -0.110296771194 0.903 1.49092873709e-38
0.0566937026203 -0.110052481557 0.901 1.54613849529e-38
0.0583611644621 -0.110052481557 0.901 1.51847952607e-38
0.0600286263038 -0.110052481557 0.901 1.41702958102e-38
-0.0132952784365 -0.108024137297 0.898 2.34979507561e-38
-0.011607459125 -0.107783549018 0.896 2.34968899732e-38
-0.00994925067855 -0.107783549018 0.896 2.34990353611e-38
-0.00829104223213 -0.107783549018 0.896 2.34856361452e-38
-0.00664763921826 -0.108024137297 0.898 2.3478785197e-38
-0.00500238552532 -0.108385019715 0.901 2.20914997173e-38
-0.00334232639983 -0.108625607994 0.903 1.9608396036e-38
-0.00167671523712 -0.108986490413 0.906 2.05285292453e-38
0.0 -0.108986490413 0.906 2.03434177182e-38
0.00168041659526 -0.109227078692 0.908 1.99757113959e-38
0.00336083319052 -0.109227078692 0.908 1.98845527269e-38
0.00504124978578 -0.109227078692 0.908 1.96079854555e-38
0.0067364718136 -0.109467666971 0.91 1.91459283064e-38
0.00844834995305 -0.10982854939 0.913 1.96983551935e-38
0.0101380199437 -0.10982854939 0.913 1.84069535612e-38
0.0118535994412 -0.110069137669 0.915 1.87771654051e-38
0.01354697079 -0.110069137669 0.915 1.85934607816e-38
0.0152403421387 -0.110069137669 0.915 1.73942183455e-38
0.0169892338596 -0.110430020087 0.918 1.80377828821e-38
0.0186881572455 -0.110430020087 0.918 1.81314120403e-38
0.0203870806315 -0.110430020087 0.918 1.78559055518e-38
0.0221341216733 -0.110670608366 0.92 1.84083660701e-38
0.0238367464174 -0.110670608366 0.92 1.72105459519e-38
0.0255393711615 -0.110670608366 0.92 1.73963693386e-38
0.0272419959056 -0.110670608366 0.92 1.74882048348e-38
0.0289446206497 -0.110670608366 0.92 1.69350394634e-38
0.0306472453938 -0.110670608366 0.92 1.71165678703e-38
0.0323498701378 -0.110670608366 0.92 1.70236715913e-38
0.0339784677192 -0.110430020087 0.918 1.64708509393e-38
0.0356773911051 -0.110430020087 0.918 1.82236413013e-38
0.0373763144911 -0.110430020087 0.918 1.62896798634e-38
0.039075237877 -0.110430020087 0.918 1.71194363283e-38
0.04064091237 -0.110069137669 0.915 1.63815153596e-38
0.0422417497652 -0.10982854939 0.913 1.71197866529e-38
0.0437870667884 -0.109467666971 0.91 1.62893225323e-38
0.0454711847418 -0.109467666971 0.91 1.647336627e-38
0.0470516646673 -0.109227078692 0.908 1.65659150271e-38
0.0487320812626 -0.109227078692 0.908 1.66599155294e-38
0.0503014571137 -0.108986490413 0.906 1.5459221348e-38
0.0519781723508 -0.108986490413 0.906 1.60113035157e-38
0.0534772223972 -0.108625607994 0.903 1.55503365768e-38
0.0551483855971 -0.108625607994 0.903 1.59187505547e-38
0.056819548797 -0.108625607994 0.903 1.6104942483e-38
0.0581668431598 -0.108024137297 0.898 1.52737538911e-38
0.0598287529643 -0.108024137297 0.898 1.53652264509e-38
0.0614906627689 -0.108024137297 0.898 1.39855416141e-38
-0.0132656675714 -0.106125340571 0.896 2.34968689537e-38
-0.011607459125 -0.106125340571 0.896 2.34983094885e-38
-0.00994925067855 -0.106125340571 0.896 2.21056794565e-38
-0.00829104223213 -0.106125340571 0.896 2.34878067565e-38
-0.00664763921826 -0.106362227492 0.898 2.29234450104e-38
-0.00498572941369 -0.106362227492 0.898 1.93253169306e-38
-0.00334232639983 -0.106954444794 0.903 2.05285264427e-38
-0.00167671523712 -0.107309775176 0.906 2.05277445182e-38
0.0 -0.107309775176 0.906 2.0435923035e-38
0.00168041659526 -0.107546662097 0.908 1.99749603e-38
0.00336083319052 -0.107546662097 0.908 1.99763728088e-38
0.0050523538602 -0.107783549018 0.91 1.94229061582e-38
0.0067364718136 -0.107783549018 0.91 1.93299860571e-38
0.00844834995305 -0.108138879399 0.913 1.90533795493e-38
0.0101602280925 -0.10837576632 0.915 1.83140572821e-38
0.0118535994412 -0.10837576632 0.915 1.85924182156e-38
0.0135913870877 -0.108731096701 0.918 1.79474019337e-38
0.0152903104736 -0.108731096701 0.918 1.77648113425e-38
0.0169892338596 -0.108731096701 0.918 1.72105683726e-38
0.0186881572455 -0.108731096701 0.918 1.73020353273e-38
0.0204314969292 -0.108967983622 0.92 1.69321766106e-38
0.0221341216733 -0.108967983622 0.92 1.73002360601e-38
0.0238367464174 -0.108967983622 0.92 1.66552436003e-38
0.0255393711615 -0.108967983622 0.92 1.66563155936e-38
0.0272419959056 -0.108967983622 0.92 1.71179929909e-38
0.0289446206497 -0.108967983622 0.92 1.71190691881e-38
0.0306472453938 -0.108967983622 0.92 1.61971269025e-38
0.0323498701378 -0.108967983622 0.92 1.71187202648e-38
0.0340524948819 -0.108967983622 0.92 1.68414131078e-38
0.035755119626 -0.108967983622 0.92 1.702656247e-38
0.0373763144911 -0.108731096701 0.918 1.56439615311e-38
0.039075237877 -0.108731096701 0.918 1.63808049013e-38
0.040774161263 -0.108731096701 0.918 1.59212672868e-38
0.0423342837187 -0.10837576632 0.915 1.63815209648e-38
0.0439314197559 -0.108138879399 0.913 1.61053096232e-38
0.0454711847418 -0.107783549018 0.91 1.63819315452e-38
0.0470516646673 -0.107546662097 0.908 1.55514323922e-38
0.0487320812626 -0.107546662097 0.908 1.59198421662e-38
0.0504124978578 -0.107546662097 0.908 1.57354382948e-38
0.0519781723508 -0.107309775176 0.906 1.57340033652e-38
0.0536548875879 -0.107309775176 0.906 1.7026186922e-38
0.055331602825 -0.107309775176 0.906 1.5643252474e-38
0.056819548797 -0.106954444794 0.903 1.50918723569e-38
0.0581668431598 -0.106362227492 0.898 1.57354382948e-38
0.0598287529643 -0.106362227492 0.898 1.56428853338e-38
0.0614906627689 -0.106362227492 0.898 1.44479476866e-38
0.0631525725735 -0.106362227492 0.898 1.29656653814e-38
-0.0132656675714 -0.104467132125 0.896 2.34979661704e-38
-0.011607459125 -0.104467132125 0.896 2.34990367624e-38
-0.00994925067855 -0.104467132125 0.896 2.34802747773e-38
-0.00829104223213 -0.104467132125 0.896 2.34885480434e-38
-0.00664763921826 -0.104700317688 0.898 1.94168245229e-38
-0.00498572941369 -0.104700317688 0.898 2.11709727431e-38
-0.00334232639983 -0.105283281595 0.903 2.04363308128e-38
-0.00167671523712 -0.105633059939 0.906 2.02508507442e-38
0.0 -0.105633059939 0.906 2.03430463741e-38
0.00168041659526 -0.105866245501 0.908 1.92373840507e-38
0.0033682359068 -0.106099431064 0.91 2.01582879741e-38
0.00506900997183 -0.106449209408 0.913 1.86843083624e-38
0.00675867996244 -0.106449209408 0.913 1.89612091428e-38
0.00846685674374 -0.106682394971 0.915 1.86842663234e-38
0.0101602280925 -0.106682394971 0.915 1.77623030183e-38
0.0118535994412 -0.106682394971 0.915 1.77608680887e-38
0.0135913870877 -0.107032173315 0.918 1.73938834351e-38
0.0152903104736 -0.107032173315 0.918 1.75800473374e-38
0.0169892338596 -0.107032173315 0.918 1.64730033337e-38
0.0187288721851 -0.107265358878 0.92 1.74860734598e-38
0.0204314969292 -0.107265358878 0.92 1.73960106062e-38
0.022206298157 -0.107615137222 0.923 1.64722746585e-38
0.0239144749383 -0.107615137222 0.923 1.6563764034e-38
0.0256226517196 -0.107615137222 0.923 1.65641199638e-38
0.0273308285009 -0.107615137222 0.923 1.64719159261e-38
0.0290390052822 -0.107615137222 0.923 1.63790042327e-38
0.0307471820635 -0.107615137222 0.923 1.65648276195e-38
0.0324553588448 -0.107615137222 0.923 1.60109447833e-38
0.0341635356261 -0.107615137222 0.923 1.61017040822e-38
0.035755119626 -0.107265358878 0.92 1.59180443003e-38
0.0374577443701 -0.107265358878 0.92 1.64726502065e-38
0.0391603691142 -0.107265358878 0.92 1.56432440663e-38
0.0408629938583 -0.107265358878 0.92 1.59205442168e-38
0.042473084649 -0.107032173315 0.918 1.64722746585e-38
0.0440276550675 -0.106682394971 0.915 1.59205442168e-38
0.0456210897465 -0.106449209408 0.913 1.57365327089e-38
0.0471553026952 -0.106099431064 0.91 1.61957031832e-38
0.0488394206486 -0.106099431064 0.91 1.54595730739e-38
0.0504124978578 -0.105866245501 0.908 1.63822524426e-38
0.0520929144531 -0.105866245501 0.908 1.58283892246e-38
0.0537733310484 -0.105866245501 0.908 1.59212672868e-38
0.055331602825 -0.105633059939 0.906 1.54595730739e-38
0.0570083180621 -0.105633059939 0.906 1.49082013646e-38
0.0581668431598 -0.104700317688 0.898 1.56446817985e-38
0.0596955040713 -0.104467132125 0.896 1.48138701559e-38
0.0610113368898 -0.103884168218 0.891 1.50911576947e-38
0.0626602919409 -0.103884168218 0.891 1.37093400816e-38
-0.0132656675714 -0.102808923678 0.896 2.34943970632e-38
-0.011607459125 -0.102808923678 0.896 2.34997612337e-38
-0.00994925067855 -0.102808923678 0.896 2.34809754265e-38
-0.00829104223213 -0.102808923678 0.896 2.34842180312e-38
-0.00664763921826 -0.103038407883 0.898 1.96916009349e-38
-0.00498572941369 -0.103038407883 0.898 2.05277529259e-38
-0.00334232639983 -0.103612118395 0.903 2.03437708454e-38
-0.00167671523712 -0.103956344702 0.906 2.04359454558e-38
0.0 -0.104185828906 0.908 1.99757057907e-38
0.0016841179534 -0.104415313111 0.91 1.96987489584e-38
0.00337933998122 -0.104759539418 0.913 1.94214137754e-38
0.00506900997183 -0.104759539418 0.913 1.85920580819e-38
0.006773485395 -0.104989023622 0.915 1.859312447e-38
0.00846685674374 -0.104989023622 0.915 1.86853074882e-38
0.0101935403157 -0.105333249929 0.918 1.73931743781e-38
0.0118924637017 -0.105333249929 0.918 1.75782466689e-38
0.0135913870877 -0.105333249929 0.918 1.748748737e-38
0.0153236226969 -0.105562734134 0.92 1.61031390119e-38
0.017026247441 -0.105562734134 0.92 1.70240191133e-38
0.0187899445944 -0.105906960441 0.923 1.66559456508e-38
0.0204981213757 -0.105906960441 0.923 1.56436027987e-38
0.022206298157 -0.105906960441 0.923 1.65633996964e-38
0.0239144749383 -0.105906960441 0.923 1.60117070897e-38
0.0256781720917 -0.106136444646 0.925 1.58269276703e-38
0.0273900502311 -0.106136444646 0.925 1.61953374443e-38
0.0291019283706 -0.106136444646 0.925 1.59194680195e-38
0.03081380651 -0.106136444646 0.925 1.54592143415e-38
0.0325256846495 -0.106136444646 0.925 1.64715571937e-38
0.0341635356261 -0.105906960441 0.923 1.56425266014e-38
0.0358717124074 -0.105906960441 0.923 1.61049396804e-38
0.0374577443701 -0.105562734134 0.92 1.52730854717e-38
0.0391603691142 -0.105562734134 0.92 1.64737193972e-38
0.0408629938583 -0.105562734134 0.92 1.56429021494e-38
0.042473084649 -0.105333249929 0.918 1.54574613172e-38
0.0440276550675 -0.104989023622 0.915 1.58272807975e-38
0.0456210897465 -0.104759539418 0.913 1.52748258844e-38
0.0471553026952 -0.104415313111 0.91 1.58261975938e-38
0.0488394206486 -0.104415313111 0.91 1.48109960927e-38
0.0504124978578 -0.104185828906 0.908 1.49071251674e-38
0.0520929144531 -0.104185828906 0.908 1.56453964607e-38
0.0537733310484 -0.104185828906 0.908 1.49074838998e-38
0.055331602825 -0.103956344702 0.906 1.4353959796e-38
0.0570083180621 -0.103956344702 0.906 1.57375990971e-38
0.058490711997 -0.103612118395 0.903 1.47241856528e-38
0.0593623818388 -0.102235213167 0.891 1.4815312092e-38
0.0608743866387 -0.102005728962 0.889 1.4815312092e-38
0.0625196403316 -0.102005728962 0.889 1.32490807984e-38
0.0641648940246 -0.102005728962 0.889 1.55482080044e-38
-0.0149238760178 -0.101150715232 0.896 2.34947179606e-38
-0.0132656675714 -0.101150715232 0.896 2.34986682209e-38
-0.011607459125 -0.101150715232 0.896 2.34954228137e-38
-0.00994925067855 -0.101150715232 0.896 2.34881598838e-38
-0.00829104223213 -0.101150715232 0.896 2.29285079018e-38
-0.00664763921826 -0.101376498078 0.898 2.04305938969e-38
-0.00498572941369 -0.101376498078 0.898 2.08022098419e-38
-0.00334232639983 -0.101940955195 0.903 2.04349239092e-38
-0.00167671523712 -0.102279629464 0.906 2.09855445226e-38
0.0 -0.102731195157 0.91 1.96984014363e-38
0.0016841179534 -0.102731195157 0.91 1.95140269922e-38
0.00337933998122 -0.103069869427 0.913 1.86824698588e-38
0.00508011404625 -0.103295652274 0.915 1.90548284919e-38
0.006773485395 -0.103295652274 0.915 1.72123396139e-38
0.00849461692979 -0.103634326543 0.918 1.8221095142e-38
0.0101935403157 -0.103634326543 0.918 1.83186703567e-38
0.0119183732087 -0.10386010939 0.92 1.61049396804e-38
0.0136209979528 -0.10386010939 0.92 1.66552464029e-38
0.0153236226969 -0.10386010939 0.92 1.68403537262e-38
0.0170817678131 -0.10419878366 0.923 1.61960507052e-38
0.0188306595339 -0.104424566506 0.925 1.67495776116e-38
0.0205425376733 -0.104424566506 0.925 1.58287087206e-38
0.0222544158128 -0.104424566506 0.925 1.58279912558e-38
0.0239662939522 -0.104424566506 0.925 1.54595842843e-38
0.0256781720917 -0.104424566506 0.925 1.5921620414e-38
0.0273900502311 -0.104424566506 0.925 1.5829067453e-38
0.0291019283706 -0.104424566506 0.925 1.54592143415e-38
0.03081380651 -0.104424566506 0.925 1.58279912558e-38
0.0325256846495 -0.104424566506 0.925 1.5370607437e-38
0.0342375627889 -0.104424566506 0.925 1.50925898217e-38
0.0359494409284 -0.104424566506 0.925 1.49996809309e-38
0.0375798891887 -0.10419878366 0.923 1.53666739922e-38
0.03928806597 -0.10419878366 0.923 1.50925996308e-38
0.0409962427514 -0.10419878366 0.923 1.50925898217e-38
0.042473084649 -0.103634326543 0.918 1.49074838998e-38
0.0440276550675 -0.103295652274 0.915 1.49993193959e-38
0.0457210264162 -0.103295652274 0.915 1.49996781283e-38
0.0473107597371 -0.103069869427 0.913 1.53684550426e-38
0.0488394206486 -0.102731195157 0.91 1.49075301426e-38
0.050523538602 -0.102731195157 0.91 1.49993193959e-38
0.0520929144531 -0.102505412311 0.908 1.48156484036e-38
0.0537733310484 -0.102505412311 0.908 1.49078426322e-38
0.0554537476436 -0.102505412311 0.908 1.50925898217e-38
0.0570083180621 -0.102279629464 0.906 1.47227367102e-38
0.058490711997 -0.101940955195 0.903 1.47227367102e-38
0.0593623818388 -0.100586258116 0.891 1.49074838998e-38
0.0608743866387 -0.100360475269 0.889 1.49082013646e-38
0.0625196403316 -0.100360475269 0.889 1.38029580294e-38
0.0641648940246 -0.100360475269 0.889 1.30625231313e-38
0.0658101477175 -0.100360475269 0.889 2.05264062781e-38
-0.0149238760178 -0.0994925067855 0.896 2.34972206796e-38
-0.0132656675714 -0.0994925067855 0.896 2.35000933415e-38
-0.011607459125 -0.0994925067855 0.896 2.34907536872e-38
-0.00994925067855 -0.0994925067855 0.896 2.34896004186e-38
-0.00829104223213 -0.0994925067855 0.896 2.19103945025e-38
-0.00664763921826 -0.0997145882739 0.898 2.08004105746e-38
-0.00498572941369 -0.0997145882739 0.898 2.0341266725e-38
-0.00334232639983 -0.100269791995 0.903 2.12657285453e-38
-0.00168041659526 -0.100824995716 0.908 1.997319046e-38
0.0 -0.101047077204 0.91 1.92370253183e-38
0.00168966999061 -0.101380199437 0.913 1.94207341456e-38
0.0033867426975 -0.101602280925 0.915 1.86835208326e-38
0.00508011404625 -0.101602280925 0.915 1.83154641858e-38
0.00679569354383 -0.101935403157 0.918 1.71179929909e-38
0.00849461692979 -0.101935403157 0.918 1.73013192638e-38
0.0102157484646 -0.102157484646 0.92 1.69307542927e-38
0.0119183732087 -0.102157484646 0.92 1.65637514223e-38
0.0136654142505 -0.102490606878 0.923 1.62875330742e-38
0.0153735910318 -0.102490606878 0.923 1.6287179947e-38
0.0170817678131 -0.102490606878 0.923 1.56425266014e-38
0.0188306595339 -0.102712688367 0.925 1.60130971777e-38
0.0205425376733 -0.102712688367 0.925 1.60145321074e-38
0.0222544158128 -0.102712688367 0.925 1.50911548921e-38
0.0239662939522 -0.102712688367 0.925 1.49078426322e-38
0.0257614526498 -0.103045810599 0.928 1.51826316558e-38
0.0274788828265 -0.103045810599 0.928 1.57357970272e-38
0.0291963130031 -0.103045810599 0.928 1.48152896712e-38
0.0309137431798 -0.103045810599 0.928 1.51847840503e-38
0.0326311733564 -0.103045810599 0.928 1.51855015151e-38
0.0342375627889 -0.102712688367 0.925 1.4448306419e-38
0.0359494409284 -0.102712688367 0.925 1.50929485541e-38
0.0376613190678 -0.102712688367 0.925 1.45397831827e-38
0.0393731972073 -0.102712688367 0.925 1.46316186789e-38
0.0409962427514 -0.102490606878 0.923 1.48152896712e-38
0.0427044195327 -0.102490606878 0.923 1.44465127569e-38
0.0441720080349 -0.101935403157 0.918 1.52733909548e-38
0.0458709314209 -0.101935403157 0.918 1.47223779778e-38
0.047414397765 -0.101602280925 0.915 1.47230954426e-38
0.0490004297277 -0.101380199437 0.913 1.46312599465e-38
0.050523538602 -0.101047077204 0.91 1.45390657179e-38
0.0522076565554 -0.101047077204 0.91 1.44475889542e-38
0.0538917745088 -0.101047077204 0.91 1.46323361437e-38
0.0554537476436 -0.100824995716 0.908 1.4908560097e-38
0.0570083180621 -0.100602914227 0.906 1.45376307883e-38
0.058490711997 -0.100269791995 0.903 1.4814213474e-38
0.0598287529643 -0.0997145882739 0.898 1.48163658684e-38
0.0610113368898 -0.0989373030646 0.891 1.45394244503e-38
0.0625196403316 -0.0987152215763 0.889 1.4816007136e-38
0.0641648940246 -0.0987152215763 0.889 1.16810446324e-38
0.0658101477175 -0.0987152215763 0.889 2.08029679443e-38
0.0674554014104 -0.0987152215763 0.889 2.34982772587e-38
-0.0132952784365 -0.0980526784693 0.898 2.34968661511e-38
-0.011633368632 -0.0980526784693 0.898 2.34918368909e-38
-0.00997145882739 -0.0980526784693 0.898 2.34885088071e-38
-0.00830954902282 -0.0980526784693 0.898 2.02505004196e-38
-0.00664763921826 -0.0980526784693 0.898 2.15411943961e-38
-0.00500238552532 -0.0983802486646 0.901 2.05285096271e-38
-0.00335343047424 -0.0989261989902 0.906 2.0158991426e-38
-0.0016841179534 -0.0993629592506 0.91 1.99749659051e-38
0.0 -0.099690529446 0.913 1.90540717907e-38
0.00168966999061 -0.099690529446 0.913 1.88689728753e-38
0.0033867426975 -0.0999089095762 0.915 1.78548419663e-38
0.00509677015787 -0.100236479772 0.918 1.78537531574e-38
0.00679569354383 -0.100236479772 0.918 1.79459529911e-38
0.00851312372049 -0.100454859902 0.92 1.66555967275e-38
0.0102157484646 -0.100454859902 0.92 1.67470636822e-38
0.0119572374691 -0.100782430097 0.923 1.61956919728e-38
0.0136950251156 -0.101000810227 0.925 1.60109447833e-38
0.015406903255 -0.101000810227 0.925 1.61017040822e-38
0.0171187813945 -0.101000810227 0.925 1.58261975938e-38
0.0188306595339 -0.101000810227 0.925 1.56443202635e-38
0.0205425376733 -0.101000810227 0.925 1.49993193959e-38
0.0223265922965 -0.101328380423 0.928 1.47234878062e-38
0.0240440224732 -0.101328380423 0.928 1.47223779778e-38
0.0257614526498 -0.101328380423 0.928 1.55528434997e-38
0.0274788828265 -0.101328380423 0.928 1.4261406835e-38
0.0291963130031 -0.101328380423 0.928 1.49986019311e-38
0.0309137431798 -0.101328380423 0.928 1.42628767971e-38
0.0326311733564 -0.101328380423 0.928 1.48142204805e-38
0.0342375627889 -0.101000810227 0.925 1.42610887403e-38
0.0359494409284 -0.101000810227 0.925 1.41702888037e-38
0.0376613190678 -0.101000810227 0.925 1.41702888037e-38
0.0393731972073 -0.101000810227 0.925 1.35234942741e-38
0.0409962427514 -0.100782430097 0.923 1.53673914571e-38
0.0427044195327 -0.100782430097 0.923 1.42628641854e-38
0.0441720080349 -0.100236479772 0.918 1.4721660513e-38
0.0458709314209 -0.100236479772 0.918 1.47227367102e-38
0.047414397765 -0.0999089095762 0.915 1.41702930076e-38
0.0491077691137 -0.0999089095762 0.915 1.45401419151e-38
0.0506900997183 -0.099690529446 0.913 1.43568296552e-38
0.0523797697089 -0.099690529446 0.913 1.45405370813e-38
0.0538917745088 -0.0993629592506 0.91 1.3801153157e-38
0.0555758924622 -0.0993629592506 0.91 1.37093176608e-38
0.0571341642389 -0.0991445791204 0.908 1.52769782788e-38
0.0586850332993 -0.0989261989902 0.906 1.41706475361e-38
0.0598287529643 -0.0980526784693 0.898 1.45394244503e-38
0.0610113368898 -0.0972883480135 0.891 1.43550598153e-38
0.0626602919409 -0.0972883480135 0.891 1.3893706118e-38
0.0641648940246 -0.0970699678833 0.889 1.15877742066e-38
0.0658101477175 -0.0970699678833 0.889 2.00654029054e-38
0.0674554014104 -0.0970699678833 0.889 2.34936109348e-38
-0.011633368632 -0.0963907686647 0.898 2.34947277697e-38
-0.00997145882739 -0.0963907686647 0.898 2.34881724954e-38
-0.00830954902282 -0.0963907686647 0.898 2.07172421095e-38
-0.00666984736709 -0.0967127868229 0.901 2.07117868546e-38
-0.00500238552532 -0.0967127868229 0.901 2.06225003203e-38
-0.00335343047424 -0.0972494837531 0.906 1.98824381675e-38
-0.00168966999061 -0.0980008594554 0.913 1.86842537117e-38
0.0 -0.0980008594554 0.913 1.92374218857e-38
0.00169337134875 -0.0982155382274 0.915 1.84083604649e-38
0.00339784677192 -0.0985375563856 0.918 1.8503064419e-38
0.00509677015787 -0.0985375563856 0.918 1.70272336919e-38
0.00681049897639 -0.0987522351576 0.92 1.67481454846e-38
0.00851312372049 -0.0987522351576 0.92 1.64715571937e-38
0.0102490606878 -0.0990742533158 0.923 1.64726333909e-38
0.0119831469761 -0.0992889320879 0.925 1.61049326739e-38
0.0136950251156 -0.0992889320879 0.925 1.54584968767e-38
0.015406903255 -0.0992889320879 0.925 1.56418091366e-38
0.0171743017665 -0.099610950246 0.928 1.52730322224e-38
0.0188917319432 -0.099610950246 0.928 1.4908560097e-38
0.0206091621199 -0.099610950246 0.928 1.44493826162e-38
0.0223265922965 -0.099610950246 0.928 1.38947823152e-38
0.0240440224732 -0.099610950246 0.928 1.45383538583e-38
0.0257614526498 -0.099610950246 0.928 1.46294662844e-38
0.0274788828265 -0.099610950246 0.928 1.49071251674e-38
0.0291963130031 -0.099610950246 0.928 1.38033055514e-38
0.0309137431798 -0.099610950246 0.928 1.39866234165e-38
0.0326311733564 -0.099610950246 0.928 1.44465127569e-38
0.0343486035331 -0.099610950246 0.928 1.44465127569e-38
0.0360660337097 -0.099610950246 0.928 1.42628417646e-38
0.0376613190678 -0.0992889320879 0.925 1.37100435334e-38
0.0393731972073 -0.0992889320879 0.925 1.39862590789e-38
0.0410850753467 -0.0992889320879 0.925 1.39855416141e-38
0.0427969534861 -0.0992889320879 0.925 1.42610495039e-38
0.044412596314 -0.0990742533158 0.923 1.45390657179e-38
0.0459708680906 -0.0987522351576 0.92 1.39873352762e-38
0.0475698548068 -0.0985375563856 0.918 1.39876940086e-38
0.0491077691137 -0.0982155382274 0.915 1.40802469695e-38
0.0508011404625 -0.0982155382274 0.915 1.33412582114e-38
0.0523797697089 -0.0980008594554 0.913 1.46316186789e-38
0.0540694396995 -0.0980008594554 0.913 1.43546772608e-38
0.0555758924622 -0.0976788412972 0.91 1.42646354267e-38
0.0571341642389 -0.0974641625252 0.908 1.39862590789e-38
0.0586850332993 -0.0972494837531 0.906 1.39862590789e-38
0.0598287529643 -0.0963907686647 0.898 1.38940648504e-38
0.0612167622666 -0.0959614111206 0.894 1.43561163943e-38
0.0626602919409 -0.0956393929625 0.891 1.38036642838e-38
0.064309246992 -0.0956393929625 0.891 1.23281978944e-38
0.0659582020431 -0.0956393929625 0.891 2.00654029054e-38
0.0676071570942 -0.0956393929625 0.891 2.34961164564e-38
-0.011607459125 -0.0945178814462 0.896 2.34979647691e-38
-0.00994925067855 -0.0945178814462 0.896 2.34791943762e-38
-0.00830954902282 -0.0947288588602 0.898 2.34867375658e-38
-0.00666984736709 -0.0950453249811 0.901 2.02472760318e-38
-0.0050523538602 -0.0959947233438 0.91 1.93299440181e-38
-0.0033682359068 -0.0959947233438 0.91 1.98820612183e-38
-0.00169337134875 -0.0965221668787 0.915 1.93299734454e-38
0.0 -0.0965221668787 0.915 1.81325148622e-38
0.00169337134875 -0.0965221668787 0.915 1.82254195491e-38
0.00339784677192 -0.0968386329996 0.918 1.78580635514e-38
0.00510787423229 -0.0970496104135 0.92 1.7121256615e-38
0.00681049897639 -0.0970496104135 0.92 1.66577575298e-38
0.00851312372049 -0.0970496104135 0.92 1.61953346417e-38
0.0102490606878 -0.0973660765345 0.923 1.57354382948e-38
0.0119831469761 -0.0975770539484 0.925 1.55506911053e-38
0.0136950251156 -0.0975770539484 0.925 1.61042152091e-38
0.0154568715899 -0.0978935200693 0.928 1.45397831827e-38
0.0171743017665 -0.0978935200693 0.928 1.5276622349e-38
0.0188917319432 -0.0978935200693 0.928 1.42642766943e-38
0.0206091621199 -0.0978935200693 0.928 1.46330536085e-38
0.0223265922965 -0.0978935200693 0.928 1.47248891047e-38
0.0240440224732 -0.0978935200693 0.928 1.44461540245e-38
0.0257614526498 -0.0978935200693 0.928 1.47220192454e-38
0.0274788828265 -0.0978935200693 0.928 1.44457952921e-38
0.0292592360915 -0.0981044974833 0.93 1.39859017478e-38
0.0309803676263 -0.0981044974833 0.93 1.38022391633e-38
0.0326311733564 -0.0978935200693 0.928 1.42610495039e-38
0.0343486035331 -0.0978935200693 0.928 1.37075239988e-38
0.0360660337097 -0.0978935200693 0.928 1.47227367102e-38
0.0377834638864 -0.0978935200693 0.928 1.38018706218e-38
0.0395008940631 -0.0978935200693 0.928 1.38018706218e-38
0.0410850753467 -0.0975770539484 0.925 1.36174821647e-38
0.0427969534861 -0.0975770539484 0.925 1.40766596455e-38
0.044412596314 -0.0973660765345 0.923 1.38015357115e-38
0.0461207730953 -0.0973660765345 0.923 1.35260054009e-38
0.0478289498766 -0.0973660765345 0.923 1.35285165278e-38
0.0492687781928 -0.0968386329996 0.918 1.32512163773e-38
0.0508011404625 -0.0965221668787 0.915 1.35263935606e-38
0.0524945118112 -0.0965221668787 0.915 1.38926369272e-38
0.0540694396995 -0.0963111894648 0.913 1.41659840148e-38
0.0557591096901 -0.0963111894648 0.913 1.38004370935e-38
0.0572600104156 -0.0959947233438 0.91 1.38018706218e-38
0.0588145808341 -0.0957837459299 0.908 1.37089589284e-38
0.0600286263038 -0.0950453249811 0.901 1.39869765438e-38
0.0612167622666 -0.0943069040323 0.894 1.39869765438e-38
0.0626602919409 -0.0939904379114 0.891 1.24200333906e-38
0.064309246992 -0.0939904379114 0.891 1.10349675676e-38
0.0659582020431 -0.0939904379114 0.891 2.13558516547e-38
0.0676071570942 -0.0939904379114 0.891 2.34997051818e-38
-0.011607459125 -0.0928596729998 0.896 2.35004843038e-38
-0.00994925067855 -0.0928596729998 0.896 1.49997650088e-38
-0.00830954902282 -0.0930669490556 0.898 2.34985953534e-38
-0.00666984736709 -0.0933778631393 0.901 1.92327961995e-38
-0.00506900997183 -0.0946215194741 0.913 1.96987335441e-38
-0.00337933998122 -0.0946215194741 0.913 1.91455947973e-38
-0.00169337134875 -0.0948287955299 0.915 1.87778716595e-38
0.0 -0.0948287955299 0.915 1.85924014e-38
0.00169892338596 -0.0951397096136 0.918 1.76740282215e-38
0.00339784677192 -0.0951397096136 0.918 1.67495832168e-38
0.00510787423229 -0.0953469856695 0.92 1.5919826752e-38
0.00683270712523 -0.0956578997532 0.923 1.61960507052e-38
0.00854088390653 -0.0956578997532 0.923 1.61017040822e-38
0.0102712688367 -0.095865175809 0.925 1.57350795624e-38
0.0120220112366 -0.0961760898927 0.928 1.6103857878e-38
0.0137394414132 -0.0961760898927 0.928 1.47234667867e-38
0.0154568715899 -0.0961760898927 0.928 1.56457565944e-38
0.0171743017665 -0.0961760898927 0.928 1.46330718254e-38
0.0188917319432 -0.0961760898927 0.928 1.47223779778e-38
0.0206091621199 -0.0961760898927 0.928 1.43553947256e-38
0.0223265922965 -0.0961760898927 0.928 1.40791707723e-38
0.0240440224732 -0.0961760898927 0.928 1.47230954426e-38
0.0258169730219 -0.0963833659485 0.93 1.40773771103e-38
0.0275381045567 -0.0963833659485 0.93 1.40773771103e-38
0.0292592360915 -0.0963833659485 0.93 1.39862590789e-38
0.0309803676263 -0.0963833659485 0.93 1.4168853874e-38
0.0327014991611 -0.0963833659485 0.93 1.43532451338e-38
0.0344226306959 -0.0963833659485 0.93 1.45376658208e-38
0.0360660337097 -0.0961760898927 0.928 1.39833892197e-38
0.0377834638864 -0.0961760898927 0.928 1.38940648504e-38
0.0395008940631 -0.0961760898927 0.928 1.38011545583e-38
0.0410850753467 -0.095865175809 0.925 1.36174821647e-38
0.0427969534861 -0.095865175809 0.925 1.36178408971e-38
0.0445088316256 -0.095865175809 0.925 1.34338111724e-38
0.0461207730953 -0.0956578997532 0.923 1.325014018e-38
0.0478289498766 -0.0956578997532 0.923 1.30668517422e-38
0.0492687781928 -0.0951397096136 0.918 1.31583046839e-38
0.0509677015787 -0.0951397096136 0.918 1.27888103048e-38
0.0524945118112 -0.0948287955299 0.915 1.49071321739e-38
0.05418788316 -0.0948287955299 0.915 1.38011573609e-38
0.0557591096901 -0.0946215194741 0.913 1.33398443012e-38
0.0572600104156 -0.0943106053904 0.91 1.32476290532e-38
0.0588145808341 -0.0941033293346 0.908 1.343345244e-38
0.0600286263038 -0.0933778631393 0.901 1.36185583619e-38
0.0613537125177 -0.0928596729998 0.896 1.3893706118e-38
0.0628712693549 -0.092652396944 0.894 1.33394645494e-38
0.064309246992 -0.0923414828603 0.891 1.37035779423e-38
0.0658101477175 -0.0921342068045 0.889 2.34784993321e-38
0.0674554014104 -0.0921342068045 0.889 2.35004632843e-38
-0.00846685674374 -0.0931354241812 0.915 2.34965732797e-38
-0.006773485395 -0.0931354241812 0.915 1.80446618563e-38
-0.00508011404625 -0.0931354241812 0.915 1.88657372771e-38
-0.0033867426975 -0.0931354241812 0.915 2.01601026557e-38
-0.00169337134875 -0.0931354241812 0.915 1.78555552272e-38
0.0 -0.0931354241812 0.915 1.82218308237e-38
0.00169892338596 -0.0934407862277 0.918 1.77637113232e-38
0.00339784677192 -0.0934407862277 0.918 1.71165678703e-38
0.00510787423229 -0.0936443609254 0.92 1.65641101547e-38
0.00683270712523 -0.0939497229719 0.923 1.67499335414e-38
0.00855939069723 -0.0941532976695 0.925 1.57343943275e-38
0.0103045810599 -0.094458659716 0.928 1.57343789132e-38
0.0120220112366 -0.094458659716 0.928 1.58276325234e-38
0.0137394414132 -0.094458659716 0.928 1.51851736113e-38
0.0154901838131 -0.0946622344137 0.93 1.46316186789e-38
0.0172113153479 -0.0946622344137 0.93 1.45390657179e-38
0.0189324468827 -0.0946622344137 0.93 1.46294718896e-38
0.0206535784175 -0.0946622344137 0.93 1.52759020816e-38
0.0223747099523 -0.0946622344137 0.93 1.37097058205e-38
0.0240958414871 -0.0946622344137 0.93 1.41692126064e-38
0.0258169730219 -0.0946622344137 0.93 1.4263562032e-38
0.027626937152 -0.0949675964602 0.933 1.41706475361e-38
0.0293536207241 -0.0949675964602 0.933 1.42614096376e-38
0.0310803042961 -0.0949675964602 0.933 1.38018706218e-38
0.0328069878681 -0.0949675964602 0.933 1.39848241493e-38
0.0345336714401 -0.0949675964602 0.933 1.38922711883e-38
0.0361437622307 -0.0946622344137 0.93 1.39848241493e-38
0.0378648937655 -0.0946622344137 0.93 1.36171234323e-38
0.0395008940631 -0.094458659716 0.928 1.36181996295e-38
0.0412183242397 -0.094458659716 0.928 1.3616047235e-38
0.0427969534861 -0.0941532976695 0.925 1.36164059675e-38
0.0445088316256 -0.0941532976695 0.925 1.36171388466e-38
0.046220709765 -0.0941532976695 0.925 1.30653929905e-38
0.0479325879045 -0.0941532976695 0.925 1.31586634163e-38
0.0493761175788 -0.0936443609254 0.92 1.31586634163e-38
0.0509677015787 -0.0934407862277 0.918 1.28788521389e-38
0.0524945118112 -0.0931354241812 0.915 1.32490639828e-38
0.05418788316 -0.0931354241812 0.915 1.34345286372e-38
0.0557591096901 -0.0929318494835 0.913 1.31579459515e-38
0.0572600104156 -0.092626487437 0.91 1.29739162268e-38
0.0588145808341 -0.0924229127394 0.908 1.34327489881e-38
0.0600286263038 -0.0917104012975 0.901 1.3432377644e-38
0.0613537125177 -0.0912014645534 0.896 1.38029552268e-38
0.0628712693549 -0.0909978898557 0.894 1.03903254325e-38
0.064309246992 -0.0906925278092 0.891 1.85852729947e-38
0.0658101477175 -0.0904889531116 0.889 2.34860018841e-38
0.0674554014104 -0.0904889531116 0.889 2.35033485578e-38
-0.006773485395 -0.0914420528324 0.915 2.34943298009e-38
-0.00508011404625 -0.0914420528324 0.915 1.72040999789e-38
-0.0033867426975 -0.0914420528324 0.915 1.96976517417e-38
-0.00169337134875 -0.0914420528324 0.915 1.85906189483e-38
0.0 -0.0917418628417 0.918 1.81289415511e-38
0.00169892338596 -0.0917418628417 0.918 1.71187104557e-38
0.00339784677192 -0.0917418628417 0.918 1.67492160766e-38
0.00510787423229 -0.0919417361813 0.92 1.66563043832e-38
0.00684751255778 -0.0924414195301 0.925 1.63822328244e-38
0.00858715088327 -0.0927412295394 0.928 1.57357984285e-38
0.0103045810599 -0.0927412295394 0.928 1.58269150586e-38
0.0120479207436 -0.0929411028789 0.93 1.55506911053e-38
0.0137690522784 -0.0929411028789 0.93 1.50000368607e-38
0.0154901838131 -0.0929411028789 0.93 1.42639179619e-38
0.0172113153479 -0.0929411028789 0.93 1.45390657179e-38
0.0189324468827 -0.0929411028789 0.93 1.42617655674e-38
0.0206535784175 -0.0929411028789 0.93 1.41699300713e-38
0.0223747099523 -0.0929411028789 0.93 1.42610481026e-38
0.024173570008 -0.0932409128882 0.933 1.41695713388e-38
0.02590025358 -0.0932409128882 0.933 1.41702888037e-38
0.027626937152 -0.0932409128882 0.933 1.45394244503e-38
0.0293536207241 -0.0932409128882 0.933 1.39862730919e-38
0.0310803042961 -0.0932409128882 0.933 1.34338111724e-38
0.0328069878681 -0.0932409128882 0.933 1.4539075527e-38
0.0345336714401 -0.0932409128882 0.933 1.36178408971e-38
0.0362603550121 -0.0932409128882 0.933 1.33416169438e-38
0.0379870385841 -0.0932409128882 0.933 1.38007944246e-38
0.0395860253003 -0.0929411028789 0.93 1.35245704713e-38
0.0412183242397 -0.0927412295394 0.928 1.30657517229e-38
0.0429357544164 -0.0927412295394 0.928 1.31579459515e-38
0.0445088316256 -0.0924414195301 0.925 1.3155793557e-38
0.046220709765 -0.0924414195301 0.925 1.28770584769e-38
0.0479325879045 -0.0924414195301 0.925 1.39862590789e-38
0.0495371266579 -0.0922415461905 0.923 1.29717638323e-38
0.0510787423229 -0.0919417361813 0.92 1.37107525905e-38
0.0526666249647 -0.0917418628417 0.918 1.30661216657e-38
0.05418788316 -0.0914420528324 0.915 1.31583046839e-38
0.0558812545087 -0.0914420528324 0.915 1.27906039668e-38
0.0572600104156 -0.0909423694836 0.91 1.27906039668e-38
0.0588145808341 -0.0907424961441 0.908 1.31572284867e-38
0.0603617485364 -0.0905426228046 0.906 1.33430518734e-38
0.0616960881456 -0.0900429394558 0.901 1.29746336916e-38
0.0630119209642 -0.089543256107 0.896 1.14916339216e-38
0.0645257764432 -0.0893433827674 0.894 2.34799244527e-38
0.0661802835314 -0.0893433827674 0.894 2.28355934058e-38
0.0678347906197 -0.0893433827674 0.894 2.35076631558e-38
-0.006773485395 -0.0897486814837 0.915 2.34964962083e-38
-0.00508011404625 -0.0897486814837 0.915 1.86925283792e-38
-0.0033867426975 -0.0897486814837 0.915 1.91297643286e-38
-0.00169892338596 -0.0900429394558 0.918 1.85899211017e-38
0.0 -0.0900429394558 0.918 1.82207742447e-38
0.0017026247441 -0.0902391114372 0.92 1.76711583623e-38
0.00340524948819 -0.0902391114372 0.92 1.61045739415e-38
0.00512453034392 -0.0905333694092 0.923 1.64730033337e-38
0.00684751255778 -0.0907295413906 0.925 1.62889623986e-38
0.00858715088327 -0.0910237993627 0.928 1.53680963102e-38
0.0103267892088 -0.0912199713441 0.93 1.56428853338e-38
0.0120479207436 -0.0912199713441 0.93 1.44468714894e-38
0.013813468576 -0.0915142293162 0.933 1.44461596297e-38
0.015540152148 -0.0915142293162 0.933 1.46309082206e-38
0.01726683572 -0.0915142293162 0.933 1.44465519933e-38
0.018993519292 -0.0915142293162 0.933 1.46298250169e-38
0.020720202864 -0.0915142293162 0.933 1.43543185284e-38
0.022446886436 -0.0915142293162 0.933 1.41684979442e-38
0.024173570008 -0.0915142293162 0.933 1.40773771103e-38
0.02590025358 -0.0915142293162 0.933 1.40766596455e-38
0.0276861588823 -0.0917104012975 0.935 1.39862590789e-38
0.0294165438124 -0.0917104012975 0.935 1.35256466685e-38
0.0311469287426 -0.0917104012975 0.935 1.33416169438e-38
0.0328773136727 -0.0917104012975 0.935 1.34338111724e-38
0.0346076986028 -0.0917104012975 0.935 1.30653929905e-38
0.036338083533 -0.0917104012975 0.935 1.343345244e-38
0.0380684684631 -0.0917104012975 0.935 1.36171388466e-38
0.0395860253003 -0.0912199713441 0.93 1.32479877856e-38
0.0413071568351 -0.0912199713441 0.93 1.29728400295e-38
0.0429357544164 -0.0910237993627 0.928 1.26969832164e-38
0.044653184593 -0.0910237993627 0.928 1.3155793557e-38
0.0463706147697 -0.0910237993627 0.928 1.29710463675e-38
0.0479325879045 -0.0907295413906 0.925 1.29699701703e-38
0.0495371266579 -0.0905333694092 0.923 1.30625231313e-38
0.0510787423229 -0.0902391114372 0.92 1.32508576449e-38
0.0526666249647 -0.0900429394558 0.918 1.29735574944e-38
0.0543655483507 -0.0900429394558 0.918 1.30661104553e-38
0.0558812545087 -0.0897486814837 0.915 1.30650342581e-38
0.0574487796807 -0.0895525095023 0.913 1.2789886502e-38
0.058944128369 -0.0892582515302 0.91 1.34338111724e-38
0.0604949974294 -0.0890620795488 0.908 1.35267228657e-38
0.0616960881456 -0.088375477614 0.901 9.56308850226e-39
0.0631525725735 -0.0880812196419 0.898 2.06928651214e-38
0.0646701294106 -0.0878850476605 0.896 2.3490682221e-38
0.066328337857 -0.0878850476605 0.896 1.87782640231e-38
0.0679865463034 -0.0878850476605 0.896 2.35087351491e-38
-0.00681049897639 -0.0885364866931 0.92 1.7381027923e-38
-0.0017026247441 -0.0885364866931 0.92 1.80334780932e-38
0.0 -0.0885364866931 0.92 1.71169167937e-38
0.0017026247441 -0.0885364866931 0.92 1.66555939249e-38
0.00340524948819 -0.0885364866931 0.92 1.7947741048e-38
0.00513563441834 -0.0890176632512 0.925 1.61038634832e-38
0.00686972070662 -0.089306369186 0.928 1.61056501387e-38
0.00860565767397 -0.0894988398093 0.93 1.57357970272e-38
0.010360101432 -0.0897875457442 0.933 1.53673788454e-38
0.012086785004 -0.0897875457442 0.933 1.51840918088e-38
0.0138430794411 -0.0899800163674 0.935 1.51837288725e-38
0.015540152148 -0.0897875457442 0.933 1.43532451338e-38
0.01726683572 -0.0897875457442 0.933 1.44461568271e-38
0.018993519292 -0.0897875457442 0.933 1.38944235828e-38
0.020720202864 -0.0897875457442 0.933 1.4353959796e-38
0.022446886436 -0.0897875457442 0.933 1.4353959796e-38
0.024225389022 -0.0899800163674 0.935 1.39851828817e-38
0.0259557739521 -0.0899800163674 0.935 1.38004356922e-38
0.0276861588823 -0.0899800163674 0.935 1.35252879361e-38
0.029510928445 -0.0902687223023 0.938 1.35252879361e-38
0.0312468654123 -0.0902687223023 0.938 1.33416169438e-38
0.0329828023797 -0.0902687223023 0.938 1.32504989125e-38
0.034718739347 -0.0902687223023 0.938 1.26058609812e-38
0.0364546763144 -0.0902687223023 0.938 1.27902452344e-38
0.0380684684631 -0.0899800163674 0.935 1.30632405961e-38
0.0397137221561 -0.0897875457442 0.933 1.29710463675e-38
0.0414404057281 -0.0897875457442 0.933 1.28781346741e-38
0.0430282883699 -0.0894988398093 0.93 1.2695539879e-38
0.044653184593 -0.089306369186 0.928 1.33387470845e-38
0.0463706147697 -0.089306369186 0.928 1.29728400295e-38
0.0479325879045 -0.0890176632512 0.925 1.30646839335e-38
0.0495371266579 -0.0888251926279 0.923 1.33416169438e-38
0.0510787423229 -0.0885364866931 0.92 1.30661104553e-38
0.0526666249647 -0.0883440160698 0.918 1.26973335411e-38
0.0543655483507 -0.0883440160698 0.918 1.25122276191e-38
0.0558812545087 -0.0880553101349 0.915 1.32476290532e-38
0.0574487796807 -0.0878628395117 0.913 1.29731987619e-38
0.058944128369 -0.0875741335768 0.91 1.31575872191e-38
0.0606282463224 -0.0875741335768 0.91 1.14062556087e-38
0.0618330383968 -0.0869004863955 0.903 1.27787657974e-38
0.0631525725735 -0.0864193098374 0.898 2.34924997051e-38
0.064814482378 -0.0864193098374 0.898 1.27877719427e-38
0.0664763921826 -0.0864193098374 0.898 2.34911684716e-38
0.0 -0.0871170158466 0.923 1.76654186438e-38
0.00170817678131 -0.0871170158466 0.923 1.73016850027e-38
0.00341635356261 -0.0871170158466 0.923 1.59191092871e-38
0.00515229052996 -0.0875889390094 0.928 1.58283499882e-38
0.00686972070662 -0.0875889390094 0.928 1.60134559101e-38
0.00860565767397 -0.0877777082745 0.93 1.5274467152e-38
0.010360101432 -0.0880608621722 0.933 1.54588556091e-38
0.012112694511 -0.0882496314373 0.935 1.46301837493e-38
0.0138430794411 -0.0882496314373 0.935 1.51826316558e-38
0.0155734643713 -0.0882496314373 0.935 1.49986019311e-38
0.0173038493014 -0.0882496314373 0.935 1.40777358427e-38
0.0190342342316 -0.0882496314373 0.935 1.34338111724e-38
0.0207646191617 -0.0882496314373 0.935 1.3708600196e-38
0.0224950040919 -0.0882496314373 0.935 1.40759421807e-38
0.024225389022 -0.0882496314373 0.935 1.37078827312e-38
0.0259557739521 -0.0882496314373 0.935 1.42621242998e-38
0.0276861588823 -0.0882496314373 0.935 1.29728400295e-38
0.029510928445 -0.0885327853349 0.938 1.325014018e-38
0.0312468654123 -0.0885327853349 0.938 1.24178809961e-38
0.0329828023797 -0.0885327853349 0.938 1.27873753752e-38
0.034718739347 -0.0885327853349 0.938 1.26973335411e-38
0.0364546763144 -0.0885327853349 0.938 1.26072917069e-38
0.0380684684631 -0.0882496314373 0.935 1.22374385955e-38
0.0397988533933 -0.0882496314373 0.935 1.3248346518e-38
0.0414404057281 -0.0880608621722 0.933 1.26037310075e-38
0.0430282883699 -0.0877777082745 0.93 1.2880645801e-38
0.0447494199046 -0.0877777082745 0.93 1.27877341076e-38
0.0463706147697 -0.0875889390094 0.928 1.29728400295e-38
0.0480880449463 -0.0875889390094 0.928 1.3340899479e-38
0.0496444660439 -0.0873057851117 0.925 1.29739162268e-38
0.0512453034392 -0.0871170158466 0.923 1.26973335411e-38
0.052781367067 -0.086833861949 0.92 1.30632405961e-38
0.0543655483507 -0.0866450926839 0.918 1.28810045334e-38
0.0560644717366 -0.0866450926839 0.918 1.31583046839e-38
0.0575746258575 -0.0863619387862 0.915 1.3155793557e-38
0.0591384496713 -0.0861731695211 0.913 1.16799684352e-38
0.0608281196619 -0.0861731695211 0.913 1.12103877146e-38
0.0621754140247 -0.0857012463583 0.908 2.34896340497e-38
0.0637151790106 -0.0855124770932 0.906 2.18283162476e-38
0.0653918942478 -0.0855124770932 0.906 6.97949770801e-39
0.0670686094849 -0.0855124770932 0.906 2.3507321239e-38
0.0 -0.0855939069723 0.925 1.67513684711e-38
0.00171187813945 -0.0855939069723 0.925 1.75707132884e-38
0.00342375627889 -0.0855939069723 0.925 1.63818993154e-38
0.00515229052996 -0.0858715088327 0.928 1.59212616816e-38
0.00688452613918 -0.0860565767397 0.93 1.57361557596e-38
0.00863341786002 -0.0863341786002 0.933 1.51815554586e-38
0.0103823095809 -0.0865192465071 0.935 1.49968082691e-38
