# .PCD v0.7 - Point Cloud Data file format
VERSION 0.7
FIELDS x y z rgb
SIZE 4 4 4 4
TYPE F F F F
COUNT 1 1 1 1
WIDTH 843
HEIGHT 1
VIEWPOINT 0 0 0 1 0 0 0
POINTS 843
DATA ascii
0.0287243898404 -0.101380199437 0.913 1.97758834323e-38
0.030414059831 -0.101380199437 0.913 1.91320064061e-38
0.0321740556262 -0.101602280925 0.915 2.03301544282e-38
0.0339784677192 -0.101935403157 0.918 2.01425780171e-38
0.0356773911051 -0.101935403157 0.918 2.17095281767e-38
0.0373763144911 -0.101935403157 0.918 1.76634021753e-38
0.0391603691142 -0.102157484646 0.92 1.35188671865e-38
0.0409962427514 -0.102490606878 0.923 7.73078846537e-39
0.0427044195327 -0.102490606878 0.923 9.58441766619e-39
0.044412596314 -0.102490606878 0.923 7.55181742811e-39
-0.0240440224732 -0.101328380423 0.928 2.35098856151e-38
-0.0223265922965 -0.101328380423 0.928 5.97478352467e-39
-0.0206091621199 -0.101328380423 0.928 1.56476693668e-38
-0.0188306595339 -0.101000810227 0.925 1.7490821059e-38
-0.0171187813945 -0.101000810227 0.925 1.38045050629e-38
-0.0153236226969 -0.100454859902 0.92 1.04879006472e-38
-0.0135913870877 -0.100236479772 0.918 3.58159556055e-39
-0.0118924637017 -0.100236479772 0.918 2.75581177682e-39
-0.0101602280925 -0.0999089095762 0.915 9.74939813959e-39
-0.00846685674374 -0.0999089095762 0.915 1.2419772749e-38
-0.006773485395 -0.0999089095762 0.915 1.41717727787e-38
-0.00508011404625 -0.0999089095762 0.915 1.78509183306e-38
-0.00337933998122 -0.099690529446 0.913 1.76643718738e-38
-0.00168966999061 -0.099690529446 0.913 1.72956468076e-38
0.0 -0.0993629592506 0.91 1.8399769104e-38
0.00168041659526 -0.0991445791204 0.908 1.72927979678e-38
0.00336083319052 -0.0991445791204 0.908 1.83058582848e-38
0.0050523538602 -0.0993629592506 0.91 1.81228711261e-38
0.0067364718136 -0.0993629592506 0.91 1.81243130623e-38
0.00840208297631 -0.0991445791204 0.908 1.84008831363e-38
0.0100824995716 -0.0991445791204 0.908 1.79399091909e-38
0.0117629161668 -0.0991445791204 0.908 1.88608439429e-38
0.0134433327621 -0.0991445791204 0.908 1.88604333625e-38
0.0151237493574 -0.0991445791204 0.908 1.92273815822e-38
0.016841179534 -0.0993629592506 0.91 1.90415680046e-38
0.0184845825479 -0.0991445791204 0.908 1.93185276395e-38
0.0201649991431 -0.0991445791204 0.908 1.90408645527e-38
0.0218935333942 -0.0993629592506 0.91 1.88535992298e-38
0.0235776513476 -0.0993629592506 0.91 1.94975239002e-38
0.0253450498591 -0.099690529446 0.913 1.8945486574e-38
0.0270347198498 -0.099690529446 0.913 1.94989532246e-38
0.0287873129287 -0.0999089095762 0.915 1.95911236311e-38
0.0304806842775 -0.0999089095762 0.915 2.02397426513e-38
0.0322795443332 -0.100236479772 0.918 2.02419510977e-38
0.0339784677192 -0.100236479772 0.918 1.58220063101e-38
0.0356773911051 -0.100236479772 0.918 1.59133779764e-38
0.0374577443701 -0.100454859902 0.92 8.91954078122e-39
0.03928806597 -0.100782430097 0.923 8.19825883047e-39
0.0409962427514 -0.100782430097 0.923 8.94266360718e-39
0.0427044195327 -0.100782430097 0.923 7.37351481021e-39
0.044412596314 -0.100782430097 0.923 1.62974696816e-38
-0.0240440224732 -0.099610950246 0.928 2.35098856151e-38
-0.0223265922965 -0.099610950246 0.928 1.65304733863e-39
-0.0206091621199 -0.099610950246 0.928 1.15961960104e-38
-0.0188306595339 -0.0992889320879 0.925 1.57438320726e-38
-0.0171187813945 -0.0992889320879 0.925 1.4446217083e-38
-0.0153735910318 -0.0990742533158 0.923 1.71165874885e-38
-0.0135913870877 -0.0985375563856 0.918 1.34349111917e-38
-0.0118924637017 -0.0985375563856 0.918 9.93258288134e-39
-0.0101602280925 -0.0982155382274 0.915 4.49996593641e-39
-0.00846685674374 -0.0982155382274 0.915 2.93984290284e-39
-0.006773485395 -0.0982155382274 0.915 6.89709435181e-39
-0.00508011404625 -0.0982155382274 0.915 9.74720931139e-39
-0.00337933998122 -0.0980008594554 0.913 1.1955955569e-38
-0.00168966999061 -0.0980008594554 0.913 1.34342343645e-38
0.0 -0.0976788412972 0.91 1.64723573351e-38
0.00168041659526 -0.0974641625252 0.908 1.79395714779e-38
0.00336083319052 -0.0974641625252 0.908 1.80303027509e-38
0.0050523538602 -0.0976788412972 0.91 1.75678434291e-38
0.0067364718136 -0.0976788412972 0.91 1.83058008316e-38
0.00840208297631 -0.0974641625252 0.908 1.76586713917e-38
0.0100824995716 -0.0974641625252 0.908 1.81188830307e-38
0.0117629161668 -0.0974641625252 0.908 1.83965615318e-38
0.0134433327621 -0.0974641625252 0.908 1.857986118e-38
0.0151570615806 -0.0976788412972 0.91 1.83929335701e-38
0.016841179534 -0.0976788412972 0.91 1.95907705039e-38
0.0185252974874 -0.0976788412972 0.91 1.86699114219e-38
0.0202094154408 -0.0976788412972 0.91 1.83977035901e-38
0.0218935333942 -0.0976788412972 0.91 1.89472409997e-38
0.0236553798685 -0.0980008594554 0.913 1.93146152142e-38
0.0253450498591 -0.0980008594554 0.913 1.95008085438e-38
0.02709394158 -0.0982155382274 0.915 1.97787799162e-38
0.0287873129287 -0.0982155382274 0.915 1.86756721599e-38
0.0304806842775 -0.0982155382274 0.915 1.44426409693e-38
0.0321740556262 -0.0982155382274 0.915 1.25069040863e-38
0.0339784677192 -0.0985375563856 0.918 8.91887236186e-39
0.035755119626 -0.0987522351576 0.92 6.35327704248e-39
0.0374577443701 -0.0987522351576 0.92 7.64830943906e-39
0.03928806597 -0.0990742533158 0.923 7.64901289089e-39
0.0409962427514 -0.0990742533158 0.923 5.15975050276e-39
0.0427044195327 -0.0990742533158 0.923 1.69445809046e-38
0.044412596314 -0.0990742533158 0.923 2.06212181322e-38
-0.0240440224732 -0.0978935200693 0.928 2.35098856151e-38
-0.0223265922965 -0.0978935200693 0.928 9.39668711222e-39
-0.0206091621199 -0.0978935200693 0.928 6.34324094288e-39
-0.0188306595339 -0.0975770539484 0.925 9.76266002826e-39
-0.0171187813945 -0.0975770539484 0.925 1.50959038926e-38
-0.0153735910318 -0.0973660765345 0.923 1.56421832833e-38
-0.0135913870877 -0.0968386329996 0.918 1.66538941499e-38
-0.0118924637017 -0.0968386329996 0.918 1.72934804002e-38
-0.0101935403157 -0.0968386329996 0.918 1.40745422835e-38
-0.00849461692979 -0.0968386329996 0.918 1.05747461195e-38
-0.00679569354383 -0.0968386329996 0.918 6.52036787137e-39
-0.00508011404625 -0.0965221668787 0.915 2.6633008548e-39
-0.0033867426975 -0.0965221668787 0.915 1.4693945632e-39
-0.00169337134875 -0.0965221668787 0.915 2.57143593138e-39
0.0 -0.0963111894648 0.913 7.26043282673e-39
0.0016841179534 -0.0959947233438 0.91 1.12151086891e-38
0.0033682359068 -0.0959947233438 0.91 1.23189619362e-38
0.00506900997183 -0.0963111894648 0.913 1.38952237242e-38
0.0067364718136 -0.0959947233438 0.91 1.55553546266e-38
0.008420589767 -0.0959947233438 0.91 1.57373034231e-38
0.0101047077204 -0.0959947233438 0.91 1.6561684507e-38
0.0117888256738 -0.0959947233438 0.91 1.7757681536e-38
0.0134729436272 -0.0959947233438 0.91 1.80317544961e-38
0.0151570615806 -0.0959947233438 0.91 1.87689636052e-38
0.016841179534 -0.0959947233438 0.91 1.85842192183e-38
0.0185252974874 -0.0959947233438 0.91 1.73864005013e-38
0.0202094154408 -0.0959947233438 0.91 1.79410358348e-38
0.0218935333942 -0.0959947233438 0.91 1.69301082941e-38
0.0236553798685 -0.0963111894648 0.913 1.52716491408e-38
0.0253450498591 -0.0963111894648 0.913 1.4353650109e-38
0.02709394158 -0.0965221668787 0.915 1.26005458561e-38
0.0287873129287 -0.0965221668787 0.915 1.02971026509e-38
0.0304806842775 -0.0965221668787 0.915 5.88474309184e-39
0.0321740556262 -0.0965221668787 0.915 5.89624354834e-39
0.0339784677192 -0.0968386329996 0.918 6.72416711482e-39
0.035755119626 -0.0970496104135 0.92 7.82983364213e-39
0.0374577443701 -0.0970496104135 0.92 6.35685175486e-39
0.03928806597 -0.0973660765345 0.923 7.27411650624e-39
0.0409962427514 -0.0973660765345 0.923 1.78654203684e-38
0.0427044195327 -0.0973660765345 0.923 2.22785534442e-38
-0.0240440224732 -0.0961760898927 0.928 2.35098856151e-38
-0.0223265922965 -0.0961760898927 0.928 1.62260623144e-38
-0.0206091621199 -0.0961760898927 0.928 1.01099928721e-38
-0.0188306595339 -0.095865175809 0.925 5.98052884837e-39
-0.0171187813945 -0.095865175809 0.925 9.0229496014e-39
-0.015406903255 -0.095865175809 0.925 1.31594831759e-38
-0.0136654142505 -0.0956578997532 0.923 1.52770483438e-38
-0.0119183732087 -0.0953469856695 0.92 1.71080157458e-38
-0.0101935403157 -0.0951397096136 0.918 1.63711541587e-38
-0.00849461692979 -0.0951397096136 0.918 1.7294597235e-38
-0.00679569354383 -0.0951397096136 0.918 1.57312147812e-38
-0.00509677015787 -0.0951397096136 0.918 1.25115577985e-38
-0.0033867426975 -0.0948287955299 0.915 9.37512112886e-39
-0.00169337134875 -0.0948287955299 0.915 4.31632577266e-39
0.0 -0.0946215194741 0.913 3.681376419e-39
0.00168966999061 -0.0946215194741 0.913 4.23709635749e-39
0.00337933998122 -0.0946215194741 0.913 2.855563208e-39
0.00506900997183 -0.0946215194741 0.913 2.48606042114e-39
0.00675867996244 -0.0946215194741 0.913 3.49446702593e-39
0.008420589767 -0.0943106053904 0.91 6.06406725632e-39
0.0101047077204 -0.0943106053904 0.91 7.62920974099e-39
0.0117888256738 -0.0943106053904 0.91 9.46842098191e-39
0.0134729436272 -0.0943106053904 0.91 9.18790064753e-39
0.0152070299155 -0.0946215194741 0.913 1.02910238181e-38
0.016841179534 -0.0943106053904 0.91 1.01088059723e-38
0.0185252974874 -0.0943106053904 0.91 9.18684967368e-39
0.0202760398873 -0.0946215194741 0.913 1.00205535963e-38
0.0219657098779 -0.0946215194741 0.913 7.35336413829e-39
0.0236553798685 -0.0946215194741 0.913 7.17545948915e-39
0.0254005702312 -0.0948287955299 0.915 4.87955106573e-39
0.02709394158 -0.0948287955299 0.915 5.25013145111e-39
0.0287873129287 -0.0948287955299 0.915 6.08099073788e-39
0.0305806209472 -0.0951397096136 0.918 7.1876437793e-39
0.0322795443332 -0.0951397096136 0.918 7.09619504152e-39
0.0340524948819 -0.0953469856695 0.92 7.00292461573e-39
0.035755119626 -0.0953469856695 0.92 4.41896387868e-39
0.0375798891887 -0.0956578997532 0.923 1.3157000075e-38
0.0393731972073 -0.095865175809 0.925 1.81334158971e-38
0.0410850753467 -0.095865175809 0.925 2.20908985603e-38
0.0427969534861 -0.095865175809 0.925 1.70216060773e-38
-0.0240958414871 -0.0946622344137 0.93 2.35098856151e-38
-0.0223747099523 -0.0946622344137 0.93 2.19418368375e-38
-0.0206535784175 -0.0946622344137 0.93 1.26949120973e-38
-0.0188917319432 -0.094458659716 0.928 1.02089273463e-38
-0.0171187813945 -0.0941532976695 0.925 7.8272174179e-39
-0.015406903255 -0.0941532976695 0.925 3.40229802074e-39
-0.0136654142505 -0.0939497229719 0.923 8.73809645217e-39
-0.0119572374691 -0.0939497229719 0.923 1.59194946442e-38
-0.0102490606878 -0.0939497229719 0.923 1.65609530292e-38
-0.00851312372049 -0.0936443609254 0.92 1.60038738312e-38
-0.00679569354383 -0.0934407862277 0.918 1.72906091396e-38
-0.00509677015787 -0.0934407862277 0.918 1.74767800484e-38
-0.0033867426975 -0.0931354241812 0.915 1.72016505092e-38
-0.00169337134875 -0.0931354241812 0.915 1.39823900939e-38
0.0 -0.0931354241812 0.915 9.74397371323e-39
0.00169337134875 -0.0931354241812 0.915 9.00208286597e-39
0.0033867426975 -0.0931354241812 0.915 3.39795960069e-39
0.00506900997183 -0.0929318494835 0.913 4.69694225765e-39
0.00675867996244 -0.0929318494835 0.913 4.14630763128e-39
0.00844834995305 -0.0929318494835 0.913 4.33210579467e-39
0.0101380199437 -0.0929318494835 0.913 4.60728017541e-39
0.0118276899343 -0.0929318494835 0.913 4.60802146229e-39
0.0135173599249 -0.0929318494835 0.913 4.5140307691e-39
0.0152070299155 -0.0929318494835 0.913 4.51578659607e-39
0.0168966999061 -0.0929318494835 0.913 4.79061765869e-39
0.0185863698967 -0.0929318494835 0.913 4.88281328855e-39
0.0202760398873 -0.0929318494835 0.913 4.88316641577e-39
0.0219657098779 -0.0929318494835 0.913 5.61965525745e-39
0.0236553798685 -0.0929318494835 0.913 6.35470076172e-39
0.0254005702312 -0.0931354241812 0.915 6.5397744538e-39
0.02709394158 -0.0931354241812 0.915 6.5419618807e-39
0.0287873129287 -0.0931354241812 0.915 6.08170680139e-39
0.0305806209472 -0.0934407862277 0.918 5.7114977601e-39
0.0322795443332 -0.0934407862277 0.918 4.60119013228e-39
0.0340524948819 -0.0936443609254 0.92 1.04808661289e-38
0.035755119626 -0.0936443609254 0.92 1.74878783322e-38
0.0375798891887 -0.0939497229719 0.923 2.02497941652e-38
0.0393731972073 -0.0941532976695 0.925 2.23638925206e-38
0.0412183242397 -0.094458659716 0.928 1.71145149681e-38
0.0429357544164 -0.094458659716 0.928 1.06766527477e-38
-0.0223747099523 -0.0929411028789 0.93 2.35098856151e-38
-0.0206535784175 -0.0929411028789 0.93 1.08542799398e-38
-0.0189324468827 -0.0929411028789 0.93 1.64734489466e-38
-0.0171743017665 -0.0927412295394 0.928 1.3898124412e-38
-0.0154568715899 -0.0927412295394 0.928 4.77694378827e-39
-0.0136950251156 -0.0924414195301 0.925 4.4204058148e-39
-0.0119572374691 -0.0922415461905 0.923 5.33255722808e-39
-0.0102490606878 -0.0922415461905 0.923 1.11293646374e-38
-0.00854088390653 -0.0922415461905 0.923 1.44465127569e-38
-0.00681049897639 -0.0919417361813 0.92 1.73010235898e-38
-0.00509677015787 -0.0917418628417 0.918 1.67407228066e-38
-0.00339784677192 -0.0917418628417 0.918 1.87650007331e-38
-0.00169337134875 -0.0914420528324 0.915 1.68285575957e-38
0.0 -0.0914420528324 0.915 1.90436937743e-38
0.00169337134875 -0.0914420528324 0.915 1.77580164463e-38
0.0033867426975 -0.0914420528324 0.915 1.52731134977e-38
0.00508011404625 -0.0914420528324 0.915 1.16806957091e-38
0.006773485395 -0.0914420528324 0.915 9.92224970646e-39
0.00844834995305 -0.0912421794929 0.913 6.89237057469e-39
0.0101380199437 -0.0912421794929 0.913 4.96598455631e-39
0.0118535994412 -0.0914420528324 0.915 4.5125664122e-39
0.01354697079 -0.0914420528324 0.915 4.33105201822e-39
0.0152403421387 -0.0914420528324 0.915 4.60728017541e-39
0.0169337134875 -0.0914420528324 0.915 4.79167704033e-39
0.0186270848362 -0.0914420528324 0.915 4.60550473025e-39
0.020320456185 -0.0914420528324 0.915 4.60581581851e-39
0.0220138275337 -0.0914420528324 0.915 5.06574019138e-39
0.0237071988825 -0.0914420528324 0.915 5.34232708097e-39
0.0254005702312 -0.0914420528324 0.915 5.61674055665e-39
0.02709394158 -0.0914420528324 0.915 4.60259423334e-39
0.0288816975613 -0.0917418628417 0.918 7.99910909532e-39
0.0306472453938 -0.0919417361813 0.92 1.41668009718e-38
0.0323498701378 -0.0919417361813 0.92 1.73967897282e-38
0.0341635356261 -0.0922415461905 0.923 1.99725024224e-38
0.0359494409284 -0.0924414195301 0.925 2.14386291576e-38
0.0376613190678 -0.0924414195301 0.925 2.00593268753e-38
0.0395008940631 -0.0927412295394 0.928 1.61032595235e-38
0.0412183242397 -0.0927412295394 0.928 1.07695770528e-38
0.0429357544164 -0.0927412295394 0.928 8.93975170898e-39
-0.0225671805756 -0.0920046592696 0.938 2.35098856151e-38
-0.0208312436082 -0.0920046592696 0.938 2.84694802505e-39
-0.0190342342316 -0.0917104012975 0.935 1.6284391363e-38
-0.0171743017665 -0.0910237993627 0.928 1.85917624079e-38
-0.0154568715899 -0.0910237993627 0.928 1.15892707934e-38
-0.0137394414132 -0.0910237993627 0.928 9.65464233743e-39
-0.0119831469761 -0.0907295413906 0.925 5.23470175372e-39
-0.0102712688367 -0.0907295413906 0.925 4.05018416183e-39
-0.00854088390653 -0.0905333694092 0.923 2.38989351143e-39
-0.00681049897639 -0.0902391114372 0.92 9.65212140149e-39
-0.00510787423229 -0.0902391114372 0.92 1.39830332899e-38
-0.00339784677192 -0.0900429394558 0.918 1.56446874037e-38
-0.00169892338596 -0.0900429394558 0.918 1.72026874701e-38
0.0 -0.0900429394558 0.918 1.82132044304e-38
0.00169892338596 -0.0900429394558 0.918 1.83053972576e-38
0.00339784677192 -0.0900429394558 0.918 1.78430822696e-38
0.00508011404625 -0.0897486814837 0.915 1.88579180317e-38
0.006773485395 -0.0897486814837 0.915 1.81235941962e-38
0.00846685674374 -0.0897486814837 0.915 1.66538394993e-38
0.0101602280925 -0.0897486814837 0.915 1.50897283703e-38
0.0118535994412 -0.0897486814837 0.915 1.3432377644e-38
0.01354697079 -0.0897486814837 0.915 1.250372454e-38
0.0152403421387 -0.0897486814837 0.915 1.05679848544e-38
0.0169337134875 -0.0897486814837 0.915 1.1031485341e-38
0.0186270848362 -0.0897486814837 0.915 1.11221969957e-38
0.020320456185 -0.0897486814837 0.915 1.12151381164e-38
0.0220138275337 -0.0897486814837 0.915 1.14935298784e-38
0.0237071988825 -0.0897486814837 0.915 1.21406845417e-38
0.0254838507894 -0.0900429394558 0.918 1.45399219113e-38
0.0271827741753 -0.0900429394558 0.918 1.56469280799e-38
0.0289446206497 -0.0902391114372 0.92 1.90549013594e-38
0.0307471820635 -0.0905333694092 0.923 2.08944783393e-38
0.0324553588448 -0.0905333694092 0.923 1.85878093449e-38
0.0342375627889 -0.0907295413906 0.925 1.60120574143e-38
0.0359494409284 -0.0907295413906 0.925 1.49050792716e-38
0.0377834638864 -0.0910237993627 0.928 1.1403820152e-38
0.0395008940631 -0.0910237993627 0.928 9.02329992602e-39
0.0412183242397 -0.0910237993627 0.928 9.31033209436e-39
-0.0225671805756 -0.0902687223023 0.938 2.35098856151e-38
-0.0208312436082 -0.0902687223023 0.938 2.11257514404e-39
-0.0190342342316 -0.0899800163674 0.935 1.12209464985e-38
-0.0173038493014 -0.0899800163674 0.935 1.5740199907e-38
-0.0155734643713 -0.0899800163674 0.935 1.69322214522e-38
-0.013813468576 -0.0897875457442 0.933 1.61936825108e-38
-0.0120479207436 -0.0894988398093 0.93 1.39834004301e-38
-0.0103045810599 -0.089306369186 0.928 9.56201230504e-39
-0.00855939069723 -0.0890176632512 0.925 4.22447766482e-39
-0.00683270712523 -0.0888251926279 0.923 3.68214012666e-39
-0.00510787423229 -0.0885364866931 0.92 8.26582523853e-40
-0.00340524948819 -0.0885364866931 0.92 6.61904590792e-39
-0.0017026247441 -0.0885364866931 0.92 1.0663404872e-38
0.0 -0.0885364866931 0.92 1.31569818581e-38
0.00169892338596 -0.0883440160698 0.918 1.48171295761e-38
0.00339784677192 -0.0883440160698 0.918 1.7575402033e-38
0.00509677015787 -0.0883440160698 0.918 1.8398360799e-38
0.00679569354383 -0.0883440160698 0.918 1.77516027032e-38
0.00849461692979 -0.0883440160698 0.918 1.94089240022e-38
0.0101602280925 -0.0880553101349 0.915 1.87665029251e-38
0.0118535994412 -0.0880553101349 0.915 2.00565032589e-38
0.01354697079 -0.0880553101349 0.915 1.95036349628e-38
0.0152403421387 -0.0880553101349 0.915 1.950398809e-38
0.0169337134875 -0.0880553101349 0.915 1.95994655609e-38
0.0186270848362 -0.0880553101349 0.915 1.84927130272e-38
0.020320456185 -0.0880553101349 0.915 1.92317578373e-38
0.0220138275337 -0.0880553101349 0.915 1.93254178241e-38
0.0237849274034 -0.0883440160698 0.918 1.77598493447e-38
0.0254838507894 -0.0883440160698 0.918 1.8132575118e-38
0.0271827741753 -0.0883440160698 0.918 1.50025802175e-38
0.0289446206497 -0.0885364866931 0.92 1.38022938139e-38
0.0307471820635 -0.0888251926279 0.923 1.17682516397e-38
0.0325256846495 -0.0890176632512 0.925 1.06665942273e-38
0.0343486035331 -0.089306369186 0.928 6.16310542659e-39
0.0360660337097 -0.089306369186 0.928 7.1840872838e-39
0.0377834638864 -0.089306369186 0.928 7.27988705331e-39
0.0395860253003 -0.0894988398093 0.93 9.49186610652e-39
0.0413071568351 -0.0894988398093 0.93 9.58547144264e-39
-0.0208312436082 -0.0885327853349 0.938 9.76805222475e-39
-0.0190342342316 -0.0882496314373 0.935 2.75515036395e-39
-0.0173038493014 -0.0882496314373 0.935 8.74378152004e-39
-0.0155734643713 -0.0882496314373 0.935 1.36236660948e-38
-0.0138430794411 -0.0882496314373 0.935 1.6379005634e-38
-0.012086785004 -0.0880608621722 0.933 1.71090751275e-38
-0.0103267892088 -0.0877777082745 0.93 1.66524900488e-38
-0.00858715088327 -0.0875889390094 0.928 1.48160912139e-38
-0.00684751255778 -0.0873057851117 0.925 9.93114795171e-39
-0.00513563441834 -0.0873057851117 0.925 8.73051542748e-39
-0.00341635356261 -0.0871170158466 0.923 3.48977547867e-39
-0.00170817678131 -0.0871170158466 0.923 3.40477411513e-39
0.0 -0.0871170158466 0.923 8.27654517178e-40
0.0017026247441 -0.086833861949 0.92 4.87527430281e-39
0.00340524948819 -0.086833861949 0.92 8.1773416483e-39
0.00510787423229 -0.086833861949 0.92 1.1397336344e-38
0.00679569354383 -0.0866450926839 0.918 1.39802362981e-38
0.00849461692979 -0.0866450926839 0.918 1.42617655674e-38
0.0101935403157 -0.0866450926839 0.918 1.43550752296e-38
0.0118924637017 -0.0866450926839 0.918 1.5000817384e-38
0.0135913870877 -0.0866450926839 0.918 1.51855968034e-38
0.0152903104736 -0.0866450926839 0.918 1.50908648233e-38
0.0169892338596 -0.0866450926839 0.918 1.55511002844e-38
0.0186881572455 -0.0866450926839 0.918 1.28817430177e-38
0.0203870806315 -0.0866450926839 0.918 1.13055064531e-38
0.0220860040175 -0.0866450926839 0.918 1.1670342916e-38
0.0237849274034 -0.0866450926839 0.918 1.10317964292e-38
0.0255393711615 -0.086833861949 0.92 7.63282228843e-39
0.0272419959056 -0.086833861949 0.92 4.14163289961e-39
0.0290390052822 -0.0871170158466 0.923 5.52853862741e-39
0.03081380651 -0.0873057851117 0.925 6.54051433939e-39
0.0326311733564 -0.0875889390094 0.928 6.81745996138e-39
0.0344226306959 -0.0877777082745 0.93 7.28094082976e-39
0.0361437622307 -0.0877777082745 0.93 7.83376008043e-39
0.0378648937655 -0.0877777082745 0.93 7.83340415062e-39
0.0397137221561 -0.0880608621722 0.933 8.56848328605e-39
0.0414404057281 -0.0880608621722 0.933 1.01386452218e-38
0.0431670893001 -0.0880608621722 0.933 5.89839454148e-39
-0.0208312436082 -0.0867968483676 0.938 1.83462114767e-38
-0.0190953066409 -0.0867968483676 0.938 9.64505465334e-39
-0.0173593696735 -0.0867968483676 0.938 7.17548190993e-39
-0.0156234327062 -0.0867968483676 0.938 4.51546009353e-39
-0.0138874957388 -0.0867968483676 0.938 1.15972343726e-38
-0.012112694511 -0.0865192465071 0.935 1.50940920137e-38
-0.010360101432 -0.0863341786002 0.933 1.59170157472e-38
-0.00860565767397 -0.0860565767397 0.93 1.77544137079e-38
-0.00686972070662 -0.0858715088327 0.928 1.73867354117e-38
-0.00515229052996 -0.0858715088327 0.928 1.72978146163e-38
-0.00343486035331 -0.0858715088327 0.928 1.49078608491e-38
-0.00171187813945 -0.0855939069723 0.925 1.13144397308e-38
0.0 -0.0855939069723 0.925 9.83577137433e-39
0.00170817678131 -0.0854088390653 0.923 5.78570772418e-39
0.00341635356261 -0.0854088390653 0.923 3.94894735427e-39
0.00512453034392 -0.0854088390653 0.923 3.12568871038e-39
0.00683270712523 -0.0854088390653 0.923 3.21678712354e-39
0.00854088390653 -0.0854088390653 0.923 4.51115670595e-39
0.0102157484646 -0.0851312372049 0.92 3.40873698718e-39
0.0119183732087 -0.0851312372049 0.92 3.49911793554e-39
0.0135913870877 -0.0849461692979 0.918 3.85818945663e-39
0.0152903104736 -0.0849461692979 0.918 4.5954237891e-39
0.0169892338596 -0.0849461692979 0.918 3.76637357865e-39
0.0186881572455 -0.0849461692979 0.918 4.41713098029e-39
0.0203870806315 -0.0849461692979 0.918 4.88065248632e-39
0.0220860040175 -0.0849461692979 0.918 5.71110960043e-39
0.0238367464174 -0.0851312372049 0.92 6.2650218639e-39
0.0256226517196 -0.0854088390653 0.923 5.25339087134e-39
0.0273308285009 -0.0854088390653 0.923 6.35757062097e-39
0.0291019283706 -0.0855939069723 0.925 6.54016401477e-39
0.0309137431798 -0.0858715088327 0.928 6.8178130886e-39
0.0326311733564 -0.0858715088327 0.928 7.09332237967e-39
0.0344226306959 -0.0860565767397 0.93 7.27771363939e-39
0.0361437622307 -0.0860565767397 0.93 7.74083997926e-39
0.0378648937655 -0.0860565767397 0.93 7.74050506892e-39
0.0397137221561 -0.0863341786002 0.933 9.30711050919e-39
0.0414404057281 -0.0863341786002 0.933 1.04145314622e-38
-0.0208756599059 -0.085242277949 0.94 2.17570896479e-38
-0.0191360215804 -0.085242277949 0.94 1.17722327287e-38
-0.0173963832549 -0.085242277949 0.94 1.31526658589e-38
-0.0156567449294 -0.085242277949 0.94 6.16666472469e-39
-0.0138874957388 -0.0850609114002 0.938 3.8675291109e-39
-0.012112694511 -0.084788861577 0.935 4.31739496339e-39
-0.0103823095809 -0.084788861577 0.935 1.17704881121e-38
-0.00863341786002 -0.0846074950282 0.933 1.31594831759e-38
-0.00688452613918 -0.0843354452049 0.93 1.57365873596e-38
-0.00516339460438 -0.0843354452049 0.93 1.82161639727e-38
-0.00343486035331 -0.0841540786561 0.928 1.72920889108e-38
-0.00171743017665 -0.0841540786561 0.928 1.94110315551e-38
0.0 -0.0841540786561 0.928 1.80335845919e-38
0.00171187813945 -0.0838820288328 0.925 1.67485504599e-38
0.00342375627889 -0.0838820288328 0.925 1.43558039048e-38
0.00513563441834 -0.0838820288328 0.925 1.19580519115e-38
0.00684751255778 -0.0838820288328 0.925 1.20438029698e-38
0.00855939069723 -0.0838820288328 0.925 1.10260132705e-38
0.0102490606878 -0.083700662284 0.923 9.73458781612e-39
0.0119572374691 -0.083700662284 0.923 1.24086001964e-38
0.0136654142505 -0.083700662284 0.923 1.13101601653e-38
0.0153735910318 -0.083700662284 0.923 9.74539042598e-39
0.0170817678131 -0.083700662284 0.923 1.17679167294e-38
0.0187899445944 -0.083700662284 0.923 1.15892890103e-38
0.0204981213757 -0.083700662284 0.923 1.23229037888e-38
0.022206298157 -0.083700662284 0.923 1.34310337988e-38
0.0239662939522 -0.0838820288328 0.925 7.17932987551e-39
0.0256781720917 -0.0838820288328 0.925 5.7128654274e-39
0.0274788828265 -0.0841540786561 0.928 6.44867183674e-39
0.0291963130031 -0.0841540786561 0.928 6.44869706011e-39
0.0309137431798 -0.0841540786561 0.928 7.18443480582e-39
0.0327014991611 -0.0843354452049 0.93 7.00364067925e-39
0.0344226306959 -0.0843354452049 0.93 6.91037305606e-39
0.0361437622307 -0.0843354452049 0.93 8.20148321824e-39
0.0378648937655 -0.0843354452049 0.93 8.29366343382e-39
0.0397137221561 -0.0846074950282 0.933 8.9397334921e-39
0.0414404057281 -0.0846074950282 0.933 9.12274026894e-39
-0.0208756599059 -0.0835026396236 0.94 2.35098856151e-38
-0.0191360215804 -0.0835026396236 0.94 3.21429000968e-39
-0.0173963832549 -0.0835026396236 0.94 1.68468375341e-38
-0.0156567449294 -0.0835026396236 0.94 1.28828780694e-38
-0.0138874957388 -0.0833249744329 0.938 5.24040503847e-39
-0.012112694511 -0.0830584766468 0.935 4.60515440564e-39
-0.0103823095809 -0.0830584766468 0.935 3.96050106011e-39
-0.00863341786002 -0.0828808114561 0.933 2.3888243207e-39
-0.00688452613918 -0.0826143136701 0.93 7.44374508664e-39
-0.00516339460438 -0.0826143136701 0.93 1.09396428383e-38
-0.00343486035331 -0.0824366484794 0.928 1.3802946819e-38
-0.00171743017665 -0.0824366484794 0.928 1.46305424817e-38
0.0 -0.0824366484794 0.928 1.6835700014e-38
0.00171743017665 -0.0824366484794 0.928 1.80317096545e-38
0.00343486035331 -0.0824366484794 0.928 1.82157141559e-38
0.00513563441834 -0.0821701506934 0.925 1.85838268547e-38
0.00684751255778 -0.0821701506934 0.925 1.86760673261e-38
0.00855939069723 -0.0821701506934 0.925 1.9231742423e-38
0.0102712688367 -0.0821701506934 0.925 1.91409691111e-38
0.0119831469761 -0.0821701506934 0.925 1.90469770166e-38
0.0136950251156 -0.0821701506934 0.925 1.85888645227e-38
0.0153735910318 -0.0819924855027 0.923 1.91416095045e-38
0.0170817678131 -0.0819924855027 0.923 1.70262724012e-38
0.0187899445944 -0.0819924855027 0.923 1.55579162002e-38
0.0205425376733 -0.0821701506934 0.925 1.42693059544e-38
0.0222544158128 -0.0821701506934 0.925 1.0670869589e-38
0.0240440224732 -0.0824366484794 0.928 8.37290546068e-39
0.0257614526498 -0.0824366484794 0.928 6.72815100636e-39
0.0274788828265 -0.0824366484794 0.928 6.72633632485e-39
0.0291963130031 -0.0824366484794 0.928 6.44975083655e-39
0.0309803676263 -0.0826143136701 0.93 6.44939770934e-39
0.0328069878681 -0.0828808114561 0.933 7.46389996245e-39
0.0345336714401 -0.0828808114561 0.933 6.72814540116e-39
0.0362603550121 -0.0828808114561 0.933 7.83307064158e-39
0.0380684684631 -0.0830584766468 0.935 8.93975170898e-39
0.0397988533933 -0.0830584766468 0.935 9.67801739711e-39
0.0415292383234 -0.0830584766468 0.935 6.63307851075e-39
-0.0208756599059 -0.0817630012981 0.94 2.35098856151e-38
-0.0191360215804 -0.0817630012981 0.94 1.01021708241e-39
-0.0173963832549 -0.0817630012981 0.94 5.51201031202e-39
-0.0156567449294 -0.0817630012981 0.94 1.45467588465e-38
-0.0138874957388 -0.0815890374655 0.938 1.28871576349e-38
-0.0121515587715 -0.0815890374655 0.938 8.92310988841e-39
-0.0103823095809 -0.0813280917167 0.935 5.60703796608e-39
-0.00863341786002 -0.0811541278841 0.933 4.32999543918e-39
-0.00690673428801 -0.0811541278841 0.933 3.68568260918e-39
-0.00516339460438 -0.0808931821353 0.93 3.50093822224e-39
-0.00344226306959 -0.0808931821353 0.93 2.30385939091e-39
-0.00171743017665 -0.0807192183028 0.928 4.87378892644e-39
0.0 -0.0807192183028 0.928 7.99081060582e-39
0.00171743017665 -0.0807192183028 0.928 1.2131403742e-38
0.00343486035331 -0.0807192183028 0.928 1.25977502657e-38
0.00515229052996 -0.0807192183028 0.928 1.19541408875e-38
0.00686972070662 -0.0807192183028 0.928 1.37050815356e-38
0.00858715088327 -0.0807192183028 0.928 1.20469993316e-38
0.0102712688367 -0.0804582725539 0.925 1.15878246534e-38
0.0119831469761 -0.0804582725539 0.925 1.30589610306e-38
0.0136950251156 -0.0804582725539 0.925 1.07588038702e-38
0.015406903255 -0.0804582725539 0.925 9.92439649571e-39
0.0171187813945 -0.0804582725539 0.925 9.83652247031e-39
0.0188306595339 -0.0804582725539 0.925 6.16597388454e-39
0.0205425376733 -0.0804582725539 0.925 4.14343076554e-39
0.0222544158128 -0.0804582725539 0.925 6.07879770578e-39
0.0240440224732 -0.0807192183028 0.928 5.71145992504e-39
0.0257614526498 -0.0807192183028 0.928 6.17385058321e-39
0.0274788828265 -0.0807192183028 0.928 6.17531494011e-39
0.0292592360915 -0.0808931821353 0.93 6.26680431554e-39
0.0309803676263 -0.0808931821353 0.93 6.54374152975e-39
0.0328069878681 -0.0811541278841 0.933 7.28095344144e-39
0.0346076986028 -0.0813280917167 0.935 7.09728805432e-39
0.036338083533 -0.0813280917167 0.935 7.83485309323e-39
0.0380684684631 -0.0813280917167 0.935 9.30924188415e-39
0.0399265502491 -0.0815890374655 0.938 8.38727857903e-39
0.0416624872164 -0.0815890374655 0.938 5.52603170445e-39
-0.0191360215804 -0.0800233629726 0.94 5.89110919077e-39
-0.0173963832549 -0.0800233629726 0.94 5.2380018116e-39
-0.0156234327062 -0.0798531004982 0.938 8.56519303725e-39
-0.0138874957388 -0.0798531004982 0.938 9.01717905432e-39
-0.0121515587715 -0.0798531004982 0.938 1.28850038392e-38
-0.0103823095809 -0.0795977067866 0.935 9.01931183059e-39
-0.00863341786002 -0.0794274443121 0.933 6.81204674542e-39
-0.00690673428801 -0.0794274443121 0.933 5.3369152663e-39
-0.00518005071601 -0.0794274443121 0.933 4.79126645988e-39
-0.00344226306959 -0.0791720506005 0.93 4.78950362641e-39
-0.00172113153479 -0.0791720506005 0.93 4.78915330179e-39
0.0 -0.0791720506005 0.93 4.05158826289e-39
0.00172113153479 -0.0791720506005 0.93 3.22287856797e-39
0.00344226306959 -0.0791720506005 0.93 3.77427550069e-39
0.00516339460438 -0.0791720506005 0.93 3.86754732778e-39
0.00686972070662 -0.0790017881261 0.928 3.77535169791e-39
0.00858715088327 -0.0790017881261 0.928 3.96009608485e-39
0.0103045810599 -0.0790017881261 0.928 4.05445672084e-39
0.0120220112366 -0.0790017881261 0.928 4.5140279665e-39
0.0137394414132 -0.0790017881261 0.928 4.60692704819e-39
0.0154568715899 -0.0790017881261 0.928 4.60622639896e-39
0.0171187813945 -0.0787463944145 0.925 5.15939737555e-39
0.0188306595339 -0.0787463944145 0.925 5.43704644937e-39
0.0206091621199 -0.0790017881261 0.928 5.34519553893e-39
0.0223265922965 -0.0790017881261 0.928 6.54051714198e-39
0.0240440224732 -0.0790017881261 0.928 6.3579083339e-39
0.0258169730219 -0.0791720506005 0.93 6.17496181289e-39
0.0275381045567 -0.0791720506005 0.93 6.26610086371e-39
0.0293536207241 -0.0794274443121 0.933 7.55789345825e-39
0.0310803042961 -0.0794274443121 0.933 6.72776705058e-39
0.0328773136727 -0.0795977067866 0.935 6.63523370778e-39
0.0346076986028 -0.0795977067866 0.935 6.72707621043e-39
0.036338083533 -0.0795977067866 0.935 7.65081215812e-39
0.0381906132817 -0.0798531004982 0.938 9.03194733884e-39
0.0399265502491 -0.0798531004982 0.938 8.84865329581e-39
0.0416624872164 -0.0798531004982 0.938 1.5633824538e-39
0.0433984241838 -0.0798531004982 0.938 2.35098856151e-38
-0.0191360215804 -0.0782837246471 0.94 1.22551636197e-38
-0.0173963832549 -0.0782837246471 0.94 1.58155967709e-38
-0.0156234327062 -0.0781171635308 0.938 8.64840073877e-39
-0.0138874957388 -0.0781171635308 0.938 3.86463683087e-39
-0.0121515587715 -0.0781171635308 0.938 3.77756014429e-39
-0.0104156218041 -0.0781171635308 0.938 5.80043396974e-39
-0.00865192465071 -0.0778673218564 0.935 6.99213742016e-39
-0.00692153972057 -0.0778673218564 0.935 4.78735543586e-39
-0.00518005071601 -0.0777007607401 0.933 4.60763050002e-39
-0.00345336714401 -0.0777007607401 0.933 4.97536204563e-39
-0.001726683572 -0.0777007607401 0.933 4.60728017541e-39
0.0 -0.0774509190657 0.93 4.69912267806e-39
0.00172113153479 -0.0774509190657 0.93 5.06574019138e-39
0.00344226306959 -0.0774509190657 0.93 4.88135593815e-39
0.00516339460438 -0.0774509190657 0.93 5.06538706417e-39
0.00688452613918 -0.0774509190657 0.93 4.97642142727e-39
0.00858715088327 -0.0772843579495 0.928 4.60763050002e-39
0.0103045810599 -0.0772843579495 0.928 4.79202175975e-39
0.0120220112366 -0.0772843579495 0.928 4.33105201822e-39
0.0137394414132 -0.0772843579495 0.928 5.15969024692e-39
0.0154568715899 -0.0772843579495 0.928 5.25264958445e-39
0.0171743017665 -0.0772843579495 0.928 5.06970306344e-39
0.0188917319432 -0.0772843579495 0.928 5.80617228695e-39
0.0206091621199 -0.0772843579495 0.928 5.25335303628e-39
0.0223265922965 -0.0772843579495 0.928 5.89801899349e-39
0.0240958414871 -0.0774509190657 0.93 6.08276618303e-39
0.0258169730219 -0.0774509190657 0.93 5.99056775057e-39
0.027626937152 -0.0777007607401 0.933 7.09187623965e-39
0.0293536207241 -0.0777007607401 0.933 6.72633071965e-39
0.0311469287426 -0.0778673218564 0.935 7.0951202456e-39
0.0328773136727 -0.0778673218564 0.935 7.37422106463e-39
0.0346076986028 -0.0778673218564 0.935 7.55826480234e-39
0.0364546763144 -0.0781171635308 0.938 8.11143858152e-39
0.0381906132817 -0.0781171635308 0.938 8.93974890638e-39
0.0399265502491 -0.0781171635308 0.938 9.1252387841e-39
0.0416624872164 -0.0781171635308 0.938 4.04949472298e-39
-0.0191970939897 -0.0767883759588 0.943 1.70540265186e-38
-0.0173963832549 -0.0765440863216 0.94 1.37005497363e-38
-0.0156567449294 -0.0765440863216 0.94 1.67514777723e-38
-0.0138874957388 -0.0763812265635 0.938 9.4749047899e-39
-0.0121515587715 -0.0763812265635 0.938 9.83759166104e-39
-0.0104156218041 -0.0763812265635 0.938 5.05605862029e-39
-0.00867968483676 -0.0763812265635 0.938 3.8697137352e-39
-0.00692153972057 -0.0761369369263 0.935 3.96230453123e-39
-0.00519115479043 -0.0761369369263 0.935 4.33069889101e-39
-0.00346076986028 -0.0761369369263 0.935 4.33069889101e-39
-0.00173038493014 -0.0761369369263 0.935 4.14701108311e-39
0.0 -0.0761369369263 0.935 4.05304981719e-39
0.001726683572 -0.0759740771681 0.933 4.69730799655e-39
0.00345336714401 -0.0759740771681 0.933 4.69660454472e-39
0.00518005071601 -0.0759740771681 0.933 5.06574019138e-39
0.00690673428801 -0.0759740771681 0.933 4.88387267019e-39
0.00860565767397 -0.0757297875309 0.93 5.3444920871e-39
0.0103267892088 -0.0757297875309 0.93 5.43634019495e-39
0.0120479207436 -0.0757297875309 0.93 5.25374680115e-39
0.0137690522784 -0.0757297875309 0.93 5.52994553106e-39
0.0154901838131 -0.0757297875309 0.93 5.52994553106e-39
0.0172113153479 -0.0757297875309 0.93 4.79347490626e-39
0.0189324468827 -0.0757297875309 0.93 4.60802146229e-39
0.0206535784175 -0.0757297875309 0.93 5.80439964439e-39
0.0223747099523 -0.0757297875309 0.93 6.08241585841e-39
0.024173570008 -0.0759740771681 0.933 6.35757062097e-39
0.02590025358 -0.0759740771681 0.933 5.89659387296e-39
0.027626937152 -0.0759740771681 0.933 6.08134386509e-39
0.0294165438124 -0.0761369369263 0.935 6.72526433152e-39
0.0311469287426 -0.0761369369263 0.935 6.81921999225e-39
0.0328773136727 -0.0761369369263 0.935 6.82140041267e-39
0.034718739347 -0.0763812265635 0.938 7.55716758564e-39
0.0364546763144 -0.0763812265635 0.938 8.84935394504e-39
0.0381906132817 -0.0763812265635 0.938 7.46606917248e-39
0.0399265502491 -0.0763812265635 0.938 5.25232448321e-39
-0.017451903627 -0.0750431855961 0.943 4.04083469847e-39
-0.0157067132643 -0.0750431855961 0.943 1.67524895098e-38
-0.0139171066039 -0.0748044479961 0.94 1.54571390185e-38
-0.0121774682784 -0.0748044479961 0.94 1.60099442562e-38
-0.0104378299529 -0.0748044479961 0.94 1.325014018e-38
-0.00867968483676 -0.0746452895961 0.938 1.02085167658e-38
-0.00694374786941 -0.0746452895961 0.938 9.37409958228e-39
-0.00519115479043 -0.0744065519961 0.935 6.61221878181e-39
-0.00346076986028 -0.0744065519961 0.935 4.96311749965e-39
-0.00173038493014 -0.0744065519961 0.935 2.75764187262e-39
0.0 -0.0744065519961 0.935 4.23706833152e-39
0.00173038493014 -0.0744065519961 0.935 3.96226109098e-39
0.00346076986028 -0.0744065519961 0.935 4.14630763128e-39
0.00519115479043 -0.0744065519961 0.935 4.60587607435e-39
0.00690673428801 -0.0742473935961 0.933 4.51582863503e-39
0.00863341786002 -0.0742473935961 0.933 4.3310786429e-39
0.010360101432 -0.0742473935961 0.933 4.97393552379e-39
0.012086785004 -0.0742473935961 0.933 4.69877515604e-39
0.013813468576 -0.0742473935961 0.933 4.97642142727e-39
0.0154901838131 -0.0740086559961 0.93 4.79347490626e-39
0.0172113153479 -0.0740086559961 0.93 6.54483314125e-39
0.018993519292 -0.0742473935961 0.933 5.25444464778e-39
0.020720202864 -0.0742473935961 0.933 5.89981966202e-39
0.022446886436 -0.0742473935961 0.933 5.80762403216e-39
0.024225389022 -0.0744065519961 0.935 6.35757062097e-39
0.0259557739521 -0.0744065519961 0.935 6.63200932002e-39
0.0276861588823 -0.0744065519961 0.935 7.92522983768e-39
0.0294165438124 -0.0744065519961 0.935 8.84718473502e-39
0.0312468654123 -0.0746452895961 0.938 7.28020514806e-39
0.0329828023797 -0.0746452895961 0.938 7.28128975308e-39
0.034718739347 -0.0746452895961 0.938 7.37422106463e-39
0.0364546763144 -0.0746452895961 0.938 6.08278159731e-39
0.0381906132817 -0.0746452895961 0.938 1.00385238478e-38
-0.0175074239991 -0.0735311807962 0.946 5.6051938573e-45
-0.0157566815992 -0.0735311807962 0.946 9.19801521985e-39
-0.0139615229016 -0.0732979952334 0.943 1.39917872014e-38
-0.0122163325389 -0.0732979952334 0.943 1.51830604532e-38
-0.0104711421762 -0.0732979952334 0.943 1.60984754906e-38
-0.00869819162745 -0.0730648096706 0.94 1.76622040651e-38
-0.00694374786941 -0.0729093526288 0.938 1.62836851086e-38
-0.00520781090205 -0.0729093526288 0.938 1.61017769498e-38
-0.0034718739347 -0.0729093526288 0.938 1.4447273662e-38
-0.00173593696735 -0.0729093526288 0.938 1.45409182345e-38
0.0 -0.0729093526288 0.938 1.17757499878e-38
0.00173038493014 -0.072676167066 0.935 1.17715418885e-38
0.00346076986028 -0.072676167066 0.935 1.13120308987e-38
0.00519115479043 -0.072676167066 0.935 1.18640808365e-38
0.00692153972057 -0.072676167066 0.935 1.1311257382e-38
0.00865192465071 -0.072676167066 0.935 1.16771840551e-38
0.010360101432 -0.0725207100241 0.933 1.00234472777e-38
0.012086785004 -0.0725207100241 0.933 7.45525114833e-39
0.013813468576 -0.0725207100241 0.933 5.52923647404e-39
0.015540152148 -0.0725207100241 0.933 5.52924207923e-39
0.01726683572 -0.0725207100241 0.933 5.15939457295e-39
0.018993519292 -0.0725207100241 0.933 5.2508741393e-39
0.0207646191617 -0.072676167066 0.935 5.24907767467e-39
0.0224950040919 -0.072676167066 0.935 9.66329675675e-39
0.024225389022 -0.072676167066 0.935 1.25144991239e-38
0.0259557739521 -0.072676167066 0.935 1.14211121751e-38
0.0276861588823 -0.072676167066 0.935 8.75382042224e-39
0.029510928445 -0.0729093526288 0.938 7.18583190039e-39
0.0312468654123 -0.0729093526288 0.938 7.09296925245e-39
0.0329828023797 -0.0729093526288 0.938 7.46459921039e-39
0.034718739347 -0.0729093526288 0.938 7.64901008829e-39
0.0365324048353 -0.0730648096706 0.94 4.51150983316e-39
0.0382720431608 -0.0730648096706 0.94 1.91550759828e-38
-0.0175074239991 -0.0717804383963 0.946 2.84839136246e-39
-0.0157566815992 -0.0717804383963 0.946 1.65306555551e-39
-0.0140059391993 -0.0717804383963 0.946 9.11410126391e-39
-0.0122551967994 -0.0717804383963 0.946 7.9029477908e-39
-0.0105044543995 -0.0717804383963 0.946 1.10340244938e-38
-0.0087259518135 -0.0715528048707 0.943 1.26988539499e-38
-0.00695855330196 -0.0713251713451 0.94 1.35275202046e-38
-0.00521891497647 -0.0713251713451 0.94 1.41714280593e-38
-0.0034718739347 -0.0711734156614 0.938 1.54599948648e-38
-0.00173593696735 -0.0711734156614 0.938 1.51844995867e-38
0.0 -0.0711734156614 0.938 1.56457551931e-38
0.00173593696735 -0.0711734156614 0.938 1.47259653019e-38
0.0034718739347 -0.0711734156614 0.938 1.49121992691e-38
0.00520781090205 -0.0711734156614 0.938 1.42667878211e-38
0.00692153972057 -0.0709457821358 0.935 1.16846487721e-38
0.00865192465071 -0.0709457821358 0.935 1.2601207269e-38
0.0103823095809 -0.0709457821358 0.935 8.27309797756e-39
0.012112694511 -0.0709457821358 0.935 5.69712183916e-39
0.0138430794411 -0.0709457821358 0.935 3.95939263302e-39
0.0155734643713 -0.0709457821358 0.935 7.08433305002e-39
0.0173038493014 -0.0709457821358 0.935 1.09475293461e-38
0.0190342342316 -0.0709457821358 0.935 1.44465674076e-38
0.0207646191617 -0.0709457821358 0.935 1.29822217228e-38
0.0224950040919 -0.0709457821358 0.935 1.11416442158e-38
0.0243031175429 -0.0711734156614 0.938 9.84475930268e-39
0.0260390545103 -0.0711734156614 0.938 6.89996981626e-39
0.0277749914776 -0.0711734156614 0.938 5.80546883512e-39
0.029510928445 -0.0711734156614 0.938 7.18694313007e-39
0.0312468654123 -0.0711734156614 0.938 7.00474209984e-39
0.0330531281843 -0.0713251713451 0.94 6.54373872715e-39
0.0347927665098 -0.0713251713451 0.94 6.7292047828e-39
0.0366489976167 -0.0715528048707 0.943 1.09590550259e-38
-0.0175074239991 -0.0700296959964 0.946 1.01317928723e-38
-0.0157566815992 -0.0700296959964 0.946 7.53242766125e-39
-0.0140355500644 -0.0701777503219 0.948 1.18763197773e-38
-0.0122811063063 -0.0701777503219 0.948 4.69051310029e-39
-0.0105044543995 -0.0700296959964 0.946 4.05450436499e-39
-0.00875371199954 -0.0700296959964 0.946 3.22434572746e-39
-0.0069807614508 -0.069807614508 0.943 3.4076285601e-39
-0.0052355710881 -0.069807614508 0.943 3.31148967636e-39
-0.00347927665098 -0.0695855330196 0.94 3.67382061768e-39
-0.00173593696735 -0.0694374786941 0.938 5.88364447385e-39
0.0 -0.0694374786941 0.938 4.40962982961e-39
0.00173593696735 -0.0694374786941 0.938 3.21504811215e-39
0.0034718739347 -0.0694374786941 0.938 4.04584994568e-39
0.00520781090205 -0.0694374786941 0.938 3.22186963307e-39
0.00692153972057 -0.0692153972057 0.935 3.67921281417e-39
0.00865192465071 -0.0692153972057 0.935 5.33047069467e-39
0.0103823095809 -0.0692153972057 0.935 9.65900598085e-39
0.012112694511 -0.0692153972057 0.935 1.30651253425e-38
0.0138430794411 -0.0692153972057 0.935 1.50018935812e-38
0.0155734643713 -0.0692153972057 0.935 1.50040417718e-38
0.0173038493014 -0.0692153972057 0.935 1.41768524857e-38
0.0190342342316 -0.0692153972057 0.935 1.08520532765e-38
0.0208312436082 -0.0694374786941 0.938 6.89383493158e-39
0.0225671805756 -0.0694374786941 0.938 5.89696241445e-39
0.0243031175429 -0.0694374786941 0.938 5.4388415127e-39
0.0260390545103 -0.0694374786941 0.938 5.8994693374e-39
0.0277749914776 -0.0694374786941 0.938 6.81997529213e-39
0.029510928445 -0.0694374786941 0.938 7.37348678424e-39
0.0313134898588 -0.0695855330196 0.94 6.7292047828e-39
0.0330531281843 -0.0695855330196 0.94 7.37492451646e-39
0.034903807254 -0.069807614508 0.943 7.37348678424e-39
0.0366489976167 -0.069807614508 0.943 8.84177572295e-39
-0.0175074239991 -0.0682789535964 0.946 1.55702434228e-38
-0.0157566815992 -0.0682789535964 0.946 1.33427982384e-38
-0.0140355500644 -0.0684233065639 0.948 1.42649941591e-38
-0.0122811063063 -0.0684233065639 0.948 5.69636653928e-39
-0.0105266625483 -0.0684233065639 0.948 3.76929808855e-39
-0.00875371199954 -0.0682789535964 0.946 3.2225716836e-39
-0.00700296959964 -0.0682789535964 0.946 3.59129114462e-39
-0.0052355710881 -0.0680624241453 0.943 3.22469465078e-39
-0.00347927665098 -0.0678458946941 0.94 2.76196627968e-39
-0.00173963832549 -0.0678458946941 0.94 4.51149722148e-39
0.0 -0.0677015417267 0.938 3.49154251604e-39
0.00173593696735 -0.0677015417267 0.938 7.1675701788e-39
0.0034718739347 -0.0677015417267 0.938 1.06616266243e-38
0.00520781090205 -0.0677015417267 0.938 1.13069413827e-38
0.00694374786941 -0.0677015417267 0.938 1.54567340433e-38
0.00867968483676 -0.0677015417267 0.938 1.6102477599e-38
0.0103823095809 -0.0674850122756 0.935 1.74867825168e-38
0.012112694511 -0.0674850122756 0.935 1.55540079787e-38
0.0138430794411 -0.0674850122756 0.935 1.19583447829e-38
0.0155734643713 -0.0674850122756 0.935 8.63904847281e-39
0.0173038493014 -0.0674850122756 0.935 5.9812294976e-39
0.0190953066409 -0.0677015417267 0.938 4.60767113768e-39
0.0208312436082 -0.0677015417267 0.938 6.08241025322e-39
0.0225671805756 -0.0677015417267 0.938 5.99057055317e-39
0.0243031175429 -0.0677015417267 0.938 6.08241025322e-39
0.0260945748824 -0.0678458946941 0.94 5.99021462336e-39
0.0278342132079 -0.0678458946941 0.94 6.08311370505e-39
0.0295738515333 -0.0678458946941 0.94 6.26645118833e-39
0.0313134898588 -0.0678458946941 0.94 6.82032841934e-39
0.0331586168913 -0.0680624241453 0.943 6.82105008805e-39
0.034903807254 -0.0680624241453 0.943 7.92595711159e-39
0.0367655903981 -0.0682789535964 0.946 8.11002607267e-39
-0.0175444375805 -0.0666688628058 0.948 1.80620673845e-38
-0.0157899938224 -0.0666688628058 0.948 1.32527704173e-38
-0.0140799663621 -0.0668798402198 0.951 1.69336059351e-38
-0.0123199705668 -0.0668798402198 0.951 1.48145736077e-38
-0.0105266625483 -0.0666688628058 0.948 1.2974992424e-38
-0.00877221879024 -0.0666688628058 0.948 1.26091834599e-38
-0.00700296959964 -0.0665282111965 0.946 1.23311840614e-38
-0.00525222719973 -0.0665282111965 0.946 1.1772248143e-38
-0.0034903807254 -0.0663172337826 0.943 1.43521661339e-38
-0.00173963832549 -0.0661062563686 0.94 1.35264482112e-38
0.0 -0.0661062563686 0.94 1.51877071589e-38
0.00173593696735 -0.0659656047594 0.938 1.62882715585e-38
0.0034718739347 -0.0659656047594 0.938 1.95093634709e-38
0.00520781090205 -0.0659656047594 0.938 1.90462917817e-38
0.00694374786941 -0.0659656047594 0.938 1.7944243407e-38
0.00867968483676 -0.0659656047594 0.938 1.38919334754e-38
0.0104156218041 -0.0659656047594 0.938 9.1907578951e-39
0.012112694511 -0.0657546273454 0.935 5.51054595512e-39
0.0138430794411 -0.0657546273454 0.935 4.79061765869e-39
0.0156234327062 -0.0659656047594 0.938 5.16115600512e-39
0.0173593696735 -0.0659656047594 0.938 4.88387267019e-39
0.0190953066409 -0.0659656047594 0.938 5.34554586355e-39
0.0208312436082 -0.0659656047594 0.938 6.45083544157e-39
0.0226152982314 -0.0661062563686 0.94 5.80620171422e-39
0.0243549365569 -0.0661062563686 0.94 6.5419618807e-39
0.0260945748824 -0.0661062563686 0.94 6.63453305855e-39
0.0278342132079 -0.0661062563686 0.94 6.72777966226e-39
0.0296682361659 -0.0663172337826 0.943 6.81964038179e-39
0.0314134265286 -0.0663172337826 0.943 7.74010009367e-39
0.0332641055983 -0.0665282111965 0.946 7.37207707798e-39
0.0350148479982 -0.0665282111965 0.946 8.20218386747e-39
0.0367655903981 -0.0665282111965 0.946 8.47987217766e-39
-0.0176554783247 -0.0653252698012 0.954 1.87077871181e-38
-0.0158899304922 -0.0653252698012 0.954 1.32563829647e-38
-0.0141243826597 -0.0653252698012 0.954 1.48142611181e-38
-0.0123588348273 -0.0653252698012 0.954 1.54567886939e-38
-0.0105599747715 -0.0651198444245 0.951 1.62814346233e-38
-0.00879997897629 -0.0651198444245 0.951 1.7019355592e-38
-0.00701777503219 -0.0649144190478 0.948 1.67446576527e-38
-0.00526333127414 -0.0649144190478 0.948 1.74764451381e-38
-0.00350148479982 -0.0647774687966 0.946 1.81225208015e-38
-0.0017451903627 -0.0645720434199 0.943 1.74792841687e-38
0.0 -0.0643666180432 0.94 1.8220104424e-38
0.00173963832549 -0.0643666180432 0.94 1.71126120048e-38
0.00347927665098 -0.0643666180432 0.94 1.59173688744e-38
0.00521891497647 -0.0643666180432 0.94 1.19569336754e-38
0.00695855330196 -0.0643666180432 0.94 7.07137804572e-39
0.00869819162745 -0.0643666180432 0.94 3.49485658691e-39
0.0104156218041 -0.064229667792 0.938 4.51547831041e-39
0.0121515587715 -0.064229667792 0.938 5.25229645724e-39
0.0138874957388 -0.064229667792 0.938 5.52924207923e-39
0.0156234327062 -0.064229667792 0.938 5.3444920871e-39
0.0173963832549 -0.0643666180432 0.94 5.80582196233e-39
0.0191360215804 -0.0643666180432 0.94 5.99056494797e-39
0.0208756599059 -0.0643666180432 0.94 5.99021462336e-39
0.0226152982314 -0.0643666180432 0.94 6.45007874039e-39
0.0244326650778 -0.0645720434199 0.943 6.08276618303e-39
0.0261778554405 -0.0645720434199 0.943 6.63486796889e-39
0.0279230458032 -0.0645720434199 0.943 6.36042366465e-39
0.0296682361659 -0.0645720434199 0.943 6.9125296544e-39
