# .PCD v0.7 - Point Cloud Data file format
VERSION 0.7
FIELDS x y z rgb
SIZE 4 4 4 4
TYPE F F F F
COUNT 1 1 1 1
WIDTH 849
HEIGHT 1
VIEWPOINT 0 0 0 1 0 0 0
POINTS 849
DATA ascii
0.0536881998112 -0.0268440999056 0.967 1.3988052741e-38
0.0551909512157 -0.0267052989754 0.962 1.38951410476e-38
0.0567936392901 -0.0266220184172 0.959 1.43550359932e-38
0.0582630784714 -0.026483217487 0.954 1.38040230162e-38
0.0596510877736 -0.0263166563707 0.948 1.3616047235e-38
0.0608873413922 -0.0260945748824 0.94 1.48120610795e-38
0.0624937308247 -0.0260390545103 0.938 1.26044218477e-38
0.0640242424153 -0.0259557739521 0.935 2.15394371679e-38
0.0657546273454 -0.0259557739521 0.935 2.34960646084e-38
-0.0104156218041 -0.0243031175429 0.938 2.34942723477e-38
-0.00869819162745 -0.0243549365569 0.94 1.84973190953e-38
-0.00695855330196 -0.0243549365569 0.94 1.97909081545e-38
-0.00527998738577 -0.0246399411336 0.951 1.94214235845e-38
-0.00356070653005 -0.0249249457103 0.962 1.89611657026e-38
-0.00178405462316 -0.0249767647243 0.964 1.82243237337e-38
0.0 -0.0252099502871 0.973 1.76718912414e-38
0.00180996413014 -0.0253394978219 0.978 1.76707996299e-38
0.00363103233469 -0.0254172263429 0.981 1.72109046843e-38
0.00546320461367 -0.0254949548638 0.984 1.647336627e-38
0.00730648096706 -0.0255726833847 0.987 1.6289321131e-38
0.00913310120883 -0.0255726833847 0.987 1.55503323729e-38
0.0109819295994 -0.0256245023987 0.989 1.48149309388e-38
0.0128122511993 -0.0256245023987 0.989 1.45358371263e-38
0.0146869890969 -0.0257022309196 0.992 1.47195081186e-38
0.016522862734 -0.0257022309196 0.992 1.41699300713e-38
0.0183587363711 -0.0257022309196 0.992 1.4353959796e-38
0.0201946100083 -0.0257022309196 0.992 1.35270815981e-38
0.0220304836454 -0.0257022309196 0.992 1.39876940086e-38
0.0238663572825 -0.0257022309196 0.992 1.38947823152e-38
0.0257022309196 -0.0257022309196 0.992 1.36178408971e-38
0.0275381045567 -0.0257022309196 0.992 1.35260054009e-38
0.0293739781938 -0.0257022309196 0.992 1.29742749592e-38
0.0312098518309 -0.0257022309196 0.992 1.40791707723e-38
0.033045725468 -0.0257022309196 0.992 1.38018706218e-38
0.0348815991052 -0.0257022309196 0.992 1.34338111724e-38
0.0367174727423 -0.0257022309196 0.992 1.38944235828e-38
0.0385533463794 -0.0257022309196 0.992 1.37078827312e-38
0.0402670751979 -0.0256245023987 0.989 1.30657517229e-38
0.0420973967978 -0.0256245023987 0.989 1.36189170943e-38
0.0438388858024 -0.0255726833847 0.987 1.36181996295e-38
0.0456655060441 -0.0255726833847 0.987 1.36189170943e-38
0.0473477733185 -0.0254949548638 0.984 1.36178408971e-38
0.0488690315137 -0.0253394978219 0.978 1.40791707723e-38
0.0506789956439 -0.0253394978219 0.978 1.38025880866e-38
0.0520596022298 -0.0251322217661 0.97 1.36185583619e-38
0.0536881998112 -0.0250544932452 0.967 1.42639179619e-38
0.055305693318 -0.0249767647243 0.964 1.38025880866e-38
0.0567936392901 -0.0248472171894 0.959 1.41702888037e-38
0.05838522329 -0.0247694886685 0.956 1.44465127569e-38
0.0598398570387 -0.0246399411336 0.951 1.43528835988e-38
0.060563472555 -0.024225389022 0.935 1.43546772608e-38
0.0622938574851 -0.024225389022 0.935 1.17728801286e-38
0.0638872921641 -0.024173570008 0.933 2.24646178543e-38
0.0656139757361 -0.024173570008 0.933 2.3499307213e-38
-0.0104156218041 -0.0225671805756 0.938 2.34971352004e-38
-0.00869819162745 -0.0226152982314 0.94 1.80410114738e-38
-0.00695855330196 -0.0226152982314 0.94 2.02536729593e-38
-0.0052966434974 -0.0229521218221 0.954 1.94235885906e-38
-0.00359031739516 -0.0233370630686 0.97 1.88700672894e-38
-0.00179515869758 -0.0233370630686 0.97 1.72112634167e-38
0.0 -0.0234573572081 0.975 1.73956518738e-38
0.00180996413014 -0.0235295336918 0.978 1.77640700557e-38
0.00363103233469 -0.0236017101755 0.981 1.71187104557e-38
0.00546320461367 -0.0236738866592 0.984 1.59187505547e-38
0.00730648096706 -0.0237460631429 0.987 1.54584968767e-38
0.00913310120883 -0.0237460631429 0.987 1.45397831827e-38
0.0109819295994 -0.0237941807988 0.989 1.44454365597e-38
0.0128122511993 -0.0237941807988 0.989 1.46301837493e-38
0.0146869890969 -0.0238663572825 0.992 1.43553947256e-38
0.0165728310689 -0.0239385337662 0.995 1.41706475361e-38
0.0184142567432 -0.0239385337662 0.995 1.46301837493e-38
0.0202556824175 -0.0239385337662 0.995 1.41706475361e-38
0.0220971080919 -0.0239385337662 0.995 1.35260054009e-38
0.0239385337662 -0.0239385337662 0.995 1.38025880866e-38
0.0257799594405 -0.0239385337662 0.995 1.36185583619e-38
0.0276213851148 -0.0239385337662 0.995 1.42617655674e-38
0.0294628107892 -0.0239385337662 0.995 1.36164059675e-38
0.0313042364635 -0.0239385337662 0.995 1.36181996295e-38
0.0331456621378 -0.0239385337662 0.995 1.29728400295e-38
0.0349870878121 -0.0239385337662 0.995 1.34316587779e-38
0.0368285134865 -0.0239385337662 0.995 1.36167646999e-38
0.0386699391608 -0.0239385337662 0.995 1.36167646999e-38
0.0403892200165 -0.0238663572825 0.992 1.35260054009e-38
0.0422250936536 -0.0238663572825 0.992 1.34338111724e-38
0.0439277183977 -0.0237941807988 0.989 1.36171234323e-38
0.0457580399976 -0.0237941807988 0.989 1.35260054009e-38
0.0474921262859 -0.0237460631429 0.987 1.36181996295e-38
0.0490189365184 -0.0236017101755 0.981 1.38940648504e-38
0.0506789956439 -0.0235295336918 0.978 1.39851828817e-38
0.0522206113089 -0.0234092395523 0.973 1.38018706218e-38
0.0538547609274 -0.0233370630686 0.97 1.44465127569e-38
0.055305693318 -0.0231927101011 0.964 1.41695713388e-38
0.0569713044808 -0.0231445924453 0.962 1.39851828817e-38
0.0585684405179 -0.0230724159616 0.959 1.55488974432e-38
0.0601544724806 -0.0230002394779 0.956 1.46301837493e-38
0.060563472555 -0.0224950040919 0.935 1.35270815981e-38
0.0622938574851 -0.0224950040919 0.935 1.19547574588e-38
0.0638872921641 -0.022446886436 0.933 2.34909694872e-38
0.0656139757361 -0.022446886436 0.933 2.35029253657e-38
-0.0103823095809 -0.0207646191617 0.935 2.34974687095e-38
-0.00867968483676 -0.0208312436082 0.938 1.81346476384e-38
-0.00694374786941 -0.0208312436082 0.938 1.95128905391e-38
-0.00540213220437 -0.0216085288175 0.973 1.90540858037e-38
-0.00360142146958 -0.0216085288175 0.973 1.92352316562e-38
-0.00180441209293 -0.0216529451152 0.975 1.79470235832e-38
0.0 -0.0217195695617 0.978 1.72134158111e-38
0.00180996413014 -0.0217195695617 0.978 1.78580579463e-38
0.00363103233469 -0.0217861940082 0.981 1.50951009486e-38
0.0054798607253 -0.0219194429012 0.987 1.50007543256e-38
0.00730648096706 -0.0219194429012 0.987 1.50936660189e-38
0.00915160799952 -0.0219638591989 0.989 1.454085938e-38
0.0109819295994 -0.0219638591989 0.989 1.46319774113e-38
0.0128511154598 -0.0220304836454 0.992 1.42628417646e-38
0.0147314053946 -0.0220971080919 0.995 1.36203520239e-38
0.0165728310689 -0.0220971080919 0.995 1.39869765438e-38
0.0184697771153 -0.0221637325384 0.998 1.39862590789e-38
0.0203167548268 -0.0221637325384 0.998 1.38947823152e-38
0.0221637325384 -0.0221637325384 0.998 1.34338111724e-38
0.0240828867336 -0.0222303569849 1.001 1.35260054009e-38
0.0258576879614 -0.0221637325384 0.998 1.34345286372e-38
0.027704665673 -0.0221637325384 0.998 1.33416169438e-38
0.0295516433845 -0.0221637325384 0.998 1.33423344086e-38
0.031398621096 -0.0221637325384 0.998 1.34345286372e-38
0.0332455988076 -0.0221637325384 0.998 1.3248346518e-38
0.0350925765191 -0.0221637325384 0.998 1.37089589284e-38
0.0369395542306 -0.0221637325384 0.998 1.30653929905e-38
0.0387865319422 -0.0221637325384 0.998 1.31583046839e-38
0.0405113648351 -0.0220971080919 0.995 1.34345286372e-38
0.0422250936536 -0.0220304836454 0.992 1.38007944246e-38
0.0440609672907 -0.0220304836454 0.992 1.3801153157e-38
0.0457580399976 -0.0219638591989 0.989 1.41695713388e-38
0.0475883615975 -0.0219638591989 0.989 1.36171234323e-38
0.049168841523 -0.0218528184547 0.984 1.3893706118e-38
0.0508344526857 -0.0217861940082 0.981 1.44472302218e-38
0.0523279506949 -0.0216529451152 0.975 1.39851828817e-38
0.0540213220437 -0.0216085288175 0.973 1.38947823152e-38
0.0554778064715 -0.0214752799245 0.967 1.38025880866e-38
0.0570897479412 -0.021408655478 0.964 1.41702888037e-38
0.0587516577458 -0.0213642391803 0.962 1.3340899479e-38
0.0603432417457 -0.0212976147338 0.959 1.38025880866e-38
0.0621180429735 -0.0212976147338 0.959 1.29717638323e-38
0.0638928442013 -0.0212976147338 0.959 1.305785961e-38
0.0656676454291 -0.0212976147338 0.959 2.34927379258e-38
0.0720839497637 -0.022763352557 1.025 2.35072539766e-38
0.0737643663589 -0.0226967281104 1.022 2.35098323658e-38
-0.0103823095809 -0.0190342342316 0.935 2.34885158136e-38
-0.00867968483676 -0.0190953066409 0.938 2.15516620957e-38
-0.00694374786941 -0.0190953066409 0.938 1.85895133239e-38
-0.00541323627879 -0.0198485330222 0.975 1.94221312402e-38
-0.00360882418586 -0.0198485330222 0.975 1.86860235517e-38
-0.00180996413014 -0.0199096054315 0.978 1.81339231671e-38
0.0 -0.0199096054315 0.978 1.65673387463e-38
0.00181551616735 -0.0199706778408 0.981 1.59187505547e-38
0.00364213640911 -0.0200317502501 0.984 1.57361557596e-38
0.0054798607253 -0.0200928226594 0.987 1.5001113058e-38
0.00732128639962 -0.020133537599 0.989 1.48178007981e-38
0.00915160799952 -0.020133537599 0.989 1.38969347096e-38
0.0110152418227 -0.0201946100083 0.992 1.42649941591e-38
0.0128899797203 -0.0202556824175 0.995 1.38947823152e-38
0.0147314053946 -0.0202556824175 0.995 1.46309012141e-38
0.0166227994038 -0.0203167548268 0.998 1.3801153157e-38
0.0185252974874 -0.0203778272361 1.001 1.40759421807e-38
0.0203778272361 -0.0203778272361 1.001 1.38025880866e-38
0.0222303569849 -0.0203778272361 1.001 1.35270815981e-38
0.0241550632173 -0.0204388996454 1.004 1.33419756762e-38
0.0260131450033 -0.0204388996454 1.004 1.343345244e-38
0.0277879462311 -0.0203778272361 1.001 1.31583046839e-38
0.0296404759799 -0.0203778272361 1.001 1.26980510059e-38
0.0314930057286 -0.0203778272361 1.001 1.37111113229e-38
0.0333455354773 -0.0203778272361 1.001 1.34338111724e-38
0.0351980652261 -0.0203778272361 1.001 1.29728400295e-38
0.0370505949748 -0.0203778272361 1.001 1.34345286372e-38
0.0389031247236 -0.0203778272361 1.001 1.33419756762e-38
0.0405113648351 -0.0202556824175 0.995 1.37093176608e-38
0.0423527905094 -0.0202556824175 0.995 1.31579459515e-38
0.0440609672907 -0.0201946100083 0.992 1.35267228657e-38
0.0458968409278 -0.0201946100083 0.992 1.30671866525e-38
0.0475883615975 -0.020133537599 0.989 1.33419756762e-38
0.0493187465277 -0.0200928226594 0.987 1.36171248336e-38
0.0508344526857 -0.0199706778408 0.981 1.39848241493e-38
0.052488959774 -0.0199096054315 0.978 1.34338111724e-38
0.0541323627879 -0.0198485330222 0.975 1.38036642838e-38
0.055649919625 -0.0197467456734 0.97 1.38947823152e-38
0.0570897479412 -0.0196246008548 0.964 1.46319774113e-38
0.0588738025644 -0.0196246008548 0.964 1.42628417646e-38
0.0606578571875 -0.0196246008548 0.964 1.43553947256e-38
0.0623123642758 -0.0195838859153 0.962 1.21441681697e-38
0.0640927175408 -0.0195838859153 0.962 1.83151110586e-38
0.066010021057 -0.0196246008548 0.964 2.34906373794e-38
0.0720839497637 -0.0208664065105 1.025 2.35069190663e-38
-0.0103823095809 -0.0173038493014 0.935 2.34878347825e-38
-0.00867968483676 -0.0173593696735 0.938 2.35018239451e-38
-0.00694374786941 -0.0173593696735 0.938 1.70243638327e-38
-0.00542989239041 -0.0180996413014 0.978 1.86824250172e-38
-0.00361992826028 -0.0180996413014 0.978 1.82246824661e-38
-0.00180996413014 -0.0180996413014 0.978 1.74860524403e-38
0.0 -0.0181551616735 0.981 1.66584609816e-38
0.00182106820456 -0.0182106820456 0.984 1.59201924908e-38
0.00365324048353 -0.0182662024177 0.987 1.60134559101e-38
0.00549096479971 -0.018303215999 0.989 1.51837078531e-38
0.00732128639962 -0.018303215999 0.989 1.50007543256e-38
0.00917936818557 -0.0183587363711 0.992 1.50922310893e-38
0.0110152418227 -0.0183587363711 0.992 1.48156484036e-38
0.0129288439807 -0.0184697771153 0.998 1.41706475361e-38
0.0147758216923 -0.0184697771153 0.998 1.38018706218e-38
0.0166727677387 -0.0185252974874 1.001 1.36185583619e-38
0.0185252974874 -0.0185252974874 1.001 1.38025880866e-38
0.0204388996454 -0.0185808178595 1.004 1.30679041174e-38
0.0222969814314 -0.0185808178595 1.004 1.27909626993e-38
0.0241550632173 -0.0185808178595 1.004 1.31586634163e-38
0.0260908735242 -0.0186363382316 1.007 1.32479877856e-38
0.0278712267892 -0.0185808178595 1.004 1.3061446934e-38
0.0297293085752 -0.0185808178595 1.004 1.3155793557e-38
0.0315873903611 -0.0185808178595 1.004 1.25125863515e-38
0.0334454721471 -0.0185808178595 1.004 1.26948224142e-38
0.035303553933 -0.0185808178595 1.004 1.28781346741e-38
0.037161635719 -0.0185808178595 1.004 1.30635993285e-38
0.0390197175049 -0.0185808178595 1.004 1.33405407466e-38
0.0407556544723 -0.0185252974874 1.001 1.3248346518e-38
0.0424804873652 -0.0184697771153 0.998 1.31579459515e-38
0.0441942161837 -0.0184142567432 0.995 1.31586634163e-38
0.0458968409278 -0.0183587363711 0.992 1.27906039668e-38
0.047732714565 -0.0183587363711 0.992 1.31586634163e-38
0.0493187465277 -0.0182662024177 0.987 1.35263641333e-38
0.0509899097276 -0.0182106820456 0.984 1.3893706118e-38
0.0526499688531 -0.0181551616735 0.981 1.48145722064e-38
0.0541323627879 -0.0180441209293 0.975 1.41699300713e-38
0.0558220327785 -0.0180071073479 0.973 1.39869765438e-38
0.0572674131319 -0.0178960666037 0.967 1.44475889542e-38
0.0590570197923 -0.0178960666037 0.967 1.42621242998e-38
0.0608466264526 -0.0178960666037 0.967 1.29728400295e-38
0.062636233113 -0.0178960666037 0.967 9.83608386389e-39
0.0642259664339 -0.0178405462316 0.964 2.34873765579e-38
0.066010021057 -0.0178405462316 0.964 2.34888647369e-38
0.0718729723497 -0.018913940092 1.022 2.35098407736e-38
-0.00907758083674 -0.0163396455061 0.981 2.34963714928e-38
-0.00723985652055 -0.0162896771712 0.978 1.85020624906e-38
-0.00542989239041 -0.0162896771712 0.978 1.80363479525e-38
-0.00361992826028 -0.0162896771712 0.978 1.77647903231e-38
-0.00181551616735 -0.0163396455061 0.981 1.73045394477e-38
0.0 -0.0163396455061 0.981 1.67495776116e-38
0.00181551616735 -0.0163396455061 0.981 1.62889623986e-38
0.00365324048353 -0.0164395821759 0.987 1.59209029492e-38
0.00549096479971 -0.0164728943991 0.989 1.49975257339e-38
0.00734349454845 -0.016522862734 0.992 1.48156484036e-38
0.00920712837161 -0.0165728310689 0.995 1.43546772608e-38
0.0110485540459 -0.0165728310689 0.995 1.43550359932e-38
0.0129288439807 -0.0166227994038 0.998 1.41699300713e-38
0.0148202379899 -0.0166727677387 1.001 1.38940648504e-38
0.0166727677387 -0.0166727677387 1.001 1.36192758267e-38
0.0185808178595 -0.0167227360735 1.004 1.34366810316e-38
0.0204388996454 -0.0167227360735 1.004 1.35270815981e-38
0.0222969814314 -0.0167227360735 1.004 1.34338111724e-38
0.0242272397011 -0.0167727044084 1.007 1.37071652664e-38
0.0260908735242 -0.0167727044084 1.007 1.43525248663e-38
0.0279545073474 -0.0167727044084 1.007 1.37111127242e-38
0.0298181411705 -0.0167727044084 1.007 1.30653929905e-38
0.0316817749937 -0.0167727044084 1.007 1.38018706218e-38
0.0335454088169 -0.0167727044084 1.007 1.35281577954e-38
0.03540904264 -0.0167727044084 1.007 1.30671866525e-38
0.0372726764632 -0.0167727044084 1.007 1.32508576449e-38
0.0391363102863 -0.0167727044084 1.007 1.30664691877e-38
0.0407556544723 -0.0166727677387 1.001 1.28810045334e-38
0.042608184221 -0.0166727677387 1.001 1.32479877856e-38
0.0443274650768 -0.0166227994038 0.998 1.28810045334e-38
0.0460356418581 -0.0165728310689 0.995 1.38018706218e-38
0.047732714565 -0.016522862734 0.992 1.28810045334e-38
0.0494186831974 -0.0164728943991 0.989 1.2880645801e-38
0.0511453667694 -0.0164395821759 0.987 1.26069329745e-38
0.0528109779321 -0.016389613841 0.984 1.38944235828e-38
0.0542989239041 -0.0162896771712 0.978 1.35270815981e-38
0.0559367748808 -0.0162397088364 0.975 1.37114700553e-38
0.0574450783226 -0.0161564282782 0.97 1.37100379282e-38
0.0592402370202 -0.0161564282782 0.97 1.41717237333e-38
0.0610353957178 -0.0161564282782 0.97 1.09452844659e-38
0.0628305544153 -0.0161564282782 0.97 1.76726353309e-38
0.0644258397734 -0.0161064599433 0.967 2.34870640684e-38
0.0662154464338 -0.0161064599433 0.967 2.34975331692e-38
0.0714510175219 -0.0169226094131 1.016 2.35098407736e-38
-0.00723985652055 -0.0144797130411 0.978 2.3500405831e-38
-0.00542989239041 -0.0144797130411 0.978 1.573472083e-38
-0.00361992826028 -0.0144797130411 0.978 1.79445124563e-38
-0.00181551616735 -0.0145241293388 0.981 1.74846175107e-38
0.0 -0.0145241293388 0.981 1.66563043832e-38
0.00181551616735 -0.0145241293388 0.981 1.6287527469e-38
0.00366064319981 -0.0146425727992 0.989 1.58287087206e-38
0.00550762091134 -0.0146869890969 0.992 1.52751846168e-38
0.00736570269729 -0.0147314053946 0.995 1.50925898217e-38
0.00923488855766 -0.0147758216923 0.998 1.45397831827e-38
0.0110818662692 -0.0147758216923 0.998 1.44468714894e-38
0.0129677082412 -0.0148202379899 1.001 1.39851828817e-38
0.0148646542876 -0.0148646542876 1.004 1.39862590789e-38
0.0167227360735 -0.0148646542876 1.004 1.38025880866e-38
0.0185808178595 -0.0148646542876 1.004 1.38025880866e-38
0.0204999720547 -0.0149090705853 1.007 1.37093176608e-38
0.0223636058779 -0.0149090705853 1.007 1.43553947256e-38
0.0242272397011 -0.0149090705853 1.007 1.44465127569e-38
0.0261686020451 -0.0149534868829 1.01 1.42628417646e-38
0.0280377879055 -0.0149534868829 1.01 1.44465127569e-38
0.0299069737659 -0.0149534868829 1.01 1.37118287877e-38
0.0319649288914 -0.0150423194783 1.016 1.44465127569e-38
0.0336453454866 -0.0149534868829 1.01 1.42642766943e-38
0.035514531347 -0.0149534868829 1.01 1.35285165278e-38
0.0373837172074 -0.0149534868829 1.01 1.36196345591e-38
0.0392529030677 -0.0149534868829 1.01 1.36167646999e-38
0.0409999441095 -0.0149090705853 1.007 1.38018706218e-38
0.0427358810768 -0.0148646542876 1.004 1.25133038163e-38
0.0444607139698 -0.0148202379899 1.001 1.29753511564e-38
0.0461744427883 -0.0147758216923 0.998 1.26062155097e-38
0.0478770675324 -0.0147314053946 0.995 1.28831569278e-38
0.0494186831974 -0.0146425727992 0.989 1.37114700553e-38
0.0511453667694 -0.0146129619341 0.987 1.35263641333e-38
0.0528109779321 -0.0145685456365 0.984 1.33434106058e-38
0.0544654850204 -0.0145241293388 0.981 1.37114700553e-38
0.0561088880343 -0.0144797130411 0.978 1.38025880866e-38
0.0579188521644 -0.0144797130411 0.978 1.38025880866e-38
0.0595455990667 -0.0144352967434 0.975 1.39851828817e-38
0.0613500111596 -0.0144352967434 0.975 9.00131355311e-39
0.0631544232525 -0.0144352967434 0.975 2.34946142645e-38
0.0672906909732 -0.0149534868829 1.01 1.98892793066e-38
0.0691598768336 -0.0149534868829 1.01 2.35076155116e-38
-0.00907758083674 -0.0127086131714 0.981 1.76766234263e-38
-0.00726206466939 -0.0127086131714 0.981 2.35002671025e-38
-0.00544654850204 -0.0127086131714 0.981 1.86943836983e-38
-0.00363103233469 -0.0127086131714 0.981 1.62825052153e-38
-0.00181551616735 -0.0127086131714 0.981 1.82185840152e-38
0.0 -0.0127086131714 0.981 1.66573805805e-38
0.00181551616735 -0.0127086131714 0.981 1.65641101547e-38
0.00366064319981 -0.0128122511993 0.989 1.6289321131e-38
0.00550762091134 -0.0128511154598 0.992 1.51837078531e-38
0.00736570269729 -0.0128899797203 0.995 1.5368813775e-38
0.00923488855766 -0.0129288439807 0.998 1.38043817487e-38
0.0111151784924 -0.0129677082412 1.001 1.41702888037e-38
0.0130065725016 -0.0130065725016 1.004 1.43543185284e-38
0.0148646542876 -0.0130065725016 1.004 1.46301837493e-38
0.0167727044084 -0.0130454367621 1.007 1.38018706218e-38
0.0186363382316 -0.0130454367621 1.007 1.454085938e-38
0.0204999720547 -0.0130454367621 1.007 1.5370607437e-38
0.0224302303244 -0.0130843010226 1.01 1.52787887565e-38
0.0242994161848 -0.0130843010226 1.01 1.72119906906e-38
0.0261686020451 -0.0130843010226 1.01 1.5274828687e-38
0.0281210684637 -0.013123165283 1.013 1.50929485541e-38
0.0299958063612 -0.013123165283 1.013 1.44497413486e-38
0.0318705442588 -0.013123165283 1.013 1.42649941591e-38
0.0337452821564 -0.013123165283 1.013 1.38040230162e-38
0.035620020054 -0.013123165283 1.013 1.42628473698e-38
0.0373837172074 -0.0130843010226 1.01 1.46305424817e-38
0.0392529030677 -0.0130843010226 1.01 1.44475889542e-38
0.0409999441095 -0.0130454367621 1.007 1.39873352762e-38
0.0428635779327 -0.0130454367621 1.007 1.37114700553e-38
0.0445939628628 -0.0130065725016 1.004 1.38025880866e-38
0.0463132437185 -0.0129677082412 1.001 1.33416169438e-38
0.0480214204998 -0.0129288439807 0.998 1.29728400295e-38
0.0495685882021 -0.0128511154598 0.992 1.33412582114e-38
0.0512490047973 -0.0128122511993 0.989 1.33430518734e-38
0.0529719870112 -0.0127863416924 0.987 1.36189170943e-38
0.054798607253 -0.0127863416924 0.987 1.38036642838e-38
0.0562810011878 -0.0127086131714 0.981 1.39869765438e-38
0.0580965173551 -0.0127086131714 0.981 1.34338111724e-38
0.0599120335225 -0.0127086131714 0.981 1.1127879261e-38
0.0617275496898 -0.0127086131714 0.981 2.05306774358e-38
0.0650328625082 -0.0130065725016 1.004 2.34849242856e-38
0.0668909442942 -0.0130065725016 1.004 2.17151487849e-38
0.0687490260801 -0.0130065725016 1.004 2.35098015372e-38
-0.0103045810599 -0.0103045810599 0.928 2.34867585853e-38
-0.00910534102278 -0.0109264092273 0.984 2.24683130783e-38
-0.00726206466939 -0.0108930970041 0.981 2.19677664642e-38
-0.00544654850204 -0.0108930970041 0.981 2.35025568242e-38
-0.00364213640911 -0.0109264092273 0.984 1.53692341645e-38
-0.00182106820456 -0.0109264092273 0.984 1.72058824306e-38
0.0 -0.0109597214506 0.987 1.75782466689e-38
0.00182662024177 -0.0109597214506 0.987 1.61967681701e-38
0.00366064319981 -0.0109819295994 0.989 1.60120209805e-38
0.00550762091134 -0.0110152418227 0.992 1.55517673025e-38
0.00738791084613 -0.0110818662692 0.998 1.50925898217e-38
0.0092626487437 -0.0111151784924 1.001 1.46323361437e-38
0.0111484907157 -0.0111484907157 1.004 1.43553947256e-38
0.0130065725016 -0.0111484907157 1.004 1.49986019311e-38
0.0149090705853 -0.011181802939 1.007 1.5461366736e-38
0.0167727044084 -0.011181802939 1.007 1.76704451014e-38
0.0186918586037 -0.0112151151622 1.01 1.70279875905e-38
0.020561044464 -0.0112151151622 1.01 1.61978443673e-38
0.0224302303244 -0.0112151151622 1.01 1.5274467152e-38
0.0243715926685 -0.0112484273855 1.013 1.55506911053e-38
0.0262463305661 -0.0112484273855 1.013 1.54584968767e-38
0.0281210684637 -0.0112484273855 1.013 1.54592143415e-38
0.0299958063612 -0.0112484273855 1.013 1.46326948761e-38
0.0318705442588 -0.0112484273855 1.013 1.47230954426e-38
0.0337452821564 -0.0112484273855 1.013 1.34348873696e-38
0.035620020054 -0.0112484273855 1.013 1.40795295047e-38
0.0374947579515 -0.0112484273855 1.013 1.44465127569e-38
0.0392529030677 -0.0112151151622 1.01 1.43553947256e-38
0.0411220889281 -0.0112151151622 1.01 1.40795295047e-38
0.0428635779327 -0.011181802939 1.007 1.46319774113e-38
0.0447272117558 -0.011181802939 1.007 1.38025880866e-38
0.0464520446487 -0.0111484907157 1.004 1.2789886502e-38
0.0481657734673 -0.0111151784924 1.001 1.31586634163e-38
0.0495685882021 -0.0110152418227 0.992 1.33412582114e-38
0.0512490047973 -0.0109819295994 0.989 1.31579459515e-38
0.0530793263972 -0.0109819295994 0.989 1.33434106058e-38
0.054798607253 -0.0109597214506 0.987 1.34338111724e-38
0.0566252274947 -0.0109597214506 0.987 1.39848241493e-38
0.0584518477365 -0.0109597214506 0.987 1.17728801286e-38
0.0602784679783 -0.0109597214506 0.987 1.6103534178e-38
0.0650328625082 -0.0111484907157 1.004 1.59277202662e-38
0.0668909442942 -0.0111484907157 1.004 2.34999798363e-38
0.0687490260801 -0.0111484907157 1.004 2.35098337671e-38
-0.00948473023206 -0.00948473023206 1.025 2.34910928014e-38
-0.00728427281823 -0.00910534102278 0.984 5.32645877716e-39
-0.00546320461367 -0.00910534102278 0.984 2.34838747131e-38
-0.00365324048353 -0.00913310120883 0.987 2.34986570106e-38
-0.00182662024177 -0.00913310120883 0.987 1.50858061358e-38
0.0 -0.00913310120883 0.987 1.66545107212e-38
0.0018303215999 -0.00915160799952 0.989 1.64726333909e-38
0.00366064319981 -0.00915160799952 0.989 1.61049326739e-38
0.00550762091134 -0.00917936818557 0.992 1.54606492712e-38
0.00741011899496 -0.0092626487437 1.001 1.46312599465e-38
0.00929040892975 -0.00929040892975 1.004 1.40802469695e-38
0.011181802939 -0.00931816911579 1.007 1.48185182629e-38
0.0130454367621 -0.00931816911579 1.007 1.49099950266e-38
0.0149534868829 -0.00934592930184 1.01 1.88714868047e-38
0.0168226727433 -0.00934592930184 1.01 1.62007282395e-38
0.0187473789758 -0.00937368948788 1.013 1.61974856349e-38
0.0206221168733 -0.00937368948788 1.013 1.62900385958e-38
0.0224968547709 -0.00937368948788 1.013 1.60131097894e-38
0.0243715926685 -0.00937368948788 1.013 1.64755172632e-38
0.0262463305661 -0.00937368948788 1.013 1.49099950266e-38
0.0281210684637 -0.00937368948788 1.013 1.55506911053e-38
0.0299958063612 -0.00937368948788 1.013 1.59205442168e-38
0.0318705442588 -0.00937368948788 1.013 1.56446789959e-38
0.0338452188261 -0.00940144967393 1.016 1.50000368607e-38
0.035620020054 -0.00937368948788 1.013 1.4908560097e-38
0.0374947579515 -0.00937368948788 1.013 1.47256065695e-38
0.0393694958491 -0.00937368948788 1.013 1.39873352762e-38
0.0411220889281 -0.00934592930184 1.01 1.39862590789e-38
0.0429912747885 -0.00934592930184 1.01 1.38947823152e-38
0.0448604606488 -0.00934592930184 1.01 1.38036642838e-38
0.0464520446487 -0.00929040892975 1.004 1.33444868031e-38
0.0481657734673 -0.0092626487437 1.001 1.33444868031e-38
0.0495685882021 -0.00917936818557 0.992 1.31579459515e-38
0.0514044618392 -0.00917936818557 0.992 1.23289153592e-38
0.0530793263972 -0.00915160799952 0.989 1.343345244e-38
0.0549096479971 -0.00915160799952 0.989 1.37986420301e-38
0.056739969597 -0.00915160799952 0.989 1.21395046484e-38
0.0585702911969 -0.00915160799952 0.989 1.47198962782e-38
0.0607670472526 -0.00920712837161 0.995 2.34939766737e-38
0.0656158264152 -0.00937368948788 1.013 2.02325077473e-38
0.0674905643128 -0.00937368948788 1.013 2.35069106585e-38
-0.00758778418565 -0.00758778418565 1.025 2.16417795999e-38
-0.0054798607253 -0.00730648096706 0.987 8.90804312733e-39
-0.00365324048353 -0.00730648096706 0.987 2.34934792127e-38
-0.00182662024177 -0.00730648096706 0.987 2.34921647948e-38
0.0 -0.00732128639962 0.989 1.35184720204e-38
0.00183587363711 -0.00734349454845 0.992 1.59162394279e-38
0.00368285134865 -0.00736570269729 0.995 1.60109447833e-38
0.0055409331346 -0.00738791084613 0.998 1.57340033652e-38
0.00741011899496 -0.00741011899496 1.001 1.55510498377e-38
0.00929040892975 -0.0074323271438 1.004 1.58269150586e-38
0.011181802939 -0.00745453529263 1.007 1.77640700557e-38
0.0130843010226 -0.00747674344147 1.01 1.78587754111e-38
0.0149979031806 -0.00749895159031 1.013 1.77640700557e-38
0.0168726410782 -0.00749895159031 1.013 1.67510097387e-38
0.0187473789758 -0.00749895159031 1.013 1.70275924244e-38
0.0206221168733 -0.00749895159031 1.013 1.62907560607e-38
0.0224968547709 -0.00749895159031 1.013 1.6474427053e-38
0.0243715926685 -0.00749895159031 1.013 1.63815153596e-38
0.0262463305661 -0.00749895159031 1.013 1.61063676035e-38
0.0281210684637 -0.00749895159031 1.013 1.57383081541e-38
0.0299958063612 -0.00749895159031 1.013 1.62914735255e-38
0.0318705442588 -0.00749895159031 1.013 1.4908560097e-38
0.0337452821564 -0.00749895159031 1.013 1.58261975938e-38
0.035620020054 -0.00749895159031 1.013 1.47241730412e-38
0.0374947579515 -0.00749895159031 1.013 1.55514085701e-38
0.0393694958491 -0.00749895159031 1.013 1.47230954426e-38
0.0412442337467 -0.00749895159031 1.013 1.42628417646e-38
0.0431189716443 -0.00749895159031 1.013 1.42624830322e-38
0.0448604606488 -0.00747674344147 1.01 1.35263641333e-38
0.0467296465092 -0.00747674344147 1.01 1.28831569278e-38
0.0483101264347 -0.0074323271438 1.004 1.37118287877e-38
0.050018303216 -0.00741011899496 1.001 1.37114700553e-38
0.0517153759229 -0.00738791084613 0.998 1.33419756762e-38
0.0535623536344 -0.00738791084613 0.998 1.31561522894e-38
0.0550762091134 -0.00734349454845 0.992 1.26004757912e-38
0.0569120827505 -0.00734349454845 0.992 1.41692392311e-38
0.0589256215783 -0.00736570269729 0.995 2.34918158714e-38
0.0607670472526 -0.00736570269729 0.995 2.2102752144e-38
0.0582038567412 -0.00684751255778 0.925 1.98608609738e-38
0.0656158264152 -0.00749895159031 1.013 2.34658820408e-38
0.0674905643128 -0.00749895159031 1.013 2.35098211554e-38
-0.00758778418565 -0.00569083813924 1.025 2.34881935149e-38
-0.00569083813924 -0.00569083813924 1.025 9.19467032041e-39
-0.00369395542306 -0.0055409331346 0.998 1.40681159287e-38
-0.00184697771153 -0.0055409331346 0.998 2.35007659647e-38
0.0 -0.0055409331346 0.998 2.34050124381e-38
0.00184142567432 -0.00552427702297 0.995 1.26015519884e-38
0.00368285134865 -0.00552427702297 0.995 1.56414504042e-38
0.00555758924622 -0.00555758924622 1.001 1.58254801289e-38
0.0074323271438 -0.00557424535785 1.004 1.56428853338e-38
0.00931816911579 -0.00559090146948 1.007 1.79491997997e-38
0.0112151151622 -0.0056075575811 1.01 1.92413609357e-38
0.0130843010226 -0.0056075575811 1.01 1.78562642842e-38
0.0149979031806 -0.00562421369273 1.013 1.76707996299e-38
0.0168726410782 -0.00562421369273 1.013 1.73956518738e-38
0.0187473789758 -0.00562421369273 1.013 1.72119808815e-38
0.0206221168733 -0.00562421369273 1.013 1.73960106062e-38
0.0224968547709 -0.00562421369273 1.013 1.71201453853e-38
0.0243715926685 -0.00562421369273 1.013 1.66588323257e-38
0.0262463305661 -0.00562421369273 1.013 1.65659038167e-38
0.0281210684637 -0.00562421369273 1.013 1.65659038167e-38
0.0299958063612 -0.00562421369273 1.013 1.64751445178e-38
0.0318705442588 -0.00562421369273 1.013 1.65666212815e-38
0.0337452821564 -0.00562421369273 1.013 1.63840264864e-38
0.035620020054 -0.00562421369273 1.013 1.51869364447e-38
0.0374947579515 -0.00562421369273 1.013 1.54635191304e-38
0.0393694958491 -0.00562421369273 1.013 1.5001113058e-38
0.0412442337467 -0.00562421369273 1.013 1.49074838998e-38
0.0431189716443 -0.00562421369273 1.013 1.44465127569e-38
0.0449937095418 -0.00562421369273 1.013 1.42639179619e-38
0.0467296465092 -0.0056075575811 1.01 1.5276622349e-38
0.0483101264347 -0.00557424535785 1.004 1.41706475361e-38
0.050018303216 -0.00555758924622 1.001 1.38025880866e-38
0.0518708329647 -0.00555758924622 1.001 1.2420392123e-38
0.0535623536344 -0.0055409331346 0.998 1.02030671161e-38
0.055409331346 -0.0055409331346 0.998 1.39816235836e-38
0.0529534802205 -0.00512453034392 0.923 2.34914165014e-38
0.0546616570018 -0.00512453034392 0.923 2.25630072233e-38
0.0564919786017 -0.00513563441834 0.925 2.12516665152e-38
0.0582038567412 -0.00513563441834 0.925 1.60012590083e-38
0.0658101477175 -0.00564086980436 1.016 2.34939696672e-38
0.0676904376523 -0.00564086980436 1.016 2.35098365697e-38
-0.00756557603682 -0.00378278801841 1.022 2.34831460379e-38
-0.00567418202761 -0.00378278801841 1.022 1.50055061286e-38
0.0 -0.00369395542306 0.998 2.34906471885e-38
0.00184142567432 -0.00368285134865 0.995 2.34021285658e-38
0.00368285134865 -0.00368285134865 0.995 1.44400555736e-38
0.00555758924622 -0.00370505949748 1.001 1.51750982753e-38
0.0074323271438 -0.0037161635719 1.004 1.49089188294e-38
0.00934592930184 -0.00373837172074 1.01 2.0897664892e-38
0.0112484273855 -0.00374947579515 1.013 1.8962984588e-38
0.013123165283 -0.00374947579515 1.013 1.78587754111e-38
0.0150423194783 -0.00376057986957 1.016 1.81342818995e-38
0.0168726410782 -0.00374947579515 1.013 1.80413702062e-38
0.0187473789758 -0.00374947579515 1.013 1.80410114738e-38
0.0206221168733 -0.00374947579515 1.013 1.75811165282e-38
0.0224968547709 -0.00374947579515 1.013 1.71201453853e-38
0.0243715926685 -0.00374947579515 1.013 1.76704408975e-38
0.0262463305661 -0.00374947579515 1.013 1.80388590793e-38
0.0281210684637 -0.00374947579515 1.013 1.68460822343e-38
0.0299958063612 -0.00374947579515 1.013 1.68453563617e-38
0.0318705442588 -0.00374947579515 1.013 1.66598917073e-38
0.0336453454866 -0.00373837172074 1.01 1.67528034007e-38
0.035514531347 -0.00373837172074 1.01 1.59241315408e-38
0.0373837172074 -0.00373837172074 1.01 1.59223378788e-38
0.0392529030677 -0.00373837172074 1.01 1.53716836343e-38
0.0411220889281 -0.00373837172074 1.01 1.52776957437e-38
0.0431189716443 -0.00374947579515 1.013 1.47248891047e-38
0.0449937095418 -0.00374947579515 1.013 1.42628417646e-38
0.0467296465092 -0.00373837172074 1.01 1.42621242998e-38
0.0484544794021 -0.00372726764632 1.007 1.40777358427e-38
0.050018303216 -0.00370505949748 1.001 1.37075239988e-38
0.0478289498766 -0.00341635356261 0.923 8.26806451347e-39
0.0495371266579 -0.00341635356261 0.923 1.89544072401e-38
0.0512453034392 -0.00341635356261 0.923 2.34946506982e-38
0.0529534802205 -0.00341635356261 0.923 2.23822102942e-38
0.0546616570018 -0.00341635356261 0.923 2.03297242296e-38
0.0564919786017 -0.00342375627889 0.925 1.49871224941e-38
0.0582038567412 -0.00342375627889 0.925 2.06163892577e-38
0.0658101477175 -0.00376057986957 1.016 2.35080064739e-38
0.0037161635719 -0.00185808178595 1.004 2.35022387294e-38
0.00557424535785 -0.00185808178595 1.004 2.03466771384e-38
0.00747674344147 -0.00186918586037 1.01 1.58279912558e-38
0.00937368948788 -0.00187473789758 1.013 1.99778077384e-38
0.0112484273855 -0.00187473789758 1.013 1.85001889545e-38
0.013123165283 -0.00187473789758 1.013 1.88693246012e-38
0.0149979031806 -0.00187473789758 1.013 1.86856550102e-38
0.0168726410782 -0.00187473789758 1.013 1.84087163947e-38
0.0187473789758 -0.00187473789758 1.013 1.84987610314e-38
0.0206221168733 -0.00187473789758 1.013 1.80399380791e-38
0.0224968547709 -0.00187473789758 1.013 1.81314120403e-38
0.0243715926685 -0.00187473789758 1.013 1.86842270871e-38
0.0262463305661 -0.00187473789758 1.013 1.81335714412e-38
0.0281210684637 -0.00187473789758 1.013 1.69368331254e-38
0.0299958063612 -0.00187473789758 1.013 1.75803990633e-38
0.0318705442588 -0.00187473789758 1.013 1.69357569282e-38
0.0336453454866 -0.00186918586037 1.01 1.71190691881e-38
0.035514531347 -0.00186918586037 1.01 1.65669800139e-38
0.0373837172074 -0.00186918586037 1.01 1.63822328244e-38
0.0392529030677 -0.00186918586037 1.01 1.61063676035e-38
0.0411220889281 -0.00186918586037 1.01 1.56450377283e-38
0.0431189716443 -0.00187473789758 1.013 1.51829903882e-38
0.0449937095418 -0.00187473789758 1.013 1.50904374273e-38
0.0468684474394 -0.00187473789758 1.013 1.41702888037e-38
0.0485988323696 -0.00186918586037 1.01 1.2048386617e-38
0.0501682082206 -0.00185808178595 1.004 1.07501340366e-38
0.0478289498766 -0.00170817678131 0.923 2.34791187061e-38
0.0495371266579 -0.00170817678131 0.923 2.34968269148e-38
0.0512453034392 -0.00170817678131 0.923 1.99742862754e-38
0.0529534802205 -0.00170817678131 0.923 2.02325077473e-38
0.0546616570018 -0.00170817678131 0.923 1.66426725518e-38
0.0563698337831 -0.00170817678131 0.923 2.24581914995e-38
0.0582038567412 -0.00171187813945 0.925 2.34629855568e-38
0.0658101477175 -0.00188028993479 1.016 2.35098337671e-38
0.0056075575811 0.0 1.01 2.34907158522e-38
0.00747674344147 0.0 1.01 2.34896564705e-38
0.00937368948788 0.0 1.013 2.09869696431e-38
0.0112484273855 0.0 1.013 1.70293860864e-38
0.013123165283 0.0 1.013 1.88678896716e-38
0.0149979031806 0.0 1.013 1.88678896716e-38
0.0168726410782 0.0 1.013 1.83158004974e-38
0.0187473789758 0.0 1.013 1.95132688897e-38
0.0206221168733 0.0 1.013 1.88718945826e-38
0.0224968547709 0.0 1.013 1.84998302221e-38
0.0243715926685 0.0 1.013 1.85016280881e-38
0.0262463305661 0.0 1.013 1.77655049853e-38
0.0281210684637 0.0 1.013 1.77662224501e-38
0.0299958063612 0.0 1.013 1.75832689226e-38
0.0317761596263 0.0 1.01 1.74882048348e-38
0.0336453454866 0.0 1.01 1.71201453853e-38
0.035514531347 0.0 1.01 1.69350394634e-38
0.0373837172074 0.0 1.01 1.6934680731e-38
0.0392529030677 0.0 1.01 1.65669800139e-38
0.0411220889281 0.0 1.01 1.63829502892e-38
0.0429912747885 0.0 1.01 1.50907961597e-38
0.0448604606488 0.0 1.01 1.35231355417e-38
0.0467296465092 0.0 1.01 1.2778407065e-38
0.0485988323696 0.0 1.01 2.28276452409e-38
0.0506179232346 0.0 1.013 2.34971926537e-38
0.0479325879045 0.0 0.925 2.29379022067e-38
0.0495371266579 0.0 0.923 2.16222370915e-38
0.0512453034392 0.0 0.923 1.85805450137e-38
0.0529534802205 0.0 0.923 1.8118856406e-38
0.0546616570018 0.0 0.923 2.34702008426e-38
0.0563698337831 0.0 0.923 1.6648772404e-38
0.0639298577827 0.0 1.016 2.34932578076e-38
0.0658101477175 0.0 1.016 2.35098449775e-38
-0.00569083813924 0.00189694604641 1.025 2.13644444169e-38
0.00749895159031 0.00187473789758 1.013 2.29969921603e-38
0.00937368948788 0.00187473789758 1.013 2.34907214573e-38
0.0112484273855 0.00187473789758 1.013 2.34889249927e-38
0.013123165283 0.00187473789758 1.013 2.20948067817e-38
0.0149979031806 0.00187473789758 1.013 1.82232475364e-38
0.0168726410782 0.00187473789758 1.013 1.8772108119e-38
0.0187473789758 0.00187473789758 1.013 1.79488172452e-38
0.0206221168733 0.00187473789758 1.013 1.86852948765e-38
0.0224968547709 0.00187473789758 1.013 1.88711182632e-38
0.0243715926685 0.00187473789758 1.013 1.89615188298e-38
0.0262463305661 0.00187473789758 1.013 1.81353580968e-38
0.0281210684637 0.00187473789758 1.013 1.78584166787e-38
0.0299958063612 0.00187473789758 1.013 1.84991127573e-38
0.0317761596263 0.00186918586037 1.01 1.79491759776e-38
0.0336453454866 0.00186918586037 1.01 1.6936474393e-38
0.035514531347 0.00186918586037 1.01 1.69350394634e-38
0.0372726764632 0.00186363382316 1.007 1.57350795624e-38
0.0391363102863 0.00186363382316 1.007 1.52694448983e-38
0.0409999441095 0.00186363382316 1.007 1.38850965402e-38
0.0428635779327 0.00186363382316 1.007 1.54513306364e-38
0.0447272117558 0.00186363382316 1.007 2.34830843807e-38
0.0464520446487 0.00185808178595 1.004 2.34928556349e-38
0.0445088316256 0.00171187813945 0.925 2.34943059788e-38
0.046220709765 0.00171187813945 0.925 2.20941005273e-38
0.0479325879045 0.00171187813945 0.925 1.91304817934e-38
0.0496444660439 0.00171187813945 0.925 1.84854809259e-38
0.0513563441834 0.00171187813945 0.925 2.05241782136e-38
0.0530682223228 0.00171187813945 0.925 2.34673379899e-38
0.054957765653 0.00171743017665 0.928 1.68353188608e-38
0.0620495678479 0.00188028993479 1.016 2.16258944805e-38
0.0639298577827 0.00188028993479 1.016 2.35058652899e-38
0.00937368948788 0.00374947579515 1.013 1.32304098977e-38
0.0112484273855 0.00374947579515 1.013 1.9038363235e-38
0.013123165283 0.00374947579515 1.013 2.34972150744e-38
0.0168726410782 0.00374947579515 1.013 2.34975513861e-38
0.0187473789758 0.00374947579515 1.013 2.26526440822e-38
0.0206221168733 0.00374947579515 1.013 2.11727453857e-38
0.0224968547709 0.00374947579515 1.013 1.83150830326e-38
0.0243715926685 0.00374947579515 1.013 1.84072772612e-38
0.0262463305661 0.00374947579515 1.013 1.87681620625e-38
0.0281210684637 0.00374947579515 1.013 1.76636249817e-38
0.0299069737659 0.00373837172074 1.01 1.74806714542e-38
0.0317761596263 0.00373837172074 1.01 1.72980766591e-38
0.0336453454866 0.00373837172074 1.01 1.7759047802e-38
0.035514531347 0.00373837172074 1.01 1.85931006479e-38
0.0372726764632 0.00372726764632 1.007 2.05281032506e-38
0.0391363102863 0.00372726764632 1.007 2.34867347632e-38
0.0409999441095 0.00372726764632 1.007 2.3493588514e-38
0.0395008940631 0.00343486035331 0.928 2.34964527681e-38
0.0410850753467 0.00342375627889 0.925 2.34892935342e-38
0.0427969534861 0.00342375627889 0.925 2.15365883281e-38
0.0445088316256 0.00342375627889 0.925 1.3779987945e-38
0.046220709765 0.00342375627889 0.925 1.84618115935e-38
0.0479325879045 0.00342375627889 0.925 2.14296286176e-38
0.049805475123 0.00343486035331 0.928 1.88640066735e-38
0.0515229052996 0.00343486035331 0.928 2.26400267908e-38
0.0532403354763 0.00343486035331 0.928 1.72945369792e-38
0.0601692779131 0.00376057986957 1.016 2.23652377672e-38
0.0620495678479 0.00376057986957 1.016 2.14339600311e-38
0.0639298577827 0.00376057986957 1.016 2.35098491814e-38
-0.00380499616724 0.00570749425087 1.028 1.96134701377e-38
0.0206221168733 0.00562421369273 1.013 2.34936123361e-38
0.0224968547709 0.00562421369273 1.013 2.34972094692e-38
0.0243715926685 0.00562421369273 1.013 2.35008164115e-38
0.0261686020451 0.0056075575811 1.01 2.35015212646e-38
0.0280377879055 0.0056075575811 1.01 2.35008009972e-38
0.0299069737659 0.0056075575811 1.01 2.35004394622e-38
0.0317761596263 0.0056075575811 1.01 2.34997219974e-38
0.0336453454866 0.0056075575811 1.01 2.35022457359e-38
0.035514531347 0.0056075575811 1.01 2.34990045326e-38
0.037161635719 0.00557424535785 1.004 2.34928766544e-38
0.0390197175049 0.00557424535785 1.004 2.34828097262e-38
0.0376613190678 0.00513563441834 0.925 2.01539719749e-38
0.0393731972073 0.00513563441834 0.925 1.41570157046e-38
0.0410850753467 0.00513563441834 0.925 1.12957660274e-38
0.0427969534861 0.00513563441834 0.925 1.04785736046e-38
0.044653184593 0.00515229052996 0.928 1.98727383796e-38
0.0463706147697 0.00515229052996 0.928 2.14390453433e-38
0.0480880449463 0.00515229052996 0.928 1.93206786327e-38
0.049805475123 0.00515229052996 0.928 2.28280502162e-38
0.0515229052996 0.00515229052996 0.928 1.74792421298e-38
0.0582889879784 0.00564086980436 1.016 2.32904731042e-38
0.0601692779131 0.00564086980436 1.016 1.60001828111e-38
0.0620495678479 0.00564086980436 1.016 2.34853194518e-38
0.0639298577827 0.00564086980436 1.016 2.35098505827e-38
0.0224968547709 0.00749895159031 1.013 4.31626831943e-39
0.0243715926685 0.00749895159031 1.013 4.86728129637e-39
0.0261686020451 0.00747674344147 1.01 5.96930725027e-39
0.0280377879055 0.00747674344147 1.01 5.78563625795e-39
0.0299069737659 0.00747674344147 1.01 5.32645877716e-39
0.0317761596263 0.00747674344147 1.01 5.51012976948e-39
0.0336453454866 0.00747674344147 1.01 6.24481373874e-39
0.03540904264 0.00745453529263 1.007 6.70399121953e-39
0.037161635719 0.0074323271438 1.004 6.24481373874e-39
0.0360660337097 0.00686972070662 0.928 4.77544580022e-39
0.0376613190678 0.00684751255778 0.925 6.88766221185e-39
0.0393731972073 0.00684751255778 0.925 1.75754202499e-38
0.0410850753467 0.00684751255778 0.925 2.34633779204e-38
0.0427969534861 0.00684751255778 0.925 1.98716789979e-38
0.044653184593 0.00686972070662 0.928 1.4532967267e-38
0.0463706147697 0.00686972070662 0.928 2.23634595194e-38
0.0480880449463 0.00686972070662 0.928 1.9506143287e-38
0.049805475123 0.00686972070662 0.928 1.64672524048e-38
0.0515229052996 0.00686972070662 0.928 2.3470507727e-38
0.0582889879784 0.00752115973914 1.016 1.7656809066e-38
0.0601692779131 0.00752115973914 1.016 1.88672310613e-38
0.0620495678479 0.00752115973914 1.016 2.35026142774e-38
0.0261686020451 0.00934592930184 1.01 2.06128762025e-38
0.0279545073474 0.00931816911579 1.007 1.7761296886e-38
0.0297293085752 0.00929040892975 1.004 1.74857679767e-38
0.0315873903611 0.00929040892975 1.004 1.74818177164e-38
0.0335454088169 0.00931816911579 1.007 1.95994109102e-38
0.03540904264 0.00931816911579 1.007 1.96001690127e-38
0.0343486035331 0.00858715088327 0.928 2.22698738015e-38
0.0360660337097 0.00858715088327 0.928 2.34698687349e-38
0.0377834638864 0.00858715088327 0.928 2.03341215041e-38
0.0395008940631 0.00858715088327 0.928 1.53569826121e-38
0.0412183242397 0.00858715088327 0.928 1.31507713033e-38
0.0429357544164 0.00858715088327 0.928 2.26439938668e-38
0.044653184593 0.00858715088327 0.928 2.23627784884e-38
0.0463706147697 0.00858715088327 0.928 1.29620780573e-38
0.0480880449463 0.00858715088327 0.928 1.94200166808e-38
0.049912814509 0.00860565767397 0.93 2.34720071164e-38
0.0516339460438 0.00860565767397 0.93 1.37921848468e-38
0.0582889879784 0.00940144967393 1.016 2.3382630899e-38
0.0599916127225 0.00937368948788 1.013 2.13421427519e-38
0.06186635062 0.00937368948788 1.013 2.35098001359e-38
0.0261686020451 0.0112151151622 1.01 9.01351045494e-39
0.0278712267892 0.0111484907157 1.004 1.04850307879e-38
0.0296404759799 0.0111151784924 1.001 1.17692928045e-38
0.0314930057286 0.0111151784924 1.001 1.15870567418e-38
0.0335454088169 0.011181802939 1.007 1.12164861655e-38
0.0326311733564 0.0103045810599 0.928 1.02027083837e-38
0.0343486035331 0.0103045810599 0.928 8.45532282986e-39
0.0360660337097 0.0103045810599 0.928 1.35174056323e-38
0.0377834638864 0.0103045810599 0.928 2.06135250037e-38
0.0395008940631 0.0103045810599 0.928 2.10774542875e-38
0.0412183242397 0.0103045810599 0.928 1.95104747006e-38
0.0429357544164 0.0103045810599 0.928 1.13958523689e-38
0.044653184593 0.0103045810599 0.928 1.32479877856e-38
0.0463706147697 0.0103045810599 0.928 2.34748531535e-38
0.0480880449463 0.0103045810599 0.928 2.15290451384e-38
0.0542063899507 0.0112151151622 1.01 1.37903911848e-38
0.0564086980436 0.0112817396087 1.016 2.34705049244e-38
0.0582889879784 0.0112817396087 1.016 1.90436881691e-38
0.0599916127225 0.0112484273855 1.013 2.34766678351e-38
0.0616831333921 0.0112151151622 1.01 2.35098253593e-38
0.0278712267892 0.0130065725016 1.004 1.67471169315e-38
0.0296404759799 0.0129677082412 1.001 2.08908657918e-38
0.0314930057286 0.0129677082412 1.001 2.34676869132e-38
0.0333455354773 0.0129677082412 1.001 2.34680596586e-38
0.0326311733564 0.0120220112366 0.928 2.34691400597e-38
0.0343486035331 0.0120220112366 0.928 2.30974750693e-38
0.0360660337097 0.0120220112366 0.928 2.06107111963e-38
0.0377834638864 0.0120220112366 0.928 1.41659840148e-38
0.0395008940631 0.0120220112366 0.928 8.45460536505e-39
0.0412183242397 0.0120220112366 0.928 1.37057401459e-38
0.0429357544164 0.0120220112366 0.928 2.3471634371e-38
0.044653184593 0.0120220112366 0.928 2.34709323204e-38
0.0463706147697 0.0120220112366 0.928 1.50836229128e-38
0.0542063899507 0.0130843010226 1.01 2.27369504017e-38
0.056075575811 0.0130843010226 1.01 1.83086510727e-38
0.0579447616714 0.0130843010226 1.01 1.8037824921e-38
0.0598139475318 0.0130843010226 1.01 2.35022331242e-38
0.0616831333921 0.0130843010226 1.01 2.35098225567e-38
0.0 0.0149979031806 1.013 1.74929860651e-38
0.0309803676263 0.0137690522784 0.93 8.81907749042e-39
0.0327014991611 0.0137690522784 0.93 7.16316870032e-39
0.0344226306959 0.0137690522784 0.93 7.80601717343e-39
0.0361437622307 0.0137690522784 0.93 1.08394584059e-38
0.0377834638864 0.0137394414132 0.928 2.06124432012e-38
0.0395008940631 0.0137394414132 0.928 2.34709197087e-38
0.0412183242397 0.0137394414132 0.928 2.34698294985e-38
0.0429357544164 0.0137394414132 0.928 1.74774961119e-38
0.0447494199046 0.0137690522784 0.93 1.15823932205e-38
0.0464705514394 0.0137690522784 0.93 1.8960505691e-38
0.0542063899507 0.0149534868829 1.01 1.60034114028e-38
0.056075575811 0.0149534868829 1.01 2.19075260446e-38
0.0579447616714 0.0149534868829 1.01 2.22586634138e-38
0.0598139475318 0.0149534868829 1.01 2.35044065382e-38
0.0 0.0168726410782 1.013 1.76780835793e-38
0.0311469287426 0.0155734643713 0.935 2.18048907411e-38
0.0328773136727 0.0155734643713 0.935 2.31864238906e-38
0.0345336714401 0.015540152148 0.933 2.3467709334e-38
0.0361437622307 0.0154901838131 0.93 2.34698449128e-38
0.0378648937655 0.0154901838131 0.93 2.30967309798e-38
0.0395860253003 0.0154901838131 0.93 1.30524786239e-38
0.0413071568351 0.0154901838131 0.93 1.47905371351e-38
0.0430282883699 0.0154901838131 0.93 1.46161931854e-38
0.0447494199046 0.0154901838131 0.93 2.32843816598e-38
0.0464705514394 0.0154901838131 0.93 1.84909249704e-38
0.0540453808716 0.0167727044084 1.007 2.17238732691e-38
0.0559090146948 0.0167727044084 1.007 1.83036077995e-38
0.0577726485179 0.0167727044084 1.007 2.34798726046e-38
0.0596362823411 0.0167727044084 1.007 2.35083764167e-38
0.00187473789758 0.0187473789758 1.013 1.6665007848e-38
0.029510928445 0.0173593696735 0.938 2.23609764185e-38
0.0311469287426 0.0173038493014 0.935 2.14383012538e-38
0.0328773136727 0.0173038493014 0.935 1.67377632643e-38
0.0346076986028 0.0173038493014 0.935 1.13933412421e-38
0.036338083533 0.0173038493014 0.935 6.42848473106e-39
0.0380684684631 0.0173038493014 0.935 8.26878197829e-39
0.0397988533933 0.0173038493014 0.935 1.53659649352e-38
0.0420178175978 0.0175074239991 0.946 2.30099429607e-38
0.0437685599977 0.0175074239991 0.946 2.31921888325e-38
0.0455193023976 0.0175074239991 0.946 1.26880064985e-38
0.0503181132253 0.0186363382316 1.007 1.99710422694e-38
0.0559090146948 0.0186363382316 1.007 1.95093578657e-38
0.0576005353644 0.0185808178595 1.004 2.34985953534e-38
0.00187473789758 0.0206221168733 1.013 1.77731532723e-38
0.029510928445 0.0190953066409 0.938 6.61215572338e-39
0.0312468654123 0.0190953066409 0.938 8.81620763117e-39
0.0330531281843 0.0191360215804 0.94 1.37911282678e-38
