# .PCD v0.7 - Point Cloud Data file format
VERSION 0.7
FIELDS x y z rgb
SIZE 4 4 4 4
TYPE F F F F
COUNT 1 1 1 1
WIDTH 840
HEIGHT 1
VIEWPOINT 0 0 0 1 0 0 0
POINTS 840
DATA ascii
0.0460671034023 -0.0658101477175 0.889 2.14416209298e-38
-0.0215567098035 -0.0646701294106 0.896 1.75895173124e-38
-0.0197874606129 -0.064309246992 0.891 1.04811407834e-38
-0.0180977906223 -0.0641648940246 0.889 1.12096786576e-38
-0.0164525369294 -0.0641648940246 0.889 1.16703162914e-38
-0.0147406587899 -0.0638761880897 0.885 1.25857831768e-38
-0.0130583915156 -0.0636596586385 0.882 1.53591322039e-38
-0.0114001830692 -0.0635153056711 0.88 1.16670540685e-38
-0.00977158548786 -0.0635153056711 0.88 1.3958995416e-38
-0.00812448111586 -0.0633709527037 0.878 1.36834889275e-38
-0.00649958489268 -0.0633709527037 0.878 1.31324759506e-38
-0.00487468866951 -0.0633709527037 0.878 1.35916534314e-38
-0.00323868837192 -0.0631544232525 0.875 1.33161469429e-38
-0.00161564282782 -0.0630100702851 0.873 1.34079824391e-38
0.0 -0.0630100702851 0.873 1.41426664083e-38
0.00161194146968 -0.0628657173177 0.871 1.46936793853e-38
0.00322388293937 -0.0628657173177 0.871 1.49691858738e-38
0.00483582440905 -0.0628657173177 0.871 1.49691858738e-38
0.00644776587873 -0.0628657173177 0.871 1.50610269751e-38
0.00805970734842 -0.0628657173177 0.871 1.51528568661e-38
0.0096716488181 -0.0628657173177 0.871 1.53365474766e-38
0.0112576807808 -0.0627213643502 0.869 1.55201988507e-38
0.0128659208924 -0.0627213643502 0.869 1.52446951648e-38
0.0144741610039 -0.0627213643502 0.869 1.55201988507e-38
0.0160824011154 -0.0627213643502 0.869 1.55201988507e-38
0.017690641227 -0.0627213643502 0.869 1.58875408353e-38
0.0192988813385 -0.0627213643502 0.869 1.47855148814e-38
0.0209071214501 -0.0627213643502 0.869 1.57957053392e-38
0.0225671805756 -0.0628657173177 0.871 1.78315117481e-38
0.0241791220453 -0.0628657173177 0.871 2.14437116672e-38
0.0257910635149 -0.0628657173177 0.871 1.18468658849e-38
0.027465928073 -0.0630100702851 0.873 1.53365278584e-38
0.0291481953473 -0.0631544232525 0.875 1.90373865299e-38
0.0307675395333 -0.0631544232525 0.875 2.21028123999e-38
0.0324979244634 -0.0633709527037 0.878 1.96152904244e-38
0.0342005492075 -0.0635153056711 0.88 2.16299750616e-38
0.0359105766679 -0.0636596586385 0.882 1.7022571572e-38
0.0376705724632 -0.0638761880897 0.885 1.8859835008e-38
0.0393084234398 -0.0638761880897 0.885 1.21413277377e-38
0.04103880837 -0.0640205410571 0.887 1.98007130398e-38
0.0427765960164 -0.0641648940246 0.889 1.22318460133e-38
0.0444218497093 -0.0641648940246 0.889 2.04267683521e-38
0.0460671034023 -0.0641648940246 0.889 2.14372670955e-38
-0.0215567098035 -0.0630119209642 0.896 1.8234170658e-38
-0.0197874606129 -0.0626602919409 0.891 1.20491349104e-38
-0.0181385055618 -0.0626602919409 0.891 1.06575810756e-38
-0.0164895505108 -0.0626602919409 0.891 1.13962433312e-38
-0.0147739710132 -0.0623789887223 0.887 1.30499857139e-38
-0.0131028078133 -0.062238337113 0.885 1.49882070991e-38
-0.0114649568366 -0.062238337113 0.885 1.24060428267e-38
-0.0097937936367 -0.0620273596991 0.882 1.37753244237e-38
-0.00814298790655 -0.0618867080898 0.88 1.31324759506e-38
-0.00649958489268 -0.0617460564805 0.878 1.65512041958e-38
-0.00487468866951 -0.0617460564805 0.878 1.78549358533e-38
-0.00324979244634 -0.0617460564805 0.878 1.7762743026e-38
-0.00161934418596 -0.0615350790666 0.875 1.6837212015e-38
0.0 -0.0615350790666 0.875 1.19461913213e-38
0.00161564282782 -0.0613944274573 0.873 1.28569694621e-38
0.00323128565565 -0.0613944274573 0.873 1.40508309122e-38
0.00483582440905 -0.061253775848 0.871 1.49691858738e-38
0.00644776587873 -0.061253775848 0.871 1.50610213699e-38
0.00805970734842 -0.061253775848 0.871 1.49691858738e-38
0.0096716488181 -0.061253775848 0.871 1.50610213699e-38
0.0112835902878 -0.061253775848 0.871 1.55201988507e-38
0.0128955317575 -0.061253775848 0.871 1.55201988507e-38
0.0145074732272 -0.061253775848 0.871 1.56120343469e-38
0.0161194146968 -0.061253775848 0.871 1.64385538123e-38
0.0177313561665 -0.061253775848 0.871 1.57957053392e-38
0.0193432976362 -0.061253775848 0.871 2.34439811471e-38
0.0209552391059 -0.061253775848 0.871 1.75683899355e-38
0.0225671805756 -0.061253775848 0.871 2.07166087226e-38
0.0242346424173 -0.0613944274573 0.873 1.53562581408e-38
0.0258502852452 -0.0613944274573 0.873 2.33749125471e-38
0.0275288511614 -0.0615350790666 0.875 1.99751480739e-38
0.0292481320171 -0.0617460564805 0.878 1.78568262049e-38
0.0308730282403 -0.0617460564805 0.878 1.21271129661e-38
0.0325719516262 -0.0618867080898 0.88 1.68314288562e-38
0.0342005492075 -0.0618867080898 0.88 2.21831908798e-38
0.0359105766679 -0.0620273596991 0.882 7.44226251287e-39
0.0376705724632 -0.062238337113 0.885 2.1624587069e-38
0.0393084234398 -0.062238337113 0.885 1.9985862402e-38
0.04103880837 -0.0623789887223 0.887 1.00233617985e-38
0.0427765960164 -0.0625196403316 0.889 2.16363215424e-38
0.0444218497093 -0.0625196403316 0.889 1.923566746e-38
0.0460671034023 -0.0625196403316 0.889 2.07908158841e-38
-0.0215567098035 -0.0613537125177 0.896 1.92479344268e-38
-0.0197874606129 -0.0610113368898 0.891 1.26026590142e-38
-0.0181385055618 -0.0610113368898 0.891 1.0382792052e-38
-0.0164895505108 -0.0610113368898 0.891 1.09374203789e-38
-0.0148072832364 -0.0608743866387 0.889 1.24060512345e-38
-0.0131324186784 -0.0607374363875 0.887 1.31414442608e-38
-0.0114649568366 -0.0606004861364 0.885 1.40580055603e-38
-0.00982710585995 -0.0606004861364 0.885 1.28569694621e-38
-0.00816149469725 -0.0603950607596 0.882 1.84769330052e-38
-0.00651439032524 -0.0602581105085 0.88 1.76773801275e-38
-0.00488579274393 -0.0602581105085 0.88 1.42632691607e-38
-0.00324979244634 -0.0601211602573 0.878 1.51848779373e-38
-0.00162489622317 -0.0601211602573 0.878 1.56461895956e-38
0.0 -0.0601211602573 0.878 1.62940379017e-38
0.00161934418596 -0.0599157348806 0.875 1.95169977449e-38
0.00323868837192 -0.0599157348806 0.875 1.33377213341e-38
0.00484692848347 -0.0597787846294 0.873 1.29488049583e-38
0.00646257131129 -0.0597787846294 0.873 1.47855148814e-38
0.00807821413911 -0.0597787846294 0.873 1.49691858738e-38
0.00969385696694 -0.0597787846294 0.873 1.54283633545e-38
0.0112835902878 -0.0596418343783 0.871 1.56120343469e-38
0.0128955317575 -0.0596418343783 0.871 1.55201988507e-38
0.0145074732272 -0.0596418343783 0.871 1.56120343469e-38
0.0161194146968 -0.0596418343783 0.871 1.61630473238e-38
0.0177313561665 -0.0596418343783 0.871 1.61630473238e-38
0.0193432976362 -0.0596418343783 0.871 1.50610213699e-38
0.0210033567617 -0.0597787846294 0.873 2.34676729002e-38
0.0226189995895 -0.0597787846294 0.873 9.37336390058e-39
0.0242901627894 -0.0599157348806 0.875 2.34692717818e-38
0.0259095069754 -0.0599157348806 0.875 1.78502695294e-38
0.0276232357939 -0.0601211602573 0.878 1.55377767386e-38
0.0292481320171 -0.0601211602573 0.878 1.78491134582e-38
0.0309433540449 -0.0602581105085 0.88 1.99693677178e-38
0.0325719516262 -0.0602581105085 0.88 1.33342082788e-38
0.0342005492075 -0.0602581105085 0.88 1.19418430922e-38
0.0359105766679 -0.0603950607596 0.882 9.92693004333e-39
0.0377557037004 -0.0607374363875 0.887 2.18244430586e-38
0.0394860886305 -0.0608743866387 0.889 1.18680633268e-38
0.0411313423234 -0.0608743866387 0.889 2.23774640963e-38
0.042872831328 -0.0610113368898 0.891 1.61903600322e-38
0.0445217863791 -0.0610113368898 0.891 2.05110144158e-38
-0.0215567098035 -0.0596955040713 0.896 1.98018522955e-38
-0.0198540850594 -0.0595622551783 0.894 1.18647534598e-38
-0.0181995779711 -0.0595622551783 0.894 1.02001972569e-38
-0.0164895505108 -0.0593623818388 0.891 1.36121628357e-38
-0.0148405954597 -0.0593623818388 0.891 1.31500538385e-38
-0.0131620295435 -0.0592291329458 0.889 1.30506849618e-38
-0.0114908663436 -0.0590958840527 0.887 1.24003031082e-38
-0.00982710585995 -0.0589626351597 0.885 1.13876015236e-38
-0.00818925488329 -0.0589626351597 0.885 2.13360863399e-38
-0.0065291957578 -0.0587627618202 0.882 1.32520123148e-38
-0.00488579274393 -0.0586295129272 0.88 1.8139100965e-38
-0.00325719516262 -0.0586295129272 0.88 1.27024510831e-38
-0.00162489622317 -0.0584962640342 0.878 1.50926374659e-38
0.0 -0.0584962640342 0.878 1.67582726686e-38
0.00161934418596 -0.0582963906946 0.875 1.67615993512e-38
0.00323868837192 -0.0582963906946 0.875 1.45463034245e-38
0.00484692848347 -0.0581631418016 0.873 1.93319184477e-38
0.00646257131129 -0.0581631418016 0.873 1.00143738701e-38
0.00807821413911 -0.0581631418016 0.873 1.3958995416e-38
0.00969385696694 -0.0581631418016 0.873 1.49691858738e-38
0.0113094997948 -0.0581631418016 0.873 1.53365334636e-38
0.0129251426226 -0.0581631418016 0.873 1.54283717623e-38
0.0145407854504 -0.0581631418016 0.873 1.49691858738e-38
0.0161564282782 -0.0581631418016 0.873 1.5703869843e-38
0.0177720711061 -0.0581631418016 0.873 1.5703869843e-38
0.0194321302315 -0.0582963906946 0.875 1.46936793853e-38
0.0211236509012 -0.0584962640342 0.878 2.34613039987e-38
0.0227485471244 -0.0584962640342 0.878 9.27789623881e-39
0.0243734433476 -0.0584962640342 0.878 1.83004282533e-38
0.0259983395707 -0.0584962640342 0.878 2.13565957442e-38
0.0276861588823 -0.0586295129272 0.88 1.85965492434e-38
0.0293147564636 -0.0586295129272 0.88 9.46122811689e-39
0.0309433540449 -0.0586295129272 0.88 9.1835496158e-39
0.0325719516262 -0.0586295129272 0.88 1.33284125084e-38
0.0342782777284 -0.0587627618202 0.882 1.96117731653e-38
0.0361141513656 -0.0590958840527 0.887 1.10418703639e-38
0.0377557037004 -0.0590958840527 0.887 9.55097988223e-39
0.0394860886305 -0.0592291329458 0.889 2.26568675958e-38
0.0412238762769 -0.0593623818388 0.891 1.36085474857e-38
0.0430171842954 -0.0595622551783 0.894 2.11466952473e-38
0.0446716913837 -0.0595622551783 0.894 2.05106220522e-38
-0.0216770039431 -0.0583611644621 0.901 2.0447937768e-38
-0.0199429176548 -0.0581668431598 0.898 1.02074083388e-38
-0.0182402929107 -0.0580372956249 0.896 1.18568347222e-38
-0.0165820844643 -0.0580372956249 0.896 1.75729721815e-38
-0.0148905637946 -0.05790774809 0.894 1.28677776772e-38
-0.0131916404086 -0.0577134267877 0.891 1.35138155056e-38
-0.0115167758506 -0.0575838792528 0.889 1.29660339229e-38
-0.00984931400879 -0.0574543317179 0.887 1.03860206436e-38
-0.00818925488329 -0.0573247841831 0.885 1.91273498913e-38
-0.00655140390664 -0.0573247841831 0.885 1.48200554873e-38
-0.00489689681835 -0.0571304628807 0.882 1.31687863964e-38
-0.00325719516262 -0.0570009153459 0.88 1.11253681342e-38
-0.00162859758131 -0.0570009153459 0.88 1.48035159615e-38
0.0 -0.0570009153459 0.88 9.55412019209e-39
0.00162489622317 -0.056871367811 0.878 1.2876744586e-38
0.00324979244634 -0.056871367811 0.878 1.63981641866e-38
0.00485803255789 -0.0566770465087 0.875 1.50113047017e-38
0.00647737674385 -0.0566770465087 0.875 2.09017230523e-38
0.00809672092981 -0.0566770465087 0.875 1.16782042004e-38
0.00971606511577 -0.0566770465087 0.875 1.57125032429e-38
0.0113354093017 -0.0566770465087 0.875 1.70028945389e-38
0.0129547534877 -0.0566770465087 0.875 1.70068377928e-38
0.0145740976737 -0.0566770465087 0.875 1.83025904568e-38
0.0161934418596 -0.0566770465087 0.875 1.80306951145e-38
0.0178127860456 -0.0566770465087 0.875 1.9050565742e-38
0.0194987546781 -0.056871367811 0.878 2.05293490049e-38
0.0211236509012 -0.056871367811 0.878 1.98897417351e-38
0.0227485471244 -0.056871367811 0.878 1.56462498515e-38
0.0243734433476 -0.056871367811 0.878 9.64277474074e-39
0.026057561301 -0.0570009153459 0.88 7.4386751888e-39
0.0276861588823 -0.0570009153459 0.88 9.82639808891e-39
0.0293813809101 -0.0571304628807 0.882 1.39661994914e-38
0.0311191685565 -0.0573247841831 0.885 2.20117083815e-38
0.0327570195332 -0.0573247841831 0.885 1.99858834215e-38
0.0343948705098 -0.0573247841831 0.885 6.98236756726e-39
0.0361141513656 -0.0574543317179 0.887 1.37753608575e-38
0.0378408349376 -0.0575838792528 0.889 2.32866279412e-38
0.0395749212258 -0.0577134267877 0.891 1.39747908523e-38
0.0413626772071 -0.05790774809 0.894 2.23445321811e-38
0.0431134196071 -0.0580372956249 0.896 2.02336820354e-38
0.0448715647232 -0.0581668431598 0.898 1.70061189267e-38
0.0465334745278 -0.0581668431598 0.898 2.3087412345e-38
-0.020053958399 -0.056819548797 0.903 1.36218864458e-38
-0.0183420802595 -0.0566937026203 0.901 9.74209597329e-39
-0.0166190980456 -0.0565049333552 0.898 1.49814009925e-38
-0.0149238760178 -0.0563790871785 0.896 1.35131148564e-38
-0.0132656675714 -0.0563790871785 0.896 1.45315603633e-38
-0.0115426853575 -0.0560644717366 0.891 1.06730065691e-38
-0.00987152215763 -0.0559386255599 0.889 1.21502750284e-38
-0.00820776167399 -0.0558127793831 0.887 1.25122346256e-38
-0.00656620933919 -0.0558127793831 0.887 1.44577371576e-38
-0.00491355292998 -0.0556869332064 0.885 1.53778983929e-38
-0.00327570195332 -0.0556869332064 0.885 9.55089160043e-39
-0.00163785097666 -0.0556869332064 0.885 1.2030465411e-38
0.0 -0.0556869332064 0.885 1.17574546351e-38
0.00163229893945 -0.0554981639413 0.882 1.37900843004e-38
0.00325719516262 -0.0553723177646 0.88 8.26519465422e-39
0.00487468866951 -0.0552464715878 0.878 1.76867197817e-38
0.00649958489268 -0.0552464715878 0.878 1.72149698511e-38
0.00812448111586 -0.0552464715878 0.878 1.69398753444e-38
0.00974937733903 -0.0552464715878 0.878 1.35099479218e-38
0.0113742735622 -0.0552464715878 0.878 1.46180947474e-38
0.0129991697854 -0.0552464715878 0.878 1.37861788816e-38
0.0146240660085 -0.0552464715878 0.878 1.14795154925e-38
0.0162489622317 -0.0552464715878 0.878 1.10203324065e-38
0.0178738584549 -0.0552464715878 0.878 9.45907011726e-39
0.0195431709757 -0.0553723177646 0.88 7.89786808387e-39
0.021171768557 -0.0553723177646 0.88 7.98968816575e-39
0.0228003661383 -0.0553723177646 0.88 1.72106804765e-38
0.0244289637197 -0.0553723177646 0.88 1.26973335411e-38
0.0261167830312 -0.0554981639413 0.882 1.62962869857e-38
0.0278434666032 -0.0556869332064 0.885 1.72114441842e-38
0.0294813175799 -0.0556869332064 0.885 1.74789310415e-38
0.0311191685565 -0.0556869332064 0.885 8.44887405433e-39
0.032831046696 -0.0558127793831 0.887 1.2214120989e-38
0.0344725990308 -0.0558127793831 0.887 2.31007947454e-38
0.0361955812446 -0.0559386255599 0.889 1.7847473939e-38
0.0378408349376 -0.0559386255599 0.889 1.78354578046e-38
0.0397081701189 -0.0562532410017 0.894 2.10577071896e-38
0.0413626772071 -0.0562532410017 0.894 2.07836286242e-38
0.0431134196071 -0.0563790871785 0.896 1.75618038327e-38
0.0448715647232 -0.0565049333552 0.898 1.74638544714e-38
0.0465334745278 -0.0565049333552 0.898 2.34659268823e-38
-0.0201649991431 -0.0554537476436 0.908 9.74894832278e-39
-0.018382795199 -0.0551483855971 0.903 1.36207107563e-38
-0.0167116319991 -0.0551483855971 0.903 1.39751439795e-38
-0.0149571882411 -0.0548430235506 0.898 1.73086046145e-38
-0.0132952784365 -0.0548430235506 0.898 1.14962974429e-38
-0.011607459125 -0.054720878732 0.896 1.27888257191e-38
-0.00989373030646 -0.0544155166855 0.891 1.1878355864e-38
-0.00822626846469 -0.0542933718669 0.889 7.5484473053e-39
-0.00658101477175 -0.0542933718669 0.889 1.74119405672e-38
-0.00493576107881 -0.0542933718669 0.889 1.80493520022e-38
-0.0032831046696 -0.0541712270483 0.887 9.10716623781e-39
-0.0016415523348 -0.0541712270483 0.887 9.27538511196e-39
0.0 -0.0541712270483 0.887 1.12039305313e-38
0.00163785097666 -0.0540490822297 0.885 1.16634667445e-38
0.00327570195332 -0.0540490822297 0.885 9.73456259275e-39
0.00489689681835 -0.0538658650018 0.882 1.86021852659e-38
0.0065291957578 -0.0538658650018 0.882 1.56530587607e-38
0.00814298790655 -0.0537437201832 0.88 1.83228069897e-38
0.00977158548786 -0.0537437201832 0.88 8.63256326352e-39
0.0114001830692 -0.0537437201832 0.88 8.35703015038e-39
0.0130287806505 -0.0537437201832 0.88 1.61072069813e-38
0.0146573782318 -0.0537437201832 0.88 1.62919289475e-38
0.0162859758131 -0.0537437201832 0.88 1.4357011824e-38
0.0179145733944 -0.0537437201832 0.88 1.52785981799e-38
0.0195431709757 -0.0537437201832 0.88 1.70360352476e-38
0.021171768557 -0.0537437201832 0.88 1.39888739019e-38
0.0228003661383 -0.0537437201832 0.88 2.03561471134e-38
0.0244289637197 -0.0537437201832 0.88 1.74051330592e-38
0.0262056156265 -0.0540490822297 0.885 1.55529373867e-38
0.0278434666032 -0.0540490822297 0.885 9.91869180966e-39
0.0295479420264 -0.0541712270483 0.887 1.37753286276e-38
0.0311894943612 -0.0541712270483 0.887 2.27363254226e-38
0.032831046696 -0.0541712270483 0.887 1.97875044005e-38
0.0344725990308 -0.0541712270483 0.887 1.41426692109e-38
0.0361955812446 -0.0542933718669 0.889 2.1241707487e-38
0.0379259661748 -0.0544155166855 0.891 2.00496242847e-38
0.0397081701189 -0.0545987339134 0.894 1.97687802504e-38
0.0414552111606 -0.054720878732 0.896 1.9862045071e-38
0.0432096549187 -0.0548430235506 0.898 1.57121557208e-38
0.0448715647232 -0.0548430235506 0.898 1.83789920517e-38
0.0465334745278 -0.0548430235506 0.898 2.34670353094e-38
-0.0219657098779 -0.0540694396995 0.913 2.03560952654e-38
-0.0202760398873 -0.0540694396995 0.913 6.80264263142e-39
-0.018382795199 -0.0534772223972 0.903 1.35249866569e-38
-0.0167116319991 -0.0534772223972 0.903 1.15752437958e-38
-0.0149571882411 -0.0531811137461 0.898 1.61928221136e-38
-0.0132952784365 -0.0531811137461 0.898 1.26898001605e-38
-0.011607459125 -0.0530626702856 0.896 1.53606119751e-38
-0.00992704252972 -0.0529442268251 0.894 1.13144201126e-38
-0.00824477525538 -0.0527665616345 0.891 8.00009140554e-39
-0.00659582020431 -0.0527665616345 0.891 1.03142741622e-38
-0.00493576107881 -0.052648118174 0.889 1.79576047879e-38
-0.0032831046696 -0.0525296747135 0.887 1.74061854344e-38
-0.0016415523348 -0.0525296747135 0.887 1.08599804219e-38
0.0 -0.0525296747135 0.887 7.4386751888e-39
0.0016415523348 -0.0525296747135 0.887 6.52032022722e-39
0.00327570195332 -0.0524112312531 0.885 1.28746132111e-38
0.00491355292998 -0.0524112312531 0.885 1.79622879273e-38
0.00655140390664 -0.0524112312531 0.885 1.38949154385e-38
0.00816149469725 -0.0522335660624 0.882 1.7031717847e-38
0.0097937936367 -0.0522335660624 0.882 8.99987862348e-39
0.0114260925761 -0.0522335660624 0.882 9.55089160043e-39
0.0130583915156 -0.0522335660624 0.882 1.50008776398e-38
0.014690690455 -0.0522335660624 0.882 1.45413260123e-38
0.0163229893945 -0.0522335660624 0.882 1.2880378153e-38
0.0179552883339 -0.0522335660624 0.882 1.07520426051e-38
0.0195875872734 -0.0522335660624 0.882 9.91826861752e-39
0.0212198862128 -0.0522335660624 0.882 9.27538511196e-39
0.0229299136732 -0.0524112312531 0.885 9.27538511196e-39
0.0245677646499 -0.0524112312531 0.885 1.18467916161e-38
0.0262648373568 -0.0525296747135 0.887 1.97864197955e-38
0.0279063896916 -0.0525296747135 0.887 1.84067629846e-38
0.0295479420264 -0.0525296747135 0.887 1.81264836736e-38
0.0311894943612 -0.0525296747135 0.887 1.32243352688e-38
0.0329050738588 -0.052648118174 0.889 2.34468818349e-38
0.0345503275517 -0.052648118174 0.889 1.68167432483e-38
0.0362770111237 -0.0527665616345 0.891 2.06063951971e-38
0.0380536630306 -0.0529442268251 0.894 1.91294896741e-38
0.0397970027142 -0.0530626702856 0.896 1.7919848202e-38
0.0415477451141 -0.0531811137461 0.898 1.62548898265e-38
0.0432096549187 -0.0531811137461 0.898 1.8376153021e-38
0.0448715647232 -0.0531811137461 0.898 2.00406755927e-38
-0.0237071988825 -0.0524945118112 0.915 1.87883968123e-38
-0.0219657098779 -0.0523797697089 0.913 2.03553890109e-38
-0.0202760398873 -0.0523797697089 0.913 9.65997287679e-39
-0.0185252974874 -0.0522076565554 0.91 1.26105483246e-38
-0.0167671523712 -0.0519781723508 0.906 1.25958374933e-38
-0.0150404687992 -0.0518060591973 0.903 1.30521268979e-38
-0.0132952784365 -0.0515192039415 0.898 1.32243198545e-38
-0.011633368632 -0.0515192039415 0.898 1.35938058258e-38
-0.00994925067855 -0.0514044618392 0.896 1.67392136082e-38
-0.00827253544143 -0.0512897197369 0.894 8.44886564654e-39
-0.00661802835314 -0.0512897197369 0.894 1.01101554227e-38
-0.00494686515323 -0.0511176065834 0.891 1.36892398564e-38
-0.00329050738588 -0.0510028644811 0.889 1.85936359439e-38
-0.00164525369294 -0.0510028644811 0.889 1.68501193751e-38
0.0 -0.0510028644811 0.889 1.81459350976e-38
0.0016415523348 -0.0508881223787 0.887 1.54787344291e-38
0.0032831046696 -0.0508881223787 0.887 1.68580661387e-38
0.00492465700439 -0.0508881223787 0.887 1.34371462627e-38
0.00656620933919 -0.0508881223787 0.887 2.14577933154e-38
0.00818925488329 -0.0507733802764 0.885 1.86948307125e-38
0.00982710585995 -0.0507733802764 0.885 1.66618409135e-38
0.0114649568366 -0.0507733802764 0.885 1.60128617596e-38
0.0130583915156 -0.0506012671229 0.882 1.52713100266e-38
0.014690690455 -0.0506012671229 0.882 1.49983216714e-38
0.0163229893945 -0.0506012671229 0.882 1.62890576869e-38
0.0179552883339 -0.0506012671229 0.882 1.85060463821e-38
0.0196542117199 -0.0507733802764 0.885 2.12705279925e-38
0.0212920626966 -0.0507733802764 0.885 2.12712160301e-38
0.0229817326872 -0.0508881223787 0.887 1.96073997128e-38
0.024623285022 -0.0508881223787 0.887 1.5638979915e-38
0.026324059087 -0.0510028644811 0.889 1.42363348029e-38
0.0279693127799 -0.0510028644811 0.889 1.89396487646e-38
0.0296145664729 -0.0510028644811 0.889 1.91269659356e-38
0.0312598201658 -0.0510028644811 0.889 1.71908927409e-38
0.0329050738588 -0.0510028644811 0.889 2.14304301603e-38
0.0346280560726 -0.0511176065834 0.891 1.87575360162e-38
0.0362770111237 -0.0511176065834 0.891 2.04234430709e-38
0.0380536630306 -0.0512897197369 0.894 1.54352100988e-38
0.0398858353096 -0.0515192039415 0.898 1.64417866078e-38
0.0415477451141 -0.0515192039415 0.898 1.74516575695e-38
0.0433540078861 -0.051691317095 0.901 1.98494880355e-38
0.0450214697279 -0.051691317095 0.901 1.94921317037e-38
-0.0254005702312 -0.0508011404625 0.915 1.80494094555e-38
-0.0237071988825 -0.0508011404625 0.915 1.88802365124e-38
-0.0220138275337 -0.0508011404625 0.915 1.89728076902e-38
-0.020320456185 -0.0508011404625 0.915 1.00316336633e-38
-0.0185863698967 -0.0506900997183 0.913 9.01460066515e-39
-0.0168041659526 -0.0504124978578 0.908 1.14044815649e-38
-0.0150904371341 -0.0503014571137 0.906 1.5458164769e-38
-0.0133693055993 -0.0501348959974 0.903 1.1020259539e-38
-0.011633368632 -0.0498572941369 0.898 1.2214120989e-38
-0.00994925067855 -0.0497462533928 0.896 1.60823801764e-38
-0.00829104223213 -0.0497462533928 0.896 1.64698518135e-38
-0.00661802835314 -0.0496352126486 0.894 1.26887239633e-38
-0.00496352126486 -0.0496352126486 0.894 1.72851973249e-38
-0.00329050738588 -0.0493576107881 0.889 1.22166321159e-38
-0.00164525369294 -0.0493576107881 0.889 1.8584161765e-38
0.0 -0.0493576107881 0.889 1.90588670341e-38
0.00164525369294 -0.0493576107881 0.889 1.83227523391e-38
0.00329050738588 -0.0493576107881 0.889 1.80479549076e-38
0.00492465700439 -0.0492465700439 0.887 1.91514185938e-38
0.00656620933919 -0.0492465700439 0.887 9.92218664803e-39
0.00820776167399 -0.0492465700439 0.887 1.26732984698e-38
0.00984931400879 -0.0492465700439 0.887 1.37753244237e-38
0.0114908663436 -0.0492465700439 0.887 1.49692110971e-38
0.0131324186784 -0.0492465700439 0.887 1.52465406749e-38
0.0147739710132 -0.0492465700439 0.887 1.6074856605e-38
0.016415523348 -0.0492465700439 0.887 1.49691858738e-38
0.0180570756828 -0.0492465700439 0.887 1.44181728968e-38
0.0196986280176 -0.0492465700439 0.887 1.43263542162e-38
0.0213401803524 -0.0492465700439 0.887 1.46936793853e-38
0.0229817326872 -0.0492465700439 0.887 1.80051704629e-38
0.0246788053941 -0.0493576107881 0.889 1.93145969973e-38
0.026324059087 -0.0493576107881 0.889 1.96772740594e-38
0.0279693127799 -0.0493576107881 0.889 1.29534684796e-38
0.0296145664729 -0.0493576107881 0.889 2.34444323652e-38
0.0312598201658 -0.0493576107881 0.889 1.52551656669e-38
0.0329791010215 -0.0494686515323 0.891 1.81131166875e-38
0.034744648854 -0.0496352126486 0.894 2.16951802818e-38
0.0363991559423 -0.0496352126486 0.894 1.39611478105e-38
0.0381387942678 -0.0497462533928 0.896 1.64385566149e-38
0.0398858353096 -0.0498572941369 0.898 1.51528918985e-38
0.0416865460443 -0.0500238552532 0.901 1.81971161227e-38
0.0433540078861 -0.0500238552532 0.901 2.13317647354e-38
0.0450214697279 -0.0500238552532 0.901 2.27268694606e-38
0.0466889315697 -0.0500238552532 0.901 2.34785007334e-38
-0.0253450498591 -0.0490004297277 0.913 1.77731925087e-38
-0.0236553798685 -0.0490004297277 0.913 1.77739085722e-38
-0.0220138275337 -0.0491077691137 0.915 1.82363342628e-38
-0.020320456185 -0.0491077691137 0.915 1.16918542488e-38
-0.0186270848362 -0.0491077691137 0.915 6.25485824614e-39
-0.016841179534 -0.0488394206486 0.91 1.26080287899e-38
-0.0151237493574 -0.0487320812626 0.908 1.3797993229e-38
-0.0133693055993 -0.0484637327975 0.903 1.49878665836e-38
-0.0116722328924 -0.0483563934114 0.901 1.14794468288e-38
-0.00997145882739 -0.0481953843324 0.898 1.14794370197e-38
-0.00829104223213 -0.0480880449463 0.896 1.35044954695e-38
-0.0066328337857 -0.0480880449463 0.896 1.63732645142e-38
-0.00496352126486 -0.0479807055603 0.894 1.24896274775e-38
-0.00329791010215 -0.0478196964812 0.891 1.55256120667e-38
-0.00164895505108 -0.0478196964812 0.891 1.36834889275e-38
0.0 -0.0478196964812 0.891 1.33161469429e-38
0.00164525369294 -0.0477123570952 0.889 1.33161469429e-38
0.00329050738588 -0.0477123570952 0.889 1.31324759506e-38
0.00493576107881 -0.0477123570952 0.889 1.41426664083e-38
0.00658101477175 -0.0477123570952 0.889 1.35916534314e-38
0.00822626846469 -0.0477123570952 0.889 2.01343383821e-38
0.00984931400879 -0.0476050177091 0.887 1.90433406471e-38
0.0114908663436 -0.0476050177091 0.887 1.39637177918e-38
0.0131324186784 -0.0476050177091 0.887 1.86649872591e-38
0.0147739710132 -0.0476050177091 0.887 1.98702889099e-38
0.016415523348 -0.0476050177091 0.887 1.84873530606e-38
0.0180570756828 -0.0476050177091 0.887 1.78423914294e-38
0.0196986280176 -0.0476050177091 0.887 1.63654312558e-38
0.0213401803524 -0.0476050177091 0.887 1.72816268165e-38
0.0230335517011 -0.0477123570952 0.889 1.81102958737e-38
0.0246788053941 -0.0477123570952 0.889 1.94950604175e-38
0.0263832808172 -0.0478196964812 0.891 1.92185562045e-38
0.0280322358683 -0.0478196964812 0.891 1.59969640285e-38
0.0296811909194 -0.0478196964812 0.891 1.97630153085e-38
0.0313301459705 -0.0478196964812 0.891 1.92188434707e-38
0.0331641689285 -0.0480880449463 0.896 1.46990603714e-38
0.0348223773749 -0.0480880449463 0.896 1.65303893084e-38
0.0364805858214 -0.0480880449463 0.896 1.65307620538e-38
0.038223925505 -0.0481953843324 0.898 1.49734906626e-38
0.0400190842026 -0.0483563934114 0.901 1.65325949522e-38
0.041917880928 -0.0486247418765 0.906 1.98580667847e-38
0.0435945961652 -0.0486247418765 0.906 1.94921345063e-38
0.0452713114023 -0.0486247418765 0.906 2.18082132198e-38
-0.0253450498591 -0.0473107597371 0.913 1.7127820297e-38
-0.0236553798685 -0.0473107597371 0.913 1.72203718567e-38
-0.0220138275337 -0.047414397765 0.915 1.85118323435e-38
-0.0203870806315 -0.0475698548068 0.918 1.10436135792e-38
-0.0186270848362 -0.047414397765 0.915 1.08559797148e-38
-0.016841179534 -0.0471553026952 0.91 1.00247771099e-38
-0.0151237493574 -0.0470516646673 0.908 1.56473176409e-38
-0.013413721897 -0.0469480266394 0.906 1.29570558036e-38
-0.0116722328924 -0.0466889315697 0.901 1.31325025753e-38
-0.00997145882739 -0.0465334745278 0.898 1.07447530505e-38
-0.00830954902282 -0.0465334745278 0.898 1.15712725159e-38
-0.0066328337857 -0.0464298364999 0.896 1.29488049583e-38
-0.00497462533928 -0.0464298364999 0.896 1.33161469429e-38
-0.00330901417657 -0.046326198472 0.894 1.44181728968e-38
-0.00164895505108 -0.0461707414302 0.891 1.44181728968e-38
0.0 -0.0461707414302 0.891 1.46018438891e-38
0.00164895505108 -0.0461707414302 0.891 1.4785517684e-38
0.00329791010215 -0.0461707414302 0.891 1.45100224059e-38
0.00493576107881 -0.0460671034023 0.889 1.73702070963e-38
0.00658101477175 -0.0460671034023 0.889 1.93124291886e-38
0.00822626846469 -0.0460671034023 0.889 1.73838795654e-38
0.00987152215763 -0.0460671034023 0.889 1.67320852029e-38
0.0115167758506 -0.0460671034023 0.889 1.83051716486e-38
0.0131620295435 -0.0460671034023 0.889 1.66405916236e-38
0.0148072832364 -0.0460671034023 0.889 1.71937864222e-38
0.0164525369294 -0.0460671034023 0.889 1.93117481576e-38
0.0180977906223 -0.0460671034023 0.889 1.71955618674e-38
0.0197430443153 -0.0460671034023 0.889 1.69117919219e-38
0.0213882980082 -0.0460671034023 0.889 1.74627740702e-38
0.0230335517011 -0.0460671034023 0.889 1.67355842452e-38
0.0247343257662 -0.0461707414302 0.891 2.14318973198e-38
0.0263832808172 -0.0461707414302 0.891 1.92220692597e-38
0.0281266205009 -0.046326198472 0.894 1.47962768536e-38
0.0297811275891 -0.046326198472 0.894 1.50610535998e-38
0.0314356346774 -0.046326198472 0.894 1.53365278584e-38
0.0331641689285 -0.0464298364999 0.896 1.55201988507e-38
0.0349001058959 -0.0465334745278 0.898 1.60730054897e-38
0.0365620157004 -0.0465334745278 0.898 1.61637788016e-38
0.0383516223608 -0.0466889315697 0.901 1.66287044087e-38
0.0401079167979 -0.0467925695976 0.903 1.91197786757e-38
0.0420104148815 -0.0470516646673 0.908 1.71847396393e-38
0.0436908314768 -0.0470516646673 0.908 2.34687687156e-38
0.0453712480721 -0.0470516646673 0.908 1.98774341307e-38
-0.0253450498591 -0.0456210897465 0.913 1.7127820297e-38
-0.0236553798685 -0.0456210897465 0.913 1.7036328119e-38
-0.0220138275337 -0.0457210264162 0.915 1.66682728734e-38
-0.0203870806315 -0.0458709314209 0.918 1.12269258391e-38
-0.0186270848362 -0.0457210264162 0.915 1.13097649991e-38
-0.016841179534 -0.0454711847418 0.91 8.35919235391e-39
-0.0151237493574 -0.0453712480721 0.908 1.36967774409e-38
-0.013413721897 -0.0452713114023 0.906 1.39708335854e-38
-0.0116981423994 -0.0451214063976 0.903 1.50739511508e-38
-0.0100047710506 -0.0450214697279 0.901 1.11120950351e-38
-0.00830954902282 -0.0448715647232 0.898 1.09284240428e-38
-0.00664763921826 -0.0448715647232 0.898 1.12957660274e-38
-0.00497462533928 -0.0447716280535 0.896 1.18467790044e-38
-0.00331641689285 -0.0447716280535 0.896 1.33161469429e-38
-0.00165820844643 -0.0447716280535 0.896 1.46018438891e-38
0.0 -0.0446716913837 0.894 1.47855148814e-38
0.00165450708829 -0.0446716913837 0.894 1.47855148814e-38
0.00330901417657 -0.0446716913837 0.894 1.46018438891e-38
0.00496352126486 -0.0446716913837 0.894 1.49691858738e-38
0.00661802835314 -0.0446716913837 0.894 1.49691858738e-38
0.00824477525538 -0.0445217863791 0.891 1.51528568661e-38
0.00989373030646 -0.0445217863791 0.891 2.08722971859e-38
0.0115426853575 -0.0445217863791 0.891 1.77526592823e-38
0.0131916404086 -0.0445217863791 0.891 1.79320577156e-38
0.0148405954597 -0.0445217863791 0.891 1.92267804252e-38
0.0164525369294 -0.0444218497093 0.889 1.46019335722e-38
0.0180977906223 -0.0444218497093 0.889 2.09641438924e-38
0.0197430443153 -0.0444218497093 0.889 1.75621961963e-38
0.0213882980082 -0.0444218497093 0.889 1.62707118874e-38
0.0230335517011 -0.0444218497093 0.889 1.44182023241e-38
0.0247343257662 -0.0445217863791 0.891 1.46936793853e-38
0.0264721134126 -0.0446716913837 0.894 1.49691858738e-38
0.0281266205009 -0.0446716913837 0.894 1.65303893084e-38
0.0297811275891 -0.0446716913837 0.894 1.47855148814e-38
0.0314356346774 -0.0446716913837 0.894 1.54283633545e-38
0.0332381960913 -0.0448715647232 0.898 1.61630473238e-38
0.0350166986772 -0.0450214697279 0.901 1.6715136498e-38
0.036684160519 -0.0450214697279 0.901 1.69081499472e-38
0.038436753598 -0.0451214063976 0.903 1.95861420151e-38
0.0402411656909 -0.0452713114023 0.906 1.64493297975e-38
0.0420104148815 -0.0453712480721 0.908 2.23548695598e-38
0.0436908314768 -0.0453712480721 0.908 1.9230657818e-38
0.0453712480721 -0.0453712480721 0.908 2.20851546379e-38
-0.0220860040175 -0.0441720080349 0.918 1.7314358346e-38
-0.0203870806315 -0.0441720080349 0.918 9.84651933355e-39
-0.0186270848362 -0.0440276550675 0.915 1.33312347235e-38
-0.0168966999061 -0.0439314197559 0.913 8.91234791621e-39
-0.0151237493574 -0.0436908314768 0.908 1.22212956372e-38
-0.013413721897 -0.0435945961652 0.906 1.47016135372e-38
-0.0117370066599 -0.0435945961652 0.906 1.67431260335e-38
-0.0100269791995 -0.0434502431977 0.903 1.32375845458e-38
-0.00833730920887 -0.0433540078861 0.901 9.82639808891e-39
-0.00664763921826 -0.0432096549187 0.898 1.14816006246e-38
-0.00498572941369 -0.0432096549187 0.898 1.10209770038e-38
-0.00332381960913 -0.0432096549187 0.898 1.3224312848e-38
-0.00165820844643 -0.0431134196071 0.896 1.44181728968e-38
0.0 -0.0431134196071 0.896 1.47855148814e-38
0.00165820844643 -0.0431134196071 0.896 1.3958995416e-38
0.00331641689285 -0.0431134196071 0.896 1.34998179352e-38
0.00497462533928 -0.0431134196071 0.896 1.40508351161e-38
0.00661802835314 -0.0430171842954 0.894 1.40508309122e-38
0.00827253544143 -0.0430171842954 0.894 1.36834889275e-38
0.00992704252972 -0.0430171842954 0.894 1.32243114468e-38
0.0115426853575 -0.042872831328 0.891 1.33161469429e-38
0.0131916404086 -0.042872831328 0.891 1.33161469429e-38
0.0148405954597 -0.042872831328 0.891 1.37753244237e-38
0.0164895505108 -0.042872831328 0.891 1.41426664083e-38
0.0181385055618 -0.042872831328 0.891 1.42345019045e-38
0.0197874606129 -0.042872831328 0.891 1.46936793853e-38
0.021436415664 -0.042872831328 0.891 1.50610213699e-38
0.0230853707151 -0.042872831328 0.891 1.52446923622e-38
0.0247343257662 -0.042872831328 0.891 1.33161469429e-38
0.0265313351428 -0.0431134196071 0.896 1.51528568661e-38
0.0281895435892 -0.0431134196071 0.896 1.47855148814e-38
0.0298477520357 -0.0431134196071 0.896 1.51528722804e-38
0.0315059604821 -0.0431134196071 0.896 1.68988074903e-38
0.0332381960913 -0.0432096549187 0.898 1.6805905606e-38
0.0350166986772 -0.0433540078861 0.901 1.8752736569e-38
0.0367655903981 -0.0434502431977 0.903 1.56249487135e-38
0.0385644504538 -0.0435945961652 0.906 1.64489794729e-38
0.0402411656909 -0.0435945961652 0.906 2.13439574334e-38
0.0420104148815 -0.0436908314768 0.908 1.88568039994e-38
0.0439314197559 -0.0439314197559 0.913 2.10717019573e-38
0.0456210897465 -0.0439314197559 0.913 1.88658059408e-38
-0.0203870806315 -0.042473084649 0.918 1.27960536166e-38
-0.0186881572455 -0.042473084649 0.918 1.16735112519e-38
-0.0168966999061 -0.0422417497652 0.913 1.31500930749e-38
-0.0151570615806 -0.042102948835 0.91 1.09309351696e-38
-0.0134433327621 -0.0420104148815 0.908 1.2765133966e-38
-0.0117370066599 -0.041917880928 0.906 1.68328133391e-38
-0.0100269791995 -0.0417790799978 0.903 1.72999852276e-38
-0.00835581599956 -0.0417790799978 0.903 9.83213780741e-39
-0.00666984736709 -0.0416865460443 0.901 1.17549435082e-38
-0.00498572941369 -0.0415477451141 0.898 1.09302177048e-38
-0.00332381960913 -0.0415477451141 0.898 1.26732984698e-38
-0.00166190980456 -0.0415477451141 0.898 1.43263374006e-38
0.0 -0.0415477451141 0.898 1.52446923622e-38
0.00166190980456 -0.0415477451141 0.898 1.43263500123e-38
0.00331641689285 -0.0414552111606 0.896 1.40508323135e-38
0.00497462533928 -0.0414552111606 0.896 1.37753286276e-38
0.0066328337857 -0.0414552111606 0.896 1.32243114468e-38
0.00829104223213 -0.0414552111606 0.896 1.35916534314e-38
0.00994925067855 -0.0414552111606 0.896 1.31324759506e-38
0.011581549618 -0.0413626772071 0.894 1.31324759506e-38
0.0132360567063 -0.0413626772071 0.894 1.34998179352e-38
0.0148905637946 -0.0413626772071 0.894 1.34079824391e-38
0.0164895505108 -0.0412238762769 0.891 1.46018565008e-38
0.0181385055618 -0.0412238762769 0.891 1.40508309122e-38
0.0197874606129 -0.0412238762769 0.891 1.49691858738e-38
0.0215085921477 -0.0413626772071 0.894 1.46018438891e-38
0.023163099236 -0.0413626772071 0.894 1.3958995416e-38
0.0248731266964 -0.0414552111606 0.896 1.4877361588e-38
0.0265313351428 -0.0414552111606 0.896 1.59793763315e-38
0.0281895435892 -0.0414552111606 0.896 1.60712118276e-38
0.0298477520357 -0.0414552111606 0.896 1.46018438891e-38
0.0315762862867 -0.0415477451141 0.898 2.02174942356e-38
0.0334232639983 -0.0417790799978 0.903 1.5524862372e-38
0.0352110199796 -0.041917880928 0.906 1.70014049587e-38
0.0368877352167 -0.041917880928 0.906 1.90433098185e-38
0.0385644504538 -0.041917880928 0.906 1.9693418419e-38
0.0403299982863 -0.0420104148815 0.908 1.78419682373e-38
0.042102948835 -0.042102948835 0.91 2.15316053107e-38
0.0439314197559 -0.0422417497652 0.913 1.98788662578e-38
0.0456210897465 -0.0422417497652 0.913 1.93253603708e-38
-0.0204314969292 -0.0408629938583 0.92 1.2425843174e-38
-0.0186881572455 -0.040774161263 0.918 1.04724751537e-38
-0.0168966999061 -0.0405520797746 0.913 1.42524945768e-38
-0.0151570615806 -0.0404188308816 0.91 1.07515689662e-38
-0.0134729436272 -0.0404188308816 0.91 1.18467790044e-38
-0.0117629161668 -0.0403299982863 0.908 1.59033741067e-38
-0.0100602914227 -0.0402411656909 0.906 1.59155710085e-38
-0.00838357618561 -0.0402411656909 0.906 1.61020852354e-38
-0.00668465279965 -0.0401079167979 0.903 1.17549435082e-38
-0.00500238552532 -0.0400190842026 0.901 1.15712725159e-38
-0.00333492368355 -0.0400190842026 0.901 1.15712725159e-38
-0.00166190980456 -0.0398858353096 0.898 1.42345131149e-38
0.0 -0.0398858353096 0.898 1.34079824391e-38
0.00166190980456 -0.0398858353096 0.898 1.41426664083e-38
0.00332381960913 -0.0398858353096 0.898 1.47855148814e-38
0.00498572941369 -0.0398858353096 0.898 1.4510008393e-38
0.00664763921826 -0.0398858353096 0.898 1.4510008393e-38
0.00830954902282 -0.0398858353096 0.898 1.47855148814e-38
0.00994925067855 -0.0397970027142 0.896 1.48773503776e-38
0.011607459125 -0.0397970027142 0.896 1.43263374006e-38
0.0132656675714 -0.0397970027142 0.896 1.41426664083e-38
0.0149238760178 -0.0397970027142 0.896 1.47855148814e-38
0.0165450708829 -0.0397081701189 0.894 1.53365278584e-38
0.0181995779711 -0.0397081701189 0.894 1.54283633545e-38
0.0198540850594 -0.0397081701189 0.894 1.56120595702e-38
0.0215567098035 -0.0397970027142 0.896 1.68998836875e-38
0.02321491825 -0.0397970027142 0.896 1.3958995416e-38
0.0248731266964 -0.0397970027142 0.896 1.43270828914e-38
0.026590556873 -0.0398858353096 0.898 1.47855148814e-38
0.0282524666776 -0.0398858353096 0.898 1.59793763315e-38
0.0299143764822 -0.0398858353096 0.898 1.55201988507e-38
0.0315762862867 -0.0398858353096 0.898 1.96618149347e-38
0.0335343047424 -0.0402411656909 0.906 1.70103746701e-38
0.0352110199796 -0.0402411656909 0.906 2.02451698802e-38
0.0368877352167 -0.0402411656909 0.906 1.74814225502e-38
0.038649581691 -0.0403299982863 0.908 1.6921807002e-38
0.0404188308816 -0.0404188308816 0.91 2.07922480111e-38
0.0422417497652 -0.0405520797746 0.913 1.89587624757e-38
0.0439314197559 -0.0405520797746 0.913 1.76626118429e-38
0.0456210897465 -0.0405520797746 0.913 2.1806730646e-38
-0.0185863698967 -0.038862409784 0.913 1.12146925035e-38
-0.0168966999061 -0.038862409784 0.913 1.13937265992e-38
-0.0151570615806 -0.0387347129282 0.91 1.31514971759e-38
-0.0134729436272 -0.0387347129282 0.91 1.07447530505e-38
-0.0117629161668 -0.038649581691 0.908 1.23059564852e-38
-0.0100824995716 -0.038649581691 0.908 1.66419831129e-38
-0.00838357618561 -0.0385644504538 0.906 1.53605797452e-38
-0.00668465279965 -0.038436753598 0.903 1.48852438918e-38
-0.00500238552532 -0.0383516223608 0.901 1.01019045774e-38
-0.00333492368355 -0.0383516223608 0.901 1.10224119334e-38
-0.00166746184177 -0.0383516223608 0.901 1.46979841742e-38
0.0 -0.0383516223608 0.901 1.18467790044e-38
0.00166746184177 -0.0383516223608 0.901 1.25814629736e-38
0.00332381960913 -0.038223925505 0.898 1.34998179352e-38
0.00498572941369 -0.038223925505 0.898 1.3958995416e-38
0.00664763921826 -0.038223925505 0.898 1.48773643906e-38
0.00830954902282 -0.038223925505 0.898 1.32243394727e-38
0.00997145882739 -0.038223925505 0.898 1.4602209628e-38
0.011607459125 -0.0381387942678 0.896 1.29488049583e-38
0.0132656675714 -0.0381387942678 0.896 1.38689605884e-38
0.0149238760178 -0.0381387942678 0.896 1.43263500123e-38
0.0165820844643 -0.0381387942678 0.896 1.35916534314e-38
0.0182402929107 -0.0381387942678 0.896 1.40508309122e-38
0.0198985013571 -0.0381387942678 0.896 1.54283633545e-38
0.0215567098035 -0.0381387942678 0.896 1.57957053392e-38
0.02321491825 -0.0381387942678 0.896 1.4510008393e-38
0.0249286470685 -0.038223925505 0.898 1.44181771007e-38
0.0266793894684 -0.0383516223608 0.901 1.34079908469e-38
0.0283468513102 -0.0383516223608 0.901 1.40508351161e-38
0.0300809375984 -0.038436753598 0.903 1.58875450392e-38
0.0317521007983 -0.038436753598 0.903 1.95670857572e-38
0.0335343047424 -0.0385644504538 0.906 2.12549693757e-38
0.0352887485005 -0.038649581691 0.908 1.44335983903e-38
0.0369691650957 -0.038649581691 0.908 1.83911637301e-38
0.0387347129282 -0.0387347129282 0.91 2.0053982323e-38
0.0405520797746 -0.038862409784 0.913 1.88650898773e-38
0.0423342837187 -0.0389475410212 0.915 1.65548587822e-38
0.0440276550675 -0.0389475410212 0.915 2.14393956679e-38
0.0457210264162 -0.0389475410212 0.915 2.19950707648e-38
-0.0185863698967 -0.0371727397934 0.913 1.20476691522e-38
-0.0168966999061 -0.0371727397934 0.913 1.12983065815e-38
-0.0152070299155 -0.0371727397934 0.913 1.3147544113e-38
-0.0135173599249 -0.0371727397934 0.913 1.11142474296e-38
-0.0117888256738 -0.0370505949748 0.91 1.23116962037e-38
-0.0100824995716 -0.0369691650957 0.908 1.3777119487e-38
-0.00840208297631 -0.0369691650957 0.908 1.46143995234e-38
-0.00670686094849 -0.0368877352167 0.906 1.62638651431e-38
-0.00501348959974 -0.0367655903981 0.903 9.09171411964e-39
-0.00334232639983 -0.0367655903981 0.903 8.54213607232e-39
-0.00166746184177 -0.036684160519 0.901 1.37792816906e-38
0.0 -0.036684160519 0.901 1.26732984698e-38
0.00166746184177 -0.036684160519 0.901 1.23977919813e-38
0.00333492368355 -0.036684160519 0.901 1.26732984698e-38
0.00498572941369 -0.0365620157004 0.898 1.41426664083e-38
0.00664763921826 -0.0365620157004 0.898 1.40508309122e-38
0.00830954902282 -0.0365620157004 0.898 1.26732984698e-38
0.00997145882739 -0.0365620157004 0.898 1.23978003891e-38
0.011633368632 -0.0365620157004 0.898 1.15712725159e-38
0.0132952784365 -0.0365620157004 0.898 1.32257575868e-38
0.0149571882411 -0.0365620157004 0.898 1.28569694621e-38
0.0166190980456 -0.0365620157004 0.898 1.29488049583e-38
0.0182810078502 -0.0365620157004 0.898 1.34998179352e-38
0.0199429176548 -0.0365620157004 0.898 1.40508309122e-38
0.0216048274593 -0.0365620157004 0.898 1.45100153995e-38
0.0232667372639 -0.0365620157004 0.898 1.44181728968e-38
0.0250119276266 -0.036684160519 0.901 1.47855204866e-38
0.0266793894684 -0.036684160519 0.901 1.46018438891e-38
0.0283468513102 -0.036684160519 0.901 1.36834889275e-38
0.0300809375984 -0.0367655903981 0.903 1.80944962335e-38
0.0317521007983 -0.0367655903981 0.903 1.81834352458e-38
0.0335343047424 -0.0368877352167 0.906 1.62674552698e-38
0.0352887485005 -0.0369691650957 0.908 2.06068057775e-38
0.0369691650957 -0.0369691650957 0.908 2.04346016105e-38
0.0387347129282 -0.0370505949748 0.91 1.95061404844e-38
0.04064091237 -0.0372541696725 0.915 1.49853652658e-38
0.0423342837187 -0.0372541696725 0.915 2.11641498209e-38
0.0440276550675 -0.0372541696725 0.915 2.07961758507e-38
-0.0186270848362 -0.0355607983237 0.915 1.49975705754e-38
-0.0169337134875 -0.0355607983237 0.915 9.55232653006e-39
-0.0152403421387 -0.0355607983237 0.915 1.12986414919e-38
-0.0135173599249 -0.0354830698028 0.913 1.12050067285e-38
-0.0117888256738 -0.0353664770214 0.91 1.21233616901e-38
-0.0101047077204 -0.0353664770214 0.91 1.28569694621e-38
-0.00840208297631 -0.0352887485005 0.908 1.37753244237e-38
-0.00672166638105 -0.0352887485005 0.908 1.70932502639e-38
-0.00503014571137 -0.0352110199796 0.906 1.13876015236e-38
-0.00335343047424 -0.0352110199796 0.906 6.79582671569e-39
-0.00167671523712 -0.0352110199796 0.906 1.30489095167e-38
0.0 -0.0350944271982 0.903 1.29488049583e-38
0.00166746184177 -0.0350166986772 0.901 1.25814629736e-38
0.00333492368355 -0.0350166986772 0.901 1.2765133966e-38
0.00500238552532 -0.0350166986772 0.901 1.33161469429e-38
0.00666984736709 -0.0350166986772 0.901 1.34998179352e-38
0.00830954902282 -0.0349001058959 0.898 1.32243114468e-38
0.00997145882739 -0.0349001058959 0.898 1.36834931314e-38
0.011633368632 -0.0349001058959 0.898 1.2765133966e-38
0.0132952784365 -0.0349001058959 0.898 1.3958995416e-38
0.0149571882411 -0.0349001058959 0.898 1.37753244237e-38
0.0166746184177 -0.0350166986772 0.901 1.41426664083e-38
0.0183420802595 -0.0350166986772 0.901 1.52446923622e-38
0.0200095421013 -0.0350166986772 0.901 1.46018438891e-38
0.0216770039431 -0.0350166986772 0.901 1.34079950508e-38
0.0233444657848 -0.0350166986772 0.901 1.42345103123e-38
0.0250119276266 -0.0350166986772 0.901 1.47855218879e-38
0.0266793894684 -0.0350166986772 0.901 1.59793763315e-38
0.0284097743985 -0.0350944271982 0.903 1.60712118276e-38
0.0300809375984 -0.0350944271982 0.903 1.75405923779e-38
0.0318575895053 -0.0352110199796 0.906 2.1038252963e-38
0.0336083319052 -0.0352887485005 0.908 1.97812980496e-38
0.0352887485005 -0.0352887485005 0.908 1.94200769366e-38
0.0370505949748 -0.0353664770214 0.91 1.72988711954e-38
0.038862409784 -0.0354830698028 0.913 1.71969673697e-38
0.04064091237 -0.0355607983237 0.915 2.06989537632e-38
0.0423342837187 -0.0355607983237 0.915 1.92263278058e-38
0.0441720080349 -0.0356773911051 0.918 2.26428980514e-38
-0.0186881572455 -0.0339784677192 0.918 1.31482755908e-38
-0.0169892338596 -0.0339784677192 0.918 1.15816757557e-38
-0.0152903104736 -0.0339784677192 0.918 1.14819691661e-38
-0.01354697079 -0.033867426975 0.915 1.11128209077e-38
-0.0118535994412 -0.033867426975 0.915 1.15712725159e-38
-0.0101380199437 -0.0337933998122 0.913 1.2765133966e-38
-0.008420589767 -0.033682359068 0.91 1.36834889275e-38
-0.0067364718136 -0.033682359068 0.91 1.6177039289e-38
-0.00504124978578 -0.0336083319052 0.908 1.44321760724e-38
-0.00336083319052 -0.0336083319052 0.908 7.25500419648e-39
-0.00167671523712 -0.0335343047424 0.906 1.31425470827e-38
0.0 -0.0335343047424 0.906 1.31324759506e-38
0.00167671523712 -0.0335343047424 0.906 1.15712725159e-38
0.00334232639983 -0.0334232639983 0.903 1.22155559186e-38
0.00500238552532 -0.0333492368355 0.901 1.23977919813e-38
0.00666984736709 -0.0333492368355 0.901 1.24896274775e-38
0.00830954902282 -0.0332381960913 0.898 1.26732984698e-38
0.00997145882739 -0.0332381960913 0.898 1.30406404544e-38
0.011633368632 -0.0332381960913 0.898 1.34998179352e-38
0.0132952784365 -0.0332381960913 0.898 1.40508309122e-38
0.0149571882411 -0.0332381960913 0.898 1.42345019045e-38
0.0166746184177 -0.0333492368355 0.901 1.43263402032e-38
0.0183420802595 -0.0333492368355 0.901 1.40508463265e-38
0.0200095421013 -0.0333492368355 0.901 1.40508309122e-38
0.0217251215989 -0.0334232639983 0.903 1.38671599199e-38
0.0233962847988 -0.0334232639983 0.903 1.3958995416e-38
0.0250674479987 -0.0334232639983 0.903 1.43263374006e-38
0.0267386111986 -0.0334232639983 0.903 1.79161936156e-38
0.0285041590311 -0.0335343047424 0.906 1.69895667892e-38
0.0301808742682 -0.0335343047424 0.906 1.65303893084e-38
0.0318575895053 -0.0335343047424 0.906 1.99341026406e-38
0.0336083319052 -0.0336083319052 0.908 1.97787350747e-38
0.0352887485005 -0.0336083319052 0.908 1.4712002764e-38
0.0370505949748 -0.033682359068 0.91 1.79384140054e-38
0.0389475410212 -0.033867426975 0.915 1.96890856041e-38
0.040774161263 -0.0339784677192 0.918 1.67331347755e-38
0.042473084649 -0.0339784677192 0.918 2.34730342681e-38
0.0441720080349 -0.0339784677192 0.918 1.35091449778e-38
0.0459708680906 -0.0340524948819 0.92 1.8474424681e-38
-0.018993519292 -0.0328069878681 0.933 1.11243451863e-38
-0.0171743017665 -0.0326311733564 0.928 1.28709824468e-38
-0.015406903255 -0.0325256846495 0.925 1.16667009413e-38
-0.0135913870877 -0.0322795443332 0.918 1.14815894142e-38
-0.0118535994412 -0.0321740556262 0.915 1.1848213934e-38
-0.0101602280925 -0.0321740556262 0.915 1.24907036747e-38
-0.00844834995305 -0.0321037298216 0.913 1.35952407555e-38
-0.0067364718136 -0.0319982411146 0.91 1.49810240432e-38
-0.0050523538602 -0.0319982411146 0.91 1.46169106502e-38
-0.0033682359068 -0.0319982411146 0.91 8.63648269533e-39
-0.00168041659526 -0.03192791531 0.908 1.31447022797e-38
0.0 -0.03192791531 0.908 1.24896274775e-38
0.00167671523712 -0.0318575895053 0.906 1.17549435082e-38
0.00335343047424 -0.0318575895053 0.906 1.23977919813e-38
0.00501348959974 -0.0317521007983 0.903 1.24896274775e-38
0.00666984736709 -0.0316817749937 0.901 1.19386145005e-38
0.00833730920887 -0.0316817749937 0.901 1.32243156506e-38
0.0100047710506 -0.0316817749937 0.901 1.31324759506e-38
