# .PCD v0.7 - Point Cloud Data file format
VERSION 0.7
FIELDS x y z rgb
SIZE 4 4 4 4
TYPE F F F F
COUNT 1 1 1 1
WIDTH 842
HEIGHT 1
VIEWPOINT 0 0 0 1 0 0 0
POINTS 842
DATA ascii
0.0267108510126 -0.0612778346759 0.849 1.68058957969e-38
0.0282820775427 -0.0612778346759 0.849 1.63467183161e-38
0.0298533040729 -0.0612778346759 0.849 1.66222248046e-38
0.031424530603 -0.0612778346759 0.849 1.69895667892e-38
0.0330734856541 -0.0614221876433 0.851 1.68059210203e-38
0.0346484135424 -0.0614221876433 0.851 1.73569087739e-38
0.0363510382865 -0.0616387170945 0.854 1.72650900933e-38
0.037931518212 -0.0616387170945 0.854 2.34598494509e-38
0.039604532091 -0.0617830700619 0.856 9.09314904927e-39
0.0411887133746 -0.0617830700619 0.856 2.346535235e-38
0.042872831328 -0.0619274230293 0.858 1.81406031569e-38
0.0444607139698 -0.0619274230293 0.858 2.34929551271e-38
0.0461559359976 -0.0620717759968 0.86 7.07133320417e-39
0.0477475199975 -0.0620717759968 0.86 2.27589423798e-38
0.0493391039974 -0.0620717759968 0.86 2.21992385498e-38
0.0510491314578 -0.0622161289642 0.862 2.01645335614e-38
0.053071923681 -0.0627213643502 0.869 1.60150688047e-38
0.0552464715878 -0.0633709527037 0.878 2.34835888482e-38
-0.0178738584549 -0.0617460564805 0.878 2.22893294293e-38
-0.0162489622317 -0.0617460564805 0.878 2.30276147357e-38
-0.0145740976737 -0.0615350790666 0.875 2.16461306316e-38
-0.0129547534877 -0.0615350790666 0.875 1.23214408332e-38
-0.0112835902878 -0.061253775848 0.871 1.48031053811e-38
-0.00959392029717 -0.0607614952154 0.864 1.39744531394e-38
-0.00797642679028 -0.0606208436061 0.862 1.28634420597e-38
-0.00638114143223 -0.0606208436061 0.862 1.40565916502e-38
-0.00477475199975 -0.0604801919968 0.86 1.37753300289e-38
-0.00318316799983 -0.0604801919968 0.86 1.43263444071e-38
-0.00158788264178 -0.0603395403876 0.858 1.40508309122e-38
0.0 -0.0603395403876 0.858 1.4510008393e-38
0.00158418128364 -0.0601988887783 0.856 1.46018438891e-38
0.003160959851 -0.060058237169 0.854 1.48773503776e-38
0.00472478366487 -0.059847259755 0.851 1.44181728968e-38
0.00629971155316 -0.059847259755 0.851 1.4510008393e-38
0.00787463944145 -0.059847259755 0.851 1.47855148814e-38
0.00944956732974 -0.059847259755 0.851 1.50610353829e-38
0.011024495218 -0.059847259755 0.851 1.57039006716e-38
0.0125698122412 -0.0597066081457 0.849 1.53365278584e-38
0.0141410387714 -0.0597066081457 0.849 1.52446923622e-38
0.0157122653015 -0.0597066081457 0.849 1.54283633545e-38
0.0172834918317 -0.0597066081457 0.849 1.57957053392e-38
0.0188547183618 -0.0597066081457 0.849 1.54283633545e-38
0.020425944892 -0.0597066081457 0.849 1.63467183161e-38
0.0219971714221 -0.0597066081457 0.849 1.625488282e-38
0.0235683979523 -0.0597066081457 0.849 1.61630473238e-38
0.0251396244824 -0.0597066081457 0.849 1.63467183161e-38
0.0267108510126 -0.0597066081457 0.849 1.68058957969e-38
0.0282820775427 -0.0597066081457 0.849 1.63467183161e-38
0.0298533040729 -0.0597066081457 0.849 1.68977312931e-38
0.031424530603 -0.0597066081457 0.849 1.68977312931e-38
0.0329957571332 -0.0597066081457 0.849 1.68977397009e-38
0.0346484135424 -0.059847259755 0.851 1.76324180649e-38
0.0363510382865 -0.060058237169 0.854 1.62549010368e-38
0.037931518212 -0.060058237169 0.854 2.34587662472e-38
0.039604532091 -0.0601988887783 0.856 9.45905610427e-39
0.0411887133746 -0.0601988887783 0.856 2.34900824652e-38
0.042872831328 -0.0603395403876 0.858 2.66322938858e-39
0.0445643519977 -0.0604801919968 0.86 2.3492945318e-38
0.0461559359976 -0.0604801919968 0.86 1.12129450843e-38
0.0477475199975 -0.0604801919968 0.86 1.58439240193e-38
0.0494538460997 -0.0606208436061 0.862 2.34796469956e-38
0.0510491314578 -0.0606208436061 0.862 1.03788880344e-38
0.0529497788624 -0.0609724726294 0.867 2.30016486751e-38
0.0552464715878 -0.0617460564805 0.878 2.34828699821e-38
-0.0178738584549 -0.0601211602573 0.878 2.22893294293e-38
-0.0162489622317 -0.0601211602573 0.878 2.28439493485e-38
-0.0145740976737 -0.0599157348806 0.875 2.25684372549e-38
-0.0129547534877 -0.0599157348806 0.875 9.92829771063e-39
-0.0113094997948 -0.0597787846294 0.873 1.38761520521e-38
-0.00962723252043 -0.059367933876 0.867 1.41556298204e-38
-0.00799493358098 -0.0591625084992 0.864 1.33279851123e-38
-0.00638114143223 -0.0590255582481 0.862 1.37821403394e-38
-0.00478585607417 -0.0590255582481 0.862 1.42362955665e-38
-0.00318316799983 -0.0588886079969 0.86 1.40508309122e-38
-0.00159158399992 -0.0588886079969 0.86 1.46936947996e-38
0.0 -0.0587516577458 0.858 1.46018438891e-38
0.00158418128364 -0.0586147074946 0.856 1.47855148814e-38
0.00316836256728 -0.0586147074946 0.856 1.43263374006e-38
0.00472478366487 -0.0582723318667 0.851 1.44181728968e-38
0.00629971155316 -0.0582723318667 0.851 1.4510008393e-38
0.00787463944145 -0.0582723318667 0.851 1.44181728968e-38
0.00944956732974 -0.0582723318667 0.851 1.47855218879e-38
0.011024495218 -0.0582723318667 0.851 1.51528568661e-38
0.0125698122412 -0.0581353816156 0.849 1.52446923622e-38
0.0141410387714 -0.0581353816156 0.849 1.49691858738e-38
0.0157122653015 -0.0581353816156 0.849 1.57038740469e-38
0.0172834918317 -0.0581353816156 0.849 1.55201988507e-38
0.0188547183618 -0.0581353816156 0.849 1.57038754482e-38
0.020425944892 -0.0581353816156 0.849 1.56120343469e-38
0.0219971714221 -0.0581353816156 0.849 1.63467239213e-38
0.0235683979523 -0.0581353816156 0.849 1.64385538123e-38
0.0251988462126 -0.0582723318667 0.851 1.625488282e-38
0.0267108510126 -0.0581353816156 0.849 1.80937675583e-38
0.0282820775427 -0.0581353816156 0.849 1.62548982342e-38
0.0298533040729 -0.0581353816156 0.849 1.65303893084e-38
0.031424530603 -0.0581353816156 0.849 1.71732377815e-38
0.0329957571332 -0.0581353816156 0.849 1.66222472254e-38
0.0346484135424 -0.0582723318667 0.851 1.71732489919e-38
0.0363510382865 -0.0584777572435 0.854 1.61630585342e-38
0.037931518212 -0.0584777572435 0.854 2.34591389926e-38
0.039604532091 -0.0586147074946 0.856 9.91823358506e-39
0.0411887133746 -0.0586147074946 0.856 2.34904594145e-38
0.042872831328 -0.0587516577458 0.858 2.93873587706e-39
0.0445643519977 -0.0588886079969 0.86 2.34940523438e-38
0.0461559359976 -0.0588886079969 0.86 1.2227102618e-38
0.0477475199975 -0.0588886079969 0.86 1.68559039352e-38
0.0494538460997 -0.0590255582481 0.862 2.15402457171e-38
0.0510491314578 -0.0590255582481 0.862 1.61882076377e-38
0.0529497788624 -0.059367933876 0.867 1.94064170792e-38
-0.0179145733944 -0.0586295129272 0.88 2.23833243264e-38
-0.0162489622317 -0.0584962640342 0.878 2.26595384706e-38
-0.0145740976737 -0.0582963906946 0.875 2.30294154042e-38
-0.0129547534877 -0.0582963906946 0.875 1.40810835447e-38
-0.0113094997948 -0.0581631418016 0.873 1.3431734448e-38
-0.00964944066926 -0.0578966440156 0.869 1.2869913256e-38
-0.00802269376702 -0.0577633951226 0.867 1.36071223651e-38
-0.00639594686478 -0.057563521783 0.864 1.2862720391e-38
-0.00478585607417 -0.05743027289 0.862 1.3960789078e-38
-0.00318316799983 -0.057297023997 0.86 1.3958995416e-38
-0.00159158399992 -0.057297023997 0.86 1.47855232892e-38
0.0 -0.057163775104 0.858 1.43263402032e-38
0.00158788264178 -0.057163775104 0.858 1.46018438891e-38
0.00316836256728 -0.057030526211 0.856 1.44181728968e-38
0.0047414397765 -0.056897277318 0.854 1.38671599199e-38
0.00629971155316 -0.0566974039784 0.851 1.52446923622e-38
0.00787463944145 -0.0566974039784 0.851 1.46936947996e-38
0.00944956732974 -0.0566974039784 0.851 1.53365278584e-38
0.011024495218 -0.0566974039784 0.851 1.53365278584e-38
0.0125698122412 -0.0565641550854 0.849 1.51528568661e-38
0.0141410387714 -0.0565641550854 0.849 1.55201988507e-38
0.0157122653015 -0.0565641550854 0.849 1.5244728796e-38
0.0172834918317 -0.0565641550854 0.849 1.54283633545e-38
0.0188991346595 -0.0566974039784 0.851 1.56120343469e-38
0.0204740625478 -0.0566974039784 0.851 1.58875408353e-38
0.0219971714221 -0.0565641550854 0.849 1.59794099627e-38
0.0235683979523 -0.0565641550854 0.849 1.61630473238e-38
0.0251988462126 -0.0566974039784 0.851 1.66222248046e-38
0.0267737741009 -0.0566974039784 0.851 1.61630473238e-38
0.0283487019892 -0.0566974039784 0.851 1.67140603008e-38
0.0299236298775 -0.0566974039784 0.851 1.64385538123e-38
0.031424530603 -0.0565641550854 0.849 1.68977312931e-38
0.0329957571332 -0.0565641550854 0.849 1.65303893084e-38
0.0346484135424 -0.0566974039784 0.851 1.69895667892e-38
0.0363510382865 -0.056897277318 0.854 1.63467295265e-38
0.037931518212 -0.056897277318 0.854 2.34566166553e-38
0.039604532091 -0.057030526211 0.856 9.64272989919e-39
0.0411887133746 -0.057030526211 0.856 2.34890174784e-38
0.042872831328 -0.057163775104 0.858 3.30607786169e-39
0.0445643519977 -0.057297023997 0.86 2.34922390636e-38
0.0461559359976 -0.057297023997 0.86 1.46191471226e-38
0.0477475199975 -0.057297023997 0.86 1.75913572173e-38
0.0494538460997 -0.05743027289 0.862 1.36834889275e-38
0.0511675749183 -0.057563521783 0.864 2.2453522373e-38
-0.0179145733944 -0.0570009153459 0.88 2.21996379198e-38
-0.0162859758131 -0.0570009153459 0.88 2.27506551007e-38
-0.0146573782318 -0.0570009153459 0.88 2.30276175383e-38
-0.0129991697854 -0.056871367811 0.878 1.24222740668e-38
-0.0113354093017 -0.0566770465087 0.875 1.54647046289e-38
-0.0096716488181 -0.0564179514389 0.871 1.28817668397e-38
-0.00804120055772 -0.056288403904 0.869 1.13166075395e-38
-0.00641815501362 -0.0561588563692 0.867 1.26844457991e-38
-0.00479696014859 -0.0559645350669 0.864 1.35945232906e-38
-0.00319057071611 -0.055834987532 0.862 1.43263374006e-38
-0.00159158399992 -0.0557054399971 0.86 1.40508309122e-38
0.0 -0.0557054399971 0.86 1.4510008393e-38
0.00158788264178 -0.0555758924622 0.858 1.46936793853e-38
0.00317576528356 -0.0555758924622 0.858 1.36834889275e-38
0.00475254385092 -0.0554463449273 0.856 1.3958995416e-38
0.006321919702 -0.0553167973925 0.854 1.47855148814e-38
0.00787463944145 -0.0551224760902 0.851 1.44181728968e-38
0.00944956732974 -0.0551224760902 0.851 1.53365278584e-38
0.011024495218 -0.0551224760902 0.851 1.53365278584e-38
0.0125698122412 -0.0549929285553 0.849 1.49691858738e-38
0.0141410387714 -0.0549929285553 0.849 1.57957053392e-38
0.0157122653015 -0.0549929285553 0.849 1.55201988507e-38
0.0173242067712 -0.0551224760902 0.851 1.53365278584e-38
0.0188991346595 -0.0551224760902 0.851 1.57957053392e-38
0.0204740625478 -0.0551224760902 0.851 1.57957053392e-38
0.0220489904361 -0.0551224760902 0.851 1.59793847393e-38
0.0236239183244 -0.0551224760902 0.851 1.61630473238e-38
0.0251988462126 -0.0551224760902 0.851 1.67140603008e-38
0.0267737741009 -0.0551224760902 0.851 1.625488282e-38
0.0283487019892 -0.0551224760902 0.851 1.69895681905e-38
0.0299236298775 -0.0551224760902 0.851 1.65304019201e-38
0.0314985577658 -0.0551224760902 0.851 1.68977312931e-38
0.0330734856541 -0.0551224760902 0.851 1.69895667892e-38
0.034770558361 -0.0553167973925 0.854 1.70814022854e-38
0.0363510382865 -0.0553167973925 0.854 1.64385734305e-38
0.0380203508073 -0.0554463449273 0.856 2.34638235333e-38
0.039604532091 -0.0554463449273 0.856 9.45905610427e-39
0.0412849486862 -0.0555758924622 0.858 2.3488992255e-38
0.042872831328 -0.0555758924622 0.858 3.21424236553e-39
0.0445643519977 -0.0557054399971 0.86 2.34947249671e-38
0.0461559359976 -0.0557054399971 0.86 1.06529736063e-38
0.0478585607417 -0.055834987532 0.862 1.39644562761e-38
0.0494538460997 -0.055834987532 0.862 2.28233236364e-38
0.0510491314578 -0.055834987532 0.862 1.50739357366e-38
-0.0163229893945 -0.0554981639413 0.882 2.23822313136e-38
-0.0146573782318 -0.0553723177646 0.88 2.33956741851e-38
-0.0130287806505 -0.0553723177646 0.88 1.30683469277e-38
-0.0114001830692 -0.0553723177646 0.88 1.23239813873e-38
-0.0096716488181 -0.0548060099692 0.871 1.38087930362e-38
-0.00804120055772 -0.0546801637925 0.869 1.08624382994e-38
-0.00641815501362 -0.0545543176158 0.867 1.17732472688e-38
-0.00479696014859 -0.0543655483507 0.864 1.31392918663e-38
-0.00319057071611 -0.0542397021739 0.862 1.37756831561e-38
-0.00159528535806 -0.0542397021739 0.862 1.46936793853e-38
0.0 -0.0542397021739 0.862 1.47855148814e-38
0.00159158399992 -0.0541138559972 0.86 1.44181728968e-38
0.00318316799983 -0.0541138559972 0.86 1.42345019045e-38
0.00476364792533 -0.0539880098204 0.858 1.46018438891e-38
0.00633672513455 -0.0538621636437 0.856 1.43263374006e-38
0.0079023996275 -0.053736317467 0.854 1.47855148814e-38
0.00948287955299 -0.053736317467 0.854 1.46018705138e-38
0.0110633594785 -0.053736317467 0.854 1.52446923622e-38
0.0125994231063 -0.0535475482019 0.851 1.49691858738e-38
0.0141743509946 -0.0535475482019 0.851 1.57957053392e-38
0.0157492788829 -0.0535475482019 0.851 1.55201988507e-38
0.0173242067712 -0.0535475482019 0.851 1.51528568661e-38
0.0188991346595 -0.0535475482019 0.851 1.55201988507e-38
0.0205462390315 -0.053736317467 0.854 1.57957053392e-38
0.0220489904361 -0.0535475482019 0.851 1.59793763315e-38
0.0236239183244 -0.0535475482019 0.851 1.56120343469e-38
0.0251988462126 -0.0535475482019 0.851 1.625488282e-38
0.0267737741009 -0.0535475482019 0.851 1.64385538123e-38
0.0283487019892 -0.0535475482019 0.851 1.66222248046e-38
0.0300291185845 -0.053736317467 0.854 1.67140603008e-38
0.03160959851 -0.053736317467 0.854 1.66222248046e-38
0.0331900784355 -0.053736317467 0.854 1.66222248046e-38
0.034770558361 -0.053736317467 0.854 1.73569087739e-38
0.0364361695237 -0.0538621636437 0.856 1.66222248046e-38
0.0381091834027 -0.0539880098204 0.858 2.34627361257e-38
0.0396970660444 -0.0539880098204 0.858 1.07447530505e-38
0.0412849486862 -0.0539880098204 0.858 2.34893720069e-38
0.0429727679978 -0.0541138559972 0.86 2.00756169699e-38
0.0445643519977 -0.0541138559972 0.86 1.55533928087e-38
0.0462632753836 -0.0542397021739 0.862 1.58875408353e-38
0.0478585607417 -0.0542397021739 0.862 2.33757967664e-38
0.0495685882021 -0.0543655483507 0.864 1.31378569367e-38
0.0519966791415 -0.0552464715878 0.878 2.34422085045e-38
-0.014690690455 -0.0538658650018 0.882 2.32123745369e-38
-0.0130287806505 -0.0537437201832 0.88 1.42672250262e-38
-0.0114001830692 -0.0537437201832 0.88 8.9173701699e-39
-0.00971606511577 -0.0534383581368 0.875 1.50984780779e-38
-0.00807821413911 -0.0533162133182 0.873 9.38982074975e-39
-0.00644776587873 -0.0531940684996 0.871 1.19609049552e-38
-0.00482472033463 -0.053071923681 0.869 1.60970531726e-38
-0.00320907750681 -0.0529497788624 0.867 1.18474964692e-38
-0.0015989867162 -0.0527665616345 0.864 1.50610213699e-38
0.0 -0.0527665616345 0.864 1.4510008393e-38
0.00159528535806 -0.0526444168159 0.862 1.46936793853e-38
0.00319057071611 -0.0526444168159 0.862 1.46936849905e-38
0.00477475199975 -0.0525222719973 0.86 1.44181728968e-38
0.00636633599967 -0.0525222719973 0.86 1.44181756994e-38
0.00793941320889 -0.0524001271787 0.858 1.4510008393e-38
0.00950508770183 -0.0522779823601 0.856 1.48773503776e-38
0.0110892689855 -0.0522779823601 0.856 1.48773503776e-38
0.012643839404 -0.0521558375415 0.854 1.49691858738e-38
0.0142243193295 -0.0521558375415 0.854 1.54283759662e-38
0.015804799255 -0.0521558375415 0.854 1.5244714783e-38
0.0173852791805 -0.0521558375415 0.854 1.52446923622e-38
0.018965759106 -0.0521558375415 0.854 1.56120343469e-38
0.0205462390315 -0.0521558375415 0.854 1.59793763315e-38
0.022126718957 -0.0521558375415 0.854 1.63467183161e-38
0.0237071988825 -0.0521558375415 0.854 1.59793791341e-38
0.025287678808 -0.0521558375415 0.854 1.625488282e-38
0.0268681587335 -0.0521558375415 0.854 1.61630473238e-38
0.028448638659 -0.0521558375415 0.854 1.70814148971e-38
0.0300994443891 -0.0522779823601 0.856 1.65303893084e-38
0.0316836256728 -0.0522779823601 0.856 1.68977312931e-38
0.0332678069564 -0.0522779823601 0.856 1.73569129778e-38
0.03485198824 -0.0522779823601 0.856 1.69895667892e-38
0.0364361695237 -0.0522779823601 0.856 1.68058957969e-38
0.0381091834027 -0.0524001271787 0.858 2.34645620176e-38
0.0396970660444 -0.0524001271787 0.858 1.13890406571e-38
0.0412849486862 -0.0524001271787 0.858 2.34731211486e-38
0.0429727679978 -0.0525222719973 0.86 1.11120950351e-38
0.0446679900256 -0.0526444168159 0.862 1.61630473238e-38
0.0466389632348 -0.053071923681 0.869 2.34627319218e-38
0.0483582440905 -0.0531940684996 0.871 1.26783207235e-38
0.0500849276625 -0.0533162133182 0.873 1.84600123263e-38
0.0519966791415 -0.0536215753646 0.878 2.34821553198e-38
-0.014690690455 -0.0522335660624 0.882 2.34893187576e-38
-0.0130287806505 -0.0521151226019 0.88 1.25140759318e-38
-0.0113742735622 -0.0519966791415 0.878 1.34324505116e-38
-0.00971606511577 -0.0518190139508 0.875 7.62236720059e-39
-0.00807821413911 -0.0517005704903 0.873 1.63930872823e-38
-0.00644776587873 -0.0515821270299 0.871 1.11346951767e-38
-0.00483582440905 -0.0515821270299 0.871 1.72952978843e-38
-0.00321648022309 -0.0514636835694 0.869 1.50846977088e-38
-0.0016045387534 -0.051345240109 0.867 1.23063152176e-38
0.0 -0.0511675749183 0.864 1.45100153995e-38
0.00159528535806 -0.0510491314578 0.862 1.48773503776e-38
0.00319057071611 -0.0510491314578 0.862 1.46018438891e-38
0.00477475199975 -0.0509306879973 0.86 1.47855148814e-38
0.00636633599967 -0.0509306879973 0.86 1.42345019045e-38
0.00795791999959 -0.0509306879973 0.86 1.46018438891e-38
0.00952729585067 -0.0508122445369 0.858 1.47855148814e-38
0.0111151784924 -0.0508122445369 0.858 1.46018438891e-38
0.0126734502691 -0.0506938010764 0.856 1.50610213699e-38
0.0142576315527 -0.0506938010764 0.856 1.52446923622e-38
0.0158418128364 -0.0506938010764 0.856 1.56120343469e-38
0.0174667090596 -0.0508122445369 0.858 1.51528568661e-38
0.0190545917013 -0.0508122445369 0.858 1.53365278584e-38
0.0205943566873 -0.0506938010764 0.856 1.57957053392e-38
0.0221785379709 -0.0506938010764 0.856 1.57957053392e-38
0.0238182396267 -0.0508122445369 0.858 1.59793763315e-38
0.0254061222684 -0.0508122445369 0.858 1.60712118276e-38
0.0269940049102 -0.0508122445369 0.858 1.63467183161e-38
0.028581887552 -0.0508122445369 0.858 1.65303893084e-38
0.0301697701938 -0.0508122445369 0.858 1.67140603008e-38
0.0317576528356 -0.0508122445369 0.858 1.68977312931e-38
0.0333455354773 -0.0508122445369 0.858 1.68977312931e-38
0.0350148479982 -0.0509306879973 0.86 1.77242521598e-38
0.0366064319981 -0.0509306879973 0.86 1.63467183161e-38
0.038198015998 -0.0509306879973 0.86 2.34580627953e-38
0.0398821339514 -0.0510491314578 0.862 1.1297205161e-38
0.0414774193095 -0.0510491314578 0.862 1.5703869843e-38
0.0434224830117 -0.0514636835694 0.869 2.34607743079e-38
0.0450307231232 -0.0514636835694 0.869 1.70951504246e-38
0.0467463026208 -0.0515821270299 0.871 1.99613340737e-38
0.0484692848347 -0.0517005704903 0.873 1.55202170676e-38
0.0500849276625 -0.0517005704903 0.873 2.34707179218e-38
0.0519966791415 -0.0519966791415 0.878 2.08981357282e-38
-0.0130287806505 -0.0504865250206 0.88 1.38051804888e-38
-0.0113742735622 -0.0503717829183 0.878 1.67510868101e-38
-0.00971606511577 -0.0501996697648 0.875 7.72063886059e-39
-0.00807821413911 -0.0500849276625 0.873 9.09535469305e-39
-0.00646257131129 -0.0500849276625 0.873 1.74944153896e-38
-0.00483582440905 -0.0499701855602 0.871 1.47284890404e-38
-0.00322388293937 -0.0499701855602 0.871 1.52720120771e-38
-0.0016045387534 -0.0497407013555 0.867 1.57239896864e-38
0.0 -0.0497407013555 0.867 1.27654926984e-38
0.0015989867162 -0.0495685882021 0.864 1.46018438891e-38
0.00319057071611 -0.0494538460997 0.862 1.50610213699e-38
0.00478585607417 -0.0494538460997 0.862 1.49691858738e-38
0.00638114143223 -0.0494538460997 0.862 1.46936793853e-38
0.00795791999959 -0.0493391039974 0.86 1.47855148814e-38
0.0095495039995 -0.0493391039974 0.86 1.47855148814e-38
0.0111151784924 -0.0492243618951 0.858 1.51528568661e-38
0.0127030611342 -0.0492243618951 0.858 1.49691858738e-38
0.014290943776 -0.0492243618951 0.858 1.51528568661e-38
0.0158788264178 -0.0492243618951 0.858 1.47855148814e-38
0.0174667090596 -0.0492243618951 0.858 1.55201988507e-38
0.0190545917013 -0.0492243618951 0.858 1.54283633545e-38
0.0206424743431 -0.0492243618951 0.858 1.57957053392e-38
0.0222303569849 -0.0492243618951 0.858 1.58875408353e-38
0.0238182396267 -0.0492243618951 0.858 1.56120651754e-38
0.0254061222684 -0.0492243618951 0.858 1.57957053392e-38
0.0270569279986 -0.0493391039974 0.86 1.55201988507e-38
0.0286485119985 -0.0493391039974 0.86 1.65303893084e-38
0.0302400959984 -0.0493391039974 0.86 1.68977312931e-38
0.0318316799983 -0.0493391039974 0.86 1.76324152623e-38
0.0334232639983 -0.0493391039974 0.86 1.73569087739e-38
0.0350148479982 -0.0493391039974 0.86 1.69895667892e-38
0.0366064319981 -0.0493391039974 0.86 1.68058957969e-38
0.0382868485934 -0.0494538460997 0.862 2.34591684198e-38
0.0399746679049 -0.0495685882021 0.864 2.12629483692e-38
0.0415736546211 -0.0495685882021 0.864 1.82036629891e-38
0.0433225463419 -0.0497407013555 0.867 1.59793763315e-38
0.0450307231232 -0.0498554434579 0.869 2.34791565411e-38
0.0467463026208 -0.0499701855602 0.871 1.42486438086e-38
0.0484692848347 -0.0500849276625 0.873 2.34809866369e-38
0.0501996697648 -0.0501996697648 0.875 2.33884266695e-38
0.0518190139508 -0.0501996697648 0.875 1.77559481298e-38
-0.0130287806505 -0.0488579274393 0.88 1.18694478096e-38
-0.0113742735622 -0.0487468866951 0.878 1.4163872258e-38
-0.00974937733903 -0.0487468866951 0.878 1.57380643281e-38
-0.00809672092981 -0.0485803255789 0.875 6.97949770801e-39
-0.00647737674385 -0.0485803255789 0.875 7.53056813819e-39
-0.00484692848347 -0.0484692848347 0.873 1.77735162086e-38
-0.00322388293937 -0.0483582440905 0.871 1.40824890471e-38
-0.00160824011154 -0.0482472033463 0.869 1.53512386897e-38
0.0 -0.0482472033463 0.869 1.50785992578e-38
0.0015989867162 -0.0479696014859 0.864 1.41426874278e-38
0.00319797343239 -0.0479696014859 0.864 1.50610213699e-38
0.00479696014859 -0.0479696014859 0.864 1.48773503776e-38
0.00638114143223 -0.0478585607417 0.862 1.51528568661e-38
0.00797642679028 -0.0478585607417 0.862 1.52446923622e-38
0.00957171214834 -0.0478585607417 0.862 1.51528568661e-38
0.0111669975064 -0.0478585607417 0.862 1.51528568661e-38
0.0127326719993 -0.0477475199975 0.86 1.49691858738e-38
0.0143242559993 -0.0477475199975 0.86 1.49691858738e-38
0.0158788264178 -0.0476364792533 0.858 1.53365278584e-38
0.0174667090596 -0.0476364792533 0.858 1.55201988507e-38
0.0190545917013 -0.0476364792533 0.858 1.5703869843e-38
0.0206424743431 -0.0476364792533 0.858 1.57957053392e-38
0.0222303569849 -0.0476364792533 0.858 1.57957053392e-38
0.0238737599988 -0.0477475199975 0.86 1.5428370361e-38
0.0254653439987 -0.0477475199975 0.86 1.56120343469e-38
0.0270569279986 -0.0477475199975 0.86 1.61630473238e-38
0.0286485119985 -0.0477475199975 0.86 1.67140603008e-38
0.0303104218031 -0.0478585607417 0.862 1.71732377815e-38
0.0319057071611 -0.0478585607417 0.862 1.69895667892e-38
0.0335009925192 -0.0478585607417 0.862 1.75405811675e-38
0.0350962778772 -0.0478585607417 0.862 1.73569129778e-38
0.0366915632353 -0.0478585607417 0.862 1.71732405841e-38
0.0383756811887 -0.0479696014859 0.864 1.69895737957e-38
0.0401134688351 -0.0481361626021 0.867 1.57957053392e-38
0.0417180075885 -0.0481361626021 0.867 1.60712118276e-38
0.0433225463419 -0.0481361626021 0.867 2.34785581867e-38
0.0450307231232 -0.0482472033463 0.869 1.67554630652e-38
0.0468536420069 -0.0484692848347 0.873 2.34733607707e-38
0.0484692848347 -0.0484692848347 0.873 2.27441558784e-38
0.0501996697648 -0.0485803255789 0.875 1.77559187025e-38
0.0518190139508 -0.0485803255789 0.875 2.31986334041e-38
-0.0114260925761 -0.047336669244 0.882 1.33337556594e-38
-0.00974937733903 -0.047121990472 0.878 1.51676335584e-38
-0.00812448111586 -0.047121990472 0.878 1.75787973792e-38
-0.00649958489268 -0.047121990472 0.878 6.61251445578e-39
-0.00485803255789 -0.0469609813929 0.875 5.6938007618e-39
-0.00323128565565 -0.0468536420069 0.873 1.72175202143e-38
-0.00161194146968 -0.0467463026208 0.871 1.30424341165e-38
0.0 -0.0466389632348 0.869 1.86713589633e-38
0.0016045387534 -0.0465316238487 0.867 1.35988280795e-38
0.00319797343239 -0.0463706147697 0.864 1.5061031179e-38
0.00479696014859 -0.0463706147697 0.864 1.49692096958e-38
0.00639594686478 -0.0463706147697 0.864 1.48773503776e-38
0.00797642679028 -0.0462632753836 0.862 1.56120343469e-38
0.00957171214834 -0.0462632753836 0.862 1.52446923622e-38
0.0111669975064 -0.0462632753836 0.862 1.54283633545e-38
0.0127326719993 -0.0461559359976 0.86 1.47855148814e-38
0.0143242559993 -0.0461559359976 0.86 1.49691858738e-38
0.0159158399992 -0.0461559359976 0.86 1.56120343469e-38
0.0175074239991 -0.0461559359976 0.86 1.56120343469e-38
0.019099007999 -0.0461559359976 0.86 1.5703869843e-38
0.0206905919989 -0.0461559359976 0.86 1.55201988507e-38
0.0222821759988 -0.0461559359976 0.86 1.69063408708e-38
0.0239292803708 -0.0462632753836 0.862 1.4420685425e-38
0.0255245657289 -0.0462632753836 0.862 1.57957053392e-38
0.027119851087 -0.0462632753836 0.862 1.61630473238e-38
0.028715136445 -0.0462632753836 0.862 1.70814022854e-38
0.0303104218031 -0.0462632753836 0.862 1.73569185829e-38
0.0319057071611 -0.0462632753836 0.862 1.75405965818e-38
0.0335787210401 -0.0463706147697 0.864 1.70814401204e-38
0.0351777077563 -0.0463706147697 0.864 1.72650732777e-38
0.0367766944725 -0.0463706147697 0.864 1.73569087739e-38
0.0385089300817 -0.0465316238487 0.867 1.79086560312e-38
0.0401134688351 -0.0465316238487 0.867 1.71732377815e-38
0.0417180075885 -0.0465316238487 0.867 2.31068273353e-38
0.0433225463419 -0.0465316238487 0.867 2.32958078475e-38
0.0451343611511 -0.0467463026208 0.871 1.52727575679e-38
0.0468536420069 -0.0468536420069 0.873 2.08985280918e-38
0.0484692848347 -0.0468536420069 0.873 1.35996170106e-38
0.0503717829183 -0.047121990472 0.878 2.34658680278e-38
0.0519966791415 -0.047121990472 0.878 1.65653292843e-38
-0.0130583915156 -0.0457043703046 0.882 1.19637720119e-38
-0.0114260925761 -0.0457043703046 0.882 1.61807120922e-38
-0.00977158548786 -0.0456007322767 0.88 1.28638344233e-38
-0.00812448111586 -0.0454970942488 0.878 1.49764025608e-38
-0.00649958489268 -0.0454970942488 0.878 1.86875705852e-38
-0.00487468866951 -0.0454970942488 0.878 7.44083038584e-39
-0.00323868837192 -0.0453416372069 0.875 1.71210015787e-38
-0.00161564282782 -0.045237999179 0.873 1.25814629736e-38
0.0 -0.0451343611511 0.871 1.71937317716e-38
0.00160824011154 -0.0450307231232 0.869 1.22195019751e-38
0.00320907750681 -0.0449270850953 0.867 1.49691928802e-38
0.00481361626021 -0.0449270850953 0.867 1.53365278584e-38
0.00639594686478 -0.0447716280535 0.864 1.50610213699e-38
0.00799493358098 -0.0447716280535 0.864 1.55201988507e-38
0.00959392029717 -0.0447716280535 0.864 1.48773503776e-38
0.0111929070134 -0.0447716280535 0.864 1.56120343469e-38
0.0127326719993 -0.0445643519977 0.86 1.47855148814e-38
0.0143242559993 -0.0445643519977 0.86 1.54283633545e-38
0.0159158399992 -0.0445643519977 0.86 1.56120343469e-38
0.0175074239991 -0.0445643519977 0.86 1.51528568661e-38
0.019099007999 -0.0445643519977 0.86 1.59793763315e-38
0.0206905919989 -0.0445643519977 0.86 1.61630473238e-38
0.0223339950128 -0.0446679900256 0.862 1.76525421122e-38
0.0239292803708 -0.0446679900256 0.862 1.38811504837e-38
0.0255245657289 -0.0446679900256 0.862 1.46936793853e-38
0.027119851087 -0.0446679900256 0.862 1.65307620538e-38
0.028715136445 -0.0446679900256 0.862 1.69917191837e-38
0.0303807476077 -0.0447716280535 0.864 1.67140603008e-38
0.0319797343239 -0.0447716280535 0.864 1.71732602023e-38
0.0335787210401 -0.0447716280535 0.864 1.68977467074e-38
0.0351777077563 -0.0447716280535 0.864 1.76324152623e-38
0.0369043913283 -0.0449270850953 0.867 1.78160862547e-38
0.0385089300817 -0.0449270850953 0.867 1.71732377815e-38
0.0402060027886 -0.0450307231232 0.869 2.31594727173e-38
0.0418142429001 -0.0450307231232 0.869 1.86721969397e-38
0.0435224196815 -0.0451343611511 0.871 2.34882341526e-38
0.0453416372069 -0.0453416372069 0.875 1.7840506683e-38
0.0469609813929 -0.0453416372069 0.875 1.89570655033e-38
0.0487468866951 -0.0454970942488 0.878 2.34708286243e-38
0.0503717829183 -0.0454970942488 0.878 1.66525320878e-38
0.0519966791415 -0.0454970942488 0.878 2.05314985967e-38
-0.0132656675714 -0.0447716280535 0.896 1.29779211378e-38
-0.0115167758506 -0.0444218497093 0.889 1.42424080304e-38
-0.0097937936367 -0.0440720713651 0.882 1.58237411176e-38
-0.00814298790655 -0.0439721346954 0.88 1.35063073484e-38
-0.00651439032524 -0.0439721346954 0.88 1.2673318088e-38
-0.00487468866951 -0.0438721980256 0.878 1.83111846203e-38
-0.00324979244634 -0.0438721980256 0.878 1.79525825342e-38
-0.00161934418596 -0.043722293021 0.875 1.09284240428e-38
0.0 -0.0436223563512 0.873 1.59037538586e-38
0.00161194146968 -0.0435224196815 0.871 1.2955620874e-38
0.00321648022309 -0.0434224830117 0.869 1.4877361588e-38
0.00482472033463 -0.0434224830117 0.869 1.54283633545e-38
0.00641815501362 -0.0433225463419 0.867 1.48773503776e-38
0.00802269376702 -0.0433225463419 0.867 1.54283633545e-38
0.00962723252043 -0.0433225463419 0.867 1.52446923622e-38
0.0112317712738 -0.0433225463419 0.867 1.53365278584e-38
0.0127622828645 -0.0430727046675 0.862 1.55201988507e-38
0.0143575682225 -0.0430727046675 0.862 1.52446923622e-38
0.0159528535806 -0.0430727046675 0.862 1.5703869843e-38
0.0175481389386 -0.0430727046675 0.862 1.51528568661e-38
0.0191434242967 -0.0430727046675 0.862 1.65390199057e-38
0.0207387096547 -0.0430727046675 0.862 1.54420077977e-38
0.0223339950128 -0.0430727046675 0.862 1.44426017329e-38
0.0239292803708 -0.0430727046675 0.862 1.33434610526e-38
0.0255245657289 -0.0430727046675 0.862 1.49006749905e-38
0.0271827741753 -0.0431726413373 0.864 1.90433406471e-38
0.0287817608915 -0.0431726413373 0.864 1.95036377654e-38
0.0303807476077 -0.0431726413373 0.864 1.84880565124e-38
0.0320907750681 -0.0433225463419 0.867 1.90376023299e-38
0.0336953138215 -0.0433225463419 0.867 1.81149103496e-38
0.0352998525749 -0.0433225463419 0.867 1.533975645e-38
0.0369043913283 -0.0433225463419 0.867 1.77242507585e-38
0.0385089300817 -0.0433225463419 0.867 1.79079231521e-38
0.0402060027886 -0.0434224830117 0.869 1.75405811675e-38
0.0419104782118 -0.0435224196815 0.871 2.04947999913e-38
0.0436223563512 -0.0436223563512 0.873 2.13630949665e-38
0.0454970942488 -0.0438721980256 0.878 1.52446923622e-38
0.047121990472 -0.0438721980256 0.878 2.34677275508e-38
0.0487468866951 -0.0438721980256 0.878 1.61930084863e-38
0.0503717829183 -0.0438721980256 0.878 2.17256879506e-38
0.0519966791415 -0.0438721980256 0.878 1.86043979161e-38
-0.0132656675714 -0.0431134196071 0.896 1.45463188388e-38
-0.0115167758506 -0.0427765960164 0.889 1.03809983899e-38
-0.00984931400879 -0.0426803607048 0.887 1.33291089537e-38
-0.00818925488329 -0.0425841253931 0.885 1.33215433433e-38
-0.0065291957578 -0.0424397724257 0.882 1.43295870118e-38
-0.00488579274393 -0.0423435371141 0.88 1.34998179352e-38
-0.00324979244634 -0.0422473018025 0.878 1.20304499967e-38
-0.00161934418596 -0.042102948835 0.875 1.30456697146e-38
0.0 -0.0420067135234 0.873 1.47041176575e-38
0.00161564282782 -0.0420067135234 0.873 1.35927296286e-38
0.00322388293937 -0.0419104782118 0.871 1.49691858738e-38
0.00483582440905 -0.0419104782118 0.871 1.54283633545e-38
0.00643296044618 -0.0418142429001 0.869 1.49691858738e-38
0.00804120055772 -0.0418142429001 0.869 1.53365278584e-38
0.00964944066926 -0.0418142429001 0.869 1.51528568661e-38
0.0112576807808 -0.0418142429001 0.869 1.56120343469e-38
0.0128363100272 -0.0417180075885 0.867 1.53365278584e-38
0.0144408487806 -0.0417180075885 0.867 1.57957235561e-38
0.016045387534 -0.0417180075885 0.867 1.62549164511e-38
0.0175888538782 -0.0415736546211 0.864 1.62721215937e-38
0.0191878405943 -0.0415736546211 0.864 1.59180330899e-38
0.0207868273105 -0.0415736546211 0.864 1.2054485068e-38
0.0223858140267 -0.0415736546211 0.864 1.08627760123e-38
0.0239848007429 -0.0415736546211 0.864 1.22439139957e-38
0.0255837874591 -0.0415736546211 0.864 1.27827118539e-38
0.0271827741753 -0.0415736546211 0.864 1.8580198893e-38
0.0287817608915 -0.0415736546211 0.864 1.95983963701e-38
0.0303807476077 -0.0415736546211 0.864 1.81217570939e-38
0.0320907750681 -0.0417180075885 0.867 1.83879393424e-38
0.0336953138215 -0.0417180075885 0.867 2.05152911787e-38
0.0352998525749 -0.0417180075885 0.867 1.66408816924e-38
0.0369895225655 -0.0418142429001 0.869 1.69896046243e-38
0.0385977626771 -0.0418142429001 0.869 1.77242689754e-38
0.0402985367421 -0.0419104782118 0.871 1.7632441887e-38
0.0420067135234 -0.0420067135234 0.873 2.34522852418e-38
0.0436223563512 -0.0420067135234 0.873 1.78510906903e-38
0.0456007322767 -0.0423435371141 0.88 2.34852129531e-38
0.047229329858 -0.0423435371141 0.88 1.39799434268e-38
0.0488579274393 -0.0423435371141 0.88 1.91331302475e-38
0.0504865250206 -0.0423435371141 0.88 1.99823073078e-38
0.0521151226019 -0.0423435371141 0.88 1.88759205131e-38
-0.0149571882411 -0.0415477451141 0.898 2.17375751655e-38
-0.0132656675714 -0.0414552111606 0.896 1.46399634112e-38
-0.0115167758506 -0.0411313423234 0.889 1.2963512987e-38
-0.00987152215763 -0.0411313423234 0.889 1.26837563602e-38
-0.00820776167399 -0.04103880837 0.887 1.36914048626e-38
-0.00655140390664 -0.0409462744165 0.885 1.35009025402e-38
-0.00488579274393 -0.0407149395328 0.88 1.50628332488e-38
-0.00325719516262 -0.0407149395328 0.88 1.19386145005e-38
-0.00162489622317 -0.0406224055793 0.878 1.2126619709e-38
0.0 -0.0406224055793 0.878 1.37785810413e-38
0.00161934418596 -0.0404836046491 0.875 1.44182009228e-38
0.00323128565565 -0.0403910706956 0.873 1.47855246905e-38
0.00484692848347 -0.0403910706956 0.873 1.51528568661e-38
0.00644776587873 -0.0402985367421 0.871 1.50610213699e-38
0.00805970734842 -0.0402985367421 0.871 1.54283633545e-38
0.0096716488181 -0.0402985367421 0.871 1.56120343469e-38
0.0112835902878 -0.0402985367421 0.871 1.55201988507e-38
0.0128659208924 -0.0402060027886 0.869 1.69924450563e-38
0.0144741610039 -0.0402060027886 0.869 1.66358566361e-38
0.016045387534 -0.0401134688351 0.867 1.75585444125e-38
0.0176499262875 -0.0401134688351 0.867 1.48963716029e-38
0.0191878405943 -0.0399746679049 0.864 1.57383473904e-38
0.0207868273105 -0.0399746679049 0.864 1.25179813506e-38
0.0223858140267 -0.0399746679049 0.864 8.73729771204e-39
0.0239848007429 -0.0399746679049 0.864 1.2142052209e-38
0.0255837874591 -0.0399746679049 0.864 1.48913955921e-38
0.0272771588079 -0.0401134688351 0.867 1.86709455802e-38
0.0288816975613 -0.0401134688351 0.867 1.78405389129e-38
0.0304862363147 -0.0401134688351 0.867 1.65468909992e-38
0.0320907750681 -0.0401134688351 0.867 1.78275656917e-38
0.0337730423424 -0.0402060027886 0.869 1.93098704176e-38
0.035381282454 -0.0402060027886 0.869 1.67327143859e-38
0.0369895225655 -0.0402060027886 0.869 1.67140911293e-38
0.0385977626771 -0.0402060027886 0.869 1.70814022854e-38
0.0403910706956 -0.0403910706956 0.873 1.63467183161e-38
0.0420067135234 -0.0403910706956 0.873 2.15975728372e-38
0.043722293021 -0.0404836046491 0.875 2.34882607772e-38
0.0456007322767 -0.0407149395328 0.88 8.54718495069e-39
0.047336669244 -0.0408074734862 0.882 1.02855755697e-38
0.0491355292998 -0.0409462744165 0.885 2.34829232314e-38
0.0508881223787 -0.04103880837 0.887 1.00172591436e-38
0.0525296747135 -0.04103880837 0.887 2.22753444707e-38
-0.0149571882411 -0.0398858353096 0.898 2.0080584573e-38
-0.0132656675714 -0.0397970027142 0.896 1.63005791629e-38
-0.011581549618 -0.0397081701189 0.894 1.18597199957e-38
-0.00987152215763 -0.0394860886305 0.889 1.22191684661e-38
-0.00822626846469 -0.0394860886305 0.889 1.35988561055e-38
-0.00655140390664 -0.0393084234398 0.885 1.41505627252e-38
-0.00489689681835 -0.0391751745468 0.882 1.47873281616e-38
-0.00325719516262 -0.0390863419515 0.88 1.20304499967e-38
-0.00162489622317 -0.0389975093561 0.878 1.51651504575e-38
0.0 -0.0389975093561 0.878 1.30413691296e-38
0.00162489622317 -0.0389975093561 0.878 1.48773503776e-38
0.00323868837192 -0.0388642604631 0.875 1.46018438891e-38
0.00485803255789 -0.0388642604631 0.875 1.50610213699e-38
0.00646257131129 -0.0387754278677 0.873 1.54283633545e-38
0.00807821413911 -0.0387754278677 0.873 1.54283633545e-38
0.0096716488181 -0.0386865952724 0.871 1.54283633545e-38
0.0112835902878 -0.0386865952724 0.871 1.56120343469e-38
0.0128955317575 -0.0386865952724 0.871 1.91186996759e-38
0.0144741610039 -0.0385977626771 0.869 1.52572479965e-38
0.0160824011154 -0.0385977626771 0.869 1.59912257113e-38
0.017690641227 -0.0385977626771 0.869 1.55331524537e-38
0.0192544650409 -0.0385089300817 0.867 1.51704445631e-38
0.0208590037943 -0.0385089300817 0.867 1.55420941392e-38
0.0224635425477 -0.0385089300817 0.867 1.54538515723e-38
0.0240680813011 -0.0385089300817 0.867 1.83108174801e-38
0.0256726200545 -0.0385089300817 0.867 1.60016878056e-38
0.0273400818963 -0.0385977626771 0.869 1.42345019045e-38
0.0289483220078 -0.0385977626771 0.869 1.51528568661e-38
0.0305565621193 -0.0385977626771 0.869 1.68062755488e-38
0.0321648022309 -0.0385977626771 0.869 1.837359425e-38
0.0337730423424 -0.0385977626771 0.869 1.73691407082e-38
0.035462712333 -0.0386865952724 0.871 1.55237861748e-38
0.0370746538027 -0.0386865952724 0.871 1.60712118276e-38
0.0386865952724 -0.0386865952724 0.871 2.21507129853e-38
0.0404836046491 -0.0388642604631 0.875 2.34789533528e-38
0.042102948835 -0.0388642604631 0.875 2.20063203889e-38
0.0438721980256 -0.0389975093561 0.878 7.99148182778e-39
0.0456007322767 -0.0390863419515 0.88 1.28569694621e-38
0.047336669244 -0.0391751745468 0.882 1.7381069962e-38
0.0492465700439 -0.0393972560352 0.887 1.35161136351e-38
0.0508881223787 -0.0393972560352 0.887 2.12690790499e-38
0.0525296747135 -0.0393972560352 0.887 1.5824527246e-38
-0.0167116319991 -0.038436753598 0.903 1.91578995992e-38
-0.0149571882411 -0.038223925505 0.898 1.96188777485e-38
-0.0132952784365 -0.038223925505 0.898 1.6392053124e-38
-0.011581549618 -0.0380536630306 0.894 1.21388320251e-38
-0.00987152215763 -0.0378408349376 0.889 1.31457560561e-38
-0.00822626846469 -0.0378408349376 0.889 1.27701772391e-38
-0.00656620933919 -0.0377557037004 0.887 1.42373885793e-38
-0.00491355292998 -0.0376705724632 0.885 1.48809405043e-38
-0.0032645978789 -0.0375428756073 0.882 1.66413188975e-38
-0.00162859758131 -0.0374577443701 0.88 1.72181031545e-38
0.0 -0.0374577443701 0.88 1.04714129694e-38
0.00162489622317 -0.0373726131329 0.878 1.48773798049e-38
0.00323868837192 -0.0372449162771 0.875 1.51528568661e-38
0.00485803255789 -0.0372449162771 0.875 1.52446923622e-38
0.00646257131129 -0.0371597850399 0.873 1.50610213699e-38
0.00807821413911 -0.0371597850399 0.873 1.54283633545e-38
0.00969385696694 -0.0371597850399 0.873 1.57957053392e-38
0.0112835902878 -0.0370746538027 0.871 1.52446923622e-38
0.0128955317575 -0.0370746538027 0.871 1.58875408353e-38
0.0144741610039 -0.0369895225655 0.869 1.99563384447e-38
0.0160824011154 -0.0369895225655 0.869 2.0156995977e-38
0.017690641227 -0.0369895225655 0.869 1.65559559989e-38
0.0192988813385 -0.0369895225655 0.869 1.48773503776e-38
0.0209071214501 -0.0369895225655 0.869 1.67198154335e-38
0.0224635425477 -0.0369043913283 0.867 1.58979440751e-38
0.0240680813011 -0.0369043913283 0.867 1.59926830617e-38
0.0257318417847 -0.0369895225655 0.869 1.47937657268e-38
0.0273400818963 -0.0369895225655 0.869 1.46057899456e-38
0.0289483220078 -0.0369895225655 0.869 1.37753244237e-38
0.0305565621193 -0.0369895225655 0.869 1.42345019045e-38
0.0322388293937 -0.0370746538027 0.871 1.44181728968e-38
0.0338507708634 -0.0370746538027 0.871 1.90214677794e-38
0.0355441422121 -0.0371597850399 0.873 2.09780840095e-38
0.0371597850399 -0.0371597850399 0.873 2.34888913616e-38
0.0388642604631 -0.0372449162771 0.875 2.22878790854e-38
0.0406224055793 -0.0373726131329 0.878 9.73605077172e-39
0.0423435371141 -0.0374577443701 0.88 1.1020259539e-38
0.0439721346954 -0.0374577443701 0.88 1.39619353402e-38
0.0457043703046 -0.0375428756073 0.882 1.29528112706e-38
0.0474976783231 -0.0376705724632 0.885 1.27651689984e-38
0.0492465700439 -0.0377557037004 0.887 1.95159467711e-38
0.0510028644811 -0.0378408349376 0.889 1.55558689031e-38
0.052648118174 -0.0378408349376 0.889 1.96188637355e-38
-0.0167116319991 -0.0367655903981 0.903 1.85125357953e-38
-0.015007156576 -0.036684160519 0.901 1.98029032693e-38
-0.0132952784365 -0.0365620157004 0.898 1.63009322901e-38
-0.011607459125 -0.0364805858214 0.896 1.38033531956e-38
-0.00992704252972 -0.0363991559423 0.894 1.30560799609e-38
-0.00824477525538 -0.0362770111237 0.891 1.17592496984e-38
-0.00656620933919 -0.0361141513656 0.887 1.42352193693e-38
-0.00491355292998 -0.0360327214865 0.885 1.4144101338e-38
-0.0032645978789 -0.0359105766679 0.882 1.60002444682e-38
-0.00162859758131 -0.0358291467888 0.88 9.01675586219e-39
0.0 -0.0358291467888 0.88 1.40828814106e-38
0.00162489622317 -0.0357477169098 0.878 1.2214120989e-38
0.00324979244634 -0.0357477169098 0.878 1.34998179352e-38
0.00487468866951 -0.0357477169098 0.878 1.54283633545e-38
0.00647737674385 -0.0356255720912 0.875 1.46936793853e-38
0.00809672092981 -0.0356255720912 0.875 1.49691858738e-38
0.00969385696694 -0.0355441422121 0.873 1.56120343469e-38
0.0113094997948 -0.0355441422121 0.873 1.47855148814e-38
0.0128955317575 -0.035462712333 0.871 1.4510008393e-38
0.0145074732272 -0.035462712333 0.871 1.48773503776e-38
0.0161194146968 -0.035462712333 0.871 1.75588919345e-38
0.0177313561665 -0.035462712333 0.871 1.25818217061e-38
0.0193432976362 -0.035462712333 0.871 1.48773643906e-38
0.0209552391059 -0.035462712333 0.871 1.44181813046e-38
0.0225153615616 -0.035381282454 0.869 1.42345145162e-38
0.0241236016732 -0.035381282454 0.869 1.40508407213e-38
0.0257910635149 -0.035462712333 0.871 1.39590192381e-38
0.0274030049846 -0.035462712333 0.871 1.29488049583e-38
0.0290149464543 -0.035462712333 0.871 1.70946964039e-38
0.030626887924 -0.035462712333 0.871 1.96023200058e-38
0.0322388293937 -0.035462712333 0.871 2.34827999171e-38
0.0338507708634 -0.035462712333 0.871 2.34900600445e-38
0.0355441422121 -0.0355441422121 0.873 1.86008077895e-38
0.0372449162771 -0.0356255720912 0.875 8.26519605552e-39
0.0388642604631 -0.0356255720912 0.875 1.00100690812e-38
0.0406224055793 -0.0357477169098 0.878 1.21223079136e-38
0.0423435371141 -0.0358291467888 0.88 1.33169190584e-38
0.0440720713651 -0.0359105766679 0.882 1.37811594305e-38
0.0458598273464 -0.0360327214865 0.885 1.42428059992e-38
0.0476050177091 -0.0361141513656 0.887 2.21970763462e-38
0.0493576107881 -0.0361955812446 0.889 1.39903382588e-38
0.0510028644811 -0.0361955812446 0.889 2.14541233147e-38
0.0529442268251 -0.0363991559423 0.894 1.16922620266e-38
-0.0167116319991 -0.0350944271982 0.903 1.81419680216e-38
-0.0150404687992 -0.0350944271982 0.903 1.90639075047e-38
-0.0133396947342 -0.0350166986772 0.901 1.55622896527e-38
-0.011607459125 -0.0348223773749 0.896 1.50951457901e-38
-0.00992704252972 -0.034744648854 0.894 1.32451753796e-38
-0.00824477525538 -0.0346280560726 0.891 1.35131148564e-38
-0.00658101477175 -0.0345503275517 0.889 1.42413416423e-38
-0.00491355292998 -0.0343948705098 0.885 1.46083066776e-38
-0.00327570195332 -0.0343948705098 0.885 1.37951093567e-38
-0.00163229893945 -0.0342782777284 0.882 1.30743921292e-38
0.0 -0.0342782777284 0.882 2.07276943947e-38
0.00162859758131 -0.0342005492075 0.88 2.01716661706e-38
0.00325719516262 -0.0342005492075 0.88 1.34349532306e-38
0.00487468866951 -0.0341228206866 0.878 1.23059999254e-38
0.00649958489268 -0.0341228206866 0.878 1.32243114468e-38
0.00812448111586 -0.0341228206866 0.878 1.40508309122e-38
0.00971606511577 -0.0340062279052 0.875 1.46018438891e-38
0.0113354093017 -0.0340062279052 0.875 1.70932474613e-38
0.0129251426226 -0.0339284993843 0.873 1.3958995416e-38
0.0145407854504 -0.0339284993843 0.873 1.46018438891e-38
0.0161564282782 -0.0339284993843 0.873 1.46936793853e-38
0.0177720711061 -0.0339284993843 0.873 1.43263374006e-38
0.0193877139339 -0.0339284993843 0.873 1.44181728968e-38
0.0209552391059 -0.0338507708634 0.871 1.3316170765e-38
0.0225671805756 -0.0338507708634 0.871 1.27651465776e-38
0.0241791220453 -0.0338507708634 0.871 1.23059564852e-38
0.0257910635149 -0.0338507708634 0.871 1.29488049583e-38
0.0274030049846 -0.0338507708634 0.871 1.73669855111e-38
0.0290149464543 -0.0338507708634 0.871 2.02384338385e-38
0.030626887924 -0.0338507708634 0.871 1.86742652563e-38
0.0322388293937 -0.0338507708634 0.871 1.43353127173e-38
0.0339284993843 -0.0339284993843 0.873 1.33161469429e-38
0.0356255720912 -0.0340062279052 0.875 1.25814629736e-38
0.0372449162771 -0.0340062279052 0.875 1.3867207564e-38
0.0389975093561 -0.0341228206866 0.878 1.3591722095e-38
0.0407149395328 -0.0342005492075 0.88 1.36860743232e-38
0.0423435371141 -0.0342005492075 0.88 1.3319438593e-38
0.0440720713651 -0.0342782777284 0.882 1.44254540436e-38
0.0458598273464 -0.0343948705098 0.885 1.73817860255e-38
0.0476050177091 -0.0344725990308 0.887 1.18645040287e-38
0.0493576107881 -0.0345503275517 0.889 2.09827979776e-38
0.0511176065834 -0.0346280560726 0.891 1.58375130789e-38
0.0529442268251 -0.034744648854 0.894 1.48214455754e-38
-0.0150904371341 -0.0335343047424 0.906 1.84192681721e-38
-0.0133396947342 -0.0333492368355 0.901 1.52871348901e-38
-0.011607459125 -0.0331641689285 0.896 1.45419692083e-38
-0.00994925067855 -0.0331641689285 0.896 1.47217291766e-38
-0.00827253544143 -0.0330901417657 0.894 1.28760145095e-38
-0.00659582020431 -0.0329791010215 0.891 1.47091090827e-38
-0.00492465700439 -0.032831046696 0.887 1.39633002049e-38
-0.0032831046696 -0.032831046696 0.887 1.14819481466e-38
-0.00163785097666 -0.0327570195332 0.885 1.08524064037e-38
0.0 -0.0327570195332 0.885 1.48002509361e-38
0.00162859758131 -0.0325719516262 0.88 1.526873444e-38
0.00325719516262 -0.0325719516262 0.88 2.12734244765e-38
0.00488579274393 -0.0325719516262 0.88 2.04511999908e-38
0.00649958489268 -0.0324979244634 0.878 1.76813444008e-38
0.00812448111586 -0.0324979244634 0.878 1.50894326963e-38
0.00971606511577 -0.0323868837192 0.875 1.33233328014e-38
0.0113354093017 -0.0323868837192 0.875 1.85915255885e-38
0.0129547534877 -0.0323868837192 0.875 1.53628204215e-38
0.0145740976737 -0.0323868837192 0.875 1.41538725921e-38
0.0161934418596 -0.0323868837192 0.875 1.73821363501e-38
0.0178127860456 -0.0323868837192 0.875 1.72059566994e-38
0.0193877139339 -0.0323128565565 0.873 1.65587670036e-38
0.0210033567617 -0.0323128565565 0.873 1.35934470934e-38
0.0226708186035 -0.0323868837192 0.875 1.57993038736e-38
0.0242901627894 -0.0323868837192 0.875 1.72949083233e-38
0.0258502852452 -0.0323128565565 0.873 1.89648987617e-38
0.027465928073 -0.0323128565565 0.873 1.88669802289e-38
0.0290815709008 -0.0323128565565 0.873 1.58107973236e-38
0.0306972137286 -0.0323128565565 0.873 1.82932255792e-38
0.0323128565565 -0.0323128565565 0.873 2.13422030077e-38
0.0339284993843 -0.0323128565565 0.873 1.91330727943e-38
0.0356255720912 -0.0323868837192 0.875 1.5619208995e-38
0.0372449162771 -0.0323868837192 0.875 1.88427994226e-38
0.0389975093561 -0.0324979244634 0.878 1.57085375682e-38
0.0407149395328 -0.0325719516262 0.88 1.48773882127e-38
0.0424397724257 -0.032645978789 0.882 1.35917024768e-38
0.0442219763698 -0.0327570195332 0.885 1.12039585572e-38
0.0459634653743 -0.032831046696 0.887 1.18467790044e-38
0.0476050177091 -0.032831046696 0.887 2.27456230379e-38
0.0493576107881 -0.0329050738588 0.889 2.3491165669e-38
0.0511176065834 -0.0329791010215 0.891 2.08178147016e-38
0.0529442268251 -0.0330901417657 0.894 1.51891743184e-38
-0.0167671523712 -0.0318575895053 0.906 1.70370904253e-38
-0.0150904371341 -0.0318575895053 0.906 1.82355929759e-38
-0.0133693055993 -0.0317521007983 0.903 1.5932522516e-38
-0.011633368632 -0.0315762862867 0.898 1.59252721978e-38
-0.00997145882739 -0.0315762862867 0.898 1.28778137768e-38
-0.00829104223213 -0.0315059604821 0.896 1.42575294422e-38
-0.00661802835314 -0.0314356346774 0.894 1.40713080866e-38
-0.00493576107881 -0.0312598201658 0.889 1.32307686301e-38
-0.00329050738588 -0.0312598201658 0.889 1.60856171759e-38
-0.0016415523348 -0.0311894943612 0.887 1.27834559434e-38
0.0 -0.0311191685565 0.885 1.41527109157e-38
0.00163785097666 -0.0311191685565 0.885 1.84926821987e-38
0.0032645978789 -0.0310136798495 0.882 1.37965288721e-38
0.00488579274393 -0.0309433540449 0.88 2.06287164803e-38
0.00651439032524 -0.0309433540449 0.88 1.90686340844e-38
0.00814298790655 -0.0309433540449 0.88 1.98087200592e-38
0.00974937733903 -0.0308730282403 0.878 1.92566266812e-38
0.0113354093017 -0.0307675395333 0.875 1.98098004604e-38
