# .PCD v0.7 - Point Cloud Data file format
VERSION 0.7
FIELDS x y z rgb
SIZE 4 4 4 4
TYPE F F F F
COUNT 1 1 1 1
WIDTH 837
HEIGHT 1
VIEWPOINT 0 0 0 1 0 0 0
POINTS 837
DATA ascii
-0.0137394414132 -0.049805475123 0.928 2.10872157326e-38
-0.0120220112366 -0.049805475123 0.928 1.98950764784e-38
-0.0103045810599 -0.049805475123 0.928 1.28853976041e-38
-0.00858715088327 -0.049805475123 0.928 1.27906263876e-38
-0.00686972070662 -0.049805475123 0.928 8.54213607232e-39
-0.00515229052996 -0.049805475123 0.928 1.2765133966e-38
-0.00343486035331 -0.049805475123 0.928 1.52446923622e-38
-0.00171743017665 -0.049805475123 0.928 1.57957053392e-38
0.0 -0.049805475123 0.928 1.84686317131e-38
0.00171743017665 -0.049805475123 0.928 1.8939645962e-38
0.00343486035331 -0.049805475123 0.928 1.58875408353e-38
0.00515229052996 -0.049805475123 0.928 1.66222248046e-38
0.00686972070662 -0.049805475123 0.928 2.24283872825e-38
0.00858715088327 -0.049805475123 0.928 1.77623324456e-38
0.0103045810599 -0.049805475123 0.928 2.26497742229e-38
0.0120220112366 -0.049805475123 0.928 8.81764256079e-39
0.0137690522784 -0.049912814509 0.93 1.44231951505e-38
0.0154901838131 -0.049912814509 0.93 1.46936793853e-38
0.01726683572 -0.0500738235881 0.933 1.41426664083e-38
0.0190342342316 -0.0501811629741 0.935 1.9955668624e-38
0.0207646191617 -0.0501811629741 0.935 1.90599628495e-38
0.0225671805756 -0.0503421720532 0.938 1.8865515872e-38
0.0243031175429 -0.0503421720532 0.938 2.23610731081e-38
0.0260945748824 -0.0504495114392 0.94 1.39683224586e-38
0.0278342132079 -0.0504495114392 0.94 2.26217426485e-38
0.0298255438868 -0.0508788689834 0.948 2.34705777919e-38
0.0315799876449 -0.0508788689834 0.948 2.34860565348e-38
-0.0441386958117 -0.0494353393091 0.954 2.20098404506e-38
-0.0423731479792 -0.0494353393091 0.954 2.21027493414e-38
-0.0403522064351 -0.0491244252253 0.948 2.33945853762e-38
-0.038516332798 -0.0490207871974 0.946 1.26076546432e-38
-0.0367655903981 -0.0490207871974 0.946 1.22385386148e-38
-0.0347927665098 -0.0487098731137 0.94 7.43870041217e-39
-0.0330531281843 -0.0487098731137 0.94 1.76791569739e-38
-0.0311469287426 -0.048450778044 0.935 1.2611306427e-38
-0.0294165438124 -0.048450778044 0.935 1.29627955221e-38
-0.0276861588823 -0.048450778044 0.935 1.38757694976e-38
-0.02590025358 -0.0483471400161 0.933 1.24121412776e-38
-0.024173570008 -0.0483471400161 0.933 1.33401820142e-38
-0.022446886436 -0.0483471400161 0.933 1.58197404104e-38
-0.020720202864 -0.0483471400161 0.933 1.4343203429e-38
-0.018993519292 -0.0483471400161 0.933 1.28623504482e-38
-0.0172113153479 -0.0481916829742 0.93 1.6356074786e-38
-0.0154901838131 -0.0481916829742 0.93 2.13627390367e-38
-0.0137690522784 -0.0481916829742 0.93 1.91590010198e-38
-0.0120220112366 -0.0480880449463 0.928 9.47340820314e-39
-0.0103045810599 -0.0480880449463 0.928 1.23189198973e-38
-0.00858715088327 -0.0480880449463 0.928 9.27538511196e-39
-0.00686972070662 -0.0480880449463 0.928 1.14794370197e-38
-0.00515229052996 -0.0480880449463 0.928 1.36834889275e-38
-0.00343486035331 -0.0480880449463 0.928 1.50610213699e-38
-0.00171743017665 -0.0480880449463 0.928 1.6993514247e-38
0.0 -0.0480880449463 0.928 1.7828651698e-38
0.00171743017665 -0.0480880449463 0.928 1.70014049587e-38
0.00344226306959 -0.0481916829742 0.93 1.63467183161e-38
0.00516339460438 -0.0481916829742 0.93 1.60712118276e-38
0.00688452613918 -0.0481916829742 0.93 2.34475810828e-38
0.00860565767397 -0.0481916829742 0.93 1.49050092067e-38
0.0103267892088 -0.0481916829742 0.93 2.11779245848e-38
0.012086785004 -0.0483471400161 0.933 8.35703015038e-39
0.013813468576 -0.0483471400161 0.933 1.2765133966e-38
0.0155734643713 -0.048450778044 0.935 1.29488049583e-38
0.0173038493014 -0.048450778044 0.935 1.16631080121e-38
0.0190342342316 -0.048450778044 0.935 2.09967198778e-38
0.0208312436082 -0.0486062350858 0.938 2.32965519369e-38
0.0225671805756 -0.0486062350858 0.938 1.29563383388e-38
0.0243031175429 -0.0486062350858 0.938 1.81834282393e-38
0.0260945748824 -0.0487098731137 0.94 2.18903391189e-38
0.0278342132079 -0.0487098731137 0.94 1.85758814924e-38
0.0295738515333 -0.0487098731137 0.94 2.34705567724e-38
-0.0441386958117 -0.0476697914766 0.954 2.30239853726e-38
-0.0423731479792 -0.0476697914766 0.954 2.19168937248e-38
-0.0404799032909 -0.0475198864719 0.951 2.34903669288e-38
-0.0385977626771 -0.0473699814673 0.948 1.3346684039e-38
-0.0367655903981 -0.0472700447975 0.946 8.92098271734e-39
-0.0350148479982 -0.0472700447975 0.946 1.03813655301e-38
-0.0330531281843 -0.0469702347883 0.94 7.53051068496e-39
-0.0312468654123 -0.0468702981185 0.938 1.59084538136e-38
-0.0294165438124 -0.0467203931138 0.935 1.30582183424e-38
-0.0276861588823 -0.0467203931138 0.935 1.29627955221e-38
-0.02590025358 -0.0466204564441 0.933 1.06615271321e-38
-0.024173570008 -0.0466204564441 0.933 1.23353725425e-38
-0.022446886436 -0.0466204564441 0.933 1.29742749592e-38
-0.0207646191617 -0.0467203931138 0.935 1.43471438802e-38
-0.018993519292 -0.0466204564441 0.933 1.29488049583e-38
-0.01726683572 -0.0466204564441 0.933 2.10858060264e-38
-0.0154901838131 -0.0464705514394 0.93 1.71317467353e-38
-0.0137690522784 -0.0464705514394 0.93 9.4762752598e-39
-0.0120479207436 -0.0464705514394 0.93 9.64925154224e-39
-0.0103045810599 -0.0463706147697 0.928 9.91823358506e-39
-0.00858715088327 -0.0463706147697 0.928 1.16656191389e-38
-0.00686972070662 -0.0463706147697 0.928 1.25814629736e-38
-0.00515229052996 -0.0463706147697 0.928 1.32243114468e-38
-0.00343486035331 -0.0463706147697 0.928 1.52446923622e-38
-0.00172113153479 -0.0464705514394 0.93 1.55201988507e-38
0.0 -0.0464705514394 0.93 1.70014049587e-38
0.00172113153479 -0.0464705514394 0.93 1.49752843247e-38
0.00344226306959 -0.0464705514394 0.93 1.75534941328e-38
0.00518005071601 -0.0466204564441 0.933 1.83811052097e-38
0.00690673428801 -0.0466204564441 0.933 1.99602802972e-38
0.00863341786002 -0.0466204564441 0.933 1.73986100149e-38
0.010360101432 -0.0466204564441 0.933 2.15431099711e-38
0.012112694511 -0.0467203931138 0.935 1.45430832406e-38
0.0138430794411 -0.0467203931138 0.935 9.73456259275e-39
0.0155734643713 -0.0467203931138 0.935 1.45218745884e-38
0.0173038493014 -0.0467203931138 0.935 2.04432083857e-38
0.0190953066409 -0.0468702981185 0.938 1.84095599764e-38
0.0208312436082 -0.0468702981185 0.938 1.34998725859e-38
0.0225671805756 -0.0468702981185 0.938 2.14170687795e-38
0.0243549365569 -0.0469702347883 0.94 2.13295969267e-38
0.0260945748824 -0.0469702347883 0.94 1.94042366588e-38
0.0279230458032 -0.0471201397929 0.943 2.08829148243e-38
0.0296682361659 -0.0471201397929 0.943 2.34723840656e-38
-0.0423731479792 -0.0459042436441 0.954 2.24704584662e-38
-0.0406076001467 -0.0459042436441 0.954 2.34871215216e-38
-0.0387199074957 -0.0457598906767 0.951 1.38080321312e-38
-0.0369599117004 -0.0457598906767 0.951 6.98559615892e-39
-0.035088875161 -0.0456155377093 0.948 1.01047800418e-38
-0.0331586168913 -0.0453749494302 0.943 1.10224119334e-38
-0.0313134898588 -0.0452305964628 0.94 1.5533529403e-38
-0.029510928445 -0.0451343611511 0.938 1.30535548211e-38
-0.0276861588823 -0.0449900081837 0.935 1.42599901223e-38
-0.0259557739521 -0.0449900081837 0.935 9.93724640263e-39
-0.024225389022 -0.0449900081837 0.935 6.43924670327e-39
-0.0224950040919 -0.0449900081837 0.935 1.24258459766e-38
-0.0207646191617 -0.0449900081837 0.935 1.13119089857e-38
-0.0190342342316 -0.0449900081837 0.935 2.01663118092e-38
-0.01726683572 -0.0448937728721 0.933 1.59336113249e-38
-0.015540152148 -0.0448937728721 0.933 1.04028810667e-38
-0.0137690522784 -0.0447494199046 0.93 7.90257504541e-39
-0.0120479207436 -0.0447494199046 0.93 8.72437213501e-39
-0.0103267892088 -0.0447494199046 0.93 1.11120950351e-38
-0.00860565767397 -0.0447494199046 0.93 1.21240791549e-38
-0.00688452613918 -0.0447494199046 0.93 1.25825391709e-38
-0.00516339460438 -0.0447494199046 0.93 1.31324759506e-38
-0.00344226306959 -0.0447494199046 0.93 1.41426664083e-38
-0.00172113153479 -0.0447494199046 0.93 1.61662815207e-38
0.0 -0.0447494199046 0.93 1.50746532014e-38
0.00172113153479 -0.0447494199046 0.93 1.74663305657e-38
0.00345336714401 -0.0448937728721 0.933 1.41509172537e-38
0.00518005071601 -0.0448937728721 0.933 1.72887944581e-38
0.00690673428801 -0.0448937728721 0.933 1.35156021611e-38
0.00863341786002 -0.0448937728721 0.933 2.10929148135e-38
0.0103823095809 -0.0449900081837 0.935 1.84144813366e-38
0.012112694511 -0.0449900081837 0.935 2.00715770265e-38
0.0138430794411 -0.0449900081837 0.935 1.92443569118e-38
0.0155734643713 -0.0449900081837 0.935 2.0632682155e-38
0.0173038493014 -0.0449900081837 0.935 1.78570462088e-38
0.0190953066409 -0.0451343611511 0.938 1.86735814226e-38
0.0208312436082 -0.0451343611511 0.938 1.68977312931e-38
0.0225671805756 -0.0451343611511 0.938 1.96743327339e-38
0.0243549365569 -0.0452305964628 0.94 2.10497688338e-38
0.0260945748824 -0.0452305964628 0.94 2.0234328034e-38
0.0279230458032 -0.0453749494302 0.943 1.55291671609e-38
0.0297626207984 -0.0455193023976 0.946 2.34734966966e-38
-0.0424619805745 -0.0442312297651 0.956 2.21953037037e-38
-0.0406927313839 -0.0442312297651 0.956 2.34896480627e-38
-0.0388420523143 -0.0441386958117 0.954 9.84397597684e-39
-0.0369599117004 -0.0439998948814 0.951 1.44526854767e-38
-0.035088875161 -0.0438610939512 0.948 6.88766221185e-39
-0.0332641055983 -0.0437685599977 0.946 1.76554540104e-38
-0.0314134265286 -0.0436297590675 0.943 1.71174184585e-38
-0.0295738515333 -0.0434909581373 0.94 1.49795891136e-38
-0.0277749914776 -0.0433984241838 0.938 1.09284240428e-38
-0.0259557739521 -0.0432596232536 0.935 1.12240433681e-38
-0.024225389022 -0.0432596232536 0.935 6.43781177364e-39
-0.0224950040919 -0.0432596232536 0.935 2.8469003809e-39
-0.0208312436082 -0.0433984241838 0.938 1.92554159593e-38
-0.0190342342316 -0.0432596232536 0.935 1.67651544454e-38
-0.0173038493014 -0.0432596232536 0.935 9.57456793928e-39
-0.015540152148 -0.0431670893001 0.933 9.5667052536e-39
-0.013813468576 -0.0431670893001 0.933 9.91823358506e-39
-0.012086785004 -0.0431670893001 0.933 1.1020259539e-38
-0.0103267892088 -0.0430282883699 0.93 1.12957660274e-38
-0.00860565767397 -0.0430282883699 0.93 1.16631080121e-38
-0.00690673428801 -0.0431670893001 0.933 1.2765133966e-38
-0.00518005071601 -0.0431670893001 0.933 1.23059564852e-38
-0.00345336714401 -0.0431670893001 0.933 1.76428493307e-38
-0.001726683572 -0.0431670893001 0.933 1.75563639921e-38
0.0 -0.0431670893001 0.933 1.36024154036e-38
0.001726683572 -0.0431670893001 0.933 1.71029416441e-38
0.00346076986028 -0.0432596232536 0.935 1.42578195109e-38
0.00519115479043 -0.0432596232536 0.935 1.34367160641e-38
0.00692153972057 -0.0432596232536 0.935 1.19601748787e-38
0.00865192465071 -0.0432596232536 0.935 1.47360098093e-38
0.0103823095809 -0.0432596232536 0.935 2.07237006941e-38
0.012112694511 -0.0432596232536 0.935 2.00704629942e-38
0.0138430794411 -0.0432596232536 0.935 2.13590536217e-38
0.0156234327062 -0.0433984241838 0.938 2.17296312045e-38
0.0173593696735 -0.0433984241838 0.938 1.68342650843e-38
0.0190953066409 -0.0433984241838 0.938 1.59858335148e-38
0.0208312436082 -0.0433984241838 0.938 2.24395023819e-38
0.0225671805756 -0.0433984241838 0.938 1.71861647599e-38
0.0243549365569 -0.0434909581373 0.94 2.16065019111e-38
0.0261778554405 -0.0436297590675 0.943 1.57114116314e-38
0.0280118783985 -0.0437685599977 0.946 1.81934895623e-38
0.0297626207984 -0.0437685599977 0.946 2.34796063579e-38
-0.0406927313839 -0.0424619805745 0.956 2.34871425411e-38
-0.0388420523143 -0.0423731479792 0.954 1.20530753617e-38
-0.0370765044818 -0.0423731479792 0.954 1.30571729737e-38
-0.0351999159051 -0.0422398990862 0.951 7.44333871009e-39
-0.0332641055983 -0.0420178175978 0.946 1.33229824768e-38
-0.0314134265286 -0.0418845687048 0.943 1.29488049583e-38
-0.0295738515333 -0.0417513198118 0.94 1.78405038804e-38
-0.0277749914776 -0.0416624872164 0.938 1.41631141555e-38
-0.0260390545103 -0.0416624872164 0.938 1.2780200727e-38
-0.0243031175429 -0.0416624872164 0.938 7.62234618111e-39
-0.0225671805756 -0.0416624872164 0.938 1.61132409725e-38
-0.0208312436082 -0.0416624872164 0.938 1.84239316934e-38
-0.0190342342316 -0.0415292383234 0.935 8.46034508355e-39
-0.0173038493014 -0.0415292383234 0.935 1.28839304446e-38
-0.0155734643713 -0.0415292383234 0.935 1.15820555076e-38
-0.013813468576 -0.0414404057281 0.933 1.49842526348e-38
-0.012086785004 -0.0414404057281 0.933 1.36842063924e-38
-0.010360101432 -0.0414404057281 0.933 1.23059564852e-38
-0.00863341786002 -0.0414404057281 0.933 1.17549435082e-38
-0.00690673428801 -0.0414404057281 0.933 1.14794370197e-38
-0.00518005071601 -0.0414404057281 0.933 1.75592478643e-38
-0.00345336714401 -0.0414404057281 0.933 1.77443397733e-38
-0.001726683572 -0.0414404057281 0.933 1.90253774021e-38
0.0 -0.0414404057281 0.933 1.59065536529e-38
0.001726683572 -0.0414404057281 0.933 1.54606492712e-38
0.00346076986028 -0.0415292383234 0.935 1.28885379139e-38
0.00519115479043 -0.0415292383234 0.935 1.28028050726e-38
0.00692153972057 -0.0415292383234 0.935 6.90308770534e-39
0.00865192465071 -0.0415292383234 0.935 9.5598599106e-39
0.0103823095809 -0.0415292383234 0.935 1.74570203387e-38
0.012112694511 -0.0415292383234 0.935 1.60819737999e-38
0.0138874957388 -0.0416624872164 0.938 1.63467183161e-38
0.0156234327062 -0.0416624872164 0.938 1.65303893084e-38
0.0173593696735 -0.0416624872164 0.938 1.67140603008e-38
0.0190953066409 -0.0416624872164 0.938 1.79079217508e-38
0.0208756599059 -0.0417513198118 0.94 1.83671048368e-38
0.0226152982314 -0.0417513198118 0.94 2.12208617711e-38
0.0244326650778 -0.0418845687048 0.943 1.65303977162e-38
0.0262611359986 -0.0420178175978 0.946 1.81024149712e-38
0.0280711001288 -0.0421066501932 0.948 1.80112436905e-38
0.0298255438868 -0.0421066501932 0.948 2.34846314142e-38
-0.0406927313839 -0.0406927313839 0.956 2.3486771197e-38
-0.0389234821933 -0.0406927313839 0.956 1.23275000478e-38
-0.0370765044818 -0.0406076001467 0.954 1.61028881794e-38
-0.0351999159051 -0.0404799032909 0.951 7.4440561749e-39
-0.0334399201099 -0.0404799032909 0.951 1.37796348178e-38
-0.0314134265286 -0.0401393783421 0.943 1.25814629736e-38
-0.0295738515333 -0.0400116814863 0.94 1.64597344386e-38
-0.0278342132079 -0.0400116814863 0.94 1.79448711887e-38
-0.0260390545103 -0.0399265502491 0.938 9.27538511196e-39
-0.0243031175429 -0.0399265502491 0.938 1.6089923366e-38
-0.0225671805756 -0.0399265502491 0.938 2.00770252749e-38
-0.0208312436082 -0.0399265502491 0.938 6.98810728577e-39
-0.0190953066409 -0.0399265502491 0.938 1.43540186505e-38
-0.0173038493014 -0.0397988533933 0.935 1.10303040464e-38
-0.0155734643713 -0.0397988533933 0.935 1.71069241343e-38
-0.0138430794411 -0.0397988533933 0.935 1.73867480234e-38
-0.012112694511 -0.0397988533933 0.935 1.59044012585e-38
-0.010360101432 -0.0397137221561 0.933 1.49691858738e-38
-0.00863341786002 -0.0397137221561 0.933 1.17549435082e-38
-0.00690673428801 -0.0397137221561 0.933 1.57114298482e-38
-0.00519115479043 -0.0397988533933 0.935 2.17163679146e-38
-0.00345336714401 -0.0397137221561 0.933 1.27697974873e-38
-0.001726683572 -0.0397137221561 0.933 1.75405797662e-38
0.0 -0.0397137221561 0.933 1.7279422574e-38
0.001726683572 -0.0397137221561 0.933 1.38775631597e-38
0.00346076986028 -0.0397988533933 0.935 1.34201793409e-38
0.00519115479043 -0.0397988533933 0.935 1.08416108003e-38
0.00692153972057 -0.0397988533933 0.935 1.03774110659e-38
0.00865192465071 -0.0397988533933 0.935 1.74634621078e-38
0.0103823095809 -0.0397988533933 0.935 2.16972514009e-38
0.012112694511 -0.0397988533933 0.935 1.42416765526e-38
0.0138874957388 -0.0399265502491 0.938 1.73569087739e-38
0.0156234327062 -0.0399265502491 0.938 1.78160862547e-38
0.0173593696735 -0.0399265502491 0.938 1.7999757247e-38
0.0191360215804 -0.0400116814863 0.94 1.9193618697e-38
0.0208756599059 -0.0400116814863 0.94 1.65303893084e-38
0.0226874747151 -0.0401393783421 0.943 1.69895667892e-38
0.0245103935987 -0.0402670751979 0.946 1.56120343469e-38
0.0262611359986 -0.0402670751979 0.946 1.69042515348e-38
0.0280711001288 -0.0403522064351 0.948 1.86541089792e-38
0.0299199285194 -0.0404799032909 0.951 2.34842684779e-38
-0.0408204282397 -0.0390456270119 0.959 2.2748487292e-38
-0.0389234821933 -0.0389234821933 0.956 1.13129893869e-38
-0.0371542330027 -0.0389234821933 0.956 1.64604561073e-38
-0.0353109566493 -0.0388420523143 0.954 1.68457417187e-38
-0.0334399201099 -0.0387199074957 0.951 1.52777545982e-38
-0.0315133631984 -0.038516332798 0.946 1.09287827752e-38
-0.0296682361659 -0.0383941879794 0.943 1.2861997321e-38
-0.0278342132079 -0.0382720431608 0.94 1.33312221118e-38
-0.0260945748824 -0.0382720431608 0.94 1.54585333105e-38
-0.0243549365569 -0.0382720431608 0.94 1.75895397332e-38
-0.0226152982314 -0.0382720431608 0.94 1.74980503578e-38
-0.0208756599059 -0.0382720431608 0.94 1.19630083042e-38
-0.0190953066409 -0.0381906132817 0.938 9.84325851203e-39
-0.0173593696735 -0.0381906132817 0.938 1.31450315848e-38
-0.0156234327062 -0.0381906132817 0.938 1.47937657268e-38
-0.0138430794411 -0.0380684684631 0.935 1.67352255128e-38
-0.012112694511 -0.0380684684631 0.935 1.47055175547e-38
-0.0103823095809 -0.0380684684631 0.935 1.61630473238e-38
-0.00865192465071 -0.0380684684631 0.935 1.3958995416e-38
-0.00692153972057 -0.0380684684631 0.935 1.80076703794e-38
-0.00519115479043 -0.0380684684631 0.935 1.64385538123e-38
-0.00346076986028 -0.0380684684631 0.935 2.2830105921e-38
-0.00173038493014 -0.0380684684631 0.935 1.70218681201e-38
0.0 -0.0380684684631 0.935 1.51668474299e-38
0.00173038493014 -0.0380684684631 0.935 2.13324163392e-38
0.00346076986028 -0.0380684684631 0.935 1.73780978079e-38
0.00519115479043 -0.0380684684631 0.935 2.00506598443e-38
0.00692153972057 -0.0380684684631 0.935 2.00571590666e-38
0.00865192465071 -0.0380684684631 0.935 1.64629476159e-38
0.0103823095809 -0.0380684684631 0.935 1.71732377815e-38
0.0121515587715 -0.0381906132817 0.938 1.744874427e-38
0.0138874957388 -0.0381906132817 0.938 1.78160862547e-38
0.0156234327062 -0.0381906132817 0.938 1.78160862547e-38
0.0173963832549 -0.0382720431608 0.94 1.79079217508e-38
0.0191360215804 -0.0382720431608 0.94 1.75405797662e-38
0.0209422843524 -0.0383941879794 0.943 1.58875408353e-38
0.0227596511988 -0.038516332798 0.946 1.59800937963e-38
0.0245103935987 -0.038516332798 0.946 1.76417773374e-38
0.0263166563707 -0.0385977626771 0.948 1.78290454628e-38
0.0281599327241 -0.0387199074957 0.951 1.80159002053e-38
0.0300143131519 -0.0388420523143 0.954 2.34853432738e-38
-0.0408204282397 -0.0372708257841 0.959 2.34867655918e-38
-0.0390456270119 -0.0372708257841 0.959 1.11293239997e-38
-0.0371542330027 -0.0371542330027 0.956 1.44292936014e-38
-0.0353109566493 -0.0370765044818 0.954 1.28666552371e-38
-0.0335454088169 -0.0370765044818 0.954 1.97880929458e-38
-0.0315133631984 -0.0367655903981 0.946 1.85067918729e-38
-0.0296682361659 -0.0366489976167 0.943 1.70356274698e-38
-0.0279230458032 -0.0366489976167 0.943 1.58374346061e-38
-0.0260945748824 -0.0365324048353 0.94 1.54693751567e-38
-0.0243549365569 -0.0365324048353 0.94 1.76838485212e-38
-0.0226152982314 -0.0365324048353 0.94 1.17840442734e-38
-0.0208756599059 -0.0365324048353 0.94 9.8368013287e-39
-0.0190953066409 -0.0364546763144 0.938 1.23181589922e-38
-0.0173593696735 -0.0364546763144 0.938 1.66451976916e-38
-0.0156234327062 -0.0364546763144 0.938 1.43320771192e-38
-0.0138874957388 -0.0364546763144 0.938 1.51528568661e-38
-0.012112694511 -0.036338083533 0.935 1.47855148814e-38
-0.0103823095809 -0.036338083533 0.935 1.46018438891e-38
-0.00865192465071 -0.036338083533 0.935 1.46936793853e-38
-0.00692153972057 -0.036338083533 0.935 1.52446923622e-38
-0.00519115479043 -0.036338083533 0.935 2.15986238111e-38
-0.00346076986028 -0.036338083533 0.935 2.1266797736e-38
-0.00173038493014 -0.036338083533 0.935 2.05275301195e-38
0.0 -0.036338083533 0.935 1.3319734267e-38
0.00173038493014 -0.036338083533 0.935 1.65303893084e-38
0.00346076986028 -0.036338083533 0.935 1.77260444205e-38
0.00519115479043 -0.036338083533 0.935 1.91240246101e-38
0.00692153972057 -0.036338083533 0.935 1.78394094663e-38
0.00865192465071 -0.036338083533 0.935 1.72865972221e-38
0.0103823095809 -0.036338083533 0.935 1.60712118276e-38
0.0121515587715 -0.0364546763144 0.938 1.71732377815e-38
0.0138874957388 -0.0364546763144 0.938 1.78160862547e-38
0.0156234327062 -0.0364546763144 0.938 1.80915927431e-38
0.0173963832549 -0.0365324048353 0.94 1.64385538123e-38
0.0191970939897 -0.0366489976167 0.943 1.67140603008e-38
0.0210089087989 -0.0367655903981 0.946 1.625488282e-38
0.0227596511988 -0.0367655903981 0.946 1.83724858229e-38
0.0245622126127 -0.036843318919 0.948 1.73597786331e-38
0.0263999369289 -0.0369599117004 0.951 1.7823642056e-38
0.0282487653195 -0.0370765044818 0.954 1.9576042857e-38
0.0300143131519 -0.0370765044818 0.954 2.34860943698e-38
-0.0409481250955 -0.0356070653005 0.962 2.34878403877e-38
-0.0390456270119 -0.0354960245563 0.959 1.26051757463e-38
-0.0371542330027 -0.0353849838121 0.956 1.38789980893e-38
-0.0353849838121 -0.0353849838121 0.956 1.33261970555e-38
-0.0335454088169 -0.0353109566493 0.954 1.37846514663e-38
-0.0316799243146 -0.0351999159051 0.951 1.7661147486e-38
-0.0297626207984 -0.0350148479982 0.946 1.68490838156e-38
-0.0279230458032 -0.034903807254 0.943 1.51916910504e-38
-0.0261778554405 -0.034903807254 0.943 1.47314359711e-38
-0.0244326650778 -0.034903807254 0.943 1.85110854514e-38
-0.0226874747151 -0.034903807254 0.943 7.45194828785e-39
-0.0209422843524 -0.034903807254 0.943 6.97949770801e-39
-0.0191360215804 -0.0347927665098 0.94 1.32275624592e-38
-0.0173963832549 -0.0347927665098 0.94 1.46018438891e-38
-0.0156234327062 -0.034718739347 0.938 1.49695446062e-38
-0.0138874957388 -0.034718739347 0.938 1.48773503776e-38
-0.0121515587715 -0.034718739347 0.938 1.49691858738e-38
-0.0104156218041 -0.034718739347 0.938 1.51528568661e-38
-0.00867968483676 -0.034718739347 0.938 1.42345019045e-38
-0.00694374786941 -0.034718739347 0.938 1.55201988507e-38
-0.00520781090205 -0.034718739347 0.938 1.625488282e-38
-0.00346076986028 -0.0346076986028 0.935 1.59793763315e-38
-0.00173038493014 -0.0346076986028 0.935 1.51528568661e-38
0.0 -0.0346076986028 0.935 1.58875408353e-38
0.00173038493014 -0.0346076986028 0.935 1.5703869843e-38
0.0034718739347 -0.034718739347 0.938 1.51528568661e-38
0.00520781090205 -0.034718739347 0.938 1.51528568661e-38
0.00692153972057 -0.0346076986028 0.935 1.51528568661e-38
0.00865192465071 -0.0346076986028 0.935 1.56120343469e-38
0.0103823095809 -0.0346076986028 0.935 1.48773503776e-38
0.0121515587715 -0.034718739347 0.938 1.68977312931e-38
0.0138874957388 -0.034718739347 0.938 1.744874427e-38
0.0156234327062 -0.034718739347 0.938 1.80915927431e-38
0.017451903627 -0.034903807254 0.943 1.64385538123e-38
0.0191970939897 -0.034903807254 0.943 1.83688956962e-38
0.0210089087989 -0.0350148479982 0.946 1.75405797662e-38
0.0228077688546 -0.035088875161 0.948 1.625488282e-38
0.0246399411336 -0.0351999159051 0.951 1.78211267252e-38
0.026483217487 -0.0353109566493 0.954 1.76378242744e-38
0.0283079870497 -0.0353849838121 0.956 2.16968982737e-38
0.0300772362403 -0.0353849838121 0.956 2.34871551528e-38
-0.0409481250955 -0.0338267120354 0.962 2.33956559682e-38
-0.0391677718305 -0.0338267120354 0.962 1.09452844659e-38
-0.0372708257841 -0.0337212233285 0.959 1.53512386897e-38
-0.0353849838121 -0.0336157346215 0.956 1.24060428267e-38
-0.0335454088169 -0.0335454088169 0.954 1.30420753841e-38
-0.0317798609844 -0.0335454088169 0.954 1.37853689311e-38
-0.0297626207984 -0.0332641055983 0.946 1.79388133755e-38
-0.0280118783985 -0.0332641055983 0.946 1.62029955404e-38
-0.0261778554405 -0.0331586168913 0.943 1.52856859475e-38
-0.0244326650778 -0.0331586168913 0.943 1.6577520581e-38
-0.0226874747151 -0.0331586168913 0.943 6.52032022722e-39
-0.0209422843524 -0.0331586168913 0.943 1.02880866965e-38
-0.0191360215804 -0.0330531281843 0.94 1.65562264495e-38
-0.0173963832549 -0.0330531281843 0.94 1.64590015595e-38
-0.0156567449294 -0.0330531281843 0.94 1.70110907336e-38
-0.0138874957388 -0.0329828023797 0.938 1.93277846172e-38
-0.0121515587715 -0.0329828023797 0.938 2.13561977755e-38
-0.0104156218041 -0.0329828023797 0.938 1.93214115118e-38
-0.00867968483676 -0.0329828023797 0.938 1.55367005414e-38
-0.00694374786941 -0.0329828023797 0.938 1.79219123147e-38
-0.00520781090205 -0.0329828023797 0.938 1.59793763315e-38
-0.0034718739347 -0.0329828023797 0.938 1.625488282e-38
-0.00173593696735 -0.0329828023797 0.938 1.58875408353e-38
0.0 -0.0329828023797 0.938 1.51528568661e-38
0.00173593696735 -0.0329828023797 0.938 1.46936793853e-38
0.0034718739347 -0.0329828023797 0.938 1.47855148814e-38
0.00520781090205 -0.0329828023797 0.938 1.4510008393e-38
0.00694374786941 -0.0329828023797 0.938 1.37753244237e-38
0.00867968483676 -0.0329828023797 0.938 1.46018438891e-38
0.0104156218041 -0.0329828023797 0.938 1.43263374006e-38
0.0121515587715 -0.0329828023797 0.938 1.69895667892e-38
0.0138874957388 -0.0329828023797 0.938 1.744874427e-38
0.0157067132643 -0.0331586168913 0.943 1.82752637354e-38
0.0175074239991 -0.0332641055983 0.946 1.7999757247e-38
0.019258166399 -0.0332641055983 0.946 1.66222346137e-38
0.0210533250966 -0.0333344314029 0.948 1.71732377815e-38
0.0228799453383 -0.0334399201099 0.951 1.50610213699e-38
0.0246399411336 -0.0334399201099 0.951 1.66315854783e-38
0.0265387378591 -0.0336157346215 0.956 1.92072701467e-38
0.0283079870497 -0.0336157346215 0.956 1.82892753188e-38
-0.0410332563327 -0.0321129832169 0.964 2.26580769163e-38
-0.0392492017096 -0.0321129832169 0.964 1.18658100388e-38
-0.0372708257841 -0.0319464221007 0.959 1.35112973722e-38
-0.0353849838121 -0.0318464854309 0.956 1.33226293496e-38
-0.0336157346215 -0.0318464854309 0.956 1.35977518823e-38
-0.0317798609844 -0.0317798609844 0.954 1.47037238927e-38
-0.0299199285194 -0.0316799243146 0.951 1.50768055958e-38
-0.0280118783985 -0.0315133631984 0.946 1.71133476865e-38
-0.0261778554405 -0.0314134265286 0.943 1.62044150558e-38
-0.0244326650778 -0.0314134265286 0.943 1.44555721515e-38
-0.0226874747151 -0.0314134265286 0.943 6.15297824259e-39
-0.0210089087989 -0.0315133631984 0.946 1.77587745488e-38
-0.019258166399 -0.0315133631984 0.946 1.57319308448e-38
-0.017451903627 -0.0314134265286 0.943 1.73831200616e-38
-0.0157067132643 -0.0314134265286 0.943 1.28623504482e-38
-0.0139615229016 -0.0314134265286 0.943 1.39945393516e-38
-0.0121774682784 -0.0313134898588 0.94 1.28817219982e-38
-0.0104378299529 -0.0313134898588 0.94 1.58929218214e-38
-0.00867968483676 -0.0312468654123 0.938 1.75534941328e-38
-0.00694374786941 -0.0312468654123 0.938 1.61662759155e-38
-0.00520781090205 -0.0312468654123 0.938 2.04104782575e-38
-0.0034718739347 -0.0312468654123 0.938 1.98719816784e-38
-0.00173593696735 -0.0312468654123 0.938 1.8395830054e-38
0.0 -0.0312468654123 0.938 1.68220387552e-38
0.00173593696735 -0.0312468654123 0.938 1.63467183161e-38
0.0034718739347 -0.0312468654123 0.938 1.32243114468e-38
0.00520781090205 -0.0312468654123 0.938 1.32243114468e-38
0.00694374786941 -0.0312468654123 0.938 1.33161469429e-38
0.00867968483676 -0.0312468654123 0.938 1.44185316292e-38
0.0104156218041 -0.0312468654123 0.938 1.30406404544e-38
0.0121774682784 -0.0313134898588 0.94 1.71732377815e-38
0.0139171066039 -0.0313134898588 0.94 1.68977312931e-38
0.0157566815992 -0.0315133631984 0.946 1.68977312931e-38
0.0175074239991 -0.0315133631984 0.946 1.64385538123e-38
0.019258166399 -0.0315133631984 0.946 1.60712118276e-38
0.0210533250966 -0.0315799876449 0.948 1.53368865908e-38
0.0228799453383 -0.0316799243146 0.951 1.53401151825e-38
0.0247176696545 -0.0317798609844 0.954 1.67248559041e-38
0.0265387378591 -0.0318464854309 0.956 1.69999798381e-38
0.0283079870497 -0.0318464854309 0.956 1.92141196936e-38
-0.0410332563327 -0.0303289285938 0.964 2.2105620602e-38
-0.0392492017096 -0.0303289285938 0.964 1.16821250335e-38
-0.0372708257841 -0.0301716208728 0.959 1.46136820585e-38
-0.0353849838121 -0.0300772362403 0.956 1.28612910666e-38
-0.0336157346215 -0.0300772362403 0.956 1.43335120488e-38
-0.0317798609844 -0.0300143131519 0.954 1.47040826251e-38
-0.0300143131519 -0.0300143131519 0.954 1.64640238132e-38
-0.0280118783985 -0.0297626207984 0.946 1.61881585923e-38
-0.0262611359986 -0.0297626207984 0.946 1.11268030638e-38
-0.0245103935987 -0.0297626207984 0.946 9.93545274059e-39
-0.0227596511988 -0.0297626207984 0.946 6.70399121953e-39
-0.0210089087989 -0.0297626207984 0.946 1.28677314343e-38
-0.019258166399 -0.0297626207984 0.946 1.39604303456e-38
-0.017451903627 -0.0296682361659 0.943 1.59793763315e-38
-0.0157067132643 -0.0296682361659 0.943 8.99987862348e-39
-0.0139615229016 -0.0296682361659 0.943 4.31913817868e-39
-0.0122163325389 -0.0296682361659 0.943 1.15917314735e-38
-0.0104711421762 -0.0296682361659 0.943 1.35098652452e-38
-0.0087259518135 -0.0296682361659 0.943 1.35934470934e-38
-0.0069807614508 -0.0296682361659 0.943 1.46018438891e-38
-0.0052355710881 -0.0296682361659 0.943 2.02174942356e-38
-0.0034903807254 -0.0296682361659 0.943 1.64511094465e-38
-0.00173963832549 -0.0295738515333 0.94 1.69066996032e-38
0.0 -0.0295738515333 0.94 1.65303893084e-38
0.00173963832549 -0.0295738515333 0.94 1.94727223187e-38
0.00347927665098 -0.0295738515333 0.94 1.56120343469e-38
0.0052355710881 -0.0296682361659 0.943 1.34080020572e-38
0.0069807614508 -0.0296682361659 0.943 1.37764006209e-38
0.0087259518135 -0.0296682361659 0.943 1.3685641322e-38
0.0104711421762 -0.0296682361659 0.943 1.28569694621e-38
0.0122551967994 -0.0297626207984 0.946 1.80033515775e-38
0.0140059391993 -0.0297626207984 0.946 1.55201988507e-38
0.0157566815992 -0.0297626207984 0.946 1.34079824391e-38
0.0175074239991 -0.0297626207984 0.946 1.5703869843e-38
0.0192988813385 -0.0298255438868 0.948 1.60712118276e-38
0.0210533250966 -0.0298255438868 0.948 1.66233010018e-38
0.0228799453383 -0.0299199285194 0.951 1.61669933803e-38
0.0247176696545 -0.0300143131519 0.954 1.55288126324e-38
0.0265387378591 -0.0300772362403 0.956 1.68155843745e-38
0.0283079870497 -0.0300772362403 0.956 2.0967268788e-38
-0.0391677718305 -0.0284856522404 0.962 1.03921190945e-38
-0.0372708257841 -0.028396819645 0.959 1.29549034092e-38
-0.0354960245563 -0.028396819645 0.959 1.23978031917e-38
-0.0337212233285 -0.028396819645 0.959 1.41498410565e-38
-0.0318464854309 -0.0283079870497 0.956 1.39658113317e-38
-0.0300143131519 -0.0282487653195 0.954 1.52547368696e-38
-0.0281599327241 -0.0281599327241 0.951 1.70110963388e-38
-0.0262611359986 -0.0280118783985 0.946 6.3366492349e-39
-0.0245103935987 -0.0280118783985 0.946 9.74970922785e-39
-0.0227596511988 -0.0280118783985 0.946 8.44994184376e-39
-0.0210089087989 -0.0280118783985 0.946 1.1389753918e-38
-0.019258166399 -0.0280118783985 0.946 1.15719899807e-38
-0.017451903627 -0.0279230458032 0.943 1.4701218371e-38
-0.0157067132643 -0.0279230458032 0.943 9.55125033284e-39
-0.0139615229016 -0.0279230458032 0.943 7.26684236591e-39
-0.0122163325389 -0.0279230458032 0.943 1.34403258089e-38
-0.0104711421762 -0.0279230458032 0.943 1.41793734216e-38
-0.0087259518135 -0.0279230458032 0.943 7.0781491199e-39
-0.0069807614508 -0.0279230458032 0.943 1.27726729517e-38
-0.0052355710881 -0.0279230458032 0.943 2.06110741326e-38
-0.0034903807254 -0.0279230458032 0.943 1.92230655829e-38
-0.0017451903627 -0.0279230458032 0.943 1.58018037901e-38
0.0 -0.0279230458032 0.943 1.76324152623e-38
0.0017451903627 -0.0279230458032 0.943 1.79122265397e-38
0.0034903807254 -0.0279230458032 0.943 1.79208361175e-38
0.00525222719973 -0.0280118783985 0.946 1.60712118276e-38
0.00700296959964 -0.0280118783985 0.946 1.4510008393e-38
0.00875371199954 -0.0280118783985 0.946 1.41426664083e-38
0.0105044543995 -0.0280118783985 0.946 1.23059564852e-38
0.0122551967994 -0.0280118783985 0.946 1.71753915773e-38
0.0140059391993 -0.0280118783985 0.946 1.54283633545e-38
0.0157566815992 -0.0280118783985 0.946 1.48773503776e-38
0.0175444375805 -0.0280711001288 0.948 1.63513818374e-38
0.0192988813385 -0.0280711001288 0.948 1.56120343469e-38
0.0211199495431 -0.0281599327241 0.951 1.61630473238e-38
0.0229521218221 -0.0282487653195 0.954 1.65336179001e-38
0.0247176696545 -0.0282487653195 0.954 1.71825760345e-38
0.0265387378591 -0.0283079870497 0.956 1.70921782706e-38
0.0283079870497 -0.0283079870497 0.956 2.06874378925e-38
-0.0391677718305 -0.0267052989754 0.962 1.11296925412e-38
-0.0373874185655 -0.0267052989754 0.962 1.36049265304e-38
-0.0354960245563 -0.0266220184172 0.959 1.33297871822e-38
-0.0337212233285 -0.0266220184172 0.959 1.20358309828e-38
-0.0318464854309 -0.0265387378591 0.956 1.41437426056e-38
-0.0300772362403 -0.0265387378591 0.956 1.43295659923e-38
-0.0281599327241 -0.0263999369289 0.951 1.5255095602e-38
-0.0262611359986 -0.0262611359986 0.946 1.6286189229e-38
-0.0245103935987 -0.0262611359986 0.946 4.41276733687e-39
-0.0227596511988 -0.0262611359986 0.946 8.99987862348e-39
-0.0210089087989 -0.0262611359986 0.946 1.04735653639e-38
-0.019258166399 -0.0262611359986 0.946 1.0200568601e-38
-0.0175074239991 -0.0262611359986 0.946 1.34413795854e-38
-0.0157566815992 -0.0262611359986 0.946 7.35580800281e-39
-0.0140059391993 -0.0262611359986 0.946 1.16958017065e-38
-0.0122163325389 -0.0261778554405 0.943 1.31661967968e-38
-0.0104711421762 -0.0261778554405 0.943 5.79568076535e-39
-0.0087259518135 -0.0261778554405 0.943 9.94516093635e-39
-0.0069807614508 -0.0261778554405 0.943 9.36722060812e-39
-0.0052355710881 -0.0261778554405 0.943 2.25489872322e-38
-0.0034903807254 -0.0261778554405 0.943 1.60863458511e-38
-0.0017451903627 -0.0261778554405 0.943 1.59804525287e-38
0.0 -0.0261778554405 0.943 2.15096749898e-38
0.00175074239991 -0.0262611359986 0.946 1.96868757565e-38
0.00350148479982 -0.0262611359986 0.946 1.95968899743e-38
0.00525222719973 -0.0262611359986 0.946 2.00564556147e-38
0.00700296959964 -0.0262611359986 0.946 1.69095694625e-38
0.00875371199954 -0.0262611359986 0.946 1.33161469429e-38
0.0105044543995 -0.0262611359986 0.946 1.1020259539e-38
0.0122551967994 -0.0262611359986 0.946 1.77328939674e-38
0.0140355500644 -0.0263166563707 0.948 1.47855148814e-38
0.0157899938224 -0.0263166563707 0.948 1.48773503776e-38
0.0175444375805 -0.0263166563707 0.948 1.57957053392e-38
0.0193599537478 -0.0263999369289 0.951 1.53365278584e-38
0.0211865739896 -0.026483217487 0.954 1.56120343469e-38
0.0230002394779 -0.0265387378591 0.956 1.77278408852e-38
0.0247694886685 -0.0265387378591 0.956 1.70875091441e-38
0.0265387378591 -0.0265387378591 0.956 1.83789486114e-38
0.028396819645 -0.0266220184172 0.959 2.19799731752e-38
-0.0392492017096 -0.0249767647243 0.964 8.73585157203e-39
-0.0373874185655 -0.0249249457103 0.962 1.47073238284e-38
-0.0354960245563 -0.0248472171894 0.959 1.12997120839e-38
-0.0337212233285 -0.0248472171894 0.959 1.3136064676e-38
-0.0318464854309 -0.0247694886685 0.956 1.37760418885e-38
-0.0300772362403 -0.0247694886685 0.956 1.46054312132e-38
-0.0282487653195 -0.0247176696545 0.954 1.53419088445e-38
-0.026483217487 -0.0247176696545 0.954 1.44401284411e-38
-0.0245103935987 -0.0245103935987 0.946 5.87747175411e-39
-0.0227596511988 -0.0245103935987 0.946 1.14848782617e-38
-0.0210533250966 -0.0245622126127 0.948 1.40691262649e-38
-0.0192988813385 -0.0245622126127 0.948 1.1020259539e-38
-0.0175074239991 -0.0245103935987 0.946 1.26062155097e-38
-0.0157566815992 -0.0245103935987 0.946 7.82180139933e-39
-0.0140059391993 -0.0245103935987 0.946 9.30193131007e-39
-0.0122551967994 -0.0245103935987 0.946 7.08209517637e-39
-0.0105044543995 -0.0245103935987 0.946 8.83306805429e-39
-0.00875371199954 -0.0245103935987 0.946 1.25233721458e-38
-0.00700296959964 -0.0245103935987 0.946 1.03892492353e-38
-0.00525222719973 -0.0245103935987 0.946 1.49691858738e-38
-0.00350148479982 -0.0245103935987 0.946 1.60712118276e-38
-0.00175074239991 -0.0245103935987 0.946 1.86451462742e-38
0.0 -0.0245103935987 0.946 2.08668068985e-38
0.00175074239991 -0.0245103935987 0.946 1.82117680994e-38
0.00350148479982 -0.0245103935987 0.946 1.95028460317e-38
0.00525222719973 -0.0245103935987 0.946 1.97776350554e-38
0.00700296959964 -0.0245103935987 0.946 1.68152228395e-38
0.00875371199954 -0.0245103935987 0.946 1.51528568661e-38
0.0105044543995 -0.0245103935987 0.946 8.44886564654e-39
0.0122811063063 -0.0245622126127 0.948 1.72805548231e-38
0.0140355500644 -0.0245622126127 0.948 1.46018438891e-38
0.0157899938224 -0.0245622126127 0.948 1.46018438891e-38
0.0175999579526 -0.0246399411336 0.951 1.51528568661e-38
0.0193599537478 -0.0246399411336 0.951 1.50610213699e-38
0.0211865739896 -0.0247176696545 0.954 1.65350528297e-38
0.0230002394779 -0.0247694886685 0.956 1.61630473238e-38
0.0247694886685 -0.0247694886685 0.956 1.87434557693e-38
0.0265387378591 -0.0247694886685 0.956 1.84736651772e-38
0.028396819645 -0.0248472171894 0.959 2.18863468196e-38
-0.0392492017096 -0.0231927101011 0.964 1.03935568268e-38
-0.0373874185655 -0.0231445924453 0.962 1.33240390559e-38
-0.0356070653005 -0.0231445924453 0.962 1.42466988063e-38
-0.0337212233285 -0.0230724159616 0.959 1.37785530154e-38
-0.0319464221007 -0.0230724159616 0.959 1.41501997889e-38
-0.0300772362403 -0.0230002394779 0.956 1.32257463764e-38
-0.0283079870497 -0.0230002394779 0.956 1.85823793134e-38
-0.026483217487 -0.0229521218221 0.954 9.83933207373e-39
-0.0245622126127 -0.0228077688546 0.948 8.35703015038e-39
-0.0228077688546 -0.0228077688546 0.948 1.26826479332e-38
-0.0210533250966 -0.0228077688546 0.948 1.32311273625e-38
-0.0192988813385 -0.0228077688546 0.948 1.93095355073e-38
-0.0175444375805 -0.0228077688546 0.948 1.44429254329e-38
-0.0157566815992 -0.0227596511988 0.946 1.21513428178e-38
-0.0140059391993 -0.0227596511988 0.946 9.66891456229e-39
-0.0122551967994 -0.0227596511988 0.946 6.62542882243e-39
-0.0105044543995 -0.0227596511988 0.946 1.41789656438e-38
-0.00875371199954 -0.0227596511988 0.946 8.46393240762e-39
-0.00700296959964 -0.0227596511988 0.946 9.28220102769e-39
-0.00525222719973 -0.0227596511988 0.946 1.42345019045e-38
-0.00350148479982 -0.0227596511988 0.946 1.53365278584e-38
-0.00175074239991 -0.0227596511988 0.946 1.63467183161e-38
0.0 -0.0227596511988 0.946 2.02138985037e-38
0.00175074239991 -0.0227596511988 0.946 1.93130765885e-38
0.00350148479982 -0.0227596511988 0.946 1.90372113676e-38
0.00525222719973 -0.0227596511988 0.946 1.91297643286e-38
0.00700296959964 -0.0227596511988 0.946 1.68995249551e-38
0.00877221879024 -0.0228077688546 0.948 1.74523315941e-38
0.0105266625483 -0.0228077688546 0.948 7.62234618111e-39
0.0122811063063 -0.0228077688546 0.948 1.67306236486e-38
0.0140355500644 -0.0228077688546 0.948 1.3958995416e-38
0.0157899938224 -0.0228077688546 0.948 1.45107258578e-38
0.0175999579526 -0.0228799453383 0.951 1.47855148814e-38
0.0194210261571 -0.0229521218221 0.954 1.53365278584e-38
0.0212309902873 -0.0230002394779 0.956 1.6622583537e-38
0.0230724159616 -0.0230724159616 0.959 1.80962562644e-38
0.0247694886685 -0.0230002394779 0.956 1.87445123483e-38
0.0265387378591 -0.0230002394779 0.956 1.68091243886e-38
0.028633706566 -0.0232648865848 0.967 2.29044714292e-38
-0.0393713465282 -0.0214752799245 0.967 1.09467432176e-38
-0.0374651470864 -0.021408655478 0.964 1.24020967702e-38
-0.0356070653005 -0.0213642391803 0.962 1.35970344175e-38
-0.0337212233285 -0.0212976147338 0.959 1.30406404544e-38
-0.0319464221007 -0.0212976147338 0.959 1.3321527929e-38
-0.0300772362403 -0.0212309902873 0.956 1.79459796158e-38
-0.0282487653195 -0.0211865739896 0.954 1.17747662763e-38
-0.0263999369289 -0.0211199495431 0.951 6.3366492349e-39
-0.0246399411336 -0.0211199495431 0.951 9.55196779765e-39
-0.0228799453383 -0.0211199495431 0.951 1.12039305313e-38
-0.0211199495431 -0.0211199495431 0.951 1.34079824391e-38
-0.0192988813385 -0.0210533250966 0.948 1.5899746145e-38
-0.0175444375805 -0.0210533250966 0.948 1.66631469237e-38
-0.0157566815992 -0.0210089087989 0.946 1.05790186785e-38
-0.0140059391993 -0.0210089087989 0.946 1.09399034798e-38
-0.0122551967994 -0.0210089087989 0.946 1.24950084636e-38
-0.0105044543995 -0.0210089087989 0.946 1.32293337004e-38
-0.00875371199954 -0.0210089087989 0.946 9.45905610427e-39
-0.00700296959964 -0.0210089087989 0.946 1.12039305313e-38
-0.00525222719973 -0.0210089087989 0.946 1.36834889275e-38
-0.00350148479982 -0.0210089087989 0.946 1.4510008393e-38
-0.00175074239991 -0.0210089087989 0.946 1.56120343469e-38
0.0 -0.0210089087989 0.946 1.65303893084e-38
0.00175074239991 -0.0210089087989 0.946 1.7999757247e-38
0.00350148479982 -0.0210089087989 0.946 1.94867030734e-38
0.00526333127414 -0.0210533250966 0.948 1.62634923977e-38
0.00701777503219 -0.0210533250966 0.948 1.8460010925e-38
0.00877221879024 -0.0210533250966 0.948 1.97568285758e-38
0.0105266625483 -0.0210533250966 0.948 9.27538511196e-39
0.0122811063063 -0.0210533250966 0.948 1.60019862822e-38
0.0140355500644 -0.0210533250966 0.948 1.4510008393e-38
0.0158399621573 -0.0211199495431 0.951 1.56120343469e-38
0.0175999579526 -0.0211199495431 0.951 1.57957053392e-38
0.0194210261571 -0.0211865739896 0.954 1.68058957969e-38
0.0212309902873 -0.0212309902873 0.956 1.70817610178e-38
0.0230724159616 -0.0212976147338 0.959 1.86501461071e-38
0.0248472171894 -0.0212976147338 0.959 1.60712118276e-38
0.0267608193474 -0.021408655478 0.964 1.80980835576e-38
0.0287225391613 -0.021541904371 0.97 2.34749582509e-38
0.0305176978589 -0.021541904371 0.97 2.34867739996e-38
-0.0393713465282 -0.0196856732641 0.967 1.1871923904e-38
-0.0374651470864 -0.0196246008548 0.964 1.2229929037e-38
-0.0356810924633 -0.0196246008548 0.964 1.23142325539e-38
-0.0338267120354 -0.0195838859153 0.962 1.44390144089e-38
-0.0319464221007 -0.019522813506 0.959 1.63848980941e-38
-0.0300772362403 -0.0194617410967 0.956 6.15728303147e-39
-0.0282487653195 -0.0194210261571 0.954 6.15297824259e-39
-0.0263999369289 -0.0193599537478 0.951 7.53051068496e-39
-0.0246399411336 -0.0193599537478 0.951 1.13876015236e-38
-0.0228799453383 -0.0193599537478 0.951 1.26732984698e-38
-0.0211199495431 -0.0193599537478 0.951 1.31324759506e-38
-0.0193599537478 -0.0193599537478 0.951 1.2765133966e-38
-0.0175999579526 -0.0193599537478 0.951 1.01937400735e-38
-0.0157899938224 -0.0192988813385 0.948 1.17549435082e-38
-0.0140059391993 -0.019258166399 0.946 1.47876672759e-38
-0.0122551967994 -0.019258166399 0.946 1.51528568661e-38
-0.0105044543995 -0.019258166399 0.946 1.44181728968e-38
-0.00875371199954 -0.019258166399 0.946 1.79326770895e-38
-0.00700296959964 -0.019258166399 0.946 1.60866373211e-38
-0.00525222719973 -0.019258166399 0.946 1.24896274775e-38
-0.00350148479982 -0.019258166399 0.946 1.41426664083e-38
-0.00175074239991 -0.019258166399 0.946 1.49691858738e-38
0.0 -0.019258166399 0.946 1.68058985995e-38
0.00175074239991 -0.019258166399 0.946 1.625488282e-38
0.0035088875161 -0.0192988813385 0.948 1.70814022854e-38
0.00526333127414 -0.0192988813385 0.948 1.744874427e-38
0.00701777503219 -0.0192988813385 0.948 2.06698179656e-38
0.00877221879024 -0.0192988813385 0.948 1.93001622219e-38
0.0105266625483 -0.0192988813385 0.948 9.45905610427e-39
0.0122811063063 -0.0192988813385 0.948 1.53569798095e-38
0.0140799663621 -0.0193599537478 0.951 1.54283633545e-38
0.0158399621573 -0.0193599537478 0.951 1.66222248046e-38
0.0175999579526 -0.0193599537478 0.951 1.66222248046e-38
0.0194210261571 -0.0194210261571 0.954 1.73569087739e-38
0.0212309902873 -0.0194617410967 0.956 1.67140603008e-38
0.0230724159616 -0.019522813506 0.959 1.65303893084e-38
0.0249767647243 -0.0196246008548 0.964 1.61652277442e-38
0.0268440999056 -0.0196856732641 0.967 2.02142516309e-38
0.0287225391613 -0.0197467456734 0.97 2.34829092184e-38
-0.0394934913468 -0.0179515869758 0.97 7.07886658471e-39
-0.0375817398678 -0.0178960666037 0.967 1.04915510297e-38
-0.0356810924633 -0.0178405462316 0.964 1.09460299567e-38
-0.0338267120354 -0.0178035326502 0.962 8.08475225357e-39
-0.0319464221007 -0.0177480122781 0.959 6.61215572338e-39
-0.0300772362403 -0.0176924919061 0.956 6.15297824259e-39
-0.0283079870497 -0.0176924919061 0.956 7.62593350518e-39
-0.026483217487 -0.0176554783247 0.954 9.28076609806e-39
-0.0247176696545 -0.0176554783247 0.954 1.20329611235e-38
-0.0229521218221 -0.0176554783247 0.954 1.40558531659e-38
-0.0211865739896 -0.0176554783247 0.954 1.26747333994e-38
-0.0193599537478 -0.0175999579526 0.951 1.24896274775e-38
-0.0175999579526 -0.0175999579526 0.951 1.28569694621e-38
-0.0157899938224 -0.0175444375805 0.948 1.30406404544e-38
-0.0140355500644 -0.0175444375805 0.948 1.37753244237e-38
-0.0122811063063 -0.0175444375805 0.948 1.48773503776e-38
-0.0105266625483 -0.0175444375805 0.948 1.63520993022e-38
-0.00877221879024 -0.0175444375805 0.948 1.78379689315e-38
-0.00701777503219 -0.0175444375805 0.948 1.68231149524e-38
-0.00526333127414 -0.0175444375805 0.948 1.784370865e-38
-0.0035088875161 -0.0175444375805 0.948 1.29488049583e-38
-0.00175444375805 -0.0175444375805 0.948 1.50610213699e-38
0.0 -0.0175444375805 0.948 1.81013065441e-38
0.00175444375805 -0.0175444375805 0.948 1.51528666752e-38
0.0035088875161 -0.0175444375805 0.948 1.70814022854e-38
0.00526333127414 -0.0175444375805 0.948 1.77242507585e-38
0.00701777503219 -0.0175444375805 0.948 2.12247840055e-38
0.00877221879024 -0.0175444375805 0.948 1.92119140498e-38
0.0105266625483 -0.0175444375805 0.948 1.02949026123e-38
0.0123199705668 -0.0175999579526 0.951 1.50782475319e-38
0.0140799663621 -0.0175999579526 0.951 1.51528568661e-38
0.0158399621573 -0.0175999579526 0.951 1.6622583537e-38
0.0176554783247 -0.0176554783247 0.954 1.625488282e-38
0.0194617410967 -0.0176924919061 0.956 1.65303907097e-38
0.0212976147338 -0.0177480122781 0.959 1.68062545293e-38
0.0230724159616 -0.0177480122781 0.959 1.46018466917e-38
0.0249767647243 -0.0178405462316 0.964 1.85565253567e-38
0.0269273804637 -0.0179515869758 0.97 2.3474193142e-38
0.0288113717566 -0.0180071073479 0.973 2.3112610494e-38
-0.0394934913468 -0.0161564282782 0.97 6.16051162313e-39
-0.0375817398678 -0.0161064599433 0.967 6.34600430345e-39
-0.0357921332074 -0.0161064599433 0.967 7.07673941364e-39
-0.0338970378401 -0.0160564916085 0.964 6.79869657495e-39
-0.0319464221007 -0.0159732110503 0.959 8.36133493926e-39
-0.0300772362403 -0.0159232427154 0.956 7.80852830028e-39
-0.0283079870497 -0.0159232427154 0.956 6.61502558263e-39
-0.026483217487 -0.0158899304922 0.954 1.23242518379e-38
-0.0247176696545 -0.0158899304922 0.954 1.20444405606e-38
-0.0229521218221 -0.0158899304922 0.954 1.56367910868e-38
-0.0211865739896 -0.0158899304922 0.954 1.3968681191e-38
-0.0193599537478 -0.0158399621573 0.951 1.4606148678e-38
-0.0175999579526 -0.0158399621573 0.951 1.35916534314e-38
-0.0158399621573 -0.0158399621573 0.951 1.29488049583e-38
-0.0140355500644 -0.0157899938224 0.948 1.37753244237e-38
-0.0122811063063 -0.0157899938224 0.948 1.36834889275e-38
-0.0105266625483 -0.0157899938224 0.948 1.44181728968e-38
-0.00877221879024 -0.0157899938224 0.948 1.49691858738e-38
-0.00701777503219 -0.0157899938224 0.948 1.8387191049e-38
-0.00526333127414 -0.0157899938224 0.948 1.8211437393e-38
-0.0035088875161 -0.0157899938224 0.948 1.42370130313e-38
-0.00175444375805 -0.0157899938224 0.948 1.4510008393e-38
0.0 -0.0157899938224 0.948 1.58900519622e-38
0.00175444375805 -0.0157899938224 0.948 1.53365278584e-38
0.0035088875161 -0.0157899938224 0.948 1.69895667892e-38
0.00527998738577 -0.0158399621573 0.951 1.77242507585e-38
0.00703998318103 -0.0158399621573 0.951 2.058623892e-38
0.00879997897629 -0.0158399621573 0.951 1.73741279294e-38
0.0105599747715 -0.0158399621573 0.951 9.65635892805e-39
0.0123199705668 -0.0158399621573 0.951 1.68278107036e-38
0.0141243826597 -0.0158899304922 0.954 1.48773503776e-38
0.0158899304922 -0.0158899304922 0.954 1.6808050994e-38
0.0176554783247 -0.0158899304922 0.954 1.47855148814e-38
0.0194617410967 -0.0159232427154 0.956 1.70846406861e-38
0.0212976147338 -0.0159732110503 0.959 1.49691858738e-38
0.0230724159616 -0.0159732110503 0.959 1.92033395045e-38
0.0250544932452 -0.0161064599433 0.967 2.18086476223e-38
0.0269273804637 -0.0161564282782 0.97 2.06279527726e-38
-0.0376983326492 -0.0143612695806 0.97 8.73839212614e-39
-0.0357921332074 -0.014316853283 0.967 9.55807045246e-39
-0.0338970378401 -0.0142724369853 0.964 8.82015368764e-39
