# .PCD v0.7 - Point Cloud Data file format
VERSION 0.7
FIELDS x y z rgb
SIZE 4 4 4 4
TYPE F F F F
COUNT 1 1 1 1
WIDTH 841
HEIGHT 1
VIEWPOINT 0 0 0 1 0 0 0
POINTS 841
DATA ascii
0.0280118783985 -0.0997923167948 0.946 8.27882648568e-39
0.0296682361659 -0.0994758506739 0.943 1.26091582365e-38
0.0314134265286 -0.0994758506739 0.943 1.07669944597e-38
0.0331586168913 -0.0994758506739 0.943 5.23462328101e-39
-0.0297626207984 -0.0980415743949 0.946 2.28405736205e-38
-0.0280118783985 -0.0980415743949 0.946 5.88070034577e-39
-0.0262611359986 -0.0980415743949 0.946 2.35097412814e-38
-0.0245622126127 -0.0982488504507 0.948 1.27103600116e-38
-0.0228077688546 -0.0982488504507 0.948 2.34892206667e-38
-0.0210533250966 -0.0982488504507 0.948 2.3509786123e-38
-0.0192988813385 -0.0982488504507 0.948 1.64781755264e-38
-0.0175444375805 -0.0982488504507 0.948 1.74774428626e-38
-0.0157899938224 -0.0982488504507 0.948 1.81419105684e-38
-0.0140355500644 -0.0982488504507 0.948 1.89687789571e-38
-0.0122811063063 -0.0982488504507 0.948 1.88758504482e-38
-0.0105266625483 -0.0982488504507 0.948 1.95233820607e-38
-0.00877221879024 -0.0982488504507 0.948 1.94322584242e-38
-0.00703998318103 -0.0985597645344 0.951 1.86007237116e-38
-0.00527998738577 -0.0985597645344 0.951 1.81422482813e-38
0.00707699676242 -0.0990779546739 0.956 1.80496995242e-38
0.00884624595303 -0.0990779546739 0.956 1.84170176868e-38
0.0106154951436 -0.0990779546739 0.956 1.80478848427e-38
0.0123847443342 -0.0990779546739 0.956 1.7772386762e-38
0.0141243826597 -0.0988706786181 0.954 1.71280921489e-38
0.0158899304922 -0.0988706786181 0.954 1.75872794388e-38
0.0176554783247 -0.0988706786181 0.954 1.96145393284e-38
0.0193599537478 -0.0985597645344 0.951 1.39016556842e-38
0.0211199495431 -0.0985597645344 0.951 1.07673531921e-38
0.0228077688546 -0.0982488504507 0.948 1.67608160253e-38
0.0245622126127 -0.0982488504507 0.948 1.21527777474e-38
0.0262611359986 -0.0980415743949 0.946 1.22414533156e-38
0.0280118783985 -0.0980415743949 0.946 1.72202919827e-38
0.0295738515333 -0.0974197462275 0.94 7.44979589341e-39
0.0312468654123 -0.0972124701717 0.938 1.51953049991e-38
0.0329828023797 -0.0972124701717 0.938 7.72888970595e-39
0.034718739347 -0.0972124701717 0.938 2.02038091548e-39
-0.0296682361659 -0.0959854699485 0.943 1.7668288503e-38
-0.0279230458032 -0.0959854699485 0.943 2.23656049074e-38
-0.0261778554405 -0.0959854699485 0.943 2.35010686452e-38
-0.0245103935987 -0.096290831995 0.946 5.87747175411e-39
-0.0228077688546 -0.0964944066926 0.948 2.35080330986e-38
-0.0210533250966 -0.0964944066926 0.948 2.00038102327e-38
-0.0192988813385 -0.0964944066926 0.948 1.52694448983e-38
-0.0175444375805 -0.0964944066926 0.948 1.73128813774e-38
-0.0157899938224 -0.0964944066926 0.948 1.80475513337e-38
-0.0140355500644 -0.0964944066926 0.948 1.83237654779e-38
-0.0122811063063 -0.0964944066926 0.948 1.94293899662e-38
-0.0105266625483 -0.0964944066926 0.948 1.79553514999e-38
-0.00877221879024 -0.0964944066926 0.948 1.83248416751e-38
-0.00701777503219 -0.0964944066926 0.948 1.89709299503e-38
-0.00527998738577 -0.0967997687391 0.951 1.70358965191e-38
0.00173963832549 -0.095680107902 0.94 1.81408189569e-38
0.00879997897629 -0.0967997687391 0.951 1.76817003306e-38
0.0105599747715 -0.0967997687391 0.951 1.70351902646e-38
0.0123588348273 -0.0971051307856 0.954 1.7679838005e-38
0.0140799663621 -0.0967997687391 0.951 1.69437401255e-38
0.0158399621573 -0.0967997687391 0.951 1.73125030268e-38
0.0175999579526 -0.0967997687391 0.951 1.63912543839e-38
0.0193599537478 -0.0967997687391 0.951 1.90656339044e-38
0.0211199495431 -0.0967997687391 0.951 1.37158238896e-38
0.0228077688546 -0.0964944066926 0.948 9.65635892805e-39
0.0245622126127 -0.0964944066926 0.948 2.07240762421e-38
0.0262611359986 -0.096290831995 0.946 8.00260253239e-39
0.0279230458032 -0.0959854699485 0.943 1.67601167774e-38
0.0295738515333 -0.095680107902 0.94 1.3444584355e-38
0.0312468654123 -0.0954765332043 0.938 7.26612490109e-39
0.0329828023797 -0.0954765332043 0.938 1.41846465077e-38
0.034718739347 -0.0954765332043 0.938 3.85709083864e-39
-0.0331586168913 -0.0942402795858 0.943 1.39999819948e-38
-0.0313134898588 -0.0939404695765 0.94 1.23379215044e-38
-0.0295738515333 -0.0939404695765 0.94 1.08588299559e-38
-0.0279230458032 -0.0942402795858 0.943 2.03484792082e-38
-0.0261778554405 -0.0942402795858 0.943 1.91524303313e-38
-0.0244326650778 -0.0942402795858 0.943 1.47227367102e-38
-0.0227596511988 -0.0945400895951 0.946 2.34970763459e-38
-0.0210089087989 -0.0945400895951 0.946 1.34417032853e-38
-0.019258166399 -0.0945400895951 0.946 1.69436644554e-38
-0.0175074239991 -0.0945400895951 0.946 1.76819903994e-38
-0.0157566815992 -0.0945400895951 0.946 1.74972319995e-38
-0.0140059391993 -0.0945400895951 0.946 1.814080074e-38
-0.0122551967994 -0.0945400895951 0.946 1.82304782365e-38
-0.0105044543995 -0.0945400895951 0.946 1.84155897637e-38
-0.0087259518135 -0.0942402795858 0.943 1.78635033921e-38
-0.0069807614508 -0.0942402795858 0.943 1.76805414568e-38
-0.00521891497647 -0.0939404695765 0.94 1.76809099983e-38
-0.00347927665098 -0.0939404695765 0.94 1.71291697474e-38
-0.00173963832549 -0.0939404695765 0.94 1.70365999709e-38
0.0 -0.0939404695765 0.94 1.29800146777e-38
0.00173963832549 -0.0939404695765 0.94 1.35278397006e-38
0.00347927665098 -0.0939404695765 0.94 1.7124500621e-38
0.00701777503219 -0.0947399629346 0.948 1.49150172803e-38
0.00877221879024 -0.0947399629346 0.948 1.31619214352e-38
0.0105266625483 -0.0947399629346 0.948 1.69455001564e-38
0.0123588348273 -0.0953395829532 0.954 1.63909012567e-38
0.0140799663621 -0.0950397729439 0.951 1.68511717503e-38
0.0158399621573 -0.0950397729439 0.951 1.74039377516e-38
0.0175999579526 -0.0950397729439 0.951 1.64823738166e-38
0.0193599537478 -0.0950397729439 0.951 1.74053866942e-38
0.0211199495431 -0.0950397729439 0.951 1.98007102372e-38
0.0228077688546 -0.0947399629346 0.948 5.14278778485e-39
0.0245622126127 -0.0947399629346 0.948 2.09971402674e-38
0.0261778554405 -0.0942402795858 0.943 1.06783875552e-38
0.0279230458032 -0.0942402795858 0.943 1.46266622862e-38
0.0295738515333 -0.0939404695765 0.94 1.89746027535e-38
0.0313134898588 -0.0939404695765 0.94 3.76525534248e-39
0.0329828023797 -0.093740596237 0.938 2.09946067197e-38
0.034718739347 -0.093740596237 0.938 5.23462328101e-39
0.0364546763144 -0.093740596237 0.938 1.96124766171e-38
-0.0330531281843 -0.092200831251 0.94 1.0950008243e-38
-0.0313134898588 -0.092200831251 0.94 1.44605341494e-38
-0.0295738515333 -0.092200831251 0.94 1.25180023701e-38
-0.0278342132079 -0.092200831251 0.94 1.49154362686e-38
-0.0260945748824 -0.092200831251 0.94 1.13233884228e-38
-0.0244326650778 -0.0924950892231 0.943 1.45463188388e-38
-0.0227596511988 -0.0927893471952 0.946 1.54696470086e-38
-0.0210089087989 -0.0927893471952 0.946 1.62068617229e-38
-0.019258166399 -0.0927893471952 0.946 1.67593110308e-38
-0.0175074239991 -0.0927893471952 0.946 1.71277418243e-38
-0.0157566815992 -0.0927893471952 0.946 1.68500773362e-38
-0.0140059391993 -0.0927893471952 0.946 1.71277418243e-38
-0.0122551967994 -0.0927893471952 0.946 1.69415540999e-38
-0.0104711421762 -0.0924950892231 0.943 1.64805969701e-38
-0.00869819162745 -0.092200831251 0.94 1.67575313817e-38
-0.00695855330196 -0.092200831251 0.94 1.59281308467e-38
-0.00521891497647 -0.092200831251 0.94 1.68500801388e-38
-0.00347927665098 -0.092200831251 0.94 1.64834500138e-38
-0.00173963832549 -0.092200831251 0.94 1.61150164176e-38
0.0 -0.092200831251 0.94 1.74983166045e-38
0.00173963832549 -0.092200831251 0.94 1.4179666293e-38
0.0034903807254 -0.0924950892231 0.943 1.22411001883e-38
0.0052355710881 -0.0924950892231 0.943 1.54650605587e-38
0.00700296959964 -0.0927893471952 0.946 1.4818889607e-38
0.00875371199954 -0.0927893471952 0.946 1.46341802525e-38
0.0105266625483 -0.0929855191766 0.948 1.17786198471e-38
0.0122811063063 -0.0929855191766 0.948 1.67572034779e-38
0.0140355500644 -0.0929855191766 0.948 1.54682218881e-38
0.0157067132643 -0.0924950892231 0.943 1.65742191218e-38
0.017451903627 -0.0924950892231 0.943 1.61139472269e-38
0.0191360215804 -0.092200831251 0.94 1.58366512803e-38
0.0208756599059 -0.092200831251 0.94 1.98010213255e-38
0.0226874747151 -0.0924950892231 0.943 4.22443282327e-39
0.0244326650778 -0.0924950892231 0.943 2.18229408667e-38
0.0260945748824 -0.092200831251 0.94 9.66569858231e-39
0.0278342132079 -0.092200831251 0.94 1.3337387825e-38
0.0295738515333 -0.092200831251 0.94 2.09117493428e-38
0.0313134898588 -0.092200831251 0.94 4.13259732711e-39
0.0329828023797 -0.0920046592696 0.938 2.34888801512e-38
0.034718739347 -0.0920046592696 0.938 7.89785266959e-39
0.0364546763144 -0.0920046592696 0.938 2.33859113387e-38
-0.0330531281843 -0.0904611929255 0.94 4.86728129637e-39
-0.0311469287426 -0.0899800163674 0.935 1.28900695331e-38
-0.0294165438124 -0.0899800163674 0.935 1.17829554645e-38
-0.0277749914776 -0.0902687223023 0.938 1.06751883908e-38
-0.0260390545103 -0.0902687223023 0.938 1.21521079268e-38
-0.0243031175429 -0.0902687223023 0.938 1.44565656721e-38
-0.0227596511988 -0.0910386047953 0.946 1.49168403696e-38
-0.0209422843524 -0.0907498988604 0.943 1.21517015502e-38
-0.0191970939897 -0.0907498988604 0.943 1.657713102e-38
-0.017451903627 -0.0907498988604 0.943 1.56537047593e-38
-0.0157067132643 -0.0907498988604 0.943 1.60232131513e-38
-0.0139615229016 -0.0907498988604 0.943 1.59302916489e-38
-0.0121774682784 -0.0904611929255 0.94 1.60217642087e-38
-0.0104378299529 -0.0904611929255 0.94 1.60210607569e-38
-0.00867968483676 -0.0902687223023 0.938 1.60214110815e-38
-0.00694374786941 -0.0902687223023 0.938 1.58377330827e-38
-0.00519115479043 -0.0899800163674 0.935 1.58370240257e-38
-0.00346076986028 -0.0899800163674 0.935 1.62068757359e-38
-0.00173593696735 -0.0902687223023 0.938 1.51930825398e-38
0.0 -0.0902687223023 0.938 1.519272661e-38
0.00173593696735 -0.0902687223023 0.938 1.40885468603e-38
0.0034718739347 -0.0902687223023 0.938 1.20609674747e-38
0.00520781090205 -0.0902687223023 0.938 1.27978290617e-38
0.00695855330196 -0.0904611929255 0.94 1.31626234858e-38
0.00867968483676 -0.0902687223023 0.938 1.6019985961e-38
0.0104156218041 -0.0902687223023 0.938 1.46402716969e-38
0.0121515587715 -0.0902687223023 0.938 1.52827894636e-38
0.0140355500644 -0.0912310754185 0.948 1.5189872165e-38
0.0156234327062 -0.0902687223023 0.938 1.44544609218e-38
0.0173593696735 -0.0902687223023 0.938 1.56551691162e-38
0.0190953066409 -0.0902687223023 0.938 1.62090239264e-38
0.0208312436082 -0.0902687223023 0.938 1.69476329327e-38
0.0225671805756 -0.0902687223023 0.938 7.7263785791e-39
0.0243031175429 -0.0902687223023 0.938 2.22878524608e-38
0.0260390545103 -0.0902687223023 0.938 5.32645877716e-39
0.0277749914776 -0.0902687223023 0.938 2.34822057666e-38
0.029510928445 -0.0902687223023 0.938 1.64870975937e-38
0.0312468654123 -0.0902687223023 0.938 1.21341614973e-38
0.0330531281843 -0.0904611929255 0.94 2.34964191369e-38
0.0347927665098 -0.0904611929255 0.94 6.88766221185e-39
-0.0328069878681 -0.0880608621722 0.933 1.10274622131e-38
-0.0310803042961 -0.0880608621722 0.933 6.61825417429e-39
-0.0293536207241 -0.0880608621722 0.933 1.32606008731e-38
-0.027626937152 -0.0880608621722 0.933 1.09560688589e-38
-0.02590025358 -0.0880608621722 0.933 1.26123503944e-38
-0.024173570008 -0.0880608621722 0.933 9.75107409255e-39
-0.0227596511988 -0.0892878623953 0.946 1.55622532189e-38
-0.0209422843524 -0.0890047084977 0.943 9.38623342568e-39
-0.0191970939897 -0.0890047084977 0.943 1.17843595656e-38
-0.017451903627 -0.0890047084977 0.943 1.574881509e-38
-0.0157067132643 -0.0890047084977 0.943 1.44566063098e-38
-0.0139615229016 -0.0890047084977 0.943 1.60210579543e-38
-0.0121774682784 -0.0887215546 0.94 1.51930797372e-38
-0.0103823095809 -0.0882496314373 0.935 1.57462535164e-38
-0.00865192465071 -0.0882496314373 0.935 1.56537047593e-38
-0.00690673428801 -0.0880608621722 0.933 1.55629412565e-38
-0.00518005071601 -0.0880608621722 0.933 1.46402618878e-38
-0.00346076986028 -0.0882496314373 0.935 1.57455500645e-38
-0.00173038493014 -0.0882496314373 0.935 1.519272661e-38
0.0 -0.0882496314373 0.935 1.53771206723e-38
0.00173038493014 -0.0882496314373 0.935 1.54700828124e-38
0.00346076986028 -0.0882496314373 0.935 1.32588044085e-38
0.00519115479043 -0.0882496314373 0.935 1.30762054095e-38
0.00692153972057 -0.0882496314373 0.935 1.43647806227e-38
0.00865192465071 -0.0882496314373 0.935 1.21503058569e-38
0.010360101432 -0.0880608621722 0.933 1.51909259414e-38
0.012086785004 -0.0880608621722 0.933 1.47310520153e-38
0.013813468576 -0.0880608621722 0.933 1.50998303309e-38
0.015540152148 -0.0880608621722 0.933 1.48236133841e-38
0.0173038493014 -0.0882496314373 0.935 1.58384645605e-38
0.018993519292 -0.0880608621722 0.933 1.6765049348e-38
0.020720202864 -0.0880608621722 0.933 7.08139312584e-39
0.0224950040919 -0.0882496314373 0.935 2.28362674304e-38
0.024173570008 -0.0880608621722 0.933 1.6110797108e-38
0.02590025358 -0.0880608621722 0.933 1.77422168061e-38
0.0276861588823 -0.0882496314373 0.935 2.35047638693e-38
0.0294165438124 -0.0882496314373 0.935 5.14278778485e-39
0.0311469287426 -0.0882496314373 0.935 2.35017777022e-38
0.0330531281843 -0.0887215546 0.94 1.31626683273e-38
0.0347927665098 -0.0887215546 0.94 1.71241264743e-38
-0.0345336714401 -0.0863341786002 0.933 6.43243078753e-39
-0.0328069878681 -0.0863341786002 0.933 7.53051068496e-39
-0.03081380651 -0.0855939069723 0.925 1.42625082556e-38
-0.0291019283706 -0.0855939069723 0.925 7.9979390111e-39
-0.0273900502311 -0.0855939069723 0.925 1.11365266738e-38
-0.0256781720917 -0.0855939069723 0.925 1.13230296904e-38
-0.024173570008 -0.0863341786002 0.933 1.13219619009e-38
-0.022446886436 -0.0863341786002 0.933 1.08584978481e-38
-0.020720202864 -0.0863341786002 0.933 1.4735323173e-38
-0.018993519292 -0.0863341786002 0.933 1.16936058718e-38
-0.0172113153479 -0.0860565767397 0.93 1.13216269906e-38
-0.0154901838131 -0.0860565767397 0.93 1.53771402905e-38
-0.0137690522784 -0.0860565767397 0.93 1.47321184035e-38
-0.0120479207436 -0.0860565767397 0.93 1.5189872165e-38
-0.0103267892088 -0.0860565767397 0.93 1.51005309801e-38
-0.00860565767397 -0.0860565767397 0.93 1.37186937489e-38
-0.00688452613918 -0.0860565767397 0.93 1.45452090104e-38
-0.00516339460438 -0.0860565767397 0.93 1.4638473831e-38
-0.00344226306959 -0.0860565767397 0.93 1.44547930296e-38
-0.001726683572 -0.0863341786002 0.933 1.48235741477e-38
0.0 -0.0863341786002 0.933 1.42704003685e-38
0.001726683572 -0.0863341786002 0.933 1.44540503414e-38
0.00344226306959 -0.0860565767397 0.93 1.42718465086e-38
0.00516339460438 -0.0860565767397 0.93 1.39963540331e-38
0.00690673428801 -0.0863341786002 0.933 1.36250477751e-38
0.00863341786002 -0.0863341786002 0.933 1.42682745988e-38
0.0103267892088 -0.0860565767397 0.93 1.46370543156e-38
0.0120479207436 -0.0860565767397 0.93 1.47331777851e-38
0.0137690522784 -0.0860565767397 0.93 1.49172187202e-38
0.015540152148 -0.0863341786002 0.933 1.59302916489e-38
0.01726683572 -0.0863341786002 0.933 1.49204585223e-38
0.018993519292 -0.0863341786002 0.933 1.18700966108e-38
0.020720202864 -0.0863341786002 0.933 2.34884079136e-38
0.022446886436 -0.0863341786002 0.933 1.66607464994e-38
0.024173570008 -0.0863341786002 0.933 1.42578195109e-38
0.02590025358 -0.0863341786002 0.933 2.35033415513e-38
0.027626937152 -0.0863341786002 0.933 1.08509602637e-38
0.0293536207241 -0.0863341786002 0.933 2.22837985043e-38
0.0311469287426 -0.0865192465071 0.935 1.52842384062e-38
0.0328773136727 -0.0865192465071 0.935 1.09442082687e-38
-0.0341635356261 -0.083700662284 0.923 1.00294406312e-38
-0.0324553588448 -0.083700662284 0.923 8.63253663885e-39
-0.0307471820635 -0.083700662284 0.923 1.12957660274e-38
-0.0290390052822 -0.083700662284 0.923 1.26833639967e-38
-0.0273308285009 -0.083700662284 0.923 1.27856181469e-38
-0.0256226517196 -0.083700662284 0.923 8.18304493305e-39
-0.0239144749383 -0.083700662284 0.923 1.15045861233e-38
-0.022206298157 -0.083700662284 0.923 1.19684033033e-38
-0.0136950251156 -0.0838820288328 0.925 1.43647610045e-38
-0.0119831469761 -0.0838820288328 0.925 1.50079668088e-38
-0.0102712688367 -0.0838820288328 0.925 1.44580356342e-38
-0.00855939069723 -0.0838820288328 0.925 1.4549512398e-38
-0.00684751255778 -0.0838820288328 0.925 1.49161369178e-38
-0.00513563441834 -0.0838820288328 0.925 1.46384766336e-38
-0.00343486035331 -0.0841540786561 0.928 1.45462655894e-38
-0.00171743017665 -0.0841540786561 0.928 1.45462459713e-38
0.0 -0.0843354452049 0.93 1.42700472413e-38
0.00172113153479 -0.0843354452049 0.93 1.45462599842e-38
0.00343486035331 -0.0841540786561 0.928 1.46381108947e-38
0.00515229052996 -0.0841540786561 0.928 1.39942030399e-38
0.00686972070662 -0.0841540786561 0.928 1.36229079923e-38
0.00860565767397 -0.0843354452049 0.93 1.54671681116e-38
0.0103045810599 -0.0841540786561 0.928 1.53763947997e-38
0.0120220112366 -0.0841540786561 0.928 1.43654798707e-38
0.0137394414132 -0.0841540786561 0.928 1.37208559524e-38
0.0154901838131 -0.0843354452049 0.93 1.31579459515e-38
0.0172113153479 -0.0843354452049 0.93 1.97916508426e-38
0.018993519292 -0.0846074950282 0.933 2.25706050636e-38
0.0206535784175 -0.0843354452049 0.93 1.094887179e-38
0.0223747099523 -0.0843354452049 0.93 2.34791453307e-38
0.0240958414871 -0.0843354452049 0.93 2.34939766737e-38
0.0258169730219 -0.0843354452049 0.93 1.29742749592e-38
0.0275381045567 -0.0843354452049 0.93 1.89626734997e-38
0.0292592360915 -0.0843354452049 0.93 1.15988949112e-38
0.0312468654123 -0.0850609114002 0.938 1.6189617344e-38
0.0329828023797 -0.0850609114002 0.938 1.12957660274e-38
-0.0342375627889 -0.0821701506934 0.925 7.17106081327e-39
-0.0324553588448 -0.0819924855027 0.923 1.25890243802e-38
-0.0307471820635 -0.0819924855027 0.923 9.91823358506e-39
-0.0289446206497 -0.0817259877167 0.92 1.29488049583e-38
-0.0272419959056 -0.0817259877167 0.92 1.2765133966e-38
-0.0256226517196 -0.0819924855027 0.923 1.2965306649e-38
-0.0239144749383 -0.0819924855027 0.923 1.1402669686e-38
-0.0220138275337 -0.08128182474 0.915 1.02992116051e-38
-0.020320456185 -0.08128182474 0.915 9.01173360849e-39
-0.0186270848362 -0.08128182474 0.915 1.26098588857e-38
-0.0169337134875 -0.08128182474 0.915 1.18765537942e-38
-0.0152403421387 -0.08128182474 0.915 1.2520870828e-38
-0.0136950251156 -0.0821701506934 0.925 1.34431522279e-38
-0.0119831469761 -0.0821701506934 0.925 1.51045148716e-38
-0.0102490606878 -0.0819924855027 0.923 1.35386128832e-38
-0.00854088390653 -0.0819924855027 0.923 1.34431522279e-38
-0.00683270712523 -0.0819924855027 0.923 1.57426353637e-38
-0.00512453034392 -0.0819924855027 0.923 1.48221518298e-38
-0.00342375627889 -0.0821701506934 0.925 1.47310492127e-38
-0.00171187813945 -0.0821701506934 0.925 1.50090766371e-38
0.0 -0.0824366484794 0.928 1.40889154018e-38
0.00171743017665 -0.0824366484794 0.928 1.47349476251e-38
0.00343486035331 -0.0824366484794 0.928 1.43640771709e-38
0.00515229052996 -0.0824366484794 0.928 1.53778815774e-38
0.00686972070662 -0.0824366484794 0.928 1.47321212061e-38
0.00855939069723 -0.0821701506934 0.925 1.50965526938e-38
0.0102712688367 -0.0821701506934 0.925 1.58261975938e-38
0.0119831469761 -0.0821701506934 0.925 1.70279903931e-38
0.0136950251156 -0.0821701506934 0.925 1.74122810827e-38
0.015406903255 -0.0821701506934 0.925 1.74062456902e-38
0.0171187813945 -0.0821701506934 0.925 1.82250411985e-38
0.0188306595339 -0.0821701506934 0.925 2.3481357981e-38
0.0204981213757 -0.0819924855027 0.923 2.35036890733e-38
0.022206298157 -0.0819924855027 0.923 1.69458308629e-38
0.0239662939522 -0.0821701506934 0.925 1.65756792748e-38
0.0256781720917 -0.0821701506934 0.925 1.42682227507e-38
0.0273900502311 -0.0821701506934 0.925 1.56422015002e-38
0.0291963130031 -0.0824366484794 0.928 1.36992731534e-38
0.0309137431798 -0.0824366484794 0.928 1.49691858738e-38
0.0326311733564 -0.0824366484794 0.928 2.06860309888e-38
-0.0342375627889 -0.0804582725539 0.925 1.27034614192e-38
-0.0325256846495 -0.0804582725539 0.925 9.36722060812e-39
-0.0307471820635 -0.0802843087214 0.923 1.63701396187e-38
-0.0288816975613 -0.07984939914 0.918 1.02931089502e-38
-0.0271827741753 -0.07984939914 0.918 1.24896274775e-38
-0.0254838507894 -0.07984939914 0.918 1.23977919813e-38
-0.0237071988825 -0.0795884533912 0.915 1.16631080121e-38
-0.0220138275337 -0.0795884533912 0.915 1.52683813128e-38
-0.020320456185 -0.0795884533912 0.915 1.40792296269e-38
-0.0186270848362 -0.0795884533912 0.915 1.00276469692e-38
-0.0169337134875 -0.0795884533912 0.915 1.10407072862e-38
-0.0152403421387 -0.0795884533912 0.915 1.02141878207e-38
-0.01354697079 -0.0795884533912 0.915 1.17808296948e-38
-0.0118924637017 -0.07984939914 0.918 1.15070902436e-38
-0.0102157484646 -0.0800233629726 0.92 1.34446474134e-38
-0.00851312372049 -0.0800233629726 0.92 1.28903567993e-38
-0.00681049897639 -0.0800233629726 0.92 1.38983878561e-38
-0.00510787423229 -0.0800233629726 0.92 1.50058144143e-38
-0.00340524948819 -0.0800233629726 0.92 1.50991240765e-38
-0.0017026247441 -0.0800233629726 0.92 1.65778288666e-38
0.0 -0.0800233629726 0.92 1.58431182727e-38
0.00170817678131 -0.0802843087214 0.923 1.65810364388e-38
0.00341635356261 -0.0802843087214 0.923 1.75029843297e-38
0.00510787423229 -0.0800233629726 0.92 1.66714524196e-38
0.00681049897639 -0.0800233629726 0.92 1.82351823955e-38
0.00855939069723 -0.0804582725539 0.925 1.86860838075e-38
0.0102712688367 -0.0804582725539 0.925 2.01535866178e-38
0.0119572374691 -0.0802843087214 0.923 2.34726362994e-38
0.0135913870877 -0.07984939914 0.918 2.34939276282e-38
0.0152903104736 -0.07984939914 0.918 2.34067668638e-38
0.0169892338596 -0.07984939914 0.918 2.32177471152e-38
0.0187899445944 -0.0802843087214 0.923 1.71262438362e-38
0.0204314969292 -0.0800233629726 0.92 1.09284478649e-38
0.0221341216733 -0.0800233629726 0.92 1.40784533075e-38
0.0239144749383 -0.0802843087214 0.923 1.62908303295e-38
0.0256781720917 -0.0804582725539 0.925 1.55461018528e-38
0.0273900502311 -0.0804582725539 0.925 1.3593088361e-38
0.0291019283706 -0.0804582725539 0.925 1.68058957969e-38
0.03081380651 -0.0804582725539 0.925 1.625488282e-38
0.0325256846495 -0.0804582725539 0.925 2.34552209621e-38
-0.0344226306959 -0.0791720506005 0.93 1.09510494078e-38
-0.0325256846495 -0.0787463944145 0.925 7.07384433101e-39
-0.0307471820635 -0.0785761319401 0.923 1.01019045774e-38
-0.0288816975613 -0.0781504757541 0.918 1.72109523284e-38
-0.0271827741753 -0.0781504757541 0.918 1.13947761717e-38
-0.0254005702312 -0.0778950820425 0.915 1.28569694621e-38
-0.0237071988825 -0.0778950820425 0.915 1.29488049583e-38
-0.0220138275337 -0.0778950820425 0.915 1.23977919813e-38
-0.020320456185 -0.0778950820425 0.915 1.20304499967e-38
-0.0186270848362 -0.0778950820425 0.915 1.2489634484e-38
-0.0169337134875 -0.0778950820425 0.915 1.55446108712e-38
-0.0152403421387 -0.0778950820425 0.915 1.62897611387e-38
-0.01354697079 -0.0778950820425 0.915 1.40831350457e-38
-0.0118535994412 -0.0778950820425 0.915 1.44533496922e-38
-0.0101602280925 -0.0778950820425 0.915 1.36257484243e-38
-0.00849461692979 -0.0781504757541 0.918 1.42725681773e-38
-0.00679569354383 -0.0781504757541 0.918 1.51959481951e-38
-0.00509677015787 -0.0781504757541 0.918 1.56573018925e-38
-0.00339784677192 -0.0781504757541 0.918 1.53786032461e-38
-0.00169892338596 -0.0781504757541 0.918 1.56537019567e-38
0.0 -0.0781504757541 0.918 1.55636601226e-38
0.0017026247441 -0.0783207382285 0.92 1.50101724525e-38
0.00340524948819 -0.0783207382285 0.92 1.64870947911e-38
0.00509677015787 -0.0781504757541 0.918 1.7684176425e-38
0.00679569354383 -0.0781504757541 0.918 1.74979929045e-38
0.00851312372049 -0.0783207382285 0.92 1.97063341869e-38
0.0102157484646 -0.0783207382285 0.92 1.96070031453e-38
0.0118924637017 -0.0781504757541 0.918 1.79413833568e-38
0.0135913870877 -0.0781504757541 0.918 1.31493489854e-38
0.0152903104736 -0.0781504757541 0.918 1.18618457655e-38
0.0169892338596 -0.0781504757541 0.918 1.18614870331e-38
0.0186881572455 -0.0781504757541 0.918 1.73017830936e-38
0.0203870806315 -0.0781504757541 0.918 1.71141268084e-38
0.0221341216733 -0.0783207382285 0.92 1.36002630091e-38
0.0238367464174 -0.0783207382285 0.92 1.50610213699e-38
0.0256226517196 -0.0785761319401 0.923 1.625488282e-38
0.0273308285009 -0.0785761319401 0.923 1.744874427e-38
0.0290390052822 -0.0785761319401 0.923 1.81834282393e-38
0.0307471820635 -0.0785761319401 0.923 1.56120343469e-38
0.0324553588448 -0.0785761319401 0.923 2.22799883738e-38
0.0342375627889 -0.0787463944145 0.925 2.11699582031e-38
0.0359494409284 -0.0787463944145 0.925 2.34903809418e-38
-0.0361437622307 -0.0774509190657 0.93 2.34910914001e-38
-0.0343486035331 -0.0772843579495 0.928 1.03975225014e-38
-0.0325256846495 -0.0770345162751 0.925 1.05754313544e-38
-0.0307471820635 -0.0768679551588 0.923 1.43580291667e-38
-0.0288816975613 -0.0764515523681 0.918 9.82639808891e-39
-0.0271827741753 -0.0764515523681 0.918 1.53455368062e-38
-0.0254005702312 -0.0762017106937 0.915 1.73814357009e-38
-0.0237071988825 -0.0762017106937 0.915 1.26732984698e-38
-0.0220138275337 -0.0762017106937 0.915 1.29488049583e-38
-0.020320456185 -0.0762017106937 0.915 1.29488049583e-38
-0.0186270848362 -0.0762017106937 0.915 1.33161469429e-38
-0.0169337134875 -0.0762017106937 0.915 1.30406404544e-38
-0.0152403421387 -0.0762017106937 0.915 1.2765133966e-38
-0.01354697079 -0.0762017106937 0.915 1.29488049583e-38
-0.0118535994412 -0.0762017106937 0.915 1.38671655251e-38
-0.0101602280925 -0.0762017106937 0.915 1.64547332043e-38
-0.00846685674374 -0.0762017106937 0.915 1.683818872e-38
-0.006773485395 -0.0762017106937 0.915 1.73024431051e-38
-0.00508011404625 -0.0762017106937 0.915 1.77670338019e-38
-0.0033867426975 -0.0762017106937 0.915 1.80454227613e-38
-0.00169337134875 -0.0762017106937 0.915 1.64784487796e-38
0.0 -0.0762017106937 0.915 1.77734881826e-38
0.00169337134875 -0.0762017106937 0.915 1.68519172411e-38
0.0033867426975 -0.0762017106937 0.915 1.65742541543e-38
0.00508011404625 -0.0762017106937 0.915 1.71263363219e-38
0.006773485395 -0.0762017106937 0.915 1.72177836584e-38
0.00846685674374 -0.0762017106937 0.915 1.77677204382e-38
0.0101602280925 -0.0762017106937 0.915 1.8318376084e-38
0.0118535994412 -0.0762017106937 0.915 1.79488676919e-38
0.01354697079 -0.0762017106937 0.915 1.49971670015e-38
0.0152403421387 -0.0762017106937 0.915 1.25843328329e-38
0.0169337134875 -0.0762017106937 0.915 1.4510008393e-38
0.0186881572455 -0.0764515523681 0.918 1.48773503776e-38
0.0203870806315 -0.0764515523681 0.918 1.53365278584e-38
0.0220860040175 -0.0764515523681 0.918 1.64385538123e-38
0.0238367464174 -0.0766181134844 0.92 1.73569087739e-38
0.0256226517196 -0.0768679551588 0.923 1.70814022854e-38
0.0273308285009 -0.0768679551588 0.923 1.85507702239e-38
0.0290390052822 -0.0768679551588 0.923 1.73569087739e-38
0.0307471820635 -0.0768679551588 0.923 2.34432608797e-38
0.0325256846495 -0.0770345162751 0.925 1.80465325897e-38
0.0342375627889 -0.0770345162751 0.925 2.29188431463e-38
0.0359494409284 -0.0770345162751 0.925 2.34911110183e-38
-0.0360660337097 -0.0755669277728 0.928 2.34896550692e-38
-0.0343486035331 -0.0755669277728 0.928 1.11347147949e-38
-0.0325256846495 -0.0753226381356 0.925 9.00920566606e-39
-0.0307471820635 -0.0751597783775 0.923 1.2701356669e-38
-0.0289446206497 -0.0749154887403 0.92 8.27021690792e-39
-0.0271827741753 -0.0747526289822 0.918 1.07447894842e-38
-0.0254005702312 -0.074508339345 0.915 1.16631080121e-38
-0.0237071988825 -0.074508339345 0.915 1.70900679151e-38
-0.0220138275337 -0.074508339345 0.915 1.47034562447e-38
-0.020320456185 -0.074508339345 0.915 1.36842176027e-38
-0.0186270848362 -0.074508339345 0.915 1.26733054763e-38
-0.0169337134875 -0.074508339345 0.915 1.2765133966e-38
-0.0152070299155 -0.0743454795868 0.913 1.35916534314e-38
-0.0135173599249 -0.0743454795868 0.913 1.41426664083e-38
-0.0118276899343 -0.0743454795868 0.913 1.42345019045e-38
-0.0101380199437 -0.0743454795868 0.913 1.44181728968e-38
-0.00844834995305 -0.0743454795868 0.913 1.4510008393e-38
-0.00675867996244 -0.0743454795868 0.913 1.41426664083e-38
-0.00506900997183 -0.0743454795868 0.913 1.3958995416e-38
-0.0033682359068 -0.0741011899496 0.91 1.3958995416e-38
-0.0016841179534 -0.0741011899496 0.91 1.41426664083e-38
0.0 -0.0741011899496 0.91 1.34998179352e-38
0.00168966999061 -0.0743454795868 0.913 1.34079824391e-38
0.00337933998122 -0.0743454795868 0.913 1.35916534314e-38
0.00506900997183 -0.0743454795868 0.913 1.37753244237e-38
0.00675867996244 -0.0743454795868 0.913 1.42345019045e-38
0.00846685674374 -0.074508339345 0.915 1.46018438891e-38
0.0101602280925 -0.074508339345 0.915 1.48773503776e-38
0.0118535994412 -0.074508339345 0.915 1.52446923622e-38
0.01354697079 -0.074508339345 0.915 1.54283633545e-38
0.0152403421387 -0.074508339345 0.915 1.57957053392e-38
0.0169337134875 -0.074508339345 0.915 1.59793763315e-38
0.0186881572455 -0.0747526289822 0.918 1.60712118276e-38
0.0203870806315 -0.0747526289822 0.918 1.66222248046e-38
0.0220860040175 -0.0747526289822 0.918 1.67140603008e-38
0.0238367464174 -0.0749154887403 0.92 1.744874427e-38
0.0256226517196 -0.0751597783775 0.923 1.78160862547e-38
0.0273308285009 -0.0751597783775 0.923 1.79079217508e-38
0.0290390052822 -0.0751597783775 0.923 1.70814022854e-38
0.0307471820635 -0.0751597783775 0.923 2.3476038652e-38
0.0325256846495 -0.0753226381356 0.925 6.33987782656e-39
0.0342375627889 -0.0753226381356 0.925 2.3474512638e-38
0.0359494409284 -0.0753226381356 0.925 2.34911124196e-38
-0.0360660337097 -0.0738494975962 0.928 2.34907326677e-38
-0.0343486035331 -0.0738494975962 0.928 9.93510241598e-39
-0.0325256846495 -0.0736107599962 0.925 1.3159037563e-38
-0.0307471820635 -0.0734516015962 0.923 9.20403659935e-39
-0.0289446206497 -0.0732128639962 0.92 3.85960196548e-39
-0.0271827741753 -0.0730537055962 0.918 1.7591623464e-38
-0.0254005702312 -0.0728149679962 0.915 1.35256466685e-38
-0.0237071988825 -0.0728149679962 0.915 1.06529175543e-38
-0.0220138275337 -0.0728149679962 0.915 1.23977919813e-38
-0.020320456185 -0.0728149679962 0.915 1.29488049583e-38
-0.0186270848362 -0.0728149679962 0.915 2.14283212061e-38
-0.0168966999061 -0.0726558095962 0.913 1.51827423584e-38
-0.0152070299155 -0.0726558095962 0.913 1.14794370197e-38
-0.0135173599249 -0.0726558095962 0.913 1.26732984698e-38
-0.0118276899343 -0.0726558095962 0.913 1.34998179352e-38
-0.0101380199437 -0.0726558095962 0.913 1.43263374006e-38
-0.00844834995305 -0.0726558095962 0.913 1.47855148814e-38
-0.00675867996244 -0.0726558095962 0.913 1.47855148814e-38
-0.00506900997183 -0.0726558095962 0.913 1.53365278584e-38
-0.0033682359068 -0.0724170719962 0.91 1.54283633545e-38
-0.0016841179534 -0.0724170719962 0.91 1.56120343469e-38
0.0 -0.0724170719962 0.91 1.53365278584e-38
0.0016841179534 -0.0724170719962 0.91 1.58875408353e-38
0.0033682359068 -0.0724170719962 0.91 1.58875408353e-38
0.00506900997183 -0.0726558095962 0.913 1.57957053392e-38
0.00675867996244 -0.0726558095962 0.913 1.57957053392e-38
0.00844834995305 -0.0726558095962 0.913 1.60712118276e-38
0.0101380199437 -0.0726558095962 0.913 1.60712118276e-38
0.0118276899343 -0.0726558095962 0.913 1.64385538123e-38
0.01354697079 -0.0728149679962 0.915 1.63467183161e-38
0.0152403421387 -0.0728149679962 0.915 1.59793763315e-38
0.0169337134875 -0.0728149679962 0.915 1.60712118276e-38
0.0186270848362 -0.0728149679962 0.915 1.64385538123e-38
0.0203870806315 -0.0730537055962 0.918 1.67140603008e-38
0.0220860040175 -0.0730537055962 0.918 1.70814022854e-38
0.0238367464174 -0.0732128639962 0.92 1.75405797662e-38
0.0256226517196 -0.0734516015962 0.923 1.78160862547e-38
0.0273308285009 -0.0734516015962 0.923 1.80915927431e-38
0.0290390052822 -0.0734516015962 0.923 1.5703869843e-38
0.0307471820635 -0.0734516015962 0.923 2.34857160192e-38
0.0324553588448 -0.0734516015962 0.923 8.44994184376e-39
0.0341635356261 -0.0734516015962 0.923 2.34767252883e-38
-0.0360660337097 -0.0721320674195 0.928 2.34910914001e-38
-0.0343486035331 -0.0721320674195 0.928 1.18733784518e-38
-0.0325256846495 -0.0718988818567 0.925 9.37905877754e-39
-0.0307471820635 -0.0717434248149 0.923 1.61187284573e-38
-0.0289446206497 -0.0715102392521 0.92 3.85960196548e-39
-0.0272419959056 -0.0715102392521 0.92 1.2524114834e-38
-0.0254005702312 -0.0711215966475 0.915 1.71230516783e-38
-0.0237071988825 -0.0711215966475 0.915 5.87818921893e-39
-0.0220138275337 -0.0711215966475 0.915 1.16631080121e-38
-0.020320456185 -0.0711215966475 0.915 1.25814629736e-38
-0.0186270848362 -0.0711215966475 0.915 2.34580305655e-38
-0.0168966999061 -0.0709661396056 0.913 1.76777332547e-38
-0.0152070299155 -0.0709661396056 0.913 1.92468386114e-38
-0.0135173599249 -0.0709661396056 0.913 1.3530020121e-38
-0.0118276899343 -0.0709661396056 0.913 1.62991344242e-38
-0.0101380199437 -0.0709661396056 0.913 1.30658259917e-38
-0.00844834995305 -0.0709661396056 0.913 1.27741022761e-38
-0.00675867996244 -0.0709661396056 0.913 1.32243114468e-38
-0.00506900997183 -0.0709661396056 0.913 1.43263374006e-38
-0.0033682359068 -0.0707329540428 0.91 1.46018438891e-38
-0.0016841179534 -0.0707329540428 0.91 1.47855148814e-38
0.0 -0.0707329540428 0.91 1.5703869843e-38
0.0016841179534 -0.0707329540428 0.91 1.58875408353e-38
0.0033682359068 -0.0707329540428 0.91 1.60712118276e-38
0.00506900997183 -0.0709661396056 0.913 1.59793763315e-38
0.00675867996244 -0.0709661396056 0.913 1.58875408353e-38
0.00844834995305 -0.0709661396056 0.913 1.58875408353e-38
0.0101380199437 -0.0709661396056 0.913 1.625488282e-38
0.0118276899343 -0.0709661396056 0.913 1.64385538123e-38
0.01354697079 -0.0711215966475 0.915 1.63467183161e-38
0.0152403421387 -0.0711215966475 0.915 1.63467183161e-38
0.0169337134875 -0.0711215966475 0.915 1.625488282e-38
0.0186270848362 -0.0711215966475 0.915 1.67140603008e-38
0.0203870806315 -0.0713547822102 0.918 1.68977312931e-38
0.0220860040175 -0.0713547822102 0.918 1.69895667892e-38
0.0238367464174 -0.0715102392521 0.92 1.744874427e-38
0.0256226517196 -0.0717434248149 0.923 1.79079217508e-38
0.0273308285009 -0.0717434248149 0.923 1.70814022854e-38
0.0290390052822 -0.0717434248149 0.923 2.3456962776e-38
0.0307471820635 -0.0717434248149 0.923 2.14584785504e-38
0.0324553588448 -0.0717434248149 0.923 1.37753244237e-38
0.0341635356261 -0.0717434248149 0.923 2.34796357852e-38
-0.0378648937655 -0.0705663929266 0.93 2.28399640557e-38
-0.0361437622307 -0.0705663929266 0.93 2.34907228586e-38
-0.0344226306959 -0.0705663929266 0.93 1.26105511272e-38
-0.0325256846495 -0.0701870037173 0.925 1.25179673376e-38
-0.0307471820635 -0.0700352480336 0.923 1.22424608492e-38
-0.0289446206497 -0.069807614508 0.92 6.06544753531e-39
-0.0272419959056 -0.069807614508 0.92 1.12323250421e-38
-0.0254838507894 -0.0696558588243 0.918 1.72063798915e-38
-0.0237849274034 -0.0696558588243 0.918 2.20405190779e-39
-0.0220860040175 -0.0696558588243 0.918 1.01037038446e-38
-0.020320456185 -0.0694282252987 0.915 1.20304499967e-38
-0.0186270848362 -0.0694282252987 0.915 1.49861121579e-38
-0.0169337134875 -0.0694282252987 0.915 1.1020259539e-38
-0.0152070299155 -0.069276469615 0.913 1.06529175543e-38
-0.0135173599249 -0.069276469615 0.913 8.72437213501e-39
-0.0118276899343 -0.069276469615 0.913 4.22443282327e-39
-0.0101380199437 -0.069276469615 0.913 8.01013731424e-39
-0.00844834995305 -0.069276469615 0.913 1.39848297545e-38
-0.00675867996244 -0.069276469615 0.913 1.61038564767e-38
-0.00506900997183 -0.069276469615 0.913 1.75833684148e-38
-0.00337933998122 -0.069276469615 0.913 1.6667862293e-38
-0.0016841179534 -0.0690488360894 0.91 1.85045988408e-38
0.0 -0.0690488360894 0.91 1.29509573527e-38
0.00168966999061 -0.069276469615 0.913 1.60712118276e-38
0.00337933998122 -0.069276469615 0.913 1.58875408353e-38
0.00506900997183 -0.069276469615 0.913 1.60712118276e-38
0.00675867996244 -0.069276469615 0.913 1.57957053392e-38
0.00844834995305 -0.069276469615 0.913 1.60712118276e-38
0.0101380199437 -0.069276469615 0.913 1.64385538123e-38
0.0118276899343 -0.069276469615 0.913 1.65303893084e-38
0.01354697079 -0.0694282252987 0.915 1.67140603008e-38
0.0152403421387 -0.0694282252987 0.915 1.65303893084e-38
0.0169337134875 -0.0694282252987 0.915 1.60712118276e-38
0.0186270848362 -0.0694282252987 0.915 1.64385538123e-38
0.0203870806315 -0.0696558588243 0.918 1.67140603008e-38
0.0220860040175 -0.0696558588243 0.918 1.68977312931e-38
0.0238367464174 -0.069807614508 0.92 1.82752637354e-38
0.0256226517196 -0.0700352480336 0.923 1.78160862547e-38
0.0273308285009 -0.0700352480336 0.923 1.55201988507e-38
0.0291019283706 -0.0701870037173 0.925 2.348678521e-38
0.0307471820635 -0.0700352480336 0.923 1.0209165567e-38
0.0324553588448 -0.0700352480336 0.923 1.6534706709e-38
0.0341635356261 -0.0700352480336 0.923 2.34850027583e-38
-0.0361437622307 -0.0688452613918 0.93 2.34925277311e-38
-0.0344226306959 -0.0688452613918 0.93 1.03946302214e-38
-0.0326311733564 -0.0686972070662 0.928 1.33326864687e-38
-0.03081380651 -0.0684751255778 0.925 1.28871702466e-38
-0.0290390052822 -0.0683270712523 0.923 5.88357020503e-39
-0.0272419959056 -0.0681049897639 0.92 1.17843974006e-38
-0.0254838507894 -0.0679569354383 0.918 1.91399671827e-38
-0.0237849274034 -0.0679569354383 0.918 2.38772290011e-39
-0.0220860040175 -0.0679569354383 0.918 1.63769765539e-38
-0.0203870806315 -0.0679569354383 0.918 8.99987862348e-39
-0.0186270848362 -0.06773485395 0.915 1.40785233724e-38
-0.0169337134875 -0.06773485395 0.915 1.2214120989e-38
-0.0152403421387 -0.06773485395 0.915 1.2765133966e-38
-0.01354697079 -0.06773485395 0.915 1.33161469429e-38
-0.0118535994412 -0.06773485395 0.915 1.03784872631e-38
-0.0101602280925 -0.06773485395 0.915 9.93186541652e-39
-0.00846685674374 -0.06773485395 0.915 1.26869303013e-38
-0.00675867996244 -0.0675867996244 0.913 9.83070287779e-39
-0.00506900997183 -0.0675867996244 0.913 1.25911529525e-38
-0.00337933998122 -0.0675867996244 0.913 3.67341984632e-39
-0.00168966999061 -0.0675867996244 0.913 1.95248520228e-38
0.0 -0.0675867996244 0.913 1.23977919813e-38
0.00168966999061 -0.0675867996244 0.913 1.57957053392e-38
0.00337933998122 -0.0675867996244 0.913 1.58875408353e-38
0.00506900997183 -0.0675867996244 0.913 1.59793763315e-38
0.006773485395 -0.06773485395 0.915 1.59793763315e-38
0.00844834995305 -0.0675867996244 0.913 1.59793763315e-38
0.0101380199437 -0.0675867996244 0.913 1.65303893084e-38
0.0118535994412 -0.06773485395 0.915 1.63467183161e-38
0.01354697079 -0.06773485395 0.915 1.64385538123e-38
0.0152403421387 -0.06773485395 0.915 1.63467183161e-38
0.0169337134875 -0.06773485395 0.915 1.59793763315e-38
0.0186270848362 -0.06773485395 0.915 1.64385538123e-38
0.0203870806315 -0.0679569354383 0.918 1.67140603008e-38
0.0220860040175 -0.0679569354383 0.918 1.69895667892e-38
0.0238367464174 -0.0681049897639 0.92 1.72650732777e-38
0.0256226517196 -0.0683270712523 0.923 1.71732377815e-38
0.0273308285009 -0.0683270712523 0.923 2.3445779013e-38
0.0291019283706 -0.0684751255778 0.925 2.34871341333e-38
0.03081380651 -0.0684751255778 0.925 1.01948162708e-38
0.0325256846495 -0.0684751255778 0.925 1.66222248046e-38
0.0343486035331 -0.0686972070662 0.928 2.34871565541e-38
-0.0361437622307 -0.067124129857 0.93 2.34925333363e-38
-0.0344226306959 -0.067124129857 0.93 1.01180475357e-38
-0.0326311733564 -0.0669797768895 0.928 1.48059892533e-38
-0.03081380651 -0.0667632474384 0.925 1.27910313629e-38
-0.0290390052822 -0.0666188944709 0.923 7.35867926336e-39
-0.0273308285009 -0.0666188944709 0.923 1.0220006012e-38
-0.0255393711615 -0.0664023650198 0.92 1.81265229099e-38
-0.0238367464174 -0.0664023650198 0.92 2.11221641163e-39
-0.0220860040175 -0.0662580120524 0.918 1.20566724949e-38
-0.0203870806315 -0.0662580120524 0.918 1.15993419254e-38
-0.0186881572455 -0.0662580120524 0.918 1.47311220802e-38
-0.0169337134875 -0.0660414826012 0.915 8.63253663885e-39
-0.0152403421387 -0.0660414826012 0.915 1.12039319326e-38
-0.01354697079 -0.0660414826012 0.915 1.68195374375e-38
-0.0118535994412 -0.0660414826012 0.915 9.82747428613e-39
-0.0101602280925 -0.0660414826012 0.915 1.38818721524e-38
-0.00846685674374 -0.0660414826012 0.915 1.07447530505e-38
-0.006773485395 -0.0660414826012 0.915 1.2214120989e-38
-0.00506900997183 -0.0658971296338 0.913 1.46047137484e-38
-0.00337933998122 -0.0658971296338 0.913 4.77544580022e-39
-0.00168966999061 -0.0658971296338 0.913 1.99858497903e-38
0.0 -0.0658971296338 0.913 1.23978130008e-38
0.00168966999061 -0.0658971296338 0.913 1.58875408353e-38
0.00337933998122 -0.0658971296338 0.913 1.60712118276e-38
0.00506900997183 -0.0658971296338 0.913 1.60712118276e-38
0.006773485395 -0.0660414826012 0.915 1.59793763315e-38
0.00846685674374 -0.0660414826012 0.915 1.60712118276e-38
0.0101602280925 -0.0660414826012 0.915 1.67140603008e-38
0.0118535994412 -0.0660414826012 0.915 1.64385538123e-38
0.01354697079 -0.0660414826012 0.915 1.63467183161e-38
0.0152403421387 -0.0660414826012 0.915 1.63467183161e-38
0.0169337134875 -0.0660414826012 0.915 1.63467183161e-38
0.0186881572455 -0.0662580120524 0.918 1.65303893084e-38
0.0203870806315 -0.0662580120524 0.918 1.64385538123e-38
0.0221341216733 -0.0664023650198 0.92 1.69895667892e-38
0.0239144749383 -0.0666188944709 0.923 1.77242507585e-38
0.0256781720917 -0.0667632474384 0.925 1.59793763315e-38
0.0273900502311 -0.0667632474384 0.925 2.34846580389e-38
0.0291019283706 -0.0667632474384 0.925 1.70363309216e-38
0.03081380651 -0.0667632474384 0.925 1.3958995416e-38
0.0326311733564 -0.0669797768895 0.928 2.08581748999e-38
0.0343486035331 -0.0669797768895 0.928 2.34896830952e-38
-0.0362603550121 -0.0656139757361 0.933 2.34907214573e-38
-0.0344226306959 -0.0654029983222 0.93 1.19619587317e-38
-0.0327014991611 -0.0654029983222 0.93 1.04692549698e-38
-0.0309137431798 -0.0652623467129 0.928 1.56375730114e-38
-0.0291019283706 -0.0650513692989 0.925 5.88141781059e-39
-0.0273900502311 -0.0650513692989 0.925 1.10490001705e-38
-0.0255393711615 -0.0646997402757 0.92 1.80387217521e-38
-0.0238367464174 -0.0646997402757 0.92 1.92854541932e-39
-0.0221341216733 -0.0646997402757 0.92 1.05722279862e-38
-0.0203870806315 -0.0645590886664 0.918 1.33373527926e-38
-0.0186881572455 -0.0645590886664 0.918 1.28922527562e-38
-0.0169892338596 -0.0645590886664 0.918 5.06027933127e-39
-0.0152403421387 -0.0643481112525 0.915 5.33686201696e-39
-0.01354697079 -0.0643481112525 0.915 1.77587353124e-38
-0.0118535994412 -0.0643481112525 0.915 1.18467790044e-38
-0.0101602280925 -0.0643481112525 0.915 1.31324759506e-38
-0.00846685674374 -0.0643481112525 0.915 1.11120950351e-38
-0.006773485395 -0.0643481112525 0.915 1.17549435082e-38
-0.00508011404625 -0.0643481112525 0.915 9.73456259275e-39
-0.0033867426975 -0.0643481112525 0.915 3.85709083864e-39
-0.00169337134875 -0.0643481112525 0.915 1.97096510604e-38
0.0 -0.0643481112525 0.915 1.31324759506e-38
0.00169337134875 -0.0643481112525 0.915 1.58875408353e-38
0.0033867426975 -0.0643481112525 0.915 1.60712118276e-38
0.00508011404625 -0.0643481112525 0.915 1.625488282e-38
0.006773485395 -0.0643481112525 0.915 1.59793763315e-38
0.00846685674374 -0.0643481112525 0.915 1.60712118276e-38
0.0101602280925 -0.0643481112525 0.915 1.64385538123e-38
0.0118535994412 -0.0643481112525 0.915 1.64385538123e-38
0.01354697079 -0.0643481112525 0.915 1.63467183161e-38
0.0152403421387 -0.0643481112525 0.915 1.63467183161e-38
0.0169337134875 -0.0643481112525 0.915 1.64385538123e-38
0.0186881572455 -0.0645590886664 0.918 1.66222248046e-38
0.0204314969292 -0.0646997402757 0.92 1.68058957969e-38
0.022206298157 -0.0649107176896 0.923 1.71732377815e-38
0.0239144749383 -0.0649107176896 0.923 1.66222248046e-38
0.0256781720917 -0.0650513692989 0.925 2.09568571404e-38
0.0274788828265 -0.0652623467129 0.928 2.34900095977e-38
0.0291963130031 -0.0652623467129 0.928 5.87747175411e-39
0.0309137431798 -0.0652623467129 0.928 2.03147247308e-38
0.0326311733564 -0.0652623467129 0.928 2.2805804603e-38
0.0343486035331 -0.0652623467129 0.928 2.34903557184e-38
-0.0362603550121 -0.0638872921641 0.933 2.34917990559e-38
-0.0345336714401 -0.0638872921641 0.933 1.18704595471e-38
-0.0327014991611 -0.0636818667874 0.93 1.6006670823e-38
-0.0309803676263 -0.0636818667874 0.93 9.91823358506e-39
-0.0291963130031 -0.0635449165362 0.928 1.09284268454e-38
-0.0273900502311 -0.0633394911595 0.925 1.60175308861e-38
-0.0256226517196 -0.0632025409083 0.923 1.76794498453e-38
-0.0239144749383 -0.0632025409083 0.923 2.8469003809e-39
-0.022206298157 -0.0632025409083 0.923 1.70331639871e-38
-0.0204314969292 -0.0629971155316 0.92 1.65789400963e-38
-0.0186881572455 -0.0628601652804 0.918 8.00404306721e-39
-0.0169892338596 -0.0628601652804 0.918 3.21424236553e-39
-0.0152903104736 -0.0628601652804 0.918 2.49534262217e-39
-0.01354697079 -0.0626547399037 0.915 6.88837967666e-39
-0.0118535994412 -0.0626547399037 0.915 1.27651367686e-38
-0.0101602280925 -0.0626547399037 0.915 1.11120950351e-38
-0.00846685674374 -0.0626547399037 0.915 7.89785266959e-39
-0.006773485395 -0.0626547399037 0.915 8.46716099929e-39
-0.00508011404625 -0.0626547399037 0.915 6.72372150191e-39
-0.0033867426975 -0.0626547399037 0.915 1.47905371351e-39
-0.00169337134875 -0.0626547399037 0.915 1.94320089931e-38
0.0 -0.0626547399037 0.915 1.33161469429e-38
0.00169337134875 -0.0626547399037 0.915 1.58875408353e-38
0.0033867426975 -0.0626547399037 0.915 1.625488282e-38
0.00508011404625 -0.0626547399037 0.915 1.60712118276e-38
0.006773485395 -0.0626547399037 0.915 1.625488282e-38
0.00846685674374 -0.0626547399037 0.915 1.63467183161e-38
0.0101602280925 -0.0626547399037 0.915 1.64385538123e-38
0.0118535994412 -0.0626547399037 0.915 1.66222248046e-38
0.01354697079 -0.0626547399037 0.915 1.65303893084e-38
0.0152903104736 -0.0628601652804 0.918 1.64385538123e-38
0.0169892338596 -0.0628601652804 0.918 1.66222248046e-38
0.0187899445944 -0.0632025409083 0.923 1.64385538123e-38
0.0204981213757 -0.0632025409083 0.923 1.69978176346e-38
0.022206298157 -0.0632025409083 0.923 1.63467183161e-38
0.0239662939522 -0.0633394911595 0.925 1.46936793853e-38
0.0256781720917 -0.0633394911595 0.925 2.34850237778e-38
0.0274788828265 -0.0635449165362 0.928 1.84178290386e-38
0.0291963130031 -0.0635449165362 0.928 1.32243114468e-38
0.0309137431798 -0.0635449165362 0.928 1.86516076614e-38
0.0327014991611 -0.0636818667874 0.93 2.33705068647e-38
0.0344226306959 -0.0636818667874 0.93 2.34878347825e-38
-0.0362603550121 -0.0621606085921 0.933 2.34900138016e-38
-0.0345336714401 -0.0621606085921 0.933 1.33455700068e-38
-0.0328069878681 -0.0621606085921 0.933 1.03820956066e-38
-0.0309803676263 -0.0619607352526 0.93 1.55449668011e-38
-0.0292592360915 -0.0619607352526 0.93 1.02877279641e-38
-0.0273900502311 -0.06162761302 0.925 1.23977919813e-38
-0.0256226517196 -0.061494364127 0.923 1.91509645731e-38
-0.0239144749383 -0.061494364127 0.923 4.49993931174e-39
-0.022206298157 -0.061494364127 0.923 1.53800648004e-38
-0.0204981213757 -0.061494364127 0.923 1.06820379377e-38
-0.0187288721851 -0.0612944907875 0.92 1.56602264023e-38
-0.0169892338596 -0.0611612418945 0.918 1.19422018246e-39
-0.0152903104736 -0.0611612418945 0.918 1.1990036549e-38
-0.0135913870877 -0.0611612418945 0.918 4.05188253556e-39
-0.0118924637017 -0.0611612418945 0.918 1.11250234147e-38
-0.0101935403157 -0.0611612418945 0.918 5.51012976948e-39
-0.00849461692979 -0.0611612418945 0.918 8.1931244729e-39
-0.00679569354383 -0.0611612418945 0.918 3.78175703319e-39
-0.00508011404625 -0.060961368555 0.915 5.07678102198e-39
-0.0033867426975 -0.060961368555 0.915 2.86985925494e-42
-0.00169337134875 -0.060961368555 0.915 2.06301387982e-38
0.0 -0.060961368555 0.915 1.37753244237e-38
0.00169337134875 -0.060961368555 0.915 1.60712118276e-38
0.0033867426975 -0.060961368555 0.915 1.59793763315e-38
0.00508011404625 -0.060961368555 0.915 1.58875408353e-38
0.006773485395 -0.060961368555 0.915 1.625488282e-38
0.00846685674374 -0.060961368555 0.915 1.625488282e-38
0.0101602280925 -0.060961368555 0.915 1.64385538123e-38
0.0118924637017 -0.0611612418945 0.918 1.66222248046e-38
0.0135913870877 -0.0611612418945 0.918 1.63467183161e-38
0.0152903104736 -0.0611612418945 0.918 1.64385538123e-38
0.0169892338596 -0.0611612418945 0.918 1.63467183161e-38
0.0187288721851 -0.0612944907875 0.92 1.75413000336e-38
