# .PCD v0.7 - Point Cloud Data file format
VERSION 0.7
FIELDS x y z rgb
SIZE 4 4 4 4
TYPE F F F F
COUNT 1 1 1 1
WIDTH 854
HEIGHT 1
VIEWPOINT 0 0 0 1 0 0 0
POINTS 854
DATA ascii
0.0254005702312 -0.0237071988825 0.915 2.35098435762e-38
0.02709394158 -0.0237071988825 0.915 2.35098323658e-38
0.0287873129287 -0.0237071988825 0.915 2.35098351684e-38
0.0304806842775 -0.0237071988825 0.915 2.3509809945e-38
0.0321740556262 -0.0237071988825 0.915 2.35097693074e-38
0.033867426975 -0.0237071988825 0.915 2.35097665048e-38
0.0355607983237 -0.0237071988825 0.915 2.35097412814e-38
0.0372541696725 -0.0237071988825 0.915 2.35097370775e-38
0.0389475410212 -0.0237071988825 0.915 2.3509702045e-38
0.0405520797746 -0.0236553798685 0.913 2.35097230645e-38
0.0422417497652 -0.0236553798685 0.913 2.35093559243e-38
0.0439314197559 -0.0236553798685 0.913 2.35097623009e-38
0.0456210897465 -0.0236553798685 0.913 2.35097482879e-38
0.0473107597371 -0.0236553798685 0.913 2.35097637022e-38
0.0490004297277 -0.0236553798685 0.913 2.35097763139e-38
0.0506900997183 -0.0236553798685 0.913 2.35097524918e-38
0.0522076565554 -0.0235776513476 0.91 5.23467653035e-39
0.0538917745088 -0.0235776513476 0.91 2.35097426827e-38
0.0557591096901 -0.0236553798685 0.913 1.67802856662e-38
0.0574487796807 -0.0236553798685 0.913 2.15510903659e-38
0.0591384496713 -0.0236553798685 0.913 2.35098856151e-38
0.0606282463224 -0.0235776513476 0.91 2.94773921969e-39
0.0623123642758 -0.0235776513476 0.91 2.34948188541e-38
0.0639964822292 -0.0235776513476 0.91 2.35098575892e-38
0.0656806001826 -0.0235776513476 0.91 1.67500330336e-38
-0.00168966999061 -0.0219657098779 0.913 1.43575933629e-38
0.0 -0.0219657098779 0.913 2.34888451187e-38
0.00168966999061 -0.0219657098779 0.913 1.5742612943e-38
0.00337933998122 -0.0219657098779 0.913 2.34971884498e-38
0.00506900997183 -0.0219657098779 0.913 2.06282512492e-38
0.006773485395 -0.0220138275337 0.915 2.34960113591e-38
0.00846685674374 -0.0220138275337 0.915 2.07262846885e-38
0.0101602280925 -0.0220138275337 0.915 2.34867683944e-38
0.0118535994412 -0.0220138275337 0.915 2.35096950386e-38
0.01354697079 -0.0220138275337 0.915 1.93364530495e-38
0.0152403421387 -0.0220138275337 0.915 2.35098365697e-38
0.0169337134875 -0.0220138275337 0.915 2.35098814113e-38
0.0186270848362 -0.0220138275337 0.915 2.35098814113e-38
0.020320456185 -0.0220138275337 0.915 2.35098786087e-38
0.0220138275337 -0.0220138275337 0.915 2.35098814113e-38
0.0237071988825 -0.0220138275337 0.915 2.35098155502e-38
0.0254005702312 -0.0220138275337 0.915 2.35098337671e-38
0.02709394158 -0.0220138275337 0.915 2.3509809945e-38
0.0287873129287 -0.0220138275337 0.915 2.35097819191e-38
0.0304806842775 -0.0220138275337 0.915 2.35097931294e-38
0.0321740556262 -0.0220138275337 0.915 2.3509823958e-38
0.0337933998122 -0.0219657098779 0.913 2.35097412814e-38
0.0354830698028 -0.0219657098779 0.913 2.3509744084e-38
0.0371727397934 -0.0219657098779 0.913 2.35097286697e-38
0.038862409784 -0.0219657098779 0.913 2.35075566571e-38
0.0404188308816 -0.0218935333942 0.91 2.35086580777e-38
0.042102948835 -0.0218935333942 0.91 2.35097048476e-38
0.0437870667884 -0.0218935333942 0.91 2.35097651035e-38
0.0454711847418 -0.0218935333942 0.91 2.35097889256e-38
0.0471553026952 -0.0218935333942 0.91 2.35098141489e-38
0.0490004297277 -0.0219657098779 0.913 2.35098155502e-38
0.0506900997183 -0.0219657098779 0.913 5.51443455836e-39
0.0522076565554 -0.0218935333942 0.91 2.35054841367e-38
0.0538917745088 -0.0218935333942 0.91 2.35098856151e-38
0.0557591096901 -0.0219657098779 0.913 3.86462421918e-39
0.0574487796807 -0.0219657098779 0.913 2.35098575892e-38
0.0591384496713 -0.0219657098779 0.913 2.35098856151e-38
0.0606282463224 -0.0218935333942 0.91 1.48045291003e-38
0.0623123642758 -0.0218935333942 0.91 2.35098856151e-38
0.0639964822292 -0.0218935333942 0.91 1.73327139546e-38
0.0656806001826 -0.0218935333942 0.91 2.13370658475e-38
0.0 -0.0202760398873 0.913 1.53487247602e-38
0.00168966999061 -0.0202760398873 0.913 2.0627254926e-38
0.00337933998122 -0.0202760398873 0.913 2.34966755745e-38
0.00506900997183 -0.0202760398873 0.913 2.19154321705e-38
0.006773485395 -0.020320456185 0.915 9.0949427113e-39
0.00846685674374 -0.020320456185 0.915 2.35039665304e-38
0.0101602280925 -0.020320456185 0.915 2.26497532035e-38
0.0118535994412 -0.020320456185 0.915 2.34936613815e-38
0.0135173599249 -0.0202760398873 0.913 2.34989288625e-38
0.0152070299155 -0.0202760398873 0.913 2.18242034366e-38
0.0168966999061 -0.0202760398873 0.913 2.35098071424e-38
0.0185863698967 -0.0202760398873 0.913 2.35098575892e-38
0.0202760398873 -0.0202760398873 0.913 2.35098617931e-38
0.0219657098779 -0.0202760398873 0.913 2.3509851984e-38
0.0236553798685 -0.0202760398873 0.913 2.35098491814e-38
0.0253450498591 -0.0202760398873 0.913 2.35098477801e-38
0.02709394158 -0.020320456185 0.915 2.35097875243e-38
0.0287873129287 -0.020320456185 0.915 2.3509786123e-38
0.0304806842775 -0.020320456185 0.915 2.35097819191e-38
0.0321740556262 -0.020320456185 0.915 2.35097426827e-38
0.0337933998122 -0.0202760398873 0.913 2.35097202619e-38
0.0354830698028 -0.0202760398873 0.913 2.35097735113e-38
0.0371727397934 -0.0202760398873 0.913 2.35097132554e-38
0.038862409784 -0.0202760398873 0.913 2.35097230645e-38
0.0404188308816 -0.0202094154408 0.91 2.3509716058e-38
0.042102948835 -0.0202094154408 0.91 2.35097454853e-38
0.0437870667884 -0.0202094154408 0.91 2.35097847217e-38
0.0454711847418 -0.0202094154408 0.91 2.35097973333e-38
0.0471553026952 -0.0202094154408 0.91 2.35098155502e-38
0.0488394206486 -0.0202094154408 0.91 6.80228389901e-39
0.050523538602 -0.0202094154408 0.91 2.34713471048e-38
0.0522076565554 -0.0202094154408 0.91 2.35098856151e-38
0.0538917745088 -0.0202094154408 0.91 4.5042651201e-39
0.0555758924622 -0.0202094154408 0.91 2.35097875243e-38
0.0574487796807 -0.0202760398873 0.913 2.35098856151e-38
0.0591384496713 -0.0202760398873 0.913 2.7558327963e-39
0.0606282463224 -0.0202094154408 0.91 2.35096431905e-38
0.0623123642758 -0.0202094154408 0.91 2.35098856151e-38
0.0639964822292 -0.0202094154408 0.91 1.7512267932e-38
0.0656806001826 -0.0202094154408 0.91 2.34650608799e-38
0.0 -0.0185863698967 0.913 1.71094408664e-38
0.00168966999061 -0.0185863698967 0.913 2.34776641583e-38
0.00337933998122 -0.0185863698967 0.913 1.51826316558e-38
0.00506900997183 -0.0185863698967 0.913 2.34932914387e-38
0.006773485395 -0.0186270848362 0.915 2.16384697329e-38
0.00846685674374 -0.0186270848362 0.915 1.55510498377e-38
0.0101602280925 -0.0186270848362 0.915 2.3491485165e-38
0.0118535994412 -0.0186270848362 0.915 2.34851554998e-38
0.0135173599249 -0.0185863698967 0.913 2.35098169515e-38
0.0152070299155 -0.0185863698967 0.913 2.12930748848e-38
0.0168966999061 -0.0185863698967 0.913 2.07164377642e-38
0.0185863698967 -0.0185863698967 0.913 2.35097524918e-38
0.0202760398873 -0.0185863698967 0.913 2.35098561879e-38
0.0219657098779 -0.0185863698967 0.913 2.35098603918e-38
0.0236553798685 -0.0185863698967 0.913 2.35098617931e-38
0.0253450498591 -0.0185863698967 0.913 2.35098393723e-38
0.0270347198498 -0.0185863698967 0.913 2.35097945307e-38
0.0287873129287 -0.0186270848362 0.915 2.35098197541e-38
0.030414059831 -0.0185863698967 0.913 2.35097833204e-38
0.0321037298216 -0.0185863698967 0.913 2.35097468866e-38
0.033682359068 -0.0185252974874 0.91 2.35097538931e-38
0.0353664770214 -0.0185252974874 0.91 2.35097608996e-38
0.0370505949748 -0.0185252974874 0.91 2.35097594983e-38
0.0387347129282 -0.0185252974874 0.91 2.35097426827e-38
0.0403299982863 -0.0184845825479 0.908 2.35097230645e-38
0.0420104148815 -0.0184845825479 0.908 2.35098057411e-38
0.0437870667884 -0.0185252974874 0.91 2.35098169515e-38
0.0454711847418 -0.0185252974874 0.91 2.35098015372e-38
0.0471553026952 -0.0185252974874 0.91 7.08424757081e-39
0.0488394206486 -0.0185252974874 0.91 2.34834725404e-38
0.0504124978578 -0.0184845825479 0.908 2.35098856151e-38
0.0520929144531 -0.0184845825479 0.908 1.11481182147e-38
0.0538917745088 -0.0185252974874 0.91 2.34889137823e-38
0.0555758924622 -0.0185252974874 0.91 2.35098856151e-38
0.0574487796807 -0.0185863698967 0.913 1.5488865817e-38
0.0591384496713 -0.0185863698967 0.913 2.35064958742e-38
0.0606282463224 -0.0185252974874 0.91 2.35098856151e-38
0.0623123642758 -0.0185252974874 0.91 1.96369530974e-38
0.0639964822292 -0.0185252974874 0.91 2.07882431001e-38
0.0656806001826 -0.0185252974874 0.91 2.3464840876e-38
0.0 -0.0168966999061 0.913 2.0334862791e-38
0.00168966999061 -0.0168966999061 0.913 1.54513460507e-38
0.00337933998122 -0.0168966999061 0.913 2.3398063399e-38
0.00506900997183 -0.0168966999061 0.913 2.00732305587e-38
0.006773485395 -0.0169337134875 0.915 2.34835243884e-38
0.00844834995305 -0.0168966999061 0.913 1.98892330638e-38
0.0101380199437 -0.0168966999061 0.913 2.09022611509e-38
0.0118276899343 -0.0168966999061 0.913 2.34903501133e-38
0.0135173599249 -0.0168966999061 0.913 2.27450709263e-38
0.0152070299155 -0.0168966999061 0.913 2.35098001359e-38
0.0168966999061 -0.0168966999061 0.913 2.28618551403e-38
0.0185863698967 -0.0168966999061 0.913 1.82318571142e-38
0.0202760398873 -0.0168966999061 0.913 2.3500607618e-38
0.0219657098779 -0.0168966999061 0.913 2.35097623009e-38
0.0236553798685 -0.0168966999061 0.913 2.35097945307e-38
0.0253450498591 -0.0168966999061 0.913 2.35098169515e-38
0.0270347198498 -0.0168966999061 0.913 2.35098001359e-38
0.0287243898404 -0.0168966999061 0.913 2.35097819191e-38
0.030414059831 -0.0168966999061 0.913 2.35097833204e-38
0.0321037298216 -0.0168966999061 0.913 2.35097679061e-38
0.033682359068 -0.016841179534 0.91 2.35097749126e-38
0.0353664770214 -0.016841179534 0.91 2.35097594983e-38
0.0370505949748 -0.016841179534 0.91 2.35097623009e-38
0.0387347129282 -0.016841179534 0.91 2.35097735113e-38
0.0403299982863 -0.0168041659526 0.908 2.35098169515e-38
0.0420104148815 -0.0168041659526 0.908 2.35098113463e-38
0.0436908314768 -0.0168041659526 0.908 1.86071865001e-38
0.0453712480721 -0.0168041659526 0.908 8.81620763117e-39
0.0470516646673 -0.0168041659526 0.908 2.35097370775e-38
0.0487320812626 -0.0168041659526 0.908 2.35098856151e-38
0.0504124978578 -0.0168041659526 0.908 1.2249070774e-38
0.0520929144531 -0.0168041659526 0.908 2.34852535907e-38
0.0537733310484 -0.0168041659526 0.908 2.35098856151e-38
0.0554537476436 -0.0168041659526 0.908 2.35098856151e-38
0.0571341642389 -0.0168041659526 0.908 1.4382693421e-38
0.0591384496713 -0.0168966999061 0.913 2.35098856151e-38
0.0606282463224 -0.016841179534 0.91 2.35098856151e-38
0.0623123642758 -0.016841179534 0.91 1.58333722419e-38
0.0642074596432 -0.0168966999061 0.913 2.34600652508e-38
0.0658971296338 -0.0168966999061 0.913 2.34572416344e-38
0.0 -0.0152070299155 0.913 1.92281424873e-38
0.00168966999061 -0.0152070299155 0.913 1.85791577282e-38
0.00337933998122 -0.0152070299155 0.913 1.64619428849e-38
0.00506900997183 -0.0152070299155 0.913 2.09963695532e-38
0.00675867996244 -0.0152070299155 0.913 2.34944923515e-38
0.00844834995305 -0.0152070299155 0.913 2.28367074381e-38
0.0101380199437 -0.0152070299155 0.913 2.09966147804e-38
0.0117888256738 -0.0151570615806 0.91 2.09026198833e-38
0.0134729436272 -0.0151570615806 0.91 2.34885704642e-38
0.0151570615806 -0.0151570615806 0.91 2.09923029851e-38
0.016841179534 -0.0151570615806 0.91 2.35097454853e-38
0.0185252974874 -0.0151570615806 0.91 2.35097594983e-38
0.0202094154408 -0.0151570615806 0.91 1.92478923878e-38
0.0218935333942 -0.0151570615806 0.91 2.16347927258e-38
0.0235776513476 -0.0151570615806 0.91 2.20165148352e-38
0.025261769301 -0.0151570615806 0.91 2.35097188606e-38
0.0269458872544 -0.0151570615806 0.91 2.35097510905e-38
0.0286300052078 -0.0151570615806 0.91 2.35097679061e-38
0.0303141231612 -0.0151570615806 0.91 2.35097791165e-38
0.0319982411146 -0.0151570615806 0.91 2.35097735113e-38
0.033682359068 -0.0151570615806 0.91 2.35098281619e-38
0.0353664770214 -0.0151570615806 0.91 2.35097987346e-38
0.0370505949748 -0.0151570615806 0.91 2.3509786123e-38
0.038649581691 -0.0151237493574 0.908 2.35097496892e-38
0.0403299982863 -0.0151237493574 0.908 1.49254597565e-38
0.0420104148815 -0.0151237493574 0.908 1.75879324439e-38
0.0436908314768 -0.0151237493574 0.908 2.155373882e-38
0.0453712480721 -0.0151237493574 0.908 2.35098589905e-38
0.0470516646673 -0.0151237493574 0.908 2.35098856151e-38
0.0487320812626 -0.0151237493574 0.908 5.88895119113e-39
0.0504124978578 -0.0151237493574 0.908 2.34967554485e-38
0.0520929144531 -0.0151237493574 0.908 2.35098856151e-38
0.0537733310484 -0.0151237493574 0.908 2.35098856151e-38
0.0554537476436 -0.0151237493574 0.908 1.22600387371e-38
0.0571341642389 -0.0151237493574 0.908 2.35098856151e-38
0.0591384496713 -0.0152070299155 0.913 2.35098856151e-38
0.0606282463224 -0.0151570615806 0.91 1.65752308593e-38
0.0623123642758 -0.0151570615806 0.91 2.16139862462e-38
0.0642074596432 -0.0152070299155 0.913 2.3358920929e-38
0.0660414826012 -0.0152403421387 0.915 2.34680330339e-38
0.0 -0.0135173599249 0.913 1.64622707888e-38
0.00168966999061 -0.0135173599249 0.913 1.98702720943e-38
0.0033867426975 -0.01354697079 0.915 1.83036918774e-38
0.00506900997183 -0.0135173599249 0.913 1.91297797429e-38
0.00675867996244 -0.0135173599249 0.913 1.95187591771e-38
0.008420589767 -0.0134729436272 0.91 2.34970006758e-38
0.0101047077204 -0.0134729436272 0.91 2.274449219e-38
0.0117888256738 -0.0134729436272 0.91 2.14572285921e-38
0.0134729436272 -0.0134729436272 0.91 1.84055060199e-38
0.0151237493574 -0.0134433327621 0.908 2.34953835773e-38
0.0168041659526 -0.0134433327621 0.908 2.00739480235e-38
0.0184845825479 -0.0134433327621 0.908 2.34923455623e-38
0.0201649991431 -0.0134433327621 0.908 2.35097987346e-38
0.0218454157384 -0.0134433327621 0.908 2.35096978412e-38
0.0235258323337 -0.0134433327621 0.908 1.99094467941e-38
0.0252062489289 -0.0134433327621 0.908 1.53771781255e-38
0.0268866655242 -0.0134433327621 0.908 1.62807115533e-38
0.0286300052078 -0.0134729436272 0.91 1.78433499176e-38
0.0303141231612 -0.0134729436272 0.91 1.7760841464e-38
0.0319982411146 -0.0134729436272 0.91 1.7953849308e-38
0.0336083319052 -0.0134433327621 0.908 1.6202866621e-38
0.0352887485005 -0.0134433327621 0.908 1.44411317708e-38
0.0369691650957 -0.0134433327621 0.908 1.97661654275e-38
0.038649581691 -0.0134433327621 0.908 1.85891545914e-38
0.0403299982863 -0.0134433327621 0.908 2.35094386009e-38
0.041917880928 -0.013413721897 0.906 2.35098589905e-38
0.0435945961652 -0.013413721897 0.906 2.35098253593e-38
0.0452713114023 -0.013413721897 0.906 1.84344442345e-38
0.0469480266394 -0.013413721897 0.906 1.30740025683e-38
0.0486247418765 -0.013413721897 0.906 2.35096137632e-38
0.0504124978578 -0.0134433327621 0.908 2.35098856151e-38
0.0520929144531 -0.0134433327621 0.908 1.81567783451e-38
0.0537733310484 -0.0134433327621 0.908 1.7224913465e-38
0.0554537476436 -0.0134433327621 0.908 2.35098856151e-38
0.0571341642389 -0.0134433327621 0.908 2.35098856151e-38
0.058944128369 -0.0134729436272 0.91 1.79571353529e-38
0.0608281196619 -0.0135173599249 0.913 1.93980961689e-38
0.0625177896526 -0.0135173599249 0.913 2.34565339787e-38
0.0642074596432 -0.0135173599249 0.913 2.289827769e-38
0.0660414826012 -0.01354697079 0.915 2.34776753686e-38
0.0 -0.0118535994412 0.915 1.60988832684e-38
0.00169337134875 -0.0118535994412 0.915 1.90394156101e-38
0.0033867426975 -0.0118535994412 0.915 1.9406773009e-38
0.00508011404625 -0.0118535994412 0.915 1.67323934886e-38
0.006773485395 -0.0118535994412 0.915 2.09686883033e-38
0.008420589767 -0.0117888256738 0.91 1.94315801957e-38
0.0101047077204 -0.0117888256738 0.91 2.19218164863e-38
0.0117629161668 -0.0117629161668 0.908 2.34846440259e-38
0.0134433327621 -0.0117629161668 0.908 2.00707614708e-38
0.0151237493574 -0.0117629161668 0.908 1.9141602498e-38
0.0168041659526 -0.0117629161668 0.908 2.34883700785e-38
0.0184845825479 -0.0117629161668 0.908 2.33923769298e-38
0.0201649991431 -0.0117629161668 0.908 1.93292882104e-38
0.0218454157384 -0.0117629161668 0.908 2.19135712461e-38
0.0235258323337 -0.0117629161668 0.908 2.35097538931e-38
0.0252062489289 -0.0117629161668 0.908 2.35097987346e-38
0.0268866655242 -0.0117629161668 0.908 2.35098057411e-38
0.0285670821194 -0.0117629161668 0.908 2.35098365697e-38
0.0302474987147 -0.0117629161668 0.908 2.35098127476e-38
0.03192791531 -0.0117629161668 0.908 2.3509786123e-38
0.0336083319052 -0.0117629161668 0.908 2.35097931294e-38
0.0352887485005 -0.0117629161668 0.908 2.35098758061e-38
0.0369691650957 -0.0117629161668 0.908 2.35098856151e-38
0.038649581691 -0.0117629161668 0.908 2.35098856151e-38
0.0403299982863 -0.0117629161668 0.908 2.35098856151e-38
0.041917880928 -0.0117370066599 0.906 1.40064559937e-38
0.0435945961652 -0.0117370066599 0.906 1.71270649971e-38
0.0452713114023 -0.0117370066599 0.906 2.34996267091e-38
0.0469480266394 -0.0117370066599 0.906 2.35098505827e-38
0.0486247418765 -0.0117370066599 0.906 2.35098449775e-38
0.0503014571137 -0.0117370066599 0.906 9.85473794905e-39
0.0520929144531 -0.0117629161668 0.908 2.3501748275e-38
0.0537733310484 -0.0117629161668 0.908 2.35098856151e-38
0.0554537476436 -0.0117629161668 0.908 2.35098856151e-38
0.0571341642389 -0.0117629161668 0.908 1.69479804547e-38
0.058944128369 -0.0117888256738 0.91 1.98558387201e-38
0.0608281196619 -0.0118276899343 0.913 2.34478613425e-38
0.0625177896526 -0.0118276899343 0.913 2.34515159289e-38
0.0642074596432 -0.0118276899343 0.913 2.34511207627e-38
0.0660414826012 -0.0118535994412 0.915 2.34842712805e-38
0.0 -0.0101602280925 0.915 1.61910817009e-38
0.00169337134875 -0.0101602280925 0.915 1.87634985412e-38
0.0033867426975 -0.0101602280925 0.915 1.86670247471e-38
0.00508011404625 -0.0101602280925 0.915 2.17095001508e-38
0.006773485395 -0.0101602280925 0.915 1.6549402126e-38
0.008420589767 -0.0101047077204 0.91 1.86706120712e-38
0.0101047077204 -0.0101047077204 0.91 2.00793808576e-38
0.0117629161668 -0.0100824995716 0.908 2.11738440037e-38
0.0134433327621 -0.0100824995716 0.908 2.34853656946e-38
0.0151237493574 -0.0100824995716 0.908 2.03539218515e-38
0.0168041659526 -0.0100824995716 0.908 2.12772107849e-38
0.0184845825479 -0.0100824995716 0.908 1.85960784072e-38
0.0201649991431 -0.0100824995716 0.908 2.348656941e-38
0.0218454157384 -0.0100824995716 0.908 2.34906836223e-38
0.0235258323337 -0.0100824995716 0.908 1.92449384507e-38
0.0252062489289 -0.0100824995716 0.908 2.13488829975e-38
0.0268866655242 -0.0100824995716 0.908 1.95057453183e-38
0.0285670821194 -0.0100824995716 0.908 2.03542595644e-38
0.0302474987147 -0.0100824995716 0.908 1.94388249088e-38
0.03192791531 -0.0100824995716 0.908 2.03640266147e-38
0.0336083319052 -0.0100824995716 0.908 1.98108248095e-38
0.0352887485005 -0.0100824995716 0.908 1.50133548013e-38
0.0369691650957 -0.0100824995716 0.908 1.49132656572e-38
0.038649581691 -0.0100824995716 0.908 1.66462598759e-38
0.0403299982863 -0.0100824995716 0.908 2.03343947574e-38
0.041917880928 -0.0100602914227 0.906 2.3509702045e-38
0.0435945961652 -0.0100602914227 0.906 2.35097735113e-38
0.0452713114023 -0.0100602914227 0.906 2.35097552944e-38
0.0469480266394 -0.0100602914227 0.906 1.47446362026e-38
0.0486247418765 -0.0100602914227 0.906 1.4735806621e-38
0.0503014571137 -0.0100602914227 0.906 2.35098043398e-38
0.0520929144531 -0.0100824995716 0.908 2.35098772074e-38
0.0537733310484 -0.0100824995716 0.908 2.23098556493e-38
0.0554537476436 -0.0100824995716 0.908 1.62914791307e-38
0.0571341642389 -0.0100824995716 0.908 1.93866167319e-38
0.058944128369 -0.0101047077204 0.91 2.34464109986e-38
0.0608281196619 -0.0101380199437 0.913 2.34478809607e-38
0.0625177896526 -0.0101380199437 0.913 2.34475474517e-38
0.0642074596432 -0.0101380199437 0.913 2.34600918755e-38
0.0660414826012 -0.0101602280925 0.915 2.34875012735e-38
0.0 -0.00849461692979 0.918 1.79474621896e-38
0.00169892338596 -0.00849461692979 0.918 1.83961565566e-38
0.00339784677192 -0.00849461692979 0.918 1.79291444161e-38
0.00508011404625 -0.00846685674374 0.915 2.24474365338e-38
0.006773485395 -0.00846685674374 0.915 1.93184799954e-38
0.008420589767 -0.008420589767 0.91 1.59054774557e-38
0.0101047077204 -0.008420589767 0.91 1.78401213259e-38
0.0117629161668 -0.00840208297631 0.908 1.90458265506e-38
0.0134433327621 -0.00840208297631 0.908 1.98804034822e-38
0.0150904371341 -0.00838357618561 0.906 2.12776031485e-38
0.0167671523712 -0.00838357618561 0.906 2.28425284319e-38
0.0184438676083 -0.00838357618561 0.906 2.18261582479e-38
0.0201205828455 -0.00838357618561 0.906 1.90598115093e-38
0.0217972980826 -0.00838357618561 0.906 2.19216076928e-38
0.0234740133197 -0.00838357618561 0.906 2.17316813042e-38
0.0251507285568 -0.00838357618561 0.906 2.32954126813e-38
0.026827443794 -0.00838357618561 0.906 2.35014077594e-38
0.0285041590311 -0.00838357618561 0.906 2.35046783901e-38
0.0302474987147 -0.00840208297631 0.908 2.35025400086e-38
0.03192791531 -0.00840208297631 0.908 2.35071755039e-38
0.0336083319052 -0.00840208297631 0.908 2.35061035106e-38
0.0352887485005 -0.00840208297631 0.908 2.35097132554e-38
0.0369691650957 -0.00840208297631 0.908 2.35097623009e-38
0.038649581691 -0.00840208297631 0.908 2.3509786123e-38
0.0402411656909 -0.00838357618561 0.906 2.35097468866e-38
0.041917880928 -0.00838357618561 0.906 2.35053650263e-38
0.0434502431977 -0.00835581599956 0.903 1.49087016281e-38
0.0451214063976 -0.00835581599956 0.903 1.6847658695e-38
0.0467925695976 -0.00835581599956 0.903 2.35097034463e-38
0.0484637327975 -0.00835581599956 0.903 2.35097482879e-38
0.0503014571137 -0.00838357618561 0.906 2.35097146567e-38
0.0520929144531 -0.00840208297631 0.908 1.88794251605e-38
0.0537733310484 -0.00840208297631 0.908 1.91311992582e-38
0.0554537476436 -0.00840208297631 0.908 1.98536863257e-38
0.0572600104156 -0.008420589767 0.91 2.34370643379e-38
0.058944128369 -0.008420589767 0.91 2.34399692296e-38
0.0608281196619 -0.00844834995305 0.913 2.34496942409e-38
0.0626547399037 -0.00846685674374 0.915 2.34497068526e-38
0.0643481112525 -0.00846685674374 0.915 2.34651589708e-38
0.0660414826012 -0.00846685674374 0.915 2.34863942477e-38
0.0 -0.00679569354383 0.918 1.69379849928e-38
0.00169892338596 -0.00679569354383 0.918 1.79380945093e-38
0.00339784677192 -0.00679569354383 0.918 1.85773458493e-38
0.00509677015787 -0.00679569354383 0.918 2.13428812362e-38
0.00679569354383 -0.00679569354383 0.918 1.66434418646e-38
0.008420589767 -0.0067364718136 0.91 2.03369857582e-38
0.0101047077204 -0.0067364718136 0.91 1.64432691816e-38
0.0117629161668 -0.00672166638105 0.908 1.75556731519e-38
0.0134433327621 -0.00672166638105 0.908 1.98712880357e-38
0.0150904371341 -0.00670686094849 0.906 1.8870042066e-38
0.0167671523712 -0.00670686094849 0.906 1.92374373e-38
0.0184438676083 -0.00670686094849 0.906 2.09941695146e-38
0.0201205828455 -0.00670686094849 0.906 2.3496067411e-38
0.0217972980826 -0.00670686094849 0.906 2.34917682273e-38
0.0234740133197 -0.00670686094849 0.906 2.2925245679e-38
0.0251507285568 -0.00670686094849 0.906 2.22754888044e-38
0.026827443794 -0.00670686094849 0.906 2.07042408623e-38
0.0285041590311 -0.00670686094849 0.906 2.32922331351e-38
0.0301808742682 -0.00670686094849 0.906 2.26564668244e-38
0.0318575895053 -0.00670686094849 0.906 2.27529812561e-38
0.0335343047424 -0.00670686094849 0.906 2.34898386393e-38
0.0352110199796 -0.00670686094849 0.906 2.01647857951e-38
0.0368877352167 -0.00670686094849 0.906 1.7110889809e-38
0.0385644504538 -0.00670686094849 0.906 2.17086944042e-38
0.0402411656909 -0.00670686094849 0.906 2.12624845394e-38
0.0417790799978 -0.00668465279965 0.903 2.35000456973e-38
0.0433540078861 -0.00666984736709 0.901 2.3509786123e-38
0.0450214697279 -0.00666984736709 0.901 2.35098281619e-38
0.0466889315697 -0.00666984736709 0.901 2.21156384847e-38
0.0484637327975 -0.00668465279965 0.903 2.31082468506e-38
0.0503014571137 -0.00670686094849 0.906 2.09758012943e-38
0.0519781723508 -0.00670686094849 0.906 1.5617415333e-38
0.0537733310484 -0.00672166638105 0.908 2.2978614131e-38
0.0554537476436 -0.00672166638105 0.908 2.31662676135e-38
0.0572600104156 -0.0067364718136 0.91 2.34432258472e-38
0.058944128369 -0.0067364718136 0.91 2.32581129188e-38
0.0608281196619 -0.00675867996244 0.913 2.34504257187e-38
0.0626547399037 -0.006773485395 0.915 2.34586317225e-38
0.0643481112525 -0.006773485395 0.915 2.34795461021e-38
0.0 -0.00509677015787 0.918 1.73092632248e-38
0.00169892338596 -0.00509677015787 0.918 1.9599743018e-38
0.00339784677192 -0.00509677015787 0.918 1.70111509895e-38
0.00509677015787 -0.00509677015787 0.918 2.0790054979e-38
0.00679569354383 -0.00509677015787 0.918 1.63664850323e-38
0.008420589767 -0.0050523538602 0.91 2.11786252341e-38
0.0101047077204 -0.0050523538602 0.91 1.60920281163e-38
0.0117629161668 -0.00504124978578 0.908 1.95908139441e-38
0.0134433327621 -0.00504124978578 0.908 1.69084932653e-38
0.0150904371341 -0.00503014571137 0.906 1.81027134477e-38
0.0167671523712 -0.00503014571137 0.906 2.20835935914e-38
0.0184438676083 -0.00503014571137 0.906 1.91441682755e-38
0.0201205828455 -0.00503014571137 0.906 1.69347199673e-38
0.0217972980826 -0.00503014571137 0.906 1.96018659851e-38
0.0234740133197 -0.00503014571137 0.906 2.22770470483e-38
0.0251507285568 -0.00503014571137 0.906 2.34981875756e-38
0.026827443794 -0.00503014571137 0.906 2.35075986961e-38
0.0285041590311 -0.00503014571137 0.906 2.35097006437e-38
0.0301808742682 -0.00503014571137 0.906 2.350966421e-38
0.0318575895053 -0.00503014571137 0.906 2.35096964399e-38
0.0335343047424 -0.00503014571137 0.906 2.35097048476e-38
0.0352110199796 -0.00503014571137 0.906 2.35097384788e-38
0.0368877352167 -0.00503014571137 0.906 2.35097328736e-38
0.0385644504538 -0.00503014571137 0.906 2.35097482879e-38
0.0402411656909 -0.00503014571137 0.906 2.28643410438e-38
0.0417790799978 -0.00501348959974 0.903 2.34878025526e-38
0.0433540078861 -0.00500238552532 0.901 1.99754129194e-38
0.0450214697279 -0.00500238552532 0.901 1.95029160967e-38
0.0466889315697 -0.00500238552532 0.901 2.23576385256e-38
0.0484637327975 -0.00501348959974 0.903 1.81970600707e-38
0.0503014571137 -0.00503014571137 0.906 2.07630897926e-38
0.0519781723508 -0.00503014571137 0.906 2.22367933486e-38
0.0537733310484 -0.00504124978578 0.908 2.34356868615e-38
0.0554537476436 -0.00504124978578 0.908 2.288284519e-38
0.0572600104156 -0.0050523538602 0.91 2.34439180886e-38
0.058944128369 -0.0050523538602 0.91 2.30737188564e-38
0.060961368555 -0.00508011404625 0.915 2.3448295745e-38
0.0628601652804 -0.00509677015787 0.918 2.34596869003e-38
0.0645590886664 -0.00509677015787 0.918 2.34821174848e-38
0.0 -0.00340524948819 0.92 1.7032698756e-38
0.0017026247441 -0.00340524948819 0.92 1.7571101448e-38
0.00340524948819 -0.00340524948819 0.92 1.79373910575e-38
0.00509677015787 -0.00339784677192 0.918 1.95911460519e-38
0.00679569354383 -0.00339784677192 0.918 1.71984191149e-38
0.00846685674374 -0.0033867426975 0.915 1.85953329164e-38
0.0101380199437 -0.00337933998122 0.913 2.04291267374e-38
0.0117629161668 -0.00336083319052 0.908 1.48121647756e-38
0.0134433327621 -0.00336083319052 0.908 1.7373769197e-38
0.0151237493574 -0.00336083319052 0.908 2.16140549098e-38
0.0168041659526 -0.00336083319052 0.908 1.61695045071e-38
0.0184438676083 -0.00335343047424 0.906 1.86426057201e-38
0.0201205828455 -0.00335343047424 0.906 1.87549422128e-38
0.0217972980826 -0.00335343047424 0.906 2.18077269692e-38
0.0234740133197 -0.00335343047424 0.906 2.03419701768e-38
0.0251507285568 -0.00335343047424 0.906 2.00675567012e-38
0.026827443794 -0.00335343047424 0.906 1.85016575153e-38
0.0284097743985 -0.00334232639983 0.903 2.05274180156e-38
0.0300809375984 -0.00334232639983 0.903 2.23703174741e-38
0.0318575895053 -0.00335343047424 0.906 2.10788317639e-38
0.0335343047424 -0.00335343047424 0.906 2.19082014704e-38
0.0352110199796 -0.00335343047424 0.906 1.97887809834e-38
0.0368877352167 -0.00335343047424 0.906 2.17259990389e-38
0.0385644504538 -0.00335343047424 0.906 2.06185752833e-38
0.0402411656909 -0.00335343047424 0.906 2.24606423705e-38
0.041917880928 -0.00335343047424 0.906 2.25488428984e-38
0.0434502431977 -0.00334232639983 0.903 1.83025273984e-38
0.0451214063976 -0.00334232639983 0.903 1.91085991166e-38
0.0467925695976 -0.00334232639983 0.903 2.16853739951e-38
0.0486247418765 -0.00335343047424 0.906 1.99480974084e-38
0.0503014571137 -0.00335343047424 0.906 2.34788678736e-38
0.0520929144531 -0.00336083319052 0.908 1.95846804608e-38
0.0538917745088 -0.0033682359068 0.91 2.34341944786e-38
0.0555758924622 -0.0033682359068 0.91 2.3441746076e-38
0.0574487796807 -0.00337933998122 0.913 2.30719265957e-38
0.0591384496713 -0.00337933998122 0.913 2.34410804593e-38
0.0611612418945 -0.00339784677192 0.918 2.34604239833e-38
0.0628601652804 -0.00339784677192 0.918 2.34680372378e-38
0.0649107176896 -0.00341635356261 0.923 2.31007092662e-38
0.00171187813945 -0.00171187813945 0.925 1.83169257401e-38
0.00342375627889 -0.00171187813945 0.925 1.78477107584e-38
0.00512453034392 -0.00170817678131 0.923 1.83940728257e-38
0.00681049897639 -0.0017026247441 0.92 1.62764544085e-38
0.00849461692979 -0.00169892338596 0.918 2.13589513269e-38
0.0101935403157 -0.00169892338596 0.918 1.93120564432e-38
0.0118535994412 -0.00169337134875 0.915 1.417748307e-38
0.0135173599249 -0.00168966999061 0.913 2.34601759534e-38
0.0151237493574 -0.00168041659526 0.908 1.8409910301e-38
0.0168041659526 -0.00168041659526 0.908 1.67359429776e-38
0.0184845825479 -0.00168041659526 0.908 2.29923202312e-38
0.0201205828455 -0.00167671523712 0.906 1.89306678428e-38
0.0217972980826 -0.00167671523712 0.906 1.91086033205e-38
0.0234740133197 -0.00167671523712 0.906 1.82763399327e-38
0.0251507285568 -0.00167671523712 0.906 1.77253269557e-38
0.026827443794 -0.00167671523712 0.906 1.92072673441e-38
0.0284097743985 -0.00167116319991 0.903 1.88399085438e-38
0.0300809375984 -0.00167116319991 0.903 2.06877461781e-38
0.0318575895053 -0.00167671523712 0.906 2.00474018254e-38
0.0335343047424 -0.00167671523712 0.906 1.93105738694e-38
0.0352110199796 -0.00167671523712 0.906 1.87570525683e-38
0.0368877352167 -0.00167671523712 0.906 1.8658389946e-38
0.0385644504538 -0.00167671523712 0.906 1.69895667892e-38
0.0402411656909 -0.00167671523712 0.906 1.85507702239e-38
0.041917880928 -0.00167671523712 0.906 2.112718637e-38
0.0435945961652 -0.00167671523712 0.906 2.16010900964e-38
0.0452713114023 -0.00167671523712 0.906 2.22644269543e-38
0.0469480266394 -0.00167671523712 0.906 2.30992070742e-38
0.0486247418765 -0.00167671523712 0.906 1.56400154746e-38
0.0504124978578 -0.00168041659526 0.908 2.22842497224e-38
0.0520929144531 -0.00168041659526 0.908 1.72859428157e-38
0.0538917745088 -0.0016841179534 0.91 2.34292296781e-38
0.0557591096901 -0.00168966999061 0.913 2.34445977184e-38
0.0574487796807 -0.00168966999061 0.913 2.34450671534e-38
0.0592679972062 -0.00169337134875 0.915 2.34475376426e-38
0.0612944907875 -0.0017026247441 0.92 2.34564793281e-38
0.0633394911595 -0.00171187813945 0.925 2.34788482555e-38
0.0650513692989 -0.00171187813945 0.925 2.08891085635e-38
0.00171743017665 0.0 0.928 1.8133260353e-38
0.00342375627889 0.0 0.925 1.85009512609e-38
0.00512453034392 0.0 0.923 1.59980752582e-38
0.00681049897639 0.0 0.92 1.86688394286e-38
0.00851312372049 0.0 0.92 2.03383338073e-38
0.0101935403157 0.0 0.918 1.88585640303e-38
0.0118924637017 0.0 0.918 1.56508363013e-38
0.01354697079 0.0 0.915 2.17063079929e-38
0.0152403421387 0.0 0.915 1.49139564974e-38
0.016841179534 0.0 0.91 2.19075260446e-38
0.0185252974874 0.0 0.91 1.77634590895e-38
0.0201649991431 0.0 0.908 1.65303893084e-38
0.0218454157384 0.0 0.908 1.97622095619e-38
0.0235258323337 0.0 0.908 2.09653980545e-38
0.0251507285568 0.0 0.906 2.29923454546e-38
0.026827443794 0.0 0.906 2.17948168065e-38
0.0285041590311 0.0 0.906 2.17919203226e-38
0.0301808742682 0.0 0.906 2.11436880608e-38
0.0318575895053 0.0 0.906 2.04933328318e-38
0.0335343047424 0.0 0.906 2.31663096525e-38
0.0352110199796 0.0 0.906 2.15164572743e-38
0.0368877352167 0.0 0.906 2.34579534941e-38
0.0385644504538 0.0 0.906 2.17127231372e-38
0.0402411656909 0.0 0.906 2.11649541662e-38
0.041917880928 0.0 0.906 1.86799503241e-38
0.0435945961652 0.0 0.906 2.16237070536e-38
0.0452713114023 0.0 0.906 1.75653323023e-38
0.0469480266394 0.0 0.906 1.71036619115e-38
0.0486247418765 0.0 0.906 1.28734977775e-38
0.0504124978578 0.0 0.908 2.22849405626e-38
0.0522076565554 0.0 0.91 1.86681191612e-38
0.0540694396995 0.0 0.913 2.34357092822e-38
0.0558812545087 0.0 0.915 2.34471747063e-38
0.0577633951226 0.0 0.918 2.23354181358e-38
0.0594623185085 0.0 0.918 2.34485549853e-38
0.061494364127 0.0 0.923 2.34641093982e-38
0.0635449165362 0.0 0.928 2.34802285344e-38
0.0652623467129 0.0 0.928 2.34737349174e-38
0.00171743017665 0.00171743017665 0.928 1.49071587985e-38
0.00342375627889 0.00171187813945 0.925 2.00690602944e-38
0.00512453034392 0.00170817678131 0.923 1.60909743399e-38
0.00683270712523 0.00170817678131 0.923 1.75553172221e-38
0.00854088390653 0.00170817678131 0.923 1.95861027787e-38
0.0102157484646 0.0017026247441 0.92 1.83961957929e-38
0.0118924637017 0.00169892338596 0.918 1.84992542885e-38
0.0135913870877 0.00169892338596 0.918 2.12399208315e-38
0.0152903104736 0.00169892338596 0.918 2.05390417864e-38
0.0169892338596 0.00169892338596 0.918 2.00612648711e-38
0.0185863698967 0.00168966999061 0.913 2.15531684915e-38
0.0202760398873 0.00168966999061 0.913 1.44181728968e-38
0.0218935333942 0.0016841179534 0.91 2.34914094949e-38
0.0235258323337 0.00168041659526 0.908 1.99746702312e-38
0.0252062489289 0.00168041659526 0.908 2.34726839435e-38
0.0268866655242 0.00168041659526 0.908 1.31432379228e-38
0.0285670821194 0.00168041659526 0.908 2.07620079902e-38
0.0301808742682 0.00167671523712 0.906 1.92886827848e-38
0.0318575895053 0.00167671523712 0.906 2.20566620362e-38
0.0336083319052 0.00168041659526 0.908 2.34722691592e-38
0.0352110199796 0.00167671523712 0.906 2.31882651968e-38
0.0368877352167 0.00167671523712 0.906 1.97701058788e-38
0.0385644504538 0.00167671523712 0.906 1.93959549849e-38
0.0403299982863 0.00168041659526 0.908 1.65497692662e-38
0.0420104148815 0.00168041659526 0.908 1.62853974953e-38
0.0436908314768 0.00168041659526 0.908 1.96790312877e-38
0.0453712480721 0.00168041659526 0.908 1.62617113474e-38
0.0471553026952 0.0016841179534 0.91 1.62889623986e-38
0.0488394206486 0.0016841179534 0.91 9.94190992392e-39
0.0506900997183 0.00168966999061 0.913 2.19194132594e-38
0.0524945118112 0.00169337134875 0.915 1.89439941912e-38
0.0543655483507 0.00169892338596 0.918 2.3432116353e-38
0.0561866165552 0.0017026247441 0.92 2.34446439612e-38
0.0578892412993 0.0017026247441 0.92 2.34550331881e-38
0.0595918660434 0.0017026247441 0.92 2.34600652508e-38
0.0618274863596 0.00171743017665 0.928 2.34720239319e-38
0.0640242424153 0.00173038493014 0.935 2.34723896708e-38
0.0657546273454 0.00173038493014 0.935 2.34737713511e-38
0.001726683572 0.00345336714401 0.933 1.57358460727e-38
0.00344226306959 0.00344226306959 0.93 2.0156939925e-38
0.00515229052996 0.00343486035331 0.928 1.79413539296e-38
0.00686972070662 0.00343486035331 0.928 1.61727779403e-38
0.00855939069723 0.00342375627889 0.925 2.25389287118e-38
0.0102490606878 0.00341635356261 0.923 1.79423600619e-38
0.0119183732087 0.00340524948819 0.92 1.52446923622e-38
0.0135913870877 0.00339784677192 0.918 2.19702831963e-38
0.0152903104736 0.00339784677192 0.918 1.83220502886e-38
0.0169892338596 0.00339784677192 0.918 1.77397309026e-38
0.0185863698967 0.00337933998122 0.913 2.09074487578e-38
0.0202760398873 0.00337933998122 0.913 1.2765133966e-38
0.0219657098779 0.00337933998122 0.913 2.34935674945e-38
0.0236553798685 0.00337933998122 0.913 7.71418167727e-39
0.025261769301 0.0033682359068 0.91 2.34917892468e-38
0.0269458872544 0.0033682359068 0.91 1.02080893698e-38
0.0286300052078 0.0033682359068 0.91 1.92087443126e-38
0.0303141231612 0.0033682359068 0.91 1.8386843527e-38
0.0319982411146 0.0033682359068 0.91 2.16054060957e-38
0.0336083319052 0.00336083319052 0.908 2.34731127408e-38
0.0352887485005 0.00336083319052 0.908 1.36006217416e-38
0.0369691650957 0.00336083319052 0.908 1.525330194e-38
0.038649581691 0.00336083319052 0.908 2.20768281224e-38
0.0403299982863 0.00336083319052 0.908 1.82024410568e-38
0.0420104148815 0.00336083319052 0.908 1.57114032236e-38
0.0436908314768 0.00336083319052 0.908 1.76550560416e-38
0.0454711847418 0.0033682359068 0.91 1.27906207824e-38
0.0473107597371 0.00337933998122 0.913 2.05376194684e-38
0.0491077691137 0.0033867426975 0.915 1.8510379197e-38
0.0508011404625 0.0033867426975 0.915 2.34801738838e-38
0.0526666249647 0.00339784677192 0.918 1.77454383913e-38
0.0544839918111 0.00340524948819 0.92 2.32599093834e-38
0.0563698337831 0.00341635356261 0.923 2.34633442893e-38
0.0580780105644 0.00341635356261 0.923 2.12495533571e-38
0.0597861873457 0.00341635356261 0.923 2.34658245875e-38
0.0622938574851 0.00346076986028 0.935 2.34849467064e-38
0.0640242424153 0.00346076986028 0.935 2.30967463941e-38
0.0659656047594 0.0034718739347 0.938 2.34809852356e-38
0.001726683572 0.00518005071601 0.933 1.64755564995e-38
0.00345336714401 0.00518005071601 0.933 1.71130408021e-38
0.00518005071601 0.00518005071601 0.933 1.87700201842e-38
0.00690673428801 0.00518005071601 0.933 1.74781883534e-38
0.00863341786002 0.00518005071601 0.933 1.6448276021e-38
0.0102712688367 0.00513563441834 0.925 2.21808675269e-38
0.0119572374691 0.00512453034392 0.923 1.88553956945e-38
0.0135913870877 0.00509677015787 0.918 1.89450339546e-38
0.0152903104736 0.00509677015787 0.918 1.4061234152e-38
0.0169892338596 0.00509677015787 0.918 2.04922804566e-38
0.0186881572455 0.00509677015787 0.918 2.2377514543e-38
0.020320456185 0.00508011404625 0.915 1.4510008393e-38
0.0220138275337 0.00508011404625 0.915 2.34918046611e-38
0.0236553798685 0.00506900997183 0.913 7.71418167727e-39
0.0253450498591 0.00506900997183 0.913 2.34892907316e-38
0.0270347198498 0.00506900997183 0.913 8.55325677693e-39
0.0287243898404 0.00506900997183 0.913 2.3181077937e-38
0.0304806842775 0.00508011404625 0.915 1.94222573571e-38
0.0321037298216 0.00506900997183 0.913 2.06186355392e-38
0.0337933998122 0.00506900997183 0.913 2.16424928608e-38
0.0353664770214 0.0050523538602 0.91 1.04889768444e-38
0.0369691650957 0.00504124978578 0.908 1.32583910254e-38
0.038649581691 0.00504124978578 0.908 1.79456292912e-38
0.0404188308816 0.0050523538602 0.91 1.81192515722e-38
0.042102948835 0.0050523538602 0.91 2.16374187591e-38
0.0437870667884 0.0050523538602 0.91 2.09034676689e-38
0.0457210264162 0.00508011404625 0.915 1.56570216328e-38
0.047414397765 0.00508011404625 0.915 1.97117614159e-38
0.0492687781928 0.00509677015787 0.918 1.85959761124e-38
0.0510787423229 0.00510787423229 0.92 2.34701349816e-38
0.0529534802205 0.00512453034392 0.923 2.16190631505e-38
0.0546616570018 0.00512453034392 0.923 2.12570923429e-38
0.0564919786017 0.00513563441834 0.925 1.63764987111e-38
0.0583926260063 0.00515229052996 0.928 2.34655485317e-38
0.0607577938573 0.00520781090205 0.938 2.34806335097e-38
0.0624937308247 0.00520781090205 0.938 2.20958577556e-38
0.064229667792 0.00520781090205 0.938 2.34709365243e-38
0.0659656047594 0.00520781090205 0.938 2.34711691399e-38
0.00173038493014 0.00692153972057 0.935 1.53739159027e-38
0.00346076986028 0.00692153972057 0.935 1.58244249512e-38
0.00519115479043 0.00692153972057 0.935 1.69232167082e-38
0.00692153972057 0.00692153972057 0.935 1.8404830594e-38
0.00865192465071 0.00692153972057 0.935 1.77515424474e-38
0.010360101432 0.00690673428801 0.933 2.20880272998e-38
0.0120220112366 0.00686972070662 0.928 1.64536738227e-38
0.0136654142505 0.00683270712523 0.923 2.27258381049e-38
0.0153236226969 0.00681049897639 0.92 1.73748762228e-38
0.017026247441 0.00681049897639 0.92 2.14199974932e-38
0.0187288721851 0.00681049897639 0.92 1.55280909637e-38
0.0203870806315 0.00679569354383 0.918 1.75405797662e-38
0.0220138275337 0.006773485395 0.915 2.34837598066e-38
0.0237071988825 0.006773485395 0.915 1.45351378783e-38
0.0254005702312 0.006773485395 0.915 2.34871775735e-38
0.02709394158 0.006773485395 0.915 1.04879006472e-38
0.0288816975613 0.00679569354383 0.918 2.19832536149e-38
0.0304806842775 0.006773485395 0.915 2.02577479352e-38
0.0321740556262 0.006773485395 0.915 2.11790161963e-38
0.0337933998122 0.00675867996244 0.913 2.06351582493e-38
0.0354830698028 0.00675867996244 0.913 1.19677545021e-38
0.0372541696725 0.006773485395 0.915 2.34835678287e-38
0.038862409784 0.00675867996244 0.913 2.34905617093e-38
0.0405520797746 0.00675867996244 0.913 1.39970210511e-38
0.0422417497652 0.00675867996244 0.913 1.73190835244e-38
0.0440276550675 0.006773485395 0.915 1.44541680505e-38
0.0457210264162 0.006773485395 0.915 1.76780709676e-38
0.0475698548068 0.00679569354383 0.918 1.96062422402e-38
0.0493761175788 0.00681049897639 0.92 1.74703396807e-38
0.0512453034392 0.00683270712523 0.923 2.28074889638e-38
0.0529534802205 0.00683270712523 0.923 2.08807512195e-38
0.0547801004623 0.00684751255778 0.925 2.08882846e-38
0.0566751958296 0.00686972070662 0.928 2.02490360627e-38
0.0588330876248 0.00692153972057 0.935 1.83165207648e-38
0.0608873413922 0.00695855330196 0.94 2.34910465586e-38
0.0626269797177 0.00695855330196 0.94 2.05263095885e-38
0.0643666180432 0.00695855330196 0.94 2.34691232441e-38
0.00173038493014 0.00865192465071 0.935 1.72188822764e-38
0.00346076986028 0.00865192465071 0.935 1.41746174146e-38
0.00519115479043 0.00865192465071 0.935 1.96008724645e-38
0.00692153972057 0.00865192465071 0.935 1.39780082336e-38
0.00867968483676 0.00867968483676 0.938 1.79434768967e-38
0.0103823095809 0.00865192465071 0.935 2.00628273189e-38
0.012086785004 0.00863341786002 0.933 1.52479321643e-38
0.0137690522784 0.00860565767397 0.93 2.34728142643e-38
0.0153735910318 0.00854088390653 0.923 1.39651008734e-38
0.0170817678131 0.00854088390653 0.923 1.80933864052e-38
0.0187899445944 0.00854088390653 0.923 1.94809787692e-38
0.0204314969292 0.00851312372049 0.92 2.3447197127e-38
0.0220860040175 0.00849461692979 0.918 1.87409320307e-38
0.0237849274034 0.00849461692979 0.918 1.89267217863e-38
0.0254838507894 0.00849461692979 0.918 1.74552336832e-38
0.0271827741753 0.00849461692979 0.918 1.50692750179e-38
0.0288816975613 0.00849461692979 0.918 2.34656143928e-38
0.0305806209472 0.00849461692979 0.918 2.34889193875e-38
0.0322795443332 0.00849461692979 0.918 1.92486056488e-38
0.033867426975 0.00846685674374 0.915 1.24222712642e-38
0.0355607983237 0.00846685674374 0.915 1.77724596296e-38
0.0372541696725 0.00846685674374 0.915 1.53717228706e-38
0.0389475410212 0.00846685674374 0.915 1.6290072227e-38
0.04064091237 0.00846685674374 0.915 1.63851026837e-38
0.0423342837187 0.00846685674374 0.915 1.8782165238e-38
0.0441720080349 0.00849461692979 0.918 1.95100767318e-38
0.0458709314209 0.00849461692979 0.918 1.5349442225e-38
0.0478289498766 0.00854088390653 0.923 2.03150162009e-38
0.0495371266579 0.00854088390653 0.923 2.24362779941e-38
0.0513563441834 0.00855939069723 0.925 2.34583178317e-38
0.0532403354763 0.00858715088327 0.928 2.01471294345e-38
0.054957765653 0.00858715088327 0.928 2.34590184809e-38
0.0571027026947 0.00865192465071 0.935 1.92277347094e-38
0.0590218568899 0.00867968483676 0.938 2.19089301456e-38
0.0608873413922 0.00869819162745 0.94 2.27441993187e-38
0.0628268530572 0.0087259518135 0.943 2.29109103957e-38
0.0645720434199 0.0087259518135 0.943 2.29116292618e-38
0.00173593696735 0.0104156218041 0.938 1.63887362506e-38
0.0034718739347 0.0104156218041 0.938 1.55621929631e-38
0.00520781090205 0.0104156218041 0.938 1.50882850328e-38
0.00695855330196 0.0104378299529 0.94 2.02433257715e-38
0.00869819162745 0.0104378299529 0.94 1.03774110659e-38
0.0104156218041 0.0104156218041 0.938 1.80324579479e-38
0.012112694511 0.0103823095809 0.935 2.09824154231e-38
0.0138430794411 0.0103823095809 0.935 1.80353278072e-38
0.015406903255 0.0102712688367 0.925 2.34666163212e-38
0.0171187813945 0.0102712688367 0.925 2.08941854679e-38
0.0188306595339 0.0102712688367 0.925 2.07867493159e-38
0.0204981213757 0.0102490606878 0.923 1.44210427561e-38
0.0221341216733 0.0102157484646 0.92 1.9193618697e-38
0.0237849274034 0.0101935403157 0.918 2.03914262035e-38
0.0254838507894 0.0101935403157 0.918 2.29836686145e-38
0.0271827741753 0.0101935403157 0.918 2.34676841106e-38
0.0289446206497 0.0102157484646 0.92 2.34755257768e-38
0.0306472453938 0.0102157484646 0.92 2.34813551784e-38
0.0323498701378 0.0102157484646 0.92 2.09865758782e-38
0.0339784677192 0.0101935403157 0.918 1.92274362329e-38
0.0356773911051 0.0101935403157 0.918 1.90495133668e-38
0.0373763144911 0.0101935403157 0.918 1.87736103109e-38
0.039075237877 0.0101935403157 0.918 1.77497698048e-38
0.040774161263 0.0101935403157 0.918 1.91226078973e-38
0.042473084649 0.0101935403157 0.918 2.0769171428e-38
0.0442682433465 0.0102157484646 0.92 2.13083462355e-38
0.0459708680906 0.0102157484646 0.92 2.30787383075e-38
0.0479325879045 0.0102712688367 0.925 2.34756560976e-38
0.0496444660439 0.0102712688367 0.925 2.20945111077e-38
0.0515229052996 0.0103045810599 0.928 2.23555337753e-38
0.0533550775786 0.0103267892088 0.93 2.33718731307e-38
0.0553723177646 0.0103823095809 0.935 2.14378850681e-38
0.0571027026947 0.0103823095809 0.935 2.0240088772e-38
0.0590218568899 0.0104156218041 0.938 2.34946913359e-38
0.0610816626945 0.0104711421762 0.943 1.63837111943e-38
0.0628268530572 0.0104711421762 0.943 2.34684113845e-38
0.0645720434199 0.0104711421762 0.943 2.34705161348e-38
0.00525222719973 0.0122551967994 0.946 1.72127459904e-38
0.00700296959964 0.0122551967994 0.946 1.80295866874e-38
0.0087259518135 0.0122163325389 0.943 1.60855611239e-38
0.0104378299529 0.0121774682784 0.94 1.14801544846e-38
0.0121515587715 0.0121515587715 0.938 1.47883973524e-38
0.0138874957388 0.0121515587715 0.938 2.10762729929e-38
0.0154568715899 0.0120220112366 0.928 1.83047862915e-38
0.0171743017665 0.0120220112366 0.928 1.59983891491e-38
0.0188306595339 0.0119831469761 0.925 2.34616725402e-38
0.0205425376733 0.0119831469761 0.925 2.06132839803e-38
0.022206298157 0.0119572374691 0.923 2.34719888995e-38
0.0238367464174 0.0119183732087 0.92 1.74746304565e-38
0.0255393711615 0.0119183732087 0.92 2.17926532017e-38
0.0273308285009 0.0119572374691 0.923 1.88262767124e-38
0.0290390052822 0.0119572374691 0.923 1.83670992316e-38
0.0307471820635 0.0119572374691 0.923 1.89181122085e-38
0.0324553588448 0.0119572374691 0.923 1.9193618697e-38
0.0340524948819 0.0119183732087 0.92 1.92854541932e-38
0.035755119626 0.0119183732087 0.92 2.34338946007e-38
0.0374577443701 0.0119183732087 0.92 2.34629715439e-38
0.0391603691142 0.0119183732087 0.92 1.96718089954e-38
0.0408629938583 0.0119183732087 0.92 2.34582673849e-38
0.0425656186024 0.0119183732087 0.92 2.34658834421e-38
0.0442682433465 0.0119183732087 0.92 2.34615716467e-38
0.0461207730953 0.0119572374691 0.923 2.3474836338e-38
0.0479325879045 0.0119831469761 0.925 2.34766271974e-38
0.049805475123 0.0120220112366 0.928 2.01453736075e-38
0.0516339460438 0.0120479207436 0.93 2.34553905192e-38
0.0535271907321 0.012086785004 0.933 2.20728049945e-38
0.0553723177646 0.012112694511 0.935 2.11555262302e-38
0.0572859199226 0.0121515587715 0.938 2.34713330918e-38
0.0591477030667 0.0121774682784 0.94 2.34914669481e-38
0.0610816626945 0.0122163325389 0.943 1.52616018308e-38
0.0630267263967 0.0122551967994 0.946 2.34655555382e-38
0.00527998738577 0.0140799663621 0.951 2.10889155077e-38
0.00701777503219 0.0140355500644 0.948 2.08058798426e-38
0.00877221879024 0.0140355500644 0.948 1.82169038583e-38
0.0104711421762 0.0139615229016 0.943 1.13908301153e-38
0.0122163325389 0.0139615229016 0.943 1.43353519537e-38
0.0139171066039 0.0139171066039 0.94 1.19386145005e-38
0.0156234327062 0.0138874957388 0.938 1.61662815207e-38
0.0172113153479 0.0137690522784 0.93 2.08033392884e-38
0.0188917319432 0.0137394414132 0.928 1.85852912116e-38
0.0206091621199 0.0137394414132 0.928 1.65436624075e-38
0.0223265922965 0.0137394414132 0.928 2.26418442749e-38
0.0239662939522 0.0136950251156 0.925 1.79334379945e-38
0.0256781720917 0.0136950251156 0.925 2.3466596703e-38
0.0273900502311 0.0136950251156 0.925 2.12459842499e-38
0.0291019283706 0.0136950251156 0.925 2.34637730866e-38
0.03081380651 0.0136950251156 0.925 2.34605486988e-38
