# .PCD v0.7 - Point Cloud Data file format
VERSION 0.7
FIELDS x y z rgb
SIZE 4 4 4 4
TYPE F F F F
COUNT 1 1 1 1
WIDTH 841
HEIGHT 1
VIEWPOINT 0 0 0 1 0 0 0
POINTS 841
DATA ascii
0.0372449162771 -0.0599157348806 0.875 1.59793763315e-38
0.0389975093561 -0.0601211602573 0.878 1.85547288921e-38
0.0406224055793 -0.0601211602573 0.878 2.34742337796e-38
0.0423435371141 -0.0602581105085 0.88 1.87791258217e-38
0.0440720713651 -0.0603950607596 0.882 8.9119891838e-39
0.0458598273464 -0.0606004861364 0.885 1.21223401435e-38
0.0474976783231 -0.0606004861364 0.885 1.96701386476e-38
0.0492465700439 -0.0607374363875 0.887 1.9140344132e-38
0.0510028644811 -0.0608743866387 0.889 1.51668474299e-38
0.052648118174 -0.0608743866387 0.889 2.34692199337e-38
0.0542933718669 -0.0608743866387 0.889 2.34896816939e-38
0.0559386255599 -0.0608743866387 0.889 2.34878501968e-38
-0.0167671523712 -0.0603617485364 0.906 2.1366637449e-38
-0.015007156576 -0.0600286263038 0.901 2.26595538849e-38
-0.0132952784365 -0.0598287529643 0.898 1.06676606155e-38
-0.011607459125 -0.0596955040713 0.896 1.52716435356e-38
-0.00989373030646 -0.0593623818388 0.891 1.52838880816e-38
-0.00822626846469 -0.0592291329458 0.889 1.565198957e-38
-0.00656620933919 -0.0590958840527 0.887 1.62933891005e-38
-0.00491355292998 -0.0589626351597 0.885 5.51012976948e-39
-0.0032645978789 -0.0587627618202 0.882 6.52032022722e-39
-0.00162859758131 -0.0586295129272 0.88 1.02855923853e-38
0.0 -0.0586295129272 0.88 1.86865518412e-38
0.00162489622317 -0.0584962640342 0.878 1.50909250791e-38
0.00323868837192 -0.0582963906946 0.875 1.28652203075e-38
0.00485803255789 -0.0582963906946 0.875 1.82266274683e-38
0.00646257131129 -0.0581631418016 0.873 1.75585668333e-38
0.00807821413911 -0.0581631418016 0.873 1.20452855435e-38
0.00969385696694 -0.0581631418016 0.873 2.20019651533e-38
0.0112835902878 -0.0580298929086 0.871 2.2558197967e-38
0.0128955317575 -0.0580298929086 0.871 1.64756770112e-38
0.0145074732272 -0.0580298929086 0.871 1.93369841416e-38
0.0161194146968 -0.0580298929086 0.871 2.20094873234e-38
0.0177313561665 -0.0580298929086 0.871 1.17549771394e-38
0.0193432976362 -0.0580298929086 0.871 1.90581663849e-38
0.0209552391059 -0.0580298929086 0.871 2.10903798646e-38
0.0225671805756 -0.0580298929086 0.871 1.89569898331e-38
0.0241791220453 -0.0580298929086 0.871 1.51881569757e-38
0.0257910635149 -0.0580298929086 0.871 2.00665729897e-38
0.0274030049846 -0.0580298929086 0.871 1.88712934256e-38
0.0290815709008 -0.0581631418016 0.873 2.18239778275e-38
0.0306972137286 -0.0581631418016 0.873 1.4632445445e-38
0.0323868837192 -0.0582963906946 0.875 1.92412152007e-38
0.0340062279052 -0.0582963906946 0.875 1.18496488636e-38
0.0356255720912 -0.0582963906946 0.875 2.03064682803e-38
0.0373726131329 -0.0584962640342 0.878 2.21851442898e-38
0.0389975093561 -0.0584962640342 0.878 2.06218389074e-38
0.0407149395328 -0.0586295129272 0.88 9.45977356909e-39
0.0423435371141 -0.0586295129272 0.88 1.15712725159e-38
0.0442219763698 -0.0589626351597 0.885 1.14795126899e-38
0.0458598273464 -0.0589626351597 0.885 1.78273022476e-38
0.0476050177091 -0.0590958840527 0.887 2.30139436678e-38
0.0492465700439 -0.0590958840527 0.887 1.51657768379e-38
0.0510028644811 -0.0592291329458 0.889 2.25392986546e-38
0.0527665616345 -0.0593623818388 0.891 2.17328906247e-38
0.0544155166855 -0.0593623818388 0.891 2.34849803375e-38
-0.0167116319991 -0.058490711997 0.903 2.14602666072e-38
-0.015007156576 -0.0583611644621 0.901 2.21056612396e-38
-0.0132952784365 -0.0581668431598 0.898 1.05754649856e-38
-0.011607459125 -0.0580372956249 0.896 1.33244566428e-38
-0.00992704252972 -0.05790774809 0.894 1.66585366517e-38
-0.00824477525538 -0.0577134267877 0.891 1.61100768406e-38
-0.00658101477175 -0.0575838792528 0.889 1.83246090596e-38
-0.00492465700439 -0.0574543317179 0.887 6.61394938541e-39
-0.0032645978789 -0.0571304628807 0.882 1.36067720405e-38
-0.00163229893945 -0.0571304628807 0.882 1.32552563207e-38
0.0 -0.0570009153459 0.88 6.24699836305e-39
0.00162859758131 -0.0570009153459 0.88 8.90804312733e-39
0.00324979244634 -0.056871367811 0.878 1.49057575001e-38
0.00487468866951 -0.056871367811 0.878 1.75827252188e-38
0.00647737674385 -0.0566770465087 0.875 1.5831358576e-38
0.00809672092981 -0.0566770465087 0.875 1.39826997808e-38
0.00971606511577 -0.0566770465087 0.875 9.55340272728e-39
0.0113094997948 -0.0565474989738 0.873 1.4429657939e-38
0.0129251426226 -0.0565474989738 0.873 1.83865100179e-38
0.0145407854504 -0.0565474989738 0.873 1.37025760139e-38
0.0161564282782 -0.0565474989738 0.873 1.93293877026e-38
0.0177720711061 -0.0565474989738 0.873 2.04346744781e-38
0.0193877139339 -0.0565474989738 0.873 1.40849917661e-38
0.0210033567617 -0.0565474989738 0.873 1.87866241697e-38
0.0226189995895 -0.0565474989738 0.873 1.94169520411e-38
0.0242346424173 -0.0565474989738 0.873 1.38934356674e-38
0.0258502852452 -0.0565474989738 0.873 1.84041467604e-38
0.027465928073 -0.0565474989738 0.873 1.16631430445e-38
0.0291481953473 -0.0566770465087 0.875 1.61655584507e-38
0.0307675395333 -0.0566770465087 0.875 1.85798639826e-38
0.0324979244634 -0.056871367811 0.878 1.96069611063e-38
0.0341228206866 -0.056871367811 0.878 2.16396706457e-38
0.0357477169098 -0.056871367811 0.878 1.26001983341e-38
0.0373726131329 -0.056871367811 0.878 1.05611198932e-38
0.0390863419515 -0.0570009153459 0.88 1.3414855808e-38
0.0408074734862 -0.0571304628807 0.882 9.45915419517e-39
0.0424397724257 -0.0571304628807 0.882 1.11120950351e-38
0.0442219763698 -0.0573247841831 0.885 1.8110353327e-38
0.0458598273464 -0.0573247841831 0.885 2.19073032381e-38
0.0476050177091 -0.0574543317179 0.887 1.43374581053e-38
0.0492465700439 -0.0574543317179 0.887 2.03072081658e-38
0.0510028644811 -0.0575838792528 0.889 2.217195667e-38
0.052648118174 -0.0575838792528 0.889 2.07194491546e-38
0.0542933718669 -0.0575838792528 0.889 2.34889670317e-38
-0.0167116319991 -0.056819548797 0.903 2.09063767645e-38
-0.0150404687992 -0.056819548797 0.903 2.19201769671e-38
-0.0133396947342 -0.0566937026203 0.901 1.02074027336e-38
-0.011633368632 -0.0565049333552 0.898 1.35124114045e-38
-0.00994925067855 -0.0563790871785 0.896 1.17549729355e-38
-0.00827253544143 -0.0562532410017 0.894 1.31403862804e-38
-0.00659582020431 -0.0560644717366 0.891 1.2214120989e-38
-0.00493576107881 -0.0559386255599 0.889 1.8869131222e-38
-0.0032831046696 -0.0558127793831 0.887 7.80782064455e-39
-0.0016415523348 -0.0558127793831 0.887 1.25022573805e-38
0.0 -0.0556869332064 0.885 1.37137892042e-38
0.00162859758131 -0.0553723177646 0.88 1.38088532921e-38
0.00325719516262 -0.0553723177646 0.88 7.43867939269e-39
0.00488579274393 -0.0553723177646 0.88 7.07133320417e-39
0.00649958489268 -0.0552464715878 0.878 7.1631897198e-39
0.00812448111586 -0.0552464715878 0.878 1.01937638956e-38
0.00974937733903 -0.0552464715878 0.878 1.55421950327e-38
0.0113742735622 -0.0552464715878 0.878 1.78589071331e-38
0.0129991697854 -0.0552464715878 0.878 1.89652673032e-38
0.0146240660085 -0.0552464715878 0.878 1.83220278678e-38
0.0162489622317 -0.0552464715878 0.878 1.68486984585e-38
0.0178738584549 -0.0552464715878 0.878 1.71242259665e-38
0.0194987546781 -0.0552464715878 0.878 1.68486956559e-38
0.0211236509012 -0.0552464715878 0.878 1.77706771779e-38
0.0227485471244 -0.0552464715878 0.878 1.73071977108e-38
0.0243734433476 -0.0552464715878 0.878 1.86879811656e-38
0.0259983395707 -0.0552464715878 0.878 1.94287705923e-38
0.0276232357939 -0.0552464715878 0.878 1.87808984642e-38
0.0292481320171 -0.0552464715878 0.878 1.4076732513e-38
0.0309433540449 -0.0553723177646 0.88 1.07447908855e-38
0.0325719516262 -0.0553723177646 0.88 8.90804312733e-39
0.0342005492075 -0.0553723177646 0.88 9.27538511196e-39
0.0358291467888 -0.0553723177646 0.88 1.79306662262e-38
0.0374577443701 -0.0553723177646 0.88 1.7406573594e-38
0.0391751745468 -0.0554981639413 0.882 1.69481388014e-38
0.0408074734862 -0.0554981639413 0.882 9.09889717557e-39
0.0425841253931 -0.0556869332064 0.885 2.21851989405e-38
0.0443219130396 -0.0558127793831 0.887 1.91385448648e-38
0.0459634653743 -0.0558127793831 0.887 1.52461272919e-38
0.0476050177091 -0.0558127793831 0.887 1.96585807379e-38
0.0493576107881 -0.0559386255599 0.889 2.19630973378e-38
0.0510028644811 -0.0559386255599 0.889 1.81271871254e-38
0.052648118174 -0.0559386255599 0.889 2.18153822627e-38
-0.0167116319991 -0.0551483855971 0.903 1.9707498666e-38
-0.0150404687992 -0.0551483855971 0.903 2.19212671773e-38
-0.0133396947342 -0.0550262407785 0.901 9.84362565223e-39
-0.0116722328924 -0.0550262407785 0.901 1.3881541446e-38
-0.00997145882739 -0.0548430235506 0.898 1.33226419613e-38
-0.00830954902282 -0.0548430235506 0.898 1.47059113196e-38
-0.0066328337857 -0.054720878732 0.896 1.23996150706e-38
-0.00497462533928 -0.054720878732 0.896 1.25814980061e-38
-0.00329791010215 -0.0544155166855 0.891 1.72895749814e-38
-0.00164525369294 -0.0542933718669 0.889 1.65609558318e-38
0.0 -0.0542933718669 0.889 7.34683969264e-39
0.0016415523348 -0.0541712270483 0.887 1.3597802329e-38
0.0032831046696 -0.0541712270483 0.887 1.76752543577e-38
0.00491355292998 -0.0540490822297 0.885 1.4268641739e-38
0.0065291957578 -0.0538658650018 0.882 1.43680246287e-38
0.00814298790655 -0.0537437201832 0.88 1.59249092615e-38
0.00977158548786 -0.0537437201832 0.88 9.45908553154e-39
0.0114001830692 -0.0537437201832 0.88 9.55089160043e-39
0.0130287806505 -0.0537437201832 0.88 7.71418167727e-39
0.0146573782318 -0.0537437201832 0.88 7.71418167727e-39
0.0162859758131 -0.0537437201832 0.88 7.4386751888e-39
0.0179145733944 -0.0537437201832 0.88 7.62234618111e-39
0.0194987546781 -0.0536215753646 0.878 7.71418167727e-39
0.0211236509012 -0.0536215753646 0.878 6.61215572338e-39
0.0227485471244 -0.0536215753646 0.878 1.32369133238e-38
0.0243734433476 -0.0536215753646 0.878 6.15298524908e-39
0.0259983395707 -0.0536215753646 0.878 9.64710475299e-39
0.0276232357939 -0.0536215753646 0.878 8.35703015038e-39
0.0293147564636 -0.0537437201832 0.88 1.5918592208e-38
0.0309433540449 -0.0537437201832 0.88 1.35250286959e-38
0.0325719516262 -0.0537437201832 0.88 1.73093809338e-38
0.0342005492075 -0.0537437201832 0.88 1.64861236912e-38
0.0359105766679 -0.0538658650018 0.882 1.50020309085e-38
0.0375428756073 -0.0538658650018 0.882 8.54080203618e-39
0.0393084234398 -0.0540490822297 0.885 1.61917851527e-38
0.0409462744165 -0.0540490822297 0.885 2.31079946169e-38
0.0426803607048 -0.0541712270483 0.887 1.28641875505e-38
0.0444218497093 -0.0542933718669 0.889 1.744874427e-38
0.0460671034023 -0.0542933718669 0.889 2.03024970004e-38
0.0477123570952 -0.0542933718669 0.889 1.86487237892e-38
0.0494686515323 -0.0544155166855 0.891 2.14120885647e-38
0.0510028644811 -0.0542933718669 0.889 1.84948556126e-38
0.052648118174 -0.0542933718669 0.889 2.06164943551e-38
-0.0167671523712 -0.0536548875879 0.906 1.98933038358e-38
-0.0150904371341 -0.0536548875879 0.906 2.12769697616e-38
-0.0133693055993 -0.0534772223972 0.903 1.09492641536e-38
-0.0116722328924 -0.0533587789368 0.901 1.34234079326e-38
-0.0100047710506 -0.0533587789368 0.901 1.29524175057e-38
-0.00830954902282 -0.0531811137461 0.898 1.32264764529e-38
-0.00664763921826 -0.0531811137461 0.898 1.62800277196e-38
-0.00497462533928 -0.0530626702856 0.896 1.37021626309e-38
-0.00329791010215 -0.0527665616345 0.891 1.35066604756e-38
-0.00164895505108 -0.0527665616345 0.891 1.32243114468e-38
0.0 -0.052648118174 0.889 1.89551050867e-38
0.0016415523348 -0.0525296747135 0.887 1.68404896521e-38
0.0032831046696 -0.0525296747135 0.887 8.0815236619e-39
0.00491355292998 -0.0524112312531 0.885 9.27540052624e-39
0.00655140390664 -0.0524112312531 0.885 1.19451949981e-38
0.00816149469725 -0.0522335660624 0.882 1.72118099231e-38
0.0097937936367 -0.0522335660624 0.882 1.74062232694e-38
0.0114001830692 -0.0521151226019 0.88 1.58396052175e-38
0.0130287806505 -0.0521151226019 0.88 1.64719439521e-38
0.0146573782318 -0.0521151226019 0.88 1.8506867543e-38
0.0162859758131 -0.0521151226019 0.88 1.84164095233e-38
0.0179145733944 -0.0521151226019 0.88 1.77706715727e-38
0.0195431709757 -0.0521151226019 0.88 2.01699089423e-38
0.021171768557 -0.0521151226019 0.88 5.32649240833e-39
0.0228003661383 -0.0521151226019 0.88 2.30158256117e-38
0.0244289637197 -0.0521151226019 0.88 1.6113018166e-38
0.0261167830312 -0.0522335660624 0.882 1.88860364867e-38
0.0277490819706 -0.0522335660624 0.882 1.70410546987e-38
0.0293813809101 -0.0522335660624 0.882 1.73125997164e-38
0.0310136798495 -0.0522335660624 0.882 1.51899702559e-38
0.032645978789 -0.0522335660624 0.882 7.71498181869e-39
0.0342782777284 -0.0522335660624 0.882 9.3672304172e-39
0.0360327214865 -0.0524112312531 0.885 1.83959029215e-38
0.0376705724632 -0.0524112312531 0.885 1.79357431305e-38
0.0393972560352 -0.0525296747135 0.887 1.83920199235e-38
0.0411313423234 -0.052648118174 0.889 1.60712118276e-38
0.042872831328 -0.0527665616345 0.891 1.70814120945e-38
0.0445217863791 -0.0527665616345 0.891 2.1229157458e-38
0.046326198472 -0.0529442268251 0.894 1.84646744463e-38
0.0479807055603 -0.0529442268251 0.894 2.01241845734e-38
0.0496352126486 -0.0529442268251 0.894 1.92022661098e-38
0.0512897197369 -0.0529442268251 0.894 2.10665886192e-38
-0.0150904371341 -0.0519781723508 0.906 2.06312346136e-38
-0.0133693055993 -0.0518060591973 0.903 1.11343462534e-38
-0.0116722328924 -0.051691317095 0.901 1.21323300002e-38
-0.0100047710506 -0.051691317095 0.901 1.28638344233e-38
-0.00833730920887 -0.051691317095 0.901 1.23978101982e-38
-0.00664763921826 -0.0515192039415 0.898 1.24896274775e-38
-0.00498572941369 -0.0515192039415 0.898 1.55342454665e-38
-0.00331641689285 -0.0514044618392 0.896 1.53549297098e-38
-0.00164895505108 -0.0511176065834 0.891 1.63754477372e-38
0.0 -0.0510028644811 0.889 1.31368087654e-38
0.00164525369294 -0.0510028644811 0.889 1.28569694621e-38
0.0032831046696 -0.0508881223787 0.887 1.76558617882e-38
0.00492465700439 -0.0508881223787 0.887 1.98825572779e-38
0.00655140390664 -0.0507733802764 0.885 1.58317299201e-38
0.00818925488329 -0.0507733802764 0.885 8.17335915806e-39
0.00982710585995 -0.0507733802764 0.885 1.14891998661e-38
0.0114260925761 -0.0506012671229 0.882 7.16316870032e-39
0.0130583915156 -0.0506012671229 0.882 8.17335915806e-39
0.014690690455 -0.0506012671229 0.882 1.00100690812e-38
0.0162859758131 -0.0504865250206 0.88 1.20312052966e-38
0.0179145733944 -0.0504865250206 0.88 1.28663707735e-38
0.0195431709757 -0.0504865250206 0.88 1.45280178808e-38
0.021171768557 -0.0504865250206 0.88 1.0469246562e-38
0.0228521851523 -0.0506012671229 0.882 1.09285697778e-38
0.0244844840917 -0.0506012671229 0.882 1.92329293228e-38
0.0261167830312 -0.0506012671229 0.882 5.51018722272e-39
0.0278434666032 -0.0507733802764 0.885 8.54070114269e-39
0.0294813175799 -0.0507733802764 0.885 1.17549435082e-38
0.0311191685565 -0.0507733802764 0.885 1.43364659859e-38
0.0327570195332 -0.0507733802764 0.885 2.08998537202e-38
0.0343948705098 -0.0507733802764 0.885 2.034773652e-38
0.0360327214865 -0.0507733802764 0.885 1.49907098182e-38
0.0376705724632 -0.0507733802764 0.885 1.61630473238e-38
0.0393972560352 -0.0508881223787 0.887 1.80915927431e-38
0.0411313423234 -0.0510028644811 0.889 2.06850164487e-38
0.042872831328 -0.0511176065834 0.891 2.1806355098e-38
0.0446716913837 -0.0512897197369 0.894 1.53433956222e-38
0.046326198472 -0.0512897197369 0.894 2.04868910627e-38
0.0480880449463 -0.0514044618392 0.896 1.92036702109e-38
0.0497462533928 -0.0514044618392 0.896 2.09482223393e-38
0.0514044618392 -0.0514044618392 0.896 1.94950478058e-38
-0.0150904371341 -0.0503014571137 0.906 2.00791622551e-38
-0.013413721897 -0.0503014571137 0.906 1.23311294108e-38
-0.0116981423994 -0.0501348959974 0.903 1.3422691869e-38
-0.0100269791995 -0.0501348959974 0.903 1.25919096537e-38
-0.00835581599956 -0.0501348959974 0.903 1.18503663284e-38
-0.00666984736709 -0.0500238552532 0.901 1.17549435082e-38
-0.00498572941369 -0.0498572941369 0.898 1.44249888125e-38
-0.00331641689285 -0.0497462533928 0.896 1.52590612767e-38
-0.00164895505108 -0.0494686515323 0.891 1.44300292831e-38
0.0 -0.0494686515323 0.891 1.42406381905e-38
0.00164525369294 -0.0493576107881 0.889 1.60956434664e-38
0.00329050738588 -0.0493576107881 0.889 1.61782107745e-38
0.00492465700439 -0.0492465700439 0.887 1.19386145005e-38
0.00656620933919 -0.0492465700439 0.887 1.37753244237e-38
0.00820776167399 -0.0492465700439 0.887 1.64583751791e-38
0.00982710585995 -0.0491355292998 0.885 1.81296478055e-38
0.0114649568366 -0.0491355292998 0.885 2.02538228982e-38
0.0131028078133 -0.0491355292998 0.885 1.88755519716e-38
0.0147406587899 -0.0491355292998 0.885 1.75830559252e-38
0.0163229893945 -0.0489689681835 0.882 1.647524401e-38
0.0179552883339 -0.0489689681835 0.882 1.49072176531e-38
0.0195875872734 -0.0489689681835 0.882 1.55489843238e-38
0.0212198862128 -0.0489689681835 0.882 1.57333980043e-38
0.0228521851523 -0.0489689681835 0.882 1.67493323844e-38
0.0244844840917 -0.0489689681835 0.882 1.83238453519e-38
0.0262056156265 -0.0491355292998 0.885 2.07187639196e-38
0.0278434666032 -0.0491355292998 0.885 2.04410882211e-38
0.0295479420264 -0.0492465700439 0.887 1.89580772407e-38
0.0311894943612 -0.0492465700439 0.887 1.49864050293e-38
0.032831046696 -0.0492465700439 0.887 1.50610213699e-38
0.0344725990308 -0.0492465700439 0.887 1.5887581473e-38
0.0361141513656 -0.0492465700439 0.887 2.24381403198e-38
0.0377557037004 -0.0492465700439 0.887 1.74657224022e-38
0.0394860886305 -0.0493576107881 0.889 1.81167348402e-38
0.0411313423234 -0.0493576107881 0.889 1.96776187788e-38
0.0430171842954 -0.0496352126486 0.894 1.57088920967e-38
0.0446716913837 -0.0496352126486 0.894 1.78160862547e-38
0.0464298364999 -0.0497462533928 0.896 1.84679422743e-38
0.0480880449463 -0.0497462533928 0.896 1.9296256803e-38
0.0498572941369 -0.0498572941369 0.898 2.25234765936e-38
-0.0151237493574 -0.0487320812626 0.908 1.94345061069e-38
-0.013413721897 -0.0486247418765 0.906 1.20556187184e-38
-0.0117370066599 -0.0486247418765 0.906 1.2868814638e-38
-0.0100269791995 -0.0484637327975 0.903 1.13951685353e-38
-0.00835581599956 -0.0484637327975 0.903 1.27755470148e-38
-0.00666984736709 -0.0483563934114 0.901 1.21226554356e-38
-0.00500238552532 -0.0483563934114 0.901 1.15712725159e-38
-0.00332381960913 -0.0481953843324 0.898 1.22141518176e-38
-0.00165820844643 -0.0480880449463 0.896 1.98595717792e-38
0.0 -0.0478196964812 0.891 1.31379227977e-38
0.00164525369294 -0.0477123570952 0.889 1.517046278e-38
0.00329050738588 -0.0477123570952 0.889 1.58998316242e-38
0.00492465700439 -0.0476050177091 0.887 1.24964433932e-38
0.00656620933919 -0.0476050177091 0.887 1.59987941243e-38
0.00820776167399 -0.0476050177091 0.887 1.70093965638e-38
0.00984931400879 -0.0476050177091 0.887 1.67302551071e-38
0.0114908663436 -0.0476050177091 0.887 1.47066147714e-38
0.0131028078133 -0.0474976783231 0.885 1.18467790044e-38
0.0147406587899 -0.0474976783231 0.885 1.51528568661e-38
0.0163785097666 -0.0474976783231 0.885 1.54298431257e-38
0.0179552883339 -0.047336669244 0.882 1.46068661428e-38
0.0195875872734 -0.047336669244 0.882 1.52486790564e-38
0.0212198862128 -0.047336669244 0.882 1.37753314302e-38
0.0229299136732 -0.0474976783231 0.885 1.51528568661e-38
0.0245677646499 -0.0474976783231 0.885 1.42345145162e-38
0.0262648373568 -0.0476050177091 0.887 1.51528568661e-38
0.0279063896916 -0.0476050177091 0.887 1.81920392183e-38
0.0295479420264 -0.0476050177091 0.887 1.60730054897e-38
0.0311894943612 -0.0476050177091 0.887 2.17935121976e-38
0.032831046696 -0.0476050177091 0.887 1.86685423533e-38
0.0344725990308 -0.0476050177091 0.887 1.64554366562e-38
0.0361955812446 -0.0477123570952 0.889 2.0420222887e-38
0.0378408349376 -0.0477123570952 0.889 1.92159750127e-38
0.0397081701189 -0.0479807055603 0.894 1.83947342386e-38
0.0413626772071 -0.0479807055603 0.894 1.95775898905e-38
0.0430171842954 -0.0479807055603 0.894 1.69895667892e-38
0.0447716280535 -0.0480880449463 0.896 1.62577526792e-38
0.0465334745278 -0.0481953843324 0.898 1.65304117292e-38
0.0481953843324 -0.0481953843324 0.898 2.19599304032e-38
0.0498572941369 -0.0481953843324 0.898 1.99466624788e-38
0.051691317095 -0.0483563934114 0.901 1.92206021002e-38
-0.013413721897 -0.0469480266394 0.906 1.27946242921e-38
-0.0117370066599 -0.0469480266394 0.906 1.01080030283e-38
-0.0100269791995 -0.0467925695976 0.903 1.14880704196e-38
-0.00835581599956 -0.0467925695976 0.903 1.16663478141e-38
-0.00666984736709 -0.0466889315697 0.901 1.23988709811e-38
-0.00500238552532 -0.0466889315697 0.901 1.24896274775e-38
-0.00332381960913 -0.0465334745278 0.898 1.1020259539e-38
-0.00165820844643 -0.0464298364999 0.896 1.20304499967e-38
0.0 -0.0461707414302 0.891 1.34998179352e-38
0.00164525369294 -0.0460671034023 0.889 1.72905671007e-38
0.00329050738588 -0.0460671034023 0.889 1.73846432731e-38
0.00493576107881 -0.0460671034023 0.889 1.49896644495e-38
0.00658101477175 -0.0460671034023 0.889 1.5542529943e-38
0.00820776167399 -0.0459634653743 0.887 1.76572841062e-38
0.00984931400879 -0.0459634653743 0.887 1.53524101752e-38
0.0114908663436 -0.0459634653743 0.887 1.24921386043e-38
0.0131324186784 -0.0459634653743 0.887 1.57042790222e-38
0.0147406587899 -0.0458598273464 0.885 1.77476188117e-38
0.0163785097666 -0.0458598273464 0.885 1.81070897028e-38
0.0180570756828 -0.0459634653743 0.887 1.73831635019e-38
0.0196542117199 -0.0458598273464 0.885 1.74764325264e-38
0.0212920626966 -0.0458598273464 0.885 1.80285076876e-38
0.0229817326872 -0.0459634653743 0.887 1.87546213154e-38
0.024623285022 -0.0459634653743 0.887 1.75672338643e-38
0.0262648373568 -0.0459634653743 0.887 1.50764468634e-38
0.0279063896916 -0.0459634653743 0.887 1.70957683972e-38
0.0296145664729 -0.0460671034023 0.889 1.83018295517e-38
0.0312598201658 -0.0460671034023 0.889 1.93156717933e-38
0.0329050738588 -0.0460671034023 0.889 1.81092799323e-38
0.0345503275517 -0.0460671034023 0.889 1.7094011169e-38
0.0361955812446 -0.0460671034023 0.889 2.11592130464e-38
0.0379259661748 -0.0461707414302 0.891 1.93121419224e-38
0.0397970027142 -0.0464298364999 0.896 1.38696710467e-38
0.0414552111606 -0.0464298364999 0.896 1.70814022854e-38
0.0431134196071 -0.0464298364999 0.896 1.59797350639e-38
0.0448715647232 -0.0465334745278 0.898 1.58021737329e-38
0.0465334745278 -0.0465334745278 0.898 1.98458572711e-38
0.0481953843324 -0.0465334745278 0.898 2.24427197631e-38
0.0500238552532 -0.0466889315697 0.901 1.84765532533e-38
0.051691317095 -0.0466889315697 0.901 1.85719942905e-38
-0.0134433327621 -0.0453712480721 0.908 1.32545276455e-38
-0.0117629161668 -0.0453712480721 0.908 1.10353711416e-38
-0.0100602914227 -0.0452713114023 0.906 1.16724518702e-38
-0.00838357618561 -0.0452713114023 0.906 1.07465551203e-38
-0.00668465279965 -0.0451214063976 0.903 1.25825433748e-38
-0.00501348959974 -0.0451214063976 0.903 1.26732984698e-38
-0.00333492368355 -0.0450214697279 0.901 1.17549435082e-38
-0.00166190980456 -0.0448715647232 0.898 1.21222854929e-38
0.0 -0.0446716913837 0.894 1.21222854929e-38
0.00164895505108 -0.0445217863791 0.891 1.24896274775e-38
0.00329791010215 -0.0445217863791 0.891 1.20304499967e-38
0.00493576107881 -0.0444218497093 0.889 1.40526722184e-38
0.00658101477175 -0.0444218497093 0.889 1.71930619509e-38
0.00822626846469 -0.0444218497093 0.889 1.85838843079e-38
0.00987152215763 -0.0444218497093 0.889 1.48950067382e-38
0.0115167758506 -0.0444218497093 0.889 1.37875213255e-38
0.0131324186784 -0.0443219130396 0.887 1.65404688483e-38
0.0147739710132 -0.0443219130396 0.887 1.56310471644e-38
0.016415523348 -0.0443219130396 0.887 1.68231668005e-38
0.0180570756828 -0.0443219130396 0.887 1.67363591632e-38
0.0196986280176 -0.0443219130396 0.887 1.80285469239e-38
0.0213401803524 -0.0443219130396 0.887 1.66442055723e-38
0.0229817326872 -0.0443219130396 0.887 1.90330312943e-38
0.024623285022 -0.0443219130396 0.887 1.56325199291e-38
0.026324059087 -0.0444218497093 0.889 1.67202288166e-38
0.0279693127799 -0.0444218497093 0.889 1.61784728173e-38
0.0296145664729 -0.0444218497093 0.889 1.88568614527e-38
0.0312598201658 -0.0444218497093 0.889 1.92267173667e-38
0.0329050738588 -0.0444218497093 0.889 1.80253225361e-38
0.0346280560726 -0.0445217863791 0.891 1.65329004353e-38
0.0362770111237 -0.0445217863791 0.891 1.46018438891e-38
0.0380536630306 -0.0446716913837 0.894 1.59793763315e-38
0.0397970027142 -0.0447716280535 0.896 1.51528568661e-38
0.0414552111606 -0.0447716280535 0.896 1.55202058572e-38
0.0432096549187 -0.0448715647232 0.898 1.7086105043e-38
0.0448715647232 -0.0448715647232 0.898 1.69042151011e-38
0.0466889315697 -0.0450214697279 0.901 2.18827987319e-38
0.0484637327975 -0.0451214063976 0.903 2.09712022328e-38
0.0503014571137 -0.0452713114023 0.906 1.81074372249e-38
0.0519781723508 -0.0452713114023 0.906 1.84830188445e-38
0.0536548875879 -0.0452713114023 0.906 1.68404111794e-38
-0.0152903104736 -0.0441720080349 0.918 1.75895004969e-38
-0.0134729436272 -0.0437870667884 0.91 1.26113092296e-38
-0.0117629161668 -0.0436908314768 0.908 1.14962974429e-38
-0.0100602914227 -0.0435945961652 0.906 1.03867773448e-38
-0.00838357618561 -0.0435945961652 0.906 1.10267195249e-38
-0.00670686094849 -0.0435945961652 0.906 1.1481236287e-38
-0.00501348959974 -0.0434502431977 0.903 1.19386159018e-38
-0.00334232639983 -0.0434502431977 0.903 1.18467846096e-38
-0.00166190980456 -0.0432096549187 0.898 1.30410384232e-38
0.0 -0.0431134196071 0.896 1.2765133966e-38
0.00165820844643 -0.0431134196071 0.896 1.24896288788e-38
0.00330901417657 -0.0430171842954 0.894 1.11120950351e-38
0.00494686515323 -0.042872831328 0.891 1.27651367686e-38
0.00659582020431 -0.042872831328 0.891 1.30406404544e-38
0.00824477525538 -0.042872831328 0.891 1.2765133966e-38
0.00987152215763 -0.0427765960164 0.889 1.28569694621e-38
0.0115167758506 -0.0427765960164 0.889 1.46061809079e-38
0.0131620295435 -0.0427765960164 0.889 1.47869750344e-38
0.0148072832364 -0.0427765960164 0.889 1.76575587607e-38
0.0164525369294 -0.0427765960164 0.889 1.78419878555e-38
0.0180977906223 -0.0427765960164 0.889 1.43296262481e-38
0.0197430443153 -0.0427765960164 0.889 1.994998776e-38
0.0213882980082 -0.0427765960164 0.889 1.82118451708e-38
0.0230335517011 -0.0427765960164 0.889 1.90419001123e-38
0.0246788053941 -0.0427765960164 0.889 1.69207504229e-38
0.026324059087 -0.0427765960164 0.889 1.80138164745e-38
0.0280322358683 -0.042872831328 0.891 1.55270554041e-38
0.0296811909194 -0.042872831328 0.891 1.43263374006e-38
0.0313301459705 -0.042872831328 0.891 1.46936793853e-38
0.0329791010215 -0.042872831328 0.891 1.53365278584e-38
0.0346280560726 -0.042872831328 0.891 1.55201988507e-38
0.0363991559423 -0.0430171842954 0.894 1.50610213699e-38
0.0380536630306 -0.0430171842954 0.894 1.48773503776e-38
0.0397970027142 -0.0431134196071 0.896 1.45110845902e-38
0.0415477451141 -0.0432096549187 0.898 1.76392578027e-38
0.0432096549187 -0.0432096549187 0.898 1.60766124319e-38
0.0450214697279 -0.0433540078861 0.901 1.98606017336e-38
0.0467925695976 -0.0434502431977 0.903 2.04144579451e-38
0.0486247418765 -0.0435945961652 0.906 2.1900701721e-38
0.0503014571137 -0.0435945961652 0.906 1.80199107215e-38
0.0519781723508 -0.0435945961652 0.906 1.77480153791e-38
0.05418788316 -0.0440276550675 0.915 1.73986072123e-38
-0.0152903104736 -0.042473084649 0.918 1.72210753085e-38
-0.0134729436272 -0.042102948835 0.91 1.27042265282e-38
-0.0117888256738 -0.042102948835 0.91 1.09477955928e-38
-0.0100824995716 -0.0420104148815 0.908 9.55666074621e-39
-0.00840208297631 -0.0420104148815 0.908 1.12068144035e-38
-0.00672166638105 -0.0420104148815 0.908 1.10209770038e-38
-0.00503014571137 -0.041917880928 0.906 1.15716312483e-38
-0.00334232639983 -0.0417790799978 0.903 1.09284240428e-38
-0.00166746184177 -0.0416865460443 0.901 1.24903477449e-38
0.0 -0.0415477451141 0.898 1.26732984698e-38
0.00166190980456 -0.0415477451141 0.898 1.39593625562e-38
0.00331641689285 -0.0414552111606 0.896 1.24896302801e-38
0.00496352126486 -0.0413626772071 0.894 1.28569694621e-38
0.00661802835314 -0.0413626772071 0.894 1.29488049583e-38
0.00827253544143 -0.0413626772071 0.894 1.25814629736e-38
0.00989373030646 -0.0412238762769 0.891 1.19386145005e-38
0.0115426853575 -0.0412238762769 0.891 1.28569694621e-38
0.0131620295435 -0.0411313423234 0.889 1.40508309122e-38
0.0148072832364 -0.0411313423234 0.889 1.43263374006e-38
0.0164525369294 -0.0411313423234 0.889 1.43263374006e-38
0.0180977906223 -0.0411313423234 0.889 1.46936793853e-38
0.0197430443153 -0.0411313423234 0.889 1.44181728968e-38
0.0213882980082 -0.0411313423234 0.889 1.43263374006e-38
0.0230335517011 -0.0411313423234 0.889 1.43263374006e-38
0.0246788053941 -0.0411313423234 0.889 1.49691858738e-38
0.0263832808172 -0.0412238762769 0.891 1.47855148814e-38
0.0280322358683 -0.0412238762769 0.891 1.46018438891e-38
0.0296811909194 -0.0412238762769 0.891 1.36834903288e-38
0.0313301459705 -0.0412238762769 0.891 1.37753244237e-38
0.0330901417657 -0.0413626772071 0.894 1.60715705601e-38
0.034744648854 -0.0413626772071 0.894 1.53365278584e-38
0.0363991559423 -0.0413626772071 0.894 1.42345019045e-38
0.0381387942678 -0.0414552111606 0.896 1.73612443913e-38
0.0398858353096 -0.0415477451141 0.898 1.48773503776e-38
0.0415477451141 -0.0415477451141 0.898 1.97612454686e-38
0.0433540078861 -0.0416865460443 0.901 1.65490433936e-38
0.0451214063976 -0.0417790799978 0.903 1.96804634147e-38
0.0469480266394 -0.041917880928 0.906 2.10666474738e-38
0.0487320812626 -0.0420104148815 0.908 1.80274328916e-38
0.050523538602 -0.042102948835 0.91 1.88482294541e-38
0.0523797697089 -0.0422417497652 0.913 1.6827460379e-38
0.05418788316 -0.0423342837187 0.915 1.61147207437e-38
-0.0152903104736 -0.040774161263 0.918 1.60225475346e-38
-0.0135173599249 -0.0405520797746 0.913 1.27031517323e-38
-0.0118276899343 -0.0405520797746 0.913 1.0947078128e-38
-0.0101047077204 -0.0404188308816 0.91 9.74320720297e-39
-0.008420589767 -0.0404188308816 0.91 1.11156949709e-38
-0.00672166638105 -0.0403299982863 0.908 1.09338050289e-38
-0.00503014571137 -0.0402411656909 0.906 1.09312939021e-38
-0.00335343047424 -0.0402411656909 0.906 1.11120950351e-38
-0.00167116319991 -0.0401079167979 0.903 1.16631080121e-38
0.0 -0.0401079167979 0.903 1.12039305313e-38
0.00166746184177 -0.0400190842026 0.901 1.31324787532e-38
0.00332381960913 -0.0398858353096 0.898 1.24896274775e-38
0.00497462533928 -0.0397970027142 0.896 1.34998179352e-38
0.0066328337857 -0.0397970027142 0.896 1.3683509947e-38
0.00829104223213 -0.0397970027142 0.896 1.35916534314e-38
0.00994925067855 -0.0397970027142 0.896 1.28569708634e-38
0.011581549618 -0.0397081701189 0.894 1.30406404544e-38
0.0132360567063 -0.0397081701189 0.894 1.34079824391e-38
0.0148405954597 -0.0395749212258 0.891 1.4510008393e-38
0.0164895505108 -0.0395749212258 0.891 1.40508309122e-38
0.0180977906223 -0.0394860886305 0.889 1.44181728968e-38
0.0197430443153 -0.0394860886305 0.889 1.41426664083e-38
0.0213882980082 -0.0394860886305 0.889 1.41426664083e-38
0.0230335517011 -0.0394860886305 0.889 1.4510008393e-38
0.0247343257662 -0.0395749212258 0.891 1.49691858738e-38
0.0264721134126 -0.0397081701189 0.894 1.46018438891e-38
0.0281266205009 -0.0397081701189 0.894 1.4510008393e-38
0.0297811275891 -0.0397081701189 0.894 1.42345019045e-38
0.0314356346774 -0.0397081701189 0.894 1.42345019045e-38
0.0331641689285 -0.0397970027142 0.896 1.61630473238e-38
0.0348223773749 -0.0397970027142 0.896 1.69002424199e-38
0.0364805858214 -0.0397970027142 0.896 1.58961504131e-38
0.038223925505 -0.0398858353096 0.898 1.77404343545e-38
0.0398858353096 -0.0398858353096 0.898 1.47001365686e-38
0.0416865460443 -0.0400190842026 0.901 1.83872330879e-38
0.0435945961652 -0.0402411656909 0.906 1.98691328386e-38
0.0452713114023 -0.0402411656909 0.906 2.11642507144e-38
0.0470516646673 -0.0403299982863 0.908 1.68260408636e-38
0.0488394206486 -0.0404188308816 0.91 2.31027621684e-38
0.050523538602 -0.0404188308816 0.91 1.59026426289e-38
0.0523797697089 -0.0405520797746 0.913 1.41642393982e-38
0.05418788316 -0.04064091237 0.915 1.61226338761e-38
-0.0152903104736 -0.039075237877 0.918 1.55626455825e-38
-0.0135173599249 -0.038862409784 0.913 1.16000509825e-38
-0.0118276899343 -0.038862409784 0.913 9.29260426749e-39
-0.0101380199437 -0.038862409784 0.913 9.65138011461e-39
-0.008420589767 -0.0387347129282 0.91 1.07483515849e-38
-0.0067364718136 -0.0387347129282 0.91 1.07472641773e-38
-0.00504124978578 -0.038649581691 0.908 1.0654352484e-38
-0.00335343047424 -0.0385644504538 0.906 1.15712725159e-38
-0.00167671523712 -0.0385644504538 0.906 1.12039333339e-38
0.0 -0.038436753598 0.903 1.13876029249e-38
0.00166746184177 -0.0383516223608 0.901 1.21222854929e-38
0.00332381960913 -0.038223925505 0.898 1.12039305313e-38
0.00498572941369 -0.038223925505 0.898 1.26732984698e-38
0.00664763921826 -0.038223925505 0.898 1.34998221391e-38
0.00829104223213 -0.0381387942678 0.896 1.29488049583e-38
0.00994925067855 -0.0381387942678 0.896 1.26732984698e-38
0.011607459125 -0.0381387942678 0.896 1.33161469429e-38
0.0132656675714 -0.0381387942678 0.896 1.3958995416e-38
0.0148905637946 -0.0380536630306 0.894 1.46018438891e-38
0.0164895505108 -0.0379259661748 0.891 1.46018438891e-38
0.0181385055618 -0.0379259661748 0.891 1.49691858738e-38
0.0197874606129 -0.0379259661748 0.891 1.49691858738e-38
0.021436415664 -0.0379259661748 0.891 1.54283633545e-38
0.0230853707151 -0.0379259661748 0.891 1.52446923622e-38
0.0248176063243 -0.0380536630306 0.894 1.52446923622e-38
0.0264721134126 -0.0380536630306 0.894 1.52446923622e-38
0.0281266205009 -0.0380536630306 0.894 1.65321843718e-38
0.0298477520357 -0.0381387942678 0.896 1.42345019045e-38
0.0315059604821 -0.0381387942678 0.896 1.59869223237e-38
0.0331641689285 -0.0381387942678 0.896 1.76467967885e-38
0.0349001058959 -0.038223925505 0.898 1.68184514312e-38
0.0365620157004 -0.038223925505 0.898 1.51643363031e-38
0.038223925505 -0.038223925505 0.898 1.45146719143e-38
0.0401079167979 -0.038436753598 0.903 1.97669109183e-38
0.041917880928 -0.0385644504538 0.906 1.97806394393e-38
0.0436908314768 -0.038649581691 0.908 1.86745581277e-38
0.0454711847418 -0.0387347129282 0.91 1.86677632314e-38
0.0473107597371 -0.038862409784 0.913 2.34680092118e-38
0.0490004297277 -0.038862409784 0.913 2.10778326381e-38
0.0508011404625 -0.0389475410212 0.915 1.59966109013e-38
0.0524945118112 -0.0389475410212 0.915 1.43575961655e-38
0.0543655483507 -0.039075237877 0.918 1.52975605507e-38
-0.0152903104736 -0.0373763144911 0.918 1.54722478185e-38
-0.0135173599249 -0.0371727397934 0.913 1.05891360534e-38
-0.0118276899343 -0.0371727397934 0.913 8.65479065976e-39
-0.0101380199437 -0.0371727397934 0.913 9.37693861297e-39
-0.00844834995305 -0.0371727397934 0.913 1.09320225773e-38
-0.0067364718136 -0.0370505949748 0.91 1.15723501144e-38
-0.00504124978578 -0.0369691650957 0.908 1.15716340509e-38
-0.00336083319052 -0.0369691650957 0.908 1.17549435082e-38
-0.00167671523712 -0.0368877352167 0.906 1.14794370197e-38
0.0 -0.0367655903981 0.903 1.16631080121e-38
0.00167116319991 -0.0367655903981 0.903 1.21222854929e-38
0.00333492368355 -0.036684160519 0.901 1.18467790044e-38
0.00498572941369 -0.0365620157004 0.898 1.23059564852e-38
0.00664763921826 -0.0365620157004 0.898 1.25814769866e-38
0.00830954902282 -0.0365620157004 0.898 1.21222854929e-38
0.00994925067855 -0.0364805858214 0.896 1.19386145005e-38
0.011607459125 -0.0364805858214 0.896 1.30406404544e-38
0.0132656675714 -0.0364805858214 0.896 1.43263374006e-38
0.0149238760178 -0.0364805858214 0.896 1.48773503776e-38
0.0165450708829 -0.0363991559423 0.894 1.79187145516e-38
0.0181995779711 -0.0363991559423 0.894 1.5066402356e-38
0.0198540850594 -0.0363991559423 0.894 1.43360231756e-38
0.0215085921477 -0.0363991559423 0.894 1.5160401457e-38
0.023163099236 -0.0363991559423 0.894 1.59029901509e-38
0.0248731266964 -0.0364805858214 0.896 1.51654125003e-38
0.0265313351428 -0.0364805858214 0.896 1.58075435086e-38
0.0281895435892 -0.0364805858214 0.896 1.69113631245e-38
0.0298477520357 -0.0364805858214 0.896 1.57157080124e-38
0.0315059604821 -0.0364805858214 0.896 1.29545446768e-38
0.0332381960913 -0.0365620157004 0.898 1.74631117832e-38
0.0349001058959 -0.0365620157004 0.898 1.62656447922e-38
0.0365620157004 -0.0365620157004 0.898 1.79305485171e-38
0.0383516223608 -0.036684160519 0.901 2.09866361341e-38
0.0402411656909 -0.0368877352167 0.906 2.14461877615e-38
0.041917880928 -0.0368877352167 0.906 1.65519132529e-38
0.0436908314768 -0.0369691650957 0.908 1.89460933363e-38
0.0454711847418 -0.0370505949748 0.91 2.28241447973e-38
0.0473107597371 -0.0371727397934 0.913 1.96944876097e-38
0.0491077691137 -0.0372541696725 0.915 1.78477289753e-38
0.0508011404625 -0.0372541696725 0.915 1.64583303375e-38
0.0524945118112 -0.0372541696725 0.915 1.44534463817e-38
0.05418788316 -0.0372541696725 0.915 1.56656185988e-38
-0.0135913870877 -0.0356773911051 0.918 1.0129580222e-38
-0.0118924637017 -0.0356773911051 0.918 9.48240033539e-39
-0.0101935403157 -0.0356773911051 0.918 9.46911882855e-39
-0.00846685674374 -0.0355607983237 0.915 1.08412562718e-38
-0.00675867996244 -0.0354830698028 0.913 1.18503663284e-38
-0.0050523538602 -0.0353664770214 0.91 1.12972317856e-38
-0.00336083319052 -0.0352887485005 0.908 1.12039305313e-38
-0.00167671523712 -0.0352110199796 0.906 1.18467790044e-38
0.0 -0.0352110199796 0.906 1.2030451398e-38
0.00167116319991 -0.0350944271982 0.903 1.17549435082e-38
0.00333492368355 -0.0350166986772 0.901 1.18471377368e-38
0.00500238552532 -0.0350166986772 0.901 1.23059564852e-38
0.00666984736709 -0.0350166986772 0.901 1.2214120989e-38
0.00830954902282 -0.0349001058959 0.898 1.25814629736e-38
0.00997145882739 -0.0349001058959 0.898 1.2765133966e-38
0.011633368632 -0.0349001058959 0.898 1.18467790044e-38
0.0132952784365 -0.0349001058959 0.898 1.38671599199e-38
0.0149571882411 -0.0349001058959 0.898 1.47855148814e-38
0.0165820844643 -0.0348223773749 0.896 1.65343535818e-38
0.0182402929107 -0.0348223773749 0.896 1.34115697631e-38
0.0198985013571 -0.0348223773749 0.896 1.30510577072e-38
0.0215567098035 -0.0348223773749 0.896 1.47984754909e-38
0.02321491825 -0.0348223773749 0.896 1.24964433932e-38
0.0248731266964 -0.0348223773749 0.896 1.36877937164e-38
0.0265313351428 -0.0348223773749 0.896 1.44231951505e-38
0.0281895435892 -0.0348223773749 0.896 1.47916133324e-38
0.0298477520357 -0.0348223773749 0.896 1.57124794208e-38
0.0315762862867 -0.0349001058959 0.898 1.74699585275e-38
0.0332381960913 -0.0349001058959 0.898 2.07093261745e-38
0.0350166986772 -0.0350166986772 0.901 2.14451185708e-38
0.036684160519 -0.0350166986772 0.901 1.99696774047e-38
0.038436753598 -0.0350944271982 0.903 1.79359365097e-38
0.0402411656909 -0.0352110199796 0.906 1.70079111874e-38
0.0420104148815 -0.0352887485005 0.908 2.30981336796e-38
0.0437870667884 -0.0353664770214 0.91 2.18150375433e-38
0.0456210897465 -0.0354830698028 0.913 2.19989901966e-38
0.0473107597371 -0.0354830698028 0.913 1.57222142412e-38
0.0491077691137 -0.0355607983237 0.915 2.14429703803e-38
0.0508011404625 -0.0355607983237 0.915 1.76622615183e-38
0.0524945118112 -0.0355607983237 0.915 1.39045465629e-38
0.05418788316 -0.0355607983237 0.915 1.46514848872e-38
-0.0136654142505 -0.0341635356261 0.923 9.57607853903e-39
-0.0119183732087 -0.0340524948819 0.92 7.54522291753e-39
-0.0101935403157 -0.0339784677192 0.918 1.15860267874e-38
-0.00849461692979 -0.0339784677192 0.918 1.08394584059e-38
-0.006773485395 -0.033867426975 0.915 1.12993575554e-38
-0.00506900997183 -0.0337933998122 0.913 1.08380318841e-38
-0.0033682359068 -0.033682359068 0.91 1.11135299647e-38
-0.00168041659526 -0.0336083319052 0.908 1.18467790044e-38
0.0 -0.0336083319052 0.908 1.30406614739e-38
0.00167671523712 -0.0335343047424 0.906 1.20304499967e-38
0.00334232639983 -0.0334232639983 0.903 1.19386145005e-38
0.00500238552532 -0.0333492368355 0.901 1.26732984698e-38
0.00666984736709 -0.0333492368355 0.901 1.23059564852e-38
0.00830954902282 -0.0332381960913 0.898 1.21222854929e-38
0.00997145882739 -0.0332381960913 0.898 1.34998179352e-38
0.011633368632 -0.0332381960913 0.898 1.2214120989e-38
0.0132952784365 -0.0332381960913 0.898 1.34998179352e-38
0.0149571882411 -0.0332381960913 0.898 1.45100111956e-38
0.0166190980456 -0.0332381960913 0.898 2.03212057362e-38
0.0182810078502 -0.0332381960913 0.898 1.55503323729e-38
0.0199429176548 -0.0332381960913 0.898 1.61953556612e-38
0.0216048274593 -0.0332381960913 0.898 1.56411421186e-38
0.0232667372639 -0.0332381960913 0.898 1.73924709263e-38
0.0249286470685 -0.0332381960913 0.898 1.71166099093e-38
0.026590556873 -0.0332381960913 0.898 1.85921113312e-38
0.0282524666776 -0.0332381960913 0.898 1.6749269326e-38
0.0299143764822 -0.0332381960913 0.898 1.74793121947e-38
0.0315762862867 -0.0332381960913 0.898 2.08901595374e-38
0.0333492368355 -0.0333492368355 0.901 1.68310070654e-38
0.0350944271982 -0.0334232639983 0.903 1.74677570876e-38
0.0367655903981 -0.0334232639983 0.903 1.84858396583e-38
0.0385644504538 -0.0335343047424 0.906 1.87664622874e-38
0.0403299982863 -0.0336083319052 0.908 2.09852572564e-38
0.0420104148815 -0.0336083319052 0.908 2.07100520471e-38
0.0439314197559 -0.0337933998122 0.913 2.09837914982e-38
0.0456210897465 -0.0337933998122 0.913 1.86673876834e-38
0.047414397765 -0.033867426975 0.915 2.0699647406e-38
0.0491077691137 -0.033867426975 0.915 1.78456032055e-38
0.0508011404625 -0.033867426975 0.915 1.75686015316e-38
0.0524945118112 -0.033867426975 0.915 1.36315021558e-38
0.05418788316 -0.033867426975 0.915 1.86151556845e-38
-0.0136654142505 -0.0324553588448 0.923 1.01270845095e-38
-0.0119572374691 -0.0324553588448 0.923 4.77903312428e-39
-0.0102157484646 -0.0323498701378 0.92 1.85997512104e-38
-0.00849461692979 -0.0322795443332 0.918 7.07635545786e-39
-0.006773485395 -0.0321740556262 0.915 1.03774110659e-38
-0.00508011404625 -0.0321740556262 0.915 1.14801544846e-38
-0.00337933998122 -0.0321037298216 0.913 1.1020259539e-38
-0.0016841179534 -0.0319982411146 0.91 1.15712725159e-38
0.0 -0.03192791531 0.908 1.25814629736e-38
0.00168041659526 -0.03192791531 0.908 1.2765133966e-38
0.00335343047424 -0.0318575895053 0.906 1.26732984698e-38
0.00501348959974 -0.0317521007983 0.903 1.33161469429e-38
0.00668465279965 -0.0317521007983 0.903 1.21222854929e-38
0.00833730920887 -0.0316817749937 0.901 1.16631080121e-38
0.0100047710506 -0.0316817749937 0.901 1.39597128808e-38
0.0116722328924 -0.0316817749937 0.901 1.42345019045e-38
0.0132952784365 -0.0315762862867 0.898 1.44181756994e-38
0.0149571882411 -0.0315762862867 0.898 1.49691872751e-38
0.0166190980456 -0.0315762862867 0.898 1.81935638311e-38
0.0182810078502 -0.0315762862867 0.898 1.4629107552e-38
0.0199429176548 -0.0315762862867 0.898 1.49067846518e-38
0.0216048274593 -0.0315762862867 0.898 1.26905176253e-38
0.0232667372639 -0.0315762862867 0.898 1.55478744954e-38
0.0249286470685 -0.0315762862867 0.898 1.37028716879e-38
0.026590556873 -0.0315762862867 0.898 1.53566322875e-38
0.0282524666776 -0.0315762862867 0.898 1.51711522188e-38
0.0299143764822 -0.0315762862867 0.898 1.65476561081e-38
0.0316817749937 -0.0316817749937 0.901 1.65498000948e-38
0.0334232639983 -0.0317521007983 0.903 1.83984070419e-38
0.0350944271982 -0.0317521007983 0.903 1.83090350284e-38
0.0368877352167 -0.0318575895053 0.906 1.9416458784e-38
0.0385644504538 -0.0318575895053 0.906 1.99746968558e-38
0.0404188308816 -0.0319982411146 0.91 2.02508955858e-38
0.0422417497652 -0.0321037298216 0.913 1.7013261345e-38
0.0439314197559 -0.0321037298216 0.913 1.94953126512e-38
0.0457210264162 -0.0321740556262 0.915 2.34691260467e-38
0.047414397765 -0.0321740556262 0.915 1.7108368873e-38
0.0491077691137 -0.0321740556262 0.915 2.08901651426e-38
0.0508011404625 -0.0321740556262 0.915 1.69228509693e-38
0.0524945118112 -0.0321740556262 0.915 1.32602057069e-38
0.05418788316 -0.0321740556262 0.915 2.03654335183e-38
-0.0119831469761 -0.03081380651 0.925 3.30607786169e-39
-0.0102490606878 -0.0307471820635 0.923 1.71278413165e-38
-0.00851312372049 -0.0306472453938 0.92 1.39071249521e-38
-0.00679569354383 -0.0305806209472 0.918 8.17335915806e-39
-0.00508011404625 -0.0304806842775 0.915 1.13876281483e-38
-0.0033867426975 -0.0304806842775 0.915 1.12039305313e-38
-0.00168966999061 -0.030414059831 0.913 1.14794370197e-38
0.0 -0.0303141231612 0.91 1.14794370197e-38
0.00168041659526 -0.0302474987147 0.908 1.32243114468e-38
0.00336083319052 -0.0302474987147 0.908 1.28569694621e-38
0.00503014571137 -0.0301808742682 0.906 1.23977919813e-38
0.00668465279965 -0.0300809375984 0.903 1.32243114468e-38
0.00835581599956 -0.0300809375984 0.903 1.11120950351e-38
0.0100047710506 -0.0300143131519 0.901 1.45107328643e-38
0.0116722328924 -0.0300143131519 0.901 1.49691858738e-38
0.0133396947342 -0.0300143131519 0.901 1.53365278584e-38
0.015007156576 -0.0300143131519 0.901 1.51528568661e-38
0.0166190980456 -0.0299143764822 0.898 1.96712078383e-38
0.0182810078502 -0.0299143764822 0.898 1.44433051848e-38
0.0199429176548 -0.0299143764822 0.898 1.48131765131e-38
0.0216770039431 -0.0300143131519 0.901 1.5641848373e-38
0.0233444657848 -0.0300143131519 0.901 1.47220626857e-38
0.0250119276266 -0.0300143131519 0.901 1.58287829894e-38
0.0266793894684 -0.0300143131519 0.901 1.64698335966e-38
0.0283468513102 -0.0300143131519 0.901 1.78487827517e-38
0.0300143131519 -0.0300143131519 0.901 1.83083315766e-38
0.0317521007983 -0.0300809375984 0.903 1.89590707614e-38
0.0335343047424 -0.0301808742682 0.906 1.76723578738e-38
0.0352110199796 -0.0301808742682 0.906 1.72102755013e-38
0.0368877352167 -0.0301808742682 0.906 2.08026022054e-38
0.038649581691 -0.0302474987147 0.908 1.60963230961e-38
0.0405520797746 -0.030414059831 0.913 1.76507106151e-38
0.0423342837187 -0.0304806842775 0.915 2.31910369652e-38
0.0440276550675 -0.0304806842775 0.915 2.19010940846e-38
0.0457210264162 -0.0304806842775 0.915 1.85755676015e-38
0.0475698548068 -0.0305806209472 0.918 2.33733178694e-38
0.0492687781928 -0.0305806209472 0.918 1.44321760724e-38
0.0509677015787 -0.0305806209472 0.918 1.87632407023e-38
0.0526666249647 -0.0305806209472 0.918 1.30754501096e-38
-0.0138874957388 -0.029510928445 0.938 1.151074483e-38
-0.0120220112366 -0.0291963130031 0.928 2.47955839627e-39
-0.0102712688367 -0.0291019283706 0.925 1.74015387287e-38
-0.00854088390653 -0.0290390052822 0.923 1.21568317039e-38
-0.00681049897639 -0.0289446206497 0.92 1.45498781369e-38
-0.00510787423229 -0.0289446206497 0.92 8.91199478899e-39
-0.00339784677192 -0.0288816975613 0.918 1.1020259539e-38
-0.00169892338596 -0.0288816975613 0.918 1.13876015236e-38
0.0 -0.0287873129287 0.915 1.15712725159e-38
0.00169337134875 -0.0287873129287 0.915 1.28569694621e-38
0.00337933998122 -0.0287243898404 0.913 1.26732984698e-38
0.00506900997183 -0.0287243898404 0.913 1.24896274775e-38
0.0067364718136 -0.0286300052078 0.91 1.37753244237e-38
0.00840208297631 -0.0285670821194 0.908 1.2214120989e-38
0.0100602914227 -0.0285041590311 0.906 1.32243114468e-38
0.0117370066599 -0.0285041590311 0.906 1.2765133966e-38
0.0133693055993 -0.0284097743985 0.903 1.50610241725e-38
0.0150404687992 -0.0284097743985 0.903 1.55201988507e-38
0.0167671523712 -0.0285041590311 0.906 1.99592629546e-38
0.0183420802595 -0.0283468513102 0.901 1.60120434013e-38
0.0200095421013 -0.0283468513102 0.901 1.70265778843e-38
0.0216770039431 -0.0283468513102 0.901 1.78570195841e-38
0.0233444657848 -0.0283468513102 0.901 1.62890128454e-38
0.0250119276266 -0.0283468513102 0.901 1.61071649423e-38
0.0266793894684 -0.0283468513102 0.901 1.72160530548e-38
0.0284097743985 -0.0284097743985 0.903 1.61950599872e-38
0.0300809375984 -0.0284097743985 0.903 1.79409783816e-38
0.0317521007983 -0.0284097743985 0.903 1.83111734099e-38
0.0335343047424 -0.0285041590311 0.906 1.44400835996e-38
0.0352110199796 -0.0285041590311 0.906 1.46122471289e-38
0.0369691650957 -0.0285670821194 0.908 1.67341913545e-38
0.0387347129282 -0.0286300052078 0.91 1.93178592202e-38
0.0405520797746 -0.0287243898404 0.913 2.03380297256e-38
0.0423342837187 -0.0287873129287 0.915 1.91301931259e-38
0.0440276550675 -0.0287873129287 0.915 1.95886601484e-38
0.0458709314209 -0.0288816975613 0.918 2.34666443471e-38
0.0475698548068 -0.0288816975613 0.918 1.27654926984e-38
0.0493761175788 -0.0289446206497 0.92 1.78221847056e-38
