# .PCD v0.7 - Point Cloud Data file format
VERSION 0.7
FIELDS x y z rgb
SIZE 4 4 4 4
TYPE F F F F
COUNT 1 1 1 1
WIDTH 840
HEIGHT 1
VIEWPOINT 0 0 0 1 0 0 0
POINTS 840
DATA ascii
0.0319797343239 -0.073553388945 0.864 1.82269988124e-38
0.0336953138215 -0.0738087826566 0.867 1.66582129518e-38
0.0352998525749 -0.0738087826566 0.867 2.08944783393e-38
0.0369043913283 -0.0738087826566 0.867 1.24907415098e-38
0.0385089300817 -0.0738087826566 0.867 1.79997908781e-38
0.0401134688351 -0.0738087826566 0.867 1.69895667892e-38
0.0418142429001 -0.073979045131 0.869 1.7907927356e-38
0.0435224196815 -0.0741493076054 0.871 1.91028650033e-38
0.0451343611511 -0.0741493076054 0.871 1.93855825736e-38
0.047121990472 -0.0747452262659 0.878 1.80069669276e-38
0.0487468866951 -0.0747452262659 0.878 1.97579804431e-38
0.0504865250206 -0.0749154887403 0.88 2.05952786963e-38
0.0521151226019 -0.0749154887403 0.88 2.18014001067e-38
0.0537437201832 -0.0749154887403 0.88 2.34889558213e-38
-0.0180977906223 -0.0740364161822 0.889 2.21967680606e-38
-0.016415523348 -0.0738698550659 0.887 2.32120116006e-38
-0.0147406587899 -0.0737032939496 0.885 1.08506099391e-38
-0.0130583915156 -0.0734534522752 0.882 1.39758628456e-38
-0.0114001830692 -0.073286891159 0.88 1.33222916367e-38
-0.00971606511577 -0.0728704883683 0.875 1.40562413255e-38
-0.00807821413911 -0.072703927252 0.873 1.33186622737e-38
-0.00644776587873 -0.0725373661358 0.871 1.34998179352e-38
-0.00483582440905 -0.0725373661358 0.871 1.35916534314e-38
-0.00322388293937 -0.0725373661358 0.871 1.38671599199e-38
-0.00161194146968 -0.0725373661358 0.871 1.40508309122e-38
0.0 -0.0723708050195 0.869 1.43263374006e-38
0.00160824011154 -0.0723708050195 0.869 1.30406404544e-38
0.00321648022309 -0.0723708050195 0.869 1.9592278301e-38
0.00481361626021 -0.0722042439032 0.867 1.26732984698e-38
0.00641815501362 -0.0722042439032 0.867 1.31439567889e-38
0.00799493358098 -0.0719544022288 0.864 1.13025819432e-38
0.00957171214834 -0.0717878411125 0.862 1.40508589381e-38
0.0111669975064 -0.0717878411125 0.862 1.78351887553e-38
0.0127622828645 -0.0717878411125 0.862 1.77537929327e-38
0.0143242559993 -0.0716212799963 0.86 1.79388680261e-38
0.0159158399992 -0.0716212799963 0.86 1.89537037882e-38
0.0175074239991 -0.0716212799963 0.86 1.83079784494e-38
0.019099007999 -0.0716212799963 0.86 1.867390232e-38
0.0206905919989 -0.0716212799963 0.86 1.93203577353e-38
0.0222821759988 -0.0716212799963 0.86 1.84923893273e-38
0.0238737599988 -0.0716212799963 0.86 2.3469864531e-38
0.0254653439987 -0.0716212799963 0.86 2.22861470805e-38
0.027119851087 -0.0717878411125 0.862 1.57399266538e-38
0.028715136445 -0.0717878411125 0.862 1.25143800136e-38
0.0303104218031 -0.0717878411125 0.862 1.15960656896e-38
0.0319797343239 -0.0719544022288 0.864 1.25021831117e-38
0.0336953138215 -0.0722042439032 0.867 9.45905610427e-39
0.0352998525749 -0.0722042439032 0.867 1.86904390432e-38
0.0369043913283 -0.0722042439032 0.867 1.24006688471e-38
0.0385089300817 -0.0722042439032 0.867 1.87359153822e-38
0.0402060027886 -0.0723708050195 0.869 1.69895667892e-38
0.0418142429001 -0.0723708050195 0.869 1.84589431355e-38
0.0435224196815 -0.0725373661358 0.871 1.88262893241e-38
0.0451343611511 -0.0725373661358 0.871 1.83742850901e-38
0.047121990472 -0.0731203300427 0.878 1.95739381067e-38
0.0487468866951 -0.0731203300427 0.878 1.83850358519e-38
0.0504865250206 -0.073286891159 0.88 2.27262108503e-38
0.0522335660624 -0.0734534522752 0.882 2.10734591856e-38
0.0538658650018 -0.0734534522752 0.882 2.34896872991e-38
-0.016415523348 -0.0722283027311 0.887 2.28439493485e-38
-0.0147739710132 -0.0722283027311 0.887 1.12218909737e-38
-0.0130583915156 -0.0718211533358 0.882 1.7302075965e-38
-0.0114001830692 -0.0716582935777 0.88 1.2139145916e-38
-0.00974937733903 -0.0714954338195 0.878 1.27651830114e-38
-0.00809672092981 -0.0712511441823 0.875 1.35931149857e-38
-0.00646257131129 -0.0710882844242 0.873 1.34998277443e-38
-0.00483582440905 -0.0709254246661 0.871 1.35916534314e-38
-0.00322388293937 -0.0709254246661 0.871 1.34998179352e-38
-0.00161194146968 -0.0709254246661 0.871 1.36834889275e-38
0.0 -0.0707625649079 0.869 1.35916534314e-38
0.00160824011154 -0.0707625649079 0.869 1.33161469429e-38
0.00321648022309 -0.0707625649079 0.869 1.91295443247e-38
0.00481361626021 -0.0705997051498 0.867 2.17113176349e-38
0.00641815501362 -0.0705997051498 0.867 8.65050969295e-39
0.00799493358098 -0.0703554155126 0.864 2.11826357503e-38
0.00957171214834 -0.0701925557545 0.862 1.11121118507e-38
0.0111669975064 -0.0701925557545 0.862 1.79572516606e-38
0.0127622828645 -0.0701925557545 0.862 1.66560773729e-38
0.0143242559993 -0.0700296959964 0.86 6.88766221185e-39
0.0159158399992 -0.0700296959964 0.86 1.82968703565e-38
0.0175074239991 -0.0700296959964 0.86 1.40692103428e-38
0.019099007999 -0.0700296959964 0.86 1.12053920856e-38
0.0206905919989 -0.0700296959964 0.86 1.42345019045e-38
0.0222821759988 -0.0700296959964 0.86 1.3958995416e-38
0.0238737599988 -0.0700296959964 0.86 2.17974974904e-38
0.0254653439987 -0.0700296959964 0.86 9.18462581302e-39
0.027119851087 -0.0701925557545 0.862 1.28569694621e-38
0.028715136445 -0.0701925557545 0.862 1.37897213641e-38
0.0303104218031 -0.0701925557545 0.862 1.31471909858e-38
0.0319797343239 -0.0703554155126 0.864 1.2214120989e-38
0.0336953138215 -0.0705997051498 0.867 7.07133320417e-39
0.0352998525749 -0.0705997051498 0.867 1.71317859717e-38
0.0369895225655 -0.0707625649079 0.869 1.26768857939e-38
0.0385977626771 -0.0707625649079 0.869 1.82763637547e-38
0.0402060027886 -0.0707625649079 0.869 1.80044207683e-38
0.0419104782118 -0.0709254246661 0.871 1.76345676568e-38
0.0436223563512 -0.0710882844242 0.873 1.91071936142e-38
0.0453416372069 -0.0712511441823 0.875 1.76324348805e-38
0.047121990472 -0.0714954338195 0.878 2.01328740252e-38
0.0488579274393 -0.0716582935777 0.88 1.87642370255e-38
0.0504865250206 -0.0716582935777 0.88 2.19029115687e-38
0.0522335660624 -0.0718211533358 0.882 2.06092608524e-38
0.0538658650018 -0.0718211533358 0.882 2.34885942863e-38
-0.0165820844643 -0.0713029631963 0.896 2.30276175383e-38
-0.0148072832364 -0.0707459087963 0.889 9.93009277397e-39
-0.0131028078133 -0.0704275919963 0.885 1.8224067296e-38
-0.0114260925761 -0.0701888543963 0.882 1.57423859326e-38
-0.00974937733903 -0.0698705375964 0.878 1.02027083837e-38
-0.00809672092981 -0.0696317999964 0.875 1.38679278314e-38
-0.00647737674385 -0.0696317999964 0.875 1.35019745336e-38
-0.00484692848347 -0.0694726415964 0.873 1.33161539494e-38
-0.00322388293937 -0.0693134831964 0.871 1.36834889275e-38
-0.00161194146968 -0.0693134831964 0.871 1.35916534314e-38
0.0 -0.0691543247964 0.869 1.3958995416e-38
0.00160824011154 -0.0691543247964 0.869 1.32243114468e-38
0.00321648022309 -0.0691543247964 0.869 2.06921770839e-38
0.00482472033463 -0.0691543247964 0.869 2.01454520802e-38
0.00641815501362 -0.0689951663964 0.867 1.83670992316e-40
0.00802269376702 -0.0689951663964 0.867 2.14578353544e-38
0.00959392029717 -0.0687564287964 0.864 8.99989543906e-39
0.0111929070134 -0.0687564287964 0.864 1.17869757898e-38
0.0127622828645 -0.0685972703964 0.862 1.95169458969e-38
0.0143575682225 -0.0685972703964 0.862 2.75506488474e-40
0.0159528535806 -0.0685972703964 0.862 2.29347436799e-38
0.0175074239991 -0.0684381119964 0.86 7.80852830028e-39
0.019099007999 -0.0684381119964 0.86 1.85158092285e-38
0.0207387096547 -0.0685972703964 0.862 1.18467790044e-38
0.0223339950128 -0.0685972703964 0.862 1.43266975344e-38
0.0239292803708 -0.0685972703964 0.862 2.14563289585e-38
0.0255245657289 -0.0685972703964 0.862 6.24481373874e-39
0.027119851087 -0.0685972703964 0.862 1.60884744234e-38
0.0287817608915 -0.0687564287964 0.864 1.20333254611e-38
0.0303807476077 -0.0687564287964 0.864 1.03774110659e-38
0.0319797343239 -0.0687564287964 0.864 8.27703842884e-39
0.0336953138215 -0.0689951663964 0.867 8.84562368853e-39
0.035381282454 -0.0691543247964 0.869 1.6667876306e-38
0.0369895225655 -0.0691543247964 0.869 1.27705247612e-38
0.0385977626771 -0.0691543247964 0.869 1.73569171817e-38
0.0402985367421 -0.0693134831964 0.871 1.79093566804e-38
0.0419104782118 -0.0693134831964 0.871 1.80033571827e-38
0.043722293021 -0.0696317999964 0.875 1.7908650426e-38
0.0454970942488 -0.0698705375964 0.878 1.99416262121e-38
0.047121990472 -0.0698705375964 0.878 1.71069241343e-38
0.0488579274393 -0.0700296959964 0.88 1.72952586479e-38
0.0504865250206 -0.0700296959964 0.88 2.03373234711e-38
0.0524112312531 -0.0704275919963 0.885 2.20793322428e-38
0.0540490822297 -0.0704275919963 0.885 2.34907564898e-38
-0.0182402929107 -0.0696447547499 0.896 2.2657742006e-38
-0.0165820844643 -0.0696447547499 0.896 2.33049106823e-38
-0.0148405954597 -0.0692561121452 0.891 1.05793928252e-38
-0.0131620295435 -0.0691006551034 0.889 1.71195218075e-38
-0.0114649568366 -0.0687897410197 0.885 1.45467168075e-38
-0.0097937936367 -0.0685565554569 0.882 1.51909721843e-38
-0.00812448111586 -0.0682456413732 0.878 1.04717576889e-38
-0.00647737674385 -0.0680124558104 0.875 1.31324787532e-38
-0.00485803255789 -0.0680124558104 0.875 1.32243142493e-38
-0.00323128565565 -0.0678569987686 0.873 1.36834889275e-38
-0.00161194146968 -0.0677015417267 0.871 1.34079824391e-38
0.0 -0.0677015417267 0.871 1.38671599199e-38
0.00161194146968 -0.0677015417267 0.871 1.34998179352e-38
0.00322388293937 -0.0677015417267 0.871 2.04184684613e-38
0.00482472033463 -0.0675460846849 0.869 1.96851955996e-38
0.00643296044618 -0.0675460846849 0.869 1.28569694621e-39
0.00802269376702 -0.067390627643 0.867 2.17308279134e-38
0.00962723252043 -0.067390627643 0.867 1.00100816929e-38
0.0111929070134 -0.0671574420802 0.864 1.72290388877e-38
0.0127918937296 -0.0671574420802 0.864 1.97129861507e-38
0.0143575682225 -0.0670019850384 0.862 3.67341984632e-40
0.0159528535806 -0.0670019850384 0.862 2.23822859643e-38
0.0175481389386 -0.0670019850384 0.862 8.4488992777e-39
0.0191434242967 -0.0670019850384 0.862 1.73187163842e-38
0.0207387096547 -0.0670019850384 0.862 1.63712564535e-38
0.0223339950128 -0.0670019850384 0.862 1.50977171728e-38
0.0239292803708 -0.0670019850384 0.862 1.51985700246e-38
0.0255245657289 -0.0670019850384 0.862 1.84101471204e-39
0.0271827741753 -0.0671574420802 0.864 9.39594302274e-39
0.0287817608915 -0.0671574420802 0.864 1.49006932074e-38
0.0304862363147 -0.067390627643 0.867 1.45484866475e-38
0.0320907750681 -0.067390627643 0.867 7.74230713875e-39
0.0337730423424 -0.0675460846849 0.869 1.74195061776e-38
0.035381282454 -0.0675460846849 0.869 1.71299334551e-38
0.0369895225655 -0.0675460846849 0.869 1.30456725172e-38
0.0385977626771 -0.0675460846849 0.869 1.75405923779e-38
0.0402985367421 -0.0677015417267 0.871 1.78171624519e-38
0.0420067135234 -0.0678569987686 0.873 1.82767000664e-38
0.0438721980256 -0.0682456413732 0.878 1.96596485273e-38
0.0454970942488 -0.0682456413732 0.878 1.95814574743e-38
0.047121990472 -0.0682456413732 0.878 1.44436807328e-38
0.0488579274393 -0.068401098415 0.88 1.98802885757e-38
0.0504865250206 -0.068401098415 0.88 2.24643852387e-38
0.0524112312531 -0.0687897410197 0.885 2.17131477307e-38
-0.0165820844643 -0.0679865463034 0.896 2.32123591226e-38
-0.0148905637946 -0.0678347906197 0.894 1.15964286259e-38
-0.0131916404086 -0.0676071570942 0.891 1.73064115824e-38
-0.0114908663436 -0.0673036457267 0.887 1.09456894412e-38
-0.00982710585995 -0.067151890043 0.885 1.52807085354e-38
-0.00816149469725 -0.0669242565174 0.882 1.38084455142e-38
-0.00649958489268 -0.06662074515 0.878 1.19386145005e-38
-0.00485803255789 -0.0663931116244 0.875 1.36834917301e-38
-0.00323868837192 -0.0663931116244 0.875 1.36834889275e-38
-0.00161564282782 -0.0662413559407 0.873 1.42345019045e-38
0.0 -0.066089600257 0.871 1.42345019045e-38
0.00161194146968 -0.066089600257 0.871 1.31324759506e-38
0.00322388293937 -0.066089600257 0.871 2.22587811228e-38
0.00482472033463 -0.0659378445733 0.869 1.82125304058e-38
0.00643296044618 -0.0659378445733 0.869 1.12295462672e-38
0.00804120055772 -0.0659378445733 0.869 2.12787269899e-38
0.00964944066926 -0.0659378445733 0.869 1.12040076027e-38
0.0112576807808 -0.0659378445733 0.869 1.15121713519e-38
0.0128659208924 -0.0659378445733 0.869 1.76795899751e-38
0.0144408487806 -0.0657860888896 0.867 7.34683969264e-40
0.0159528535806 -0.0654066996803 0.862 2.15525070786e-38
0.0175481389386 -0.0654066996803 0.862 8.63255765833e-39
0.0191434242967 -0.0654066996803 0.862 1.57513906765e-38
0.0207387096547 -0.0654066996803 0.862 1.35239468935e-38
0.0223858140267 -0.065558455364 0.864 1.72254067221e-38
0.0239848007429 -0.065558455364 0.864 1.68613185525e-38
0.0255837874591 -0.065558455364 0.864 5.71507247248e-39
0.0271827741753 -0.065558455364 0.864 1.64075472812e-38
0.0288816975613 -0.0657860888896 0.867 1.88831077729e-38
0.0304862363147 -0.0657860888896 0.867 1.63070601683e-38
0.0320907750681 -0.0657860888896 0.867 9.86449939415e-39
0.0337730423424 -0.0659378445733 0.869 6.45332835153e-39
0.035381282454 -0.0659378445733 0.869 1.86979205757e-38
0.0369895225655 -0.0659378445733 0.869 1.34083411715e-38
0.0386865952724 -0.066089600257 0.871 1.79079217508e-38
0.0403910706956 -0.0662413559407 0.873 1.79086392156e-38
0.042102948835 -0.0663931116244 0.875 1.81834296406e-38
0.0438721980256 -0.06662074515 0.878 1.93830840585e-38
0.0454970942488 -0.06662074515 0.878 1.88600283872e-38
0.047229329858 -0.0667725008337 0.88 1.45415768448e-38
0.0488579274393 -0.0667725008337 0.88 2.00741105741e-38
0.0508881223787 -0.0673036457267 0.887 2.04363308128e-38
0.0525296747135 -0.0673036457267 0.887 2.12528576189e-38
-0.0184845825479 -0.0672166638105 0.908 2.18290575345e-38
-0.0166190980456 -0.0664763921826 0.898 2.25673554525e-38
-0.0149238760178 -0.066328337857 0.896 1.17829526619e-38
-0.0132360567063 -0.0661802835314 0.894 1.70319925015e-38
-0.0115426853575 -0.0659582020431 0.891 1.22364310619e-38
-0.00984931400879 -0.0656620933919 0.887 1.22367211306e-38
-0.00816149469725 -0.065291957578 0.882 1.51953484394e-38
-0.00651439032524 -0.0651439032524 0.88 1.13137783179e-38
-0.00487468866951 -0.0649958489268 0.878 1.33161469429e-38
-0.00323868837192 -0.0647737674385 0.875 1.34079824391e-38
-0.00161934418596 -0.0647737674385 0.875 1.41433838731e-38
0.0 -0.0646257131129 0.873 1.44181728968e-38
0.00161194146968 -0.0644776587873 0.871 1.36834889275e-38
0.00322388293937 -0.0644776587873 0.871 2.09626557134e-38
0.00482472033463 -0.0643296044618 0.869 1.32243184532e-38
0.00643296044618 -0.0643296044618 0.869 1.13901126504e-38
0.00804120055772 -0.0643296044618 0.869 1.17549435082e-38
0.00964944066926 -0.0643296044618 0.869 1.23977919813e-38
0.0112576807808 -0.0643296044618 0.869 1.32488425777e-38
0.0128659208924 -0.0643296044618 0.869 2.05192890832e-38
0.0144741610039 -0.0643296044618 0.869 3.94892633479e-39
0.015989867162 -0.0639594686478 0.864 2.23694178405e-38
0.0175888538782 -0.0639594686478 0.864 1.74991587849e-38
0.0191878405943 -0.0639594686478 0.864 1.31721060725e-38
0.0207868273105 -0.0639594686478 0.864 1.72085280821e-38
0.0224635425477 -0.0641815501362 0.867 1.86108747176e-38
0.0240680813011 -0.0641815501362 0.867 9.76128815706e-39
0.0256726200545 -0.0641815501362 0.867 7.56435204287e-39
0.0272771588079 -0.0641815501362 0.867 6.82426887062e-39
0.0289483220078 -0.0643296044618 0.869 7.45631753646e-39
0.0305565621193 -0.0643296044618 0.869 1.15035043209e-38
0.0321648022309 -0.0643296044618 0.869 1.55622378046e-38
0.0337730423424 -0.0643296044618 0.869 1.43594360704e-38
0.035462712333 -0.0644776587873 0.871 1.2033319856e-38
0.0370746538027 -0.0644776587873 0.871 1.78160862547e-38
0.0386865952724 -0.0644776587873 0.871 1.73569087739e-38
0.0404836046491 -0.0647737674385 0.875 1.72650732777e-38
0.042102948835 -0.0647737674385 0.875 1.81863163154e-38
0.0438721980256 -0.0649958489268 0.878 1.91187248993e-38
0.0456007322767 -0.0651439032524 0.88 2.00660671209e-38
0.047229329858 -0.0651439032524 0.88 1.99869792369e-38
0.0489689681835 -0.065291957578 0.882 8.08726338041e-39
0.0508881223787 -0.0656620933919 0.887 1.97820995923e-38
0.052648118174 -0.0658101477175 0.889 2.18971732515e-38
-0.0184845825479 -0.0655362472152 0.908 2.15514084606e-38
-0.0166190980456 -0.064814482378 0.898 2.22911286966e-38
-0.0149571882411 -0.064814482378 0.898 1.23343467921e-38
-0.0132656675714 -0.0646701294106 0.896 1.83180369698e-38
-0.0115426853575 -0.064309246992 0.891 9.10713961314e-39
-0.00984931400879 -0.0640205410571 0.887 9.46336089316e-39
-0.00818925488329 -0.0638761880897 0.885 1.49122413081e-38
-0.0065291957578 -0.0636596586385 0.882 1.58399555421e-38
-0.00488579274393 -0.0635153056711 0.88 1.09298589724e-38
-0.00324979244634 -0.0633709527037 0.878 1.36834917301e-38
-0.00161934418596 -0.0631544232525 0.875 1.36834889275e-38
0.0 -0.0631544232525 0.875 1.4510008393e-38
0.00161564282782 -0.0630100702851 0.873 1.44181728968e-38
0.00323128565565 -0.0630100702851 0.873 1.40508309122e-38
0.00483582440905 -0.0628657173177 0.871 1.36834889275e-38
0.00644776587873 -0.0628657173177 0.871 1.41426664083e-38
0.00804120055772 -0.0627213643502 0.869 1.83804564086e-38
0.00964944066926 -0.0627213643502 0.869 1.70115489582e-38
0.0112576807808 -0.0627213643502 0.869 1.39654806253e-38
0.0128659208924 -0.0627213643502 0.869 1.24896442931e-38
0.0144741610039 -0.0627213643502 0.869 1.32243142493e-38
0.0160824011154 -0.0627213643502 0.869 1.21222854929e-38
0.017690641227 -0.0627213643502 0.869 1.17549435082e-38
0.0192988813385 -0.0627213643502 0.869 1.57239868838e-38
0.0209071214501 -0.0627213643502 0.869 2.25688506379e-38
0.0225153615616 -0.0627213643502 0.869 1.79644585386e-38
0.0241236016732 -0.0627213643502 0.869 9.84792203332e-39
0.0257318417847 -0.0627213643502 0.869 1.31680409056e-38
0.0273400818963 -0.0627213643502 0.869 1.67597398281e-38
0.0289483220078 -0.0627213643502 0.869 1.43587480328e-38
0.0305565621193 -0.0627213643502 0.869 1.23167184574e-38
0.0321648022309 -0.0627213643502 0.869 1.41426958356e-38
0.0338507708634 -0.0628657173177 0.871 1.56120343469e-38
0.035462712333 -0.0628657173177 0.871 1.68058957969e-38
0.0370746538027 -0.0628657173177 0.871 1.78160862547e-38
0.0388642604631 -0.0631544232525 0.875 1.79090035532e-38
0.0404836046491 -0.0631544232525 0.875 1.68977607203e-38
0.0422473018025 -0.0633709527037 0.878 2.0396175204e-38
0.0438721980256 -0.0633709527037 0.878 2.34711691399e-38
0.0456007322767 -0.0635153056711 0.88 1.91468293413e-38
0.047336669244 -0.0636596586385 0.882 8.90983678936e-39
0.0489689681835 -0.0636596586385 0.882 2.02330010044e-38
0.0508881223787 -0.0640205410571 0.887 1.67453919331e-38
0.052648118174 -0.0641648940246 0.889 2.34724190981e-38
-0.0184845825479 -0.0638558306199 0.908 2.09989437385e-38
-0.0167671523712 -0.0637151790106 0.906 2.25666421915e-38
-0.0149571882411 -0.0631525725735 0.898 1.39005864934e-38
-0.0132656675714 -0.0630119209642 0.896 1.45351897264e-38
-0.0115426853575 -0.0626602919409 0.891 1.27070977888e-38
-0.00987152215763 -0.0625196403316 0.889 8.54249480473e-39
-0.00820776167399 -0.0623789887223 0.887 1.1398758662e-38
-0.00655140390664 -0.062238337113 0.885 1.53771949411e-38
-0.00489689681835 -0.0620273596991 0.882 1.26027543025e-38
-0.00325719516262 -0.0618867080898 0.88 1.23977919813e-38
-0.00162489622317 -0.0617460564805 0.878 1.35916534314e-38
0.0 -0.0617460564805 0.878 1.40508309122e-38
0.00161934418596 -0.0615350790666 0.875 1.4510008393e-38
0.00323868837192 -0.0615350790666 0.875 1.40508309122e-38
0.00483582440905 -0.061253775848 0.871 2.2986637966e-38
0.00644776587873 -0.061253775848 0.871 1.95152615361e-38
0.00805970734842 -0.061253775848 0.871 1.95202389483e-38
0.0096716488181 -0.061253775848 0.871 1.54536259633e-38
0.0112835902878 -0.061253775848 0.871 1.18467790044e-38
0.0128955317575 -0.061253775848 0.871 1.5703869843e-38
0.0145074732272 -0.061253775848 0.871 1.55202324819e-38
0.0161194146968 -0.061253775848 0.871 1.53365376675e-38
0.0177313561665 -0.061253775848 0.871 1.74595538864e-38
0.0193432976362 -0.061253775848 0.871 1.67252062287e-38
0.0209552391059 -0.061253775848 0.871 1.30406740856e-38
0.0225671805756 -0.061253775848 0.871 1.27651507815e-38
0.0241791220453 -0.061253775848 0.871 1.36835267626e-38
0.0257910635149 -0.061253775848 0.871 1.47855148814e-38
0.0274030049846 -0.061253775848 0.871 1.3958995416e-38
0.0290149464543 -0.061253775848 0.871 1.41426664083e-38
0.030626887924 -0.061253775848 0.871 1.4510008393e-38
0.0322388293937 -0.061253775848 0.871 1.54283633545e-38
0.0338507708634 -0.061253775848 0.871 2.34712840464e-38
0.0355441422121 -0.0613944274573 0.873 1.18478580042e-38
0.0371597850399 -0.0613944274573 0.873 1.72650732777e-38
0.0388642604631 -0.0615350790666 0.875 1.65303893084e-38
0.0406224055793 -0.0617460564805 0.878 2.03046479935e-38
0.0422473018025 -0.0617460564805 0.878 2.34820754458e-38
0.0439721346954 -0.0618867080898 0.88 1.21377880578e-38
0.0457043703046 -0.0620273596991 0.882 1.24896274775e-38
0.0474976783231 -0.062238337113 0.885 1.4607660679e-38
0.0492465700439 -0.0623789887223 0.887 2.17264096193e-38
0.0508881223787 -0.0623789887223 0.887 1.46154757206e-38
-0.0184845825479 -0.0621754140247 0.908 2.1182258801e-38
-0.0167671523712 -0.0620384637735 0.906 2.27499390372e-38
-0.015007156576 -0.0616960881456 0.901 1.43629939672e-38
-0.0132952784365 -0.0614906627689 0.898 1.13101153237e-38
-0.011607459125 -0.0613537125177 0.896 1.63899077361e-38
-0.00989373030646 -0.0610113368898 0.891 5.69774681827e-39
-0.00822626846469 -0.0608743866387 0.889 6.61215572338e-39
-0.00656620933919 -0.0607374363875 0.887 1.6207622628e-38
-0.00491355292998 -0.0606004861364 0.885 1.6481004748e-38
-0.0032645978789 -0.0603950607596 0.882 1.64788565574e-38
-0.00162859758131 -0.0602581105085 0.88 1.36125327785e-38
0.0 -0.0602581105085 0.88 1.23059690969e-38
0.00162489622317 -0.0601211602573 0.878 1.34079824391e-38
0.00324979244634 -0.0601211602573 0.878 1.4510008393e-38
0.00484692848347 -0.0597787846294 0.873 1.34079824391e-38
0.00646257131129 -0.0597787846294 0.873 2.28097702777e-38
0.00807821413911 -0.0597787846294 0.873 9.10541181213e-39
0.0096716488181 -0.0596418343783 0.871 1.4330287661e-38
0.0112835902878 -0.0596418343783 0.871 1.52562194434e-38
0.0128955317575 -0.0596418343783 0.871 1.17549435082e-38
0.0145074732272 -0.0596418343783 0.871 1.20304570032e-38
0.0161194146968 -0.0596418343783 0.871 1.34998179352e-38
0.0177313561665 -0.0596418343783 0.871 1.34998179352e-38
0.0193877139339 -0.0597787846294 0.873 1.34998179352e-38
0.0210033567617 -0.0597787846294 0.873 1.28569694621e-38
0.0225671805756 -0.0596418343783 0.871 1.53365320623e-38
0.0241791220453 -0.0596418343783 0.871 1.19386229083e-38
0.0257910635149 -0.0596418343783 0.871 2.34774371479e-38
0.0274030049846 -0.0596418343783 0.871 1.2128830958e-38
0.0290149464543 -0.0596418343783 0.871 2.16257011013e-38
0.030626887924 -0.0596418343783 0.871 1.8217329853e-38
0.0322388293937 -0.0596418343783 0.871 1.9797944074e-38
0.0338507708634 -0.0596418343783 0.871 2.17318788873e-38
0.0356255720912 -0.0599157348806 0.875 1.23060041293e-38
0.0372449162771 -0.0599157348806 0.875 1.81837981821e-38
0.0389975093561 -0.0601211602573 0.878 2.31860679608e-38
0.0406224055793 -0.0601211602573 0.878 2.12640469871e-38
0.0423435371141 -0.0602581105085 0.88 8.26519465422e-39
0.0440720713651 -0.0603950607596 0.882 1.14794370197e-38
0.0458598273464 -0.0606004861364 0.885 1.2214120989e-38
0.0474976783231 -0.0606004861364 0.885 2.31079217494e-38
0.0492465700439 -0.0607374363875 0.887 1.50811103847e-38
0.0508881223787 -0.0607374363875 0.887 2.2529572242e-38
-0.0184845825479 -0.0604949974294 0.908 2.09074711786e-38
-0.0167671523712 -0.0603617485364 0.906 2.25673582551e-38
-0.0150404687992 -0.0601618751969 0.903 1.45481054943e-38
-0.0132952784365 -0.0598287529643 0.898 1.36992731534e-38
-0.011607459125 -0.0596955040713 0.896 1.72070833434e-38
-0.00989373030646 -0.0593623818388 0.891 1.42737340576e-38
-0.00822626846469 -0.0592291329458 0.889 1.04014461371e-38
-0.00656620933919 -0.0590958840527 0.887 1.52839427322e-38
-0.00492465700439 -0.0590958840527 0.887 1.57412887159e-38
-0.0032645978789 -0.0587627618202 0.882 7.80601717343e-39
-0.00163229893945 -0.0587627618202 0.882 1.26808907049e-38
0.0 -0.0586295129272 0.88 1.91468069205e-38
0.00162489622317 -0.0584962640342 0.878 1.58281173727e-38
0.00324979244634 -0.0584962640342 0.878 1.19472240783e-38
0.00484692848347 -0.0581631418016 0.873 1.36834889275e-38
0.00646257131129 -0.0581631418016 0.873 2.07898615998e-38
0.00807821413911 -0.0581631418016 0.873 8.17335915806e-39
0.00969385696694 -0.0581631418016 0.873 2.11726094598e-38
0.0113094997948 -0.0581631418016 0.873 2.1546569777e-38
0.0129251426226 -0.0581631418016 0.873 1.52778372748e-38
0.0145407854504 -0.0581631418016 0.873 1.85115184526e-38
0.0161564282782 -0.0581631418016 0.873 2.22868126973e-38
0.0177720711061 -0.0581631418016 0.873 2.05322048512e-38
0.0193877139339 -0.0581631418016 0.873 1.06694598827e-38
0.0210514744175 -0.0582963906946 0.875 2.14541779654e-38
0.0226189995895 -0.0581631418016 0.873 2.20137066331e-38
0.0242346424173 -0.0581631418016 0.873 1.34356973201e-38
0.0258502852452 -0.0581631418016 0.873 1.94262832875e-38
0.027465928073 -0.0581631418016 0.873 2.3474902199e-38
0.0290815709008 -0.0581631418016 0.873 1.43469182712e-38
0.0306972137286 -0.0581631418016 0.873 1.95033841303e-38
0.0323128565565 -0.0581631418016 0.873 1.00122368899e-38
0.0340062279052 -0.0582963906946 0.875 1.68335798494e-38
0.0356255720912 -0.0582963906946 0.875 2.13587032971e-38
0.0372449162771 -0.0582963906946 0.875 1.86862015166e-38
0.0389975093561 -0.0584962640342 0.878 9.91823358506e-39
0.0407149395328 -0.0586295129272 0.88 1.47001519829e-38
0.0423435371141 -0.0586295129272 0.88 9.18363509501e-39
0.0442219763698 -0.0589626351597 0.885 1.23059564852e-38
0.0458598273464 -0.0589626351597 0.885 2.2650145567e-38
0.0476050177091 -0.0590958840527 0.887 1.60009843538e-38
0.0492465700439 -0.0590958840527 0.887 1.93892035289e-38
0.0510028644811 -0.0592291329458 0.889 2.25417943672e-38
-0.0184845825479 -0.0588145808341 0.908 2.09089005031e-38
-0.0167671523712 -0.0586850332993 0.906 2.23843809055e-38
-0.0150404687992 -0.058490711997 0.903 1.51913351206e-38
-0.0133396947342 -0.0583611644621 0.901 1.40687675325e-38
-0.011607459125 -0.0580372956249 0.896 1.29621397145e-38
-0.00992704252972 -0.05790774809 0.894 1.69362389749e-38
-0.00824477525538 -0.0577134267877 0.891 1.50984234272e-38
-0.00658101477175 -0.0575838792528 0.889 1.35285964018e-38
-0.00492465700439 -0.0574543317179 0.887 1.72167747235e-38
-0.00327570195332 -0.0573247841831 0.885 6.88766221185e-39
-0.00163785097666 -0.0573247841831 0.885 1.05650547393e-38
0.0 -0.0571304628807 0.882 6.42851415833e-39
0.00162859758131 -0.0570009153459 0.88 8.54070674789e-39
0.00325719516262 -0.0570009153459 0.88 1.58202084441e-38
0.00485803255789 -0.0566770465087 0.875 1.85032339761e-38
0.00647737674385 -0.0566770465087 0.875 1.72164215963e-38
0.00809672092981 -0.0566770465087 0.875 1.42604399391e-38
0.00971606511577 -0.0566770465087 0.875 1.32383174249e-38
0.0113354093017 -0.0566770465087 0.875 1.07451117829e-38
0.0129251426226 -0.0565474989738 0.873 1.82896648798e-38
0.0145407854504 -0.0565474989738 0.873 8.99987862348e-39
0.0161934418596 -0.0566770465087 0.875 1.41528188157e-38
0.0178127860456 -0.0566770465087 0.875 2.17030499739e-38
0.0194987546781 -0.056871367811 0.878 1.17640057054e-38
0.0211236509012 -0.056871367811 0.878 1.701879227e-38
0.0226708186035 -0.0566770465087 0.875 1.70179276688e-38
0.0242901627894 -0.0566770465087 0.875 1.11135299647e-38
0.0259095069754 -0.0566770465087 0.875 1.42492099332e-38
0.0275288511614 -0.0566770465087 0.875 1.58140175075e-38
0.0291481953473 -0.0566770465087 0.875 1.84991940326e-38
0.0308730282403 -0.056871367811 0.878 2.10832472554e-38
0.0324979244634 -0.056871367811 0.878 1.87812487888e-38
0.0341228206866 -0.056871367811 0.878 9.74137850848e-39
0.0357477169098 -0.056871367811 0.878 1.01937498826e-38
0.0373726131329 -0.056871367811 0.878 1.27701898508e-38
0.0389975093561 -0.056871367811 0.878 1.93408335085e-38
0.0407149395328 -0.0570009153459 0.88 1.70403512469e-38
0.0423435371141 -0.0570009153459 0.88 1.15881343403e-38
0.0442219763698 -0.0573247841831 0.885 2.34820558276e-38
0.0458598273464 -0.0573247841831 0.885 1.36099698036e-38
0.0476050177091 -0.0574543317179 0.887 1.9841133494e-38
0.0492465700439 -0.0574543317179 0.887 2.06756389594e-38
-0.0167671523712 -0.0570083180621 0.906 2.18283106424e-38
-0.0150904371341 -0.0570083180621 0.906 1.64817250154e-38
-0.0133693055993 -0.056819548797 0.903 1.13058245478e-38
-0.0116722328924 -0.0566937026203 0.901 1.26847933211e-38
-0.00997145882739 -0.0565049333552 0.898 1.36881524488e-38
-0.00824477525538 -0.0560644717366 0.891 1.80400712025e-38
-0.00658101477175 -0.0559386255599 0.889 1.78610455146e-38
-0.00493576107881 -0.0559386255599 0.889 1.74962510906e-38
-0.0032831046696 -0.0558127793831 0.887 7.71420830194e-39
-0.0016415523348 -0.0558127793831 0.887 1.47134727261e-38
0.0 -0.0556869332064 0.885 1.49223138414e-38
0.00163229893945 -0.0554981639413 0.882 1.26185539427e-38
0.0032645978789 -0.0554981639413 0.882 1.02171543696e-38
0.00487468866951 -0.0552464715878 0.878 5.51021524869e-39
0.00649958489268 -0.0552464715878 0.878 6.24481373874e-39
0.00812448111586 -0.0552464715878 0.878 1.06529175543e-38
0.00974937733903 -0.0552464715878 0.878 1.323015346e-38
0.0113742735622 -0.0552464715878 0.878 1.61018372056e-38
0.0129547534877 -0.0550577023227 0.875 1.77645759244e-38
0.0145740976737 -0.0550577023227 0.875 1.89634890554e-38
0.0162489622317 -0.0552464715878 0.878 1.91510654666e-38
0.0178738584549 -0.0552464715878 0.878 1.93358084522e-38
0.0194987546781 -0.0552464715878 0.878 1.95209269858e-38
0.0211236509012 -0.0552464715878 0.878 1.90578104551e-38
0.0227485471244 -0.0552464715878 0.878 1.85961484721e-38
0.0243734433476 -0.0552464715878 0.878 1.71185002609e-38
0.0259983395707 -0.0552464715878 0.878 1.42586252576e-38
0.0276232357939 -0.0552464715878 0.878 1.24025255675e-38
0.0292481320171 -0.0552464715878 0.878 1.1112099239e-38
0.0308730282403 -0.0552464715878 0.878 8.99987862348e-39
0.0324979244634 -0.0552464715878 0.878 8.72437213501e-39
0.0341228206866 -0.0552464715878 0.878 1.73778876132e-38
0.0357477169098 -0.0552464715878 0.878 1.86012183699e-38
0.0374577443701 -0.0553723177646 0.88 1.65725389649e-38
0.0390863419515 -0.0553723177646 0.88 7.71428957725e-39
0.0407149395328 -0.0553723177646 0.88 1.63797917625e-38
0.0424397724257 -0.0554981639413 0.882 2.22761235926e-38
0.0442219763698 -0.0556869332064 0.885 1.31410855284e-38
0.0459634653743 -0.0558127793831 0.887 1.94709188475e-38
0.0477123570952 -0.0559386255599 0.889 1.94774278789e-38
-0.0167671523712 -0.055331602825 0.906 2.16435914788e-38
-0.0150904371341 -0.055331602825 0.906 1.82345391995e-38
-0.0133693055993 -0.0551483855971 0.903 9.00525960959e-39
-0.0116722328924 -0.0550262407785 0.901 1.1578447164e-38
-0.00997145882739 -0.0548430235506 0.898 1.29498993724e-38
-0.00829104223213 -0.054720878732 0.896 1.2765133966e-38
-0.00661802835314 -0.0545987339134 0.894 1.23059564852e-38
-0.00494686515323 -0.0544155166855 0.891 1.16631080121e-38
-0.00329050738588 -0.0542933718669 0.889 1.77526564797e-38
-0.00164525369294 -0.0542933718669 0.889 1.68404868495e-38
0.0 -0.0541712270483 0.887 6.70399121953e-39
0.0016415523348 -0.0541712270483 0.887 8.81620763117e-39
0.00327570195332 -0.0540490822297 0.885 1.39057180484e-38
0.00491355292998 -0.0540490822297 0.885 1.54755240544e-38
0.0065291957578 -0.0538658650018 0.882 1.40890176966e-38
0.00816149469725 -0.0538658650018 0.882 1.54672984324e-38
0.0097937936367 -0.0538658650018 0.882 1.12079662709e-38
0.0114001830692 -0.0537437201832 0.88 6.52039869993e-39
0.0130287806505 -0.0537437201832 0.88 7.34683969264e-39
0.0146573782318 -0.0537437201832 0.88 6.79582671569e-39
0.0162859758131 -0.0537437201832 0.88 7.34683969264e-39
0.0179145733944 -0.0537437201832 0.88 7.53051068496e-39
0.0194987546781 -0.0536215753646 0.878 6.3366492349e-39
0.0211236509012 -0.0536215753646 0.878 8.81623005194e-39
0.0228003661383 -0.0537437201832 0.88 8.99988703127e-39
0.0244289637197 -0.0537437201832 0.88 8.81656636357e-39
0.026057561301 -0.0537437201832 0.88 1.18674173282e-38
0.0276861588823 -0.0537437201832 0.88 1.99715509408e-38
0.0293147564636 -0.0537437201832 0.88 1.60189377897e-38
0.0309433540449 -0.0537437201832 0.88 2.07206360544e-38
0.0325719516262 -0.0537437201832 0.88 1.96152848192e-38
0.0342005492075 -0.0537437201832 0.88 1.74022772129e-38
0.0358291467888 -0.0537437201832 0.88 6.15298945297e-39
0.0374577443701 -0.0537437201832 0.88 1.47019638618e-38
0.0391751745468 -0.0538658650018 0.882 1.94115990809e-38
0.0408074734862 -0.0538658650018 0.882 1.85807075643e-38
0.0424397724257 -0.0538658650018 0.882 1.54283633545e-38
0.0443219130396 -0.0541712270483 0.887 1.87344706435e-38
0.0460671034023 -0.0542933718669 0.889 2.07771139877e-38
0.0477123570952 -0.0542933718669 0.889 2.02192921015e-38
-0.0167671523712 -0.0536548875879 0.906 2.05368711751e-38
-0.0150404687992 -0.0534772223972 0.903 1.82352370461e-38
-0.0133693055993 -0.0534772223972 0.903 9.46911882855e-39
-0.0116722328924 -0.0533587789368 0.901 1.3792913522e-38
-0.00997145882739 -0.0531811137461 0.898 1.24928770886e-38
-0.00829104223213 -0.0530626702856 0.896 1.30417166517e-38
-0.0066328337857 -0.0530626702856 0.896 1.74692817003e-38
-0.00496352126486 -0.0529442268251 0.894 1.38843790754e-38
-0.00329050738588 -0.052648118174 0.889 1.2953827212e-38
-0.00164525369294 -0.052648118174 0.889 1.29488049583e-38
0.0 -0.0525296747135 0.887 1.84952465749e-38
0.0016415523348 -0.0525296747135 0.887 1.69362571918e-38
0.0032831046696 -0.0525296747135 0.887 7.80781083546e-39
0.00491355292998 -0.0524112312531 0.885 8.90804312733e-39
0.00655140390664 -0.0524112312531 0.885 8.54070114269e-39
0.00818925488329 -0.0524112312531 0.885 1.4993356871e-38
0.0097937936367 -0.0522335660624 0.882 1.83213594484e-38
0.0114260925761 -0.0522335660624 0.882 1.71342802829e-38
0.0130287806505 -0.0521151226019 0.88 1.98975777962e-38
0.0146573782318 -0.0521151226019 0.88 8.63549337861e-39
0.0162859758131 -0.0521151226019 0.88 1.68570123623e-38
0.0179145733944 -0.0521151226019 0.88 1.5756449364e-38
0.0195431709757 -0.0521151226019 0.88 1.37241980492e-38
0.021171768557 -0.0521151226019 0.88 1.54744730805e-38
0.0228521851523 -0.0522335660624 0.882 1.09532718672e-38
0.0244844840917 -0.0522335660624 0.882 2.21694595561e-38
0.0261167830312 -0.0522335660624 0.882 1.96206756144e-38
0.0277490819706 -0.0522335660624 0.882 1.63967390661e-38
0.0293813809101 -0.0522335660624 0.882 1.34402683557e-38
0.0310136798495 -0.0522335660624 0.882 1.01938255527e-38
0.032645978789 -0.0522335660624 0.882 1.12957660274e-38
0.0342782777284 -0.0522335660624 0.882 1.46969850484e-38
0.0359105766679 -0.0522335660624 0.882 1.97871568785e-38
0.0376705724632 -0.0524112312531 0.885 1.89552073815e-38
0.0393972560352 -0.0525296747135 0.887 1.4144101338e-38
0.0411313423234 -0.052648118174 0.889 2.07652576014e-38
0.0427765960164 -0.052648118174 0.889 1.94007193997e-38
0.0446716913837 -0.0529442268251 0.894 2.1711726814e-38
0.046326198472 -0.0529442268251 0.894 1.68238324173e-38
0.0480880449463 -0.0530626702856 0.896 1.95753239909e-38
-0.0167671523712 -0.0519781723508 0.906 2.03517708583e-38
-0.0150404687992 -0.0518060591973 0.903 1.8142674276e-38
-0.0133693055993 -0.0518060591973 0.903 1.0668348653e-38
-0.0116722328924 -0.051691317095 0.901 1.16695665967e-38
-0.00997145882739 -0.0515192039415 0.898 1.32300791912e-38
-0.00830954902282 -0.0515192039415 0.898 1.33186594711e-38
-0.0066328337857 -0.0514044618392 0.896 1.2765133966e-38
-0.00497462533928 -0.0514044618392 0.896 1.54481090512e-38
-0.00329791010215 -0.0511176065834 0.891 1.54481062486e-38
-0.00164525369294 -0.0510028644811 0.889 1.5355926033e-38
0.0 -0.0510028644811 0.889 1.39690511338e-38
0.0016415523348 -0.0508881223787 0.887 1.21222854929e-38
0.0032831046696 -0.0508881223787 0.887 1.68264472402e-38
0.00492465700439 -0.0508881223787 0.887 1.960659817e-38
0.00656620933919 -0.0508881223787 0.887 1.7953633508e-38
0.00818925488329 -0.0507733802764 0.885 1.23253336403e-38
0.00982710585995 -0.0507733802764 0.885 9.18360006254e-39
0.0114649568366 -0.0507733802764 0.885 1.17549435082e-38
0.0130583915156 -0.0506012671229 0.882 1.0193789119e-38
0.014690690455 -0.0506012671229 0.882 8.63253663885e-39
0.0163229893945 -0.0506012671229 0.882 6.52032022722e-39
0.0179552883339 -0.0506012671229 0.882 4.86728129637e-39
0.0195875872734 -0.0506012671229 0.882 7.4386751888e-39
0.0212198862128 -0.0506012671229 0.882 8.0815236619e-39
0.0228521851523 -0.0506012671229 0.882 8.44886564654e-39
0.0244844840917 -0.0506012671229 0.882 1.03774110659e-38
0.0262056156265 -0.0507733802764 0.885 1.00100690812e-38
0.0278434666032 -0.0507733802764 0.885 1.00197548562e-38
0.0294813175799 -0.0507733802764 0.885 1.88504897486e-38
0.0311191685565 -0.0507733802764 0.885 2.09939214848e-38
0.0327570195332 -0.0507733802764 0.885 1.98882969964e-38
0.0343948705098 -0.0507733802764 0.885 1.52712385603e-38
0.0360327214865 -0.0507733802764 0.885 1.47855148814e-38
0.0376705724632 -0.0507733802764 0.885 2.16965479491e-38
0.0393972560352 -0.0508881223787 0.887 1.94911592025e-38
0.0411313423234 -0.0510028644811 0.889 1.84851894558e-38
0.0430171842954 -0.0512897197369 0.894 1.85687530871e-38
0.0447716280535 -0.0514044618392 0.896 1.74491030024e-38
0.0464298364999 -0.0514044618392 0.896 1.89235128128e-38
0.0480880449463 -0.0514044618392 0.896 1.83739501798e-38
-0.0150404687992 -0.0501348959974 0.903 1.79590229019e-38
-0.0133693055993 -0.0501348959974 0.903 1.14984792646e-38
-0.0116722328924 -0.0500238552532 0.901 1.28709796442e-38
-0.0100047710506 -0.0500238552532 0.901 1.24046345217e-38
-0.00833730920887 -0.0500238552532 0.901 1.24903477449e-38
-0.00664763921826 -0.0498572941369 0.898 1.21222854929e-38
-0.00497462533928 -0.0497462533928 0.896 1.17549435082e-38
-0.00329791010215 -0.0494686515323 0.891 1.59855126175e-38
-0.00164895505108 -0.0494686515323 0.891 1.56342771574e-38
0.0 -0.0493576107881 0.889 1.37825284991e-38
0.00164525369294 -0.0493576107881 0.889 1.58179831822e-38
0.00329050738588 -0.0493576107881 0.889 1.79384994846e-38
0.00492465700439 -0.0492465700439 0.887 1.16631164199e-38
0.00656620933919 -0.0492465700439 0.887 1.32243114468e-38
0.00820776167399 -0.0492465700439 0.887 1.64468817291e-38
0.00984931400879 -0.0492465700439 0.887 1.78434353968e-38
0.0114649568366 -0.0491355292998 0.885 1.87768697311e-38
0.0131028078133 -0.0491355292998 0.885 1.96106212979e-38
0.0147406587899 -0.0491355292998 0.885 1.942765656e-38
0.0163229893945 -0.0489689681835 0.882 2.00733762937e-38
0.0179552883339 -0.0489689681835 0.882 1.92429247848e-38
0.0195875872734 -0.0489689681835 0.882 1.9519514477e-38
0.0212198862128 -0.0489689681835 0.882 2.05332992653e-38
0.0229299136732 -0.0491355292998 0.885 2.05343726599e-38
0.0245677646499 -0.0491355292998 0.885 2.06247536082e-38
0.0262648373568 -0.0492465700439 0.887 1.88708884503e-38
0.0279063896916 -0.0492465700439 0.887 1.68388991783e-38
0.0295479420264 -0.0492465700439 0.887 1.51550765228e-38
0.0311894943612 -0.0492465700439 0.887 1.30406404544e-38
0.032831046696 -0.0492465700439 0.887 1.98494151679e-38
0.0344725990308 -0.0492465700439 0.887 2.04180578809e-38
0.0361141513656 -0.0492465700439 0.887 1.86638970489e-38
0.0377557037004 -0.0492465700439 0.887 1.96865660695e-38
0.0394860886305 -0.0493576107881 0.889 1.96755308441e-38
0.0412238762769 -0.0494686515323 0.891 1.88578577759e-38
0.0430171842954 -0.0496352126486 0.894 1.83779424791e-38
0.0447716280535 -0.0497462533928 0.896 1.74523456071e-38
0.0465334745278 -0.0498572941369 0.898 1.67144260397e-38
0.0481953843324 -0.0498572941369 0.898 2.03100948407e-38
-0.0150404687992 -0.0484637327975 0.903 1.74062176642e-38
-0.0133693055993 -0.0484637327975 0.903 1.26952231856e-38
-0.0116722328924 -0.0483563934114 0.901 1.17642817612e-38
-0.0100047710506 -0.0483563934114 0.901 1.15788339224e-38
-0.00833730920887 -0.0483563934114 0.901 1.31364332175e-38
-0.00664763921826 -0.0481953843324 0.898 1.2214120989e-38
-0.00498572941369 -0.0481953843324 0.898 1.17549435082e-38
-0.00331641689285 -0.0480880449463 0.896 1.23977919813e-38
-0.00164895505108 -0.0478196964812 0.891 1.62778472992e-38
0.0 -0.0478196964812 0.891 1.66466270161e-38
0.00164525369294 -0.0477123570952 0.889 1.53587790767e-38
0.00329050738588 -0.0477123570952 0.889 1.73778637911e-38
0.00493576107881 -0.0477123570952 0.889 1.24993132525e-38
0.00656620933919 -0.0476050177091 0.887 1.52554837617e-38
0.00820776167399 -0.0476050177091 0.887 1.89419118617e-38
0.00984931400879 -0.0476050177091 0.887 1.66462963096e-38
0.0114908663436 -0.0476050177091 0.887 1.56207336077e-38
0.0131324186784 -0.0476050177091 0.887 1.6456863178e-38
0.0147406587899 -0.0474976783231 0.885 1.38689535819e-38
0.0163785097666 -0.0474976783231 0.885 1.55201988507e-38
0.0180163607432 -0.0474976783231 0.885 1.33161469429e-38
0.0196542117199 -0.0474976783231 0.885 1.37753412393e-38
0.0212920626966 -0.0474976783231 0.885 1.40508435239e-38
0.0229817326872 -0.0476050177091 0.887 1.49691858738e-38
0.024623285022 -0.0476050177091 0.887 1.46936793853e-38
0.0262648373568 -0.0476050177091 0.887 1.86509476498e-38
0.0279063896916 -0.0476050177091 0.887 1.90365877898e-38
0.0295479420264 -0.0476050177091 0.887 1.94990232895e-38
0.0311894943612 -0.0476050177091 0.887 1.65515797438e-38
0.0329050738588 -0.0477123570952 0.889 1.74645859492e-38
0.0345503275517 -0.0477123570952 0.889 1.97709088228e-38
0.0361955812446 -0.0477123570952 0.889 1.97637762136e-38
0.0378408349376 -0.0477123570952 0.889 1.94064044675e-38
0.0397081701189 -0.0479807055603 0.894 2.08783297758e-38
0.0413626772071 -0.0479807055603 0.894 1.35966756851e-38
0.0431134196071 -0.0480880449463 0.896 1.72650999024e-38
0.0448715647232 -0.0481953843324 0.898 1.73569438063e-38
0.0465334745278 -0.0481953843324 0.898 1.79161964182e-38
0.0481953843324 -0.0481953843324 0.898 2.20643131258e-38
0.0498572941369 -0.0481953843324 0.898 1.84787056478e-38
-0.0133693055993 -0.0467925695976 0.903 1.21413487572e-38
-0.0116981423994 -0.0467925695976 0.903 9.37044919978e-39
-0.0100269791995 -0.0467925695976 0.903 1.04800267511e-38
-0.00835581599956 -0.0467925695976 0.903 1.15727074455e-38
-0.00666984736709 -0.0466889315697 0.901 1.24921484134e-38
-0.00498572941369 -0.0465334745278 0.898 1.25814629736e-38
-0.00332381960913 -0.0465334745278 0.898 1.1020259539e-38
-0.00165820844643 -0.0464298364999 0.896 1.13876015236e-38
0.0 -0.0461707414302 0.891 1.3959023442e-38
0.00164895505108 -0.0461707414302 0.891 1.46090507671e-38
0.00329050738588 -0.0460671034023 0.889 1.88454128442e-38
0.00493576107881 -0.0460671034023 0.889 1.43446327534e-38
0.00658101477175 -0.0460671034023 0.889 1.49806975406e-38
0.00822626846469 -0.0460671034023 0.889 1.87615030922e-38
0.00987152215763 -0.0460671034023 0.889 1.4615900314e-38
0.0114908663436 -0.0459634653743 0.887 1.60852696538e-38
0.0131324186784 -0.0459634653743 0.887 1.29523922823e-38
0.0147739710132 -0.0459634653743 0.887 1.78222603757e-38
0.0163785097666 -0.0458598273464 0.885 1.83894008967e-38
0.0180163607432 -0.0458598273464 0.885 1.36885111812e-38
0.0196986280176 -0.0459634653743 0.887 1.64579253623e-38
0.0213401803524 -0.0459634653743 0.887 1.65526307177e-38
0.0229817326872 -0.0459634653743 0.887 1.55377767386e-38
0.0246788053941 -0.0460671034023 0.889 1.47048000899e-38
0.026324059087 -0.0460671034023 0.889 1.88575466876e-38
0.0279693127799 -0.0460671034023 0.889 1.8398013277e-38
0.0296145664729 -0.0460671034023 0.889 1.88576251603e-38
0.0312598201658 -0.0460671034023 0.889 1.61720927054e-38
0.0329050738588 -0.0460671034023 0.889 1.60884309832e-38
0.0346280560726 -0.0461707414302 0.891 2.01421548249e-38
0.0362770111237 -0.0461707414302 0.891 1.79216264498e-38
0.0379259661748 -0.0461707414302 0.891 1.47855204866e-38
0.0397970027142 -0.0464298364999 0.896 1.67140603008e-38
0.0414552111606 -0.0464298364999 0.896 1.57038782508e-38
0.0432096549187 -0.0465334745278 0.898 1.64432719842e-38
0.0448715647232 -0.0465334745278 0.898 1.6994612865e-38
0.0466889315697 -0.0466889315697 0.901 2.00392112358e-38
0.0481953843324 -0.0465334745278 0.898 2.18921089589e-38
0.0498572941369 -0.0465334745278 0.898 1.94975210976e-38
-0.013413721897 -0.0452713114023 0.906 1.28785578663e-38
-0.0116981423994 -0.0451214063976 0.903 8.17694648213e-39
-0.0100269791995 -0.0451214063976 0.903 1.0572607738e-38
-0.00835581599956 -0.0451214063976 0.903 1.06536406243e-38
-0.00668465279965 -0.0451214063976 0.903 1.16645485469e-38
-0.00500238552532 -0.0450214697279 0.901 1.31324983714e-38
-0.00333492368355 -0.0450214697279 0.901 1.17549435082e-38
-0.00166190980456 -0.0448715647232 0.898 1.19386145005e-38
0.0 -0.0447716280535 0.896 1.17549435082e-38
0.00165820844643 -0.0447716280535 0.896 1.26732984698e-38
0.00330901417657 -0.0446716913837 0.894 1.25814629736e-38
0.00496352126486 -0.0446716913837 0.894 1.30406740856e-38
0.00659582020431 -0.0445217863791 0.891 1.75661100229e-38
0.00822626846469 -0.0444218497093 0.889 1.81168175168e-38
0.00987152215763 -0.0444218497093 0.889 1.73831803175e-38
0.0115167758506 -0.0444218497093 0.889 1.47070239506e-38
0.0131620295435 -0.0444218497093 0.889 1.48909822091e-38
0.0147739710132 -0.0443219130396 0.887 1.56120343469e-38
0.016415523348 -0.0443219130396 0.887 1.69145917162e-38
0.0180570756828 -0.0443219130396 0.887 1.43310009219e-38
0.0196986280176 -0.0443219130396 0.887 1.70947118182e-38
0.0213882980082 -0.0444218497093 0.889 1.7463857274e-38
0.0230335517011 -0.0444218497093 0.889 1.65501350051e-38
0.0246788053941 -0.0444218497093 0.889 1.3872540906e-38
0.026324059087 -0.0444218497093 0.889 1.66402202795e-38
0.0279693127799 -0.0444218497093 0.889 1.57107628302e-38
0.0296811909194 -0.0445217863791 0.891 2.09680829424e-38
0.0313301459705 -0.0445217863791 0.891 1.72866883065e-38
0.0329791010215 -0.0445217863791 0.891 1.45132369846e-38
0.034744648854 -0.0446716913837 0.894 1.52447189869e-38
0.0363991559423 -0.0446716913837 0.894 1.52446923622e-38
0.0380536630306 -0.0446716913837 0.894 1.54283633545e-38
0.0397970027142 -0.0447716280535 0.896 1.62556002848e-38
0.0415477451141 -0.0448715647232 0.898 1.56120427546e-38
0.0432096549187 -0.0448715647232 0.898 1.74581021412e-38
0.0450214697279 -0.0450214697279 0.901 1.75578381581e-38
0.0466889315697 -0.0450214697279 0.901 1.96780041359e-38
0.0483563934114 -0.0450214697279 0.901 2.29109258099e-38
0.0504124978578 -0.0453712480721 0.908 1.75693316081e-38
-0.01354697079 -0.0440276550675 0.915 1.25108571492e-38
-0.0117370066599 -0.0435945961652 0.906 8.91593524028e-39
-0.0100602914227 -0.0435945961652 0.906 1.05725979289e-38
-0.00838357618561 -0.0435945961652 0.906 1.09312939021e-38
-0.00668465279965 -0.0434502431977 0.903 1.16631080121e-38
-0.00500238552532 -0.0433540078861 0.901 1.22145175565e-38
-0.00333492368355 -0.0433540078861 0.901 1.21222854929e-38
-0.00166190980456 -0.0432096549187 0.898 1.34086999039e-38
0.0 -0.0432096549187 0.898 1.20304499967e-38
0.00166190980456 -0.0432096549187 0.898 1.18467790044e-38
0.00331641689285 -0.0431134196071 0.896 1.15712725159e-38
0.00496352126486 -0.0430171842954 0.894 1.17549435082e-38
0.00661802835314 -0.0430171842954 0.894 1.26732984698e-38
0.00827253544143 -0.0430171842954 0.894 1.29488049583e-38
0.00989373030646 -0.042872831328 0.891 1.30406404544e-38
0.0115426853575 -0.042872831328 0.891 1.2765133966e-38
0.0131620295435 -0.0427765960164 0.889 1.63521525516e-38
0.0148072832364 -0.0427765960164 0.889 1.51546659424e-38
0.0164525369294 -0.0427765960164 0.889 1.71847620601e-38
0.0180977906223 -0.0427765960164 0.889 1.68228164759e-38
0.0197430443153 -0.0427765960164 0.889 1.51614664438e-38
0.0213882980082 -0.0427765960164 0.889 1.77418412581e-38
0.0230335517011 -0.0427765960164 0.889 1.57124794208e-38
0.0247343257662 -0.042872831328 0.891 1.48798713135e-38
0.0263832808172 -0.042872831328 0.891 1.46018438891e-38
0.0280322358683 -0.042872831328 0.891 1.47855148814e-38
0.0296811909194 -0.042872831328 0.891 1.46936793853e-38
0.0313301459705 -0.042872831328 0.891 1.53365278584e-38
0.0330901417657 -0.0430171842954 0.894 1.48773517789e-38
0.034744648854 -0.0430171842954 0.894 1.53365278584e-38
