# .PCD v0.7 - Point Cloud Data file format
VERSION 0.7
FIELDS x y z rgb
SIZE 4 4 4 4
TYPE F F F F
COUNT 1 1 1 1
WIDTH 852
HEIGHT 1
VIEWPOINT 0 0 0 1 0 0 0
POINTS 852
DATA ascii
0.060961368555 -0.0355607983237 0.915 2.35098141489e-38
0.0626547399037 -0.0355607983237 0.915 2.95093277889e-39
0.0643481112525 -0.0355607983237 0.915 2.35008808712e-38
0.0660414826012 -0.0355607983237 0.915 2.35098856151e-38
0.0675867996244 -0.0354830698028 0.913 1.74595062422e-39
0.0690488360894 -0.0353664770214 0.91 2.35098856151e-38
0.0707329540428 -0.0353664770214 0.91 1.98220408024e-38
0.0724170719962 -0.0353664770214 0.91 2.3495236441e-38
0.0741011899496 -0.0353664770214 0.91 2.35098281619e-38
0.00169892338596 -0.0339784677192 0.918 2.35018842009e-38
0.00339784677192 -0.0339784677192 0.918 1.62054394049e-38
0.00509677015787 -0.0339784677192 0.918 2.34931288881e-38
0.00681049897639 -0.0340524948819 0.92 2.08984005737e-38
0.00851312372049 -0.0340524948819 0.92 2.35065000781e-38
0.0102157484646 -0.0340524948819 0.92 1.50965358782e-38
0.0119183732087 -0.0340524948819 0.92 2.35071713e-38
0.0136209979528 -0.0340524948819 0.92 2.18314901886e-38
0.0153236226969 -0.0340524948819 0.92 2.3483113808e-38
0.017026247441 -0.0340524948819 0.92 2.3495719889e-38
0.0187288721851 -0.0340524948819 0.92 2.3507574874e-38
0.0204314969292 -0.0340524948819 0.92 2.35097623009e-38
0.0221341216733 -0.0340524948819 0.92 2.35098351684e-38
0.0238367464174 -0.0340524948819 0.92 2.35098337671e-38
0.0255393711615 -0.0340524948819 0.92 2.35098141489e-38
0.0272419959056 -0.0340524948819 0.92 2.35098225567e-38
0.0289446206497 -0.0340524948819 0.92 2.35098281619e-38
0.0306472453938 -0.0340524948819 0.92 2.35097538931e-38
0.0322795443332 -0.0339784677192 0.918 2.35097763139e-38
0.0339784677192 -0.0339784677192 0.918 2.31235434246e-38
0.0356773911051 -0.0339784677192 0.918 2.35096095593e-38
0.0373763144911 -0.0339784677192 0.918 2.35096866308e-38
0.039075237877 -0.0339784677192 0.918 2.18451626577e-38
0.040774161263 -0.0339784677192 0.918 2.33030707774e-38
0.042473084649 -0.0339784677192 0.918 2.3509744084e-38
0.0441720080349 -0.0339784677192 0.918 2.35064650456e-38
0.0458709314209 -0.0339784677192 0.918 2.3508283931e-38
0.0475698548068 -0.0339784677192 0.918 2.35035951863e-38
0.0492687781928 -0.0339784677192 0.918 2.35093797464e-38
0.0509677015787 -0.0339784677192 0.918 2.35036246136e-38
0.0526666249647 -0.0339784677192 0.918 2.35097202619e-38
0.0543655483507 -0.0339784677192 0.918 2.35097454853e-38
0.0560644717366 -0.0339784677192 0.918 2.35097482879e-38
0.0577633951226 -0.0339784677192 0.918 4.68683889572e-39
0.0594623185085 -0.0339784677192 0.918 2.34910605716e-38
0.060961368555 -0.033867426975 0.915 2.35098828126e-38
0.0626547399037 -0.033867426975 0.915 6.89591305721e-39
0.0643481112525 -0.033867426975 0.915 2.35098856151e-38
0.0660414826012 -0.033867426975 0.915 2.35098856151e-38
0.0675867996244 -0.0337933998122 0.913 1.97140399272e-38
0.069276469615 -0.0337933998122 0.913 2.35098856151e-38
0.0707329540428 -0.033682359068 0.91 1.42877568513e-38
0.0724170719962 -0.033682359068 0.91 2.3492156387e-38
0.0741011899496 -0.033682359068 0.91 2.35098183528e-38
0.00169892338596 -0.0322795443332 0.918 2.349900173e-38
0.00339784677192 -0.0322795443332 0.918 2.22006860911e-38
0.00509677015787 -0.0322795443332 0.918 1.67366604424e-38
0.006773485395 -0.0321740556262 0.915 2.01644536874e-38
0.00846685674374 -0.0321740556262 0.915 2.35039357019e-38
0.0101935403157 -0.0322795443332 0.918 2.34906527937e-38
0.0118924637017 -0.0322795443332 0.918 1.80377828821e-38
0.0135913870877 -0.0322795443332 0.918 2.34892907316e-38
0.0152903104736 -0.0322795443332 0.918 2.3496067411e-38
0.0169892338596 -0.0322795443332 0.918 2.35078341142e-38
0.0187288721851 -0.0323498701378 0.92 2.00751096999e-38
0.0204314969292 -0.0323498701378 0.92 2.35097314723e-38
0.0221341216733 -0.0323498701378 0.92 2.35098393723e-38
0.0238367464174 -0.0323498701378 0.92 2.35098057411e-38
0.0255393711615 -0.0323498701378 0.92 2.35098085437e-38
0.0272419959056 -0.0323498701378 0.92 2.35097987346e-38
0.0288816975613 -0.0322795443332 0.918 2.35097987346e-38
0.0305806209472 -0.0322795443332 0.918 2.3509758097e-38
0.0322795443332 -0.0322795443332 0.918 2.35097454853e-38
0.0339784677192 -0.0322795443332 0.918 2.35097482879e-38
0.0356773911051 -0.0322795443332 0.918 2.35097496892e-38
0.0373763144911 -0.0322795443332 0.918 2.35097356762e-38
0.039075237877 -0.0322795443332 0.918 2.35097230645e-38
0.040774161263 -0.0322795443332 0.918 2.35079336064e-38
0.042473084649 -0.0322795443332 0.918 1.97974494157e-38
0.0441720080349 -0.0322795443332 0.918 2.34795068657e-38
0.0458709314209 -0.0322795443332 0.918 2.34924590674e-38
0.0475698548068 -0.0322795443332 0.918 2.35065084858e-38
0.0492687781928 -0.0322795443332 0.918 2.35065000781e-38
0.0509677015787 -0.0322795443332 0.918 2.35086706894e-38
0.0526666249647 -0.0322795443332 0.918 2.35097398801e-38
0.05418788316 -0.0321740556262 0.915 2.35097805178e-38
0.0558812545087 -0.0321740556262 0.915 1.52063402246e-38
0.0575746258575 -0.0321740556262 0.915 1.17657461181e-38
0.0592679972062 -0.0321740556262 0.915 2.3509837971e-38
0.060961368555 -0.0321740556262 0.915 6.45116054281e-39
0.0626547399037 -0.0321740556262 0.915 2.35051324108e-38
0.0643481112525 -0.0321740556262 0.915 2.35098856151e-38
0.0660414826012 -0.0321740556262 0.915 1.12446494621e-38
0.0675867996244 -0.0321037298216 0.913 2.35097188606e-38
0.069276469615 -0.0321037298216 0.913 2.35098856151e-38
0.0709661396056 -0.0321037298216 0.913 1.88858459101e-38
0.0726558095962 -0.0321037298216 0.913 2.34928570362e-38
0.0743454795868 -0.0321037298216 0.913 2.35098197541e-38
0.0033867426975 -0.0304806842775 0.915 2.31230179377e-38
0.00508011404625 -0.0304806842775 0.915 1.43399692321e-38
0.006773485395 -0.0304806842775 0.915 2.3487010819e-38
0.00846685674374 -0.0304806842775 0.915 2.34895331563e-38
0.0101602280925 -0.0304806842775 0.915 2.34838691079e-38
0.0118924637017 -0.0305806209472 0.918 1.93289196689e-38
0.0135913870877 -0.0305806209472 0.918 2.35017356633e-38
0.0152903104736 -0.0305806209472 0.918 1.97094913124e-38
0.0169892338596 -0.0305806209472 0.918 2.3492156387e-38
0.0186881572455 -0.0305806209472 0.918 2.35021644606e-38
0.0203870806315 -0.0305806209472 0.918 1.9146278631e-38
0.0220860040175 -0.0305806209472 0.918 2.3509795932e-38
0.0237849274034 -0.0305806209472 0.918 2.35098057411e-38
0.0254838507894 -0.0305806209472 0.918 2.35098491814e-38
0.0271827741753 -0.0305806209472 0.918 2.35097889256e-38
0.0288816975613 -0.0305806209472 0.918 2.35097777152e-38
0.0305806209472 -0.0305806209472 0.918 2.35097552944e-38
0.0322795443332 -0.0305806209472 0.918 2.35097496892e-38
0.033867426975 -0.0304806842775 0.915 2.35098029385e-38
0.0355607983237 -0.0304806842775 0.915 2.35097454853e-38
0.0372541696725 -0.0304806842775 0.915 2.35097328736e-38
0.0389475410212 -0.0304806842775 0.915 2.35079055804e-38
0.04064091237 -0.0304806842775 0.915 2.35097104528e-38
0.0423342837187 -0.0304806842775 0.915 2.34932087621e-38
0.0440276550675 -0.0304806842775 0.915 2.26447155355e-38
0.0457210264162 -0.0304806842775 0.915 2.34899521445e-38
0.047414397765 -0.0304806842775 0.915 2.35043897226e-38
0.0492687781928 -0.0305806209472 0.918 2.35086132361e-38
0.0509677015787 -0.0305806209472 0.918 2.35097693074e-38
0.0524945118112 -0.0304806842775 0.915 2.35097665048e-38
0.05418788316 -0.0304806842775 0.915 2.0096712117e-38
0.0558812545087 -0.0304806842775 0.915 4.04219676058e-39
0.0575746258575 -0.0304806842775 0.915 2.35097889256e-38
0.0592679972062 -0.0304806842775 0.915 2.35098561879e-38
0.0608281196619 -0.030414059831 0.913 1.62947833924e-38
0.0625177896526 -0.030414059831 0.913 2.35098856151e-38
0.0642074596432 -0.030414059831 0.913 2.31411030957e-38
0.0658971296338 -0.030414059831 0.913 2.00005788385e-38
0.0675867996244 -0.030414059831 0.913 2.35098856151e-38
0.069276469615 -0.030414059831 0.913 2.30489074658e-38
0.0709661396056 -0.030414059831 0.913 2.05127870584e-38
0.0726558095962 -0.030414059831 0.913 2.34936277504e-38
0.0743454795868 -0.030414059831 0.913 2.35098351684e-38
0.00508011404625 -0.0287873129287 0.915 1.90444742976e-38
0.006773485395 -0.0287873129287 0.915 1.58111308327e-38
0.00846685674374 -0.0287873129287 0.915 2.08098455172e-38
0.0101602280925 -0.0287873129287 0.915 2.34918004572e-38
0.0118535994412 -0.0287873129287 0.915 2.27415774892e-38
0.01354697079 -0.0287873129287 0.915 1.33283438447e-38
0.0152403421387 -0.0287873129287 0.915 2.34982982781e-38
0.0169892338596 -0.0288816975613 0.918 2.27418451372e-38
0.0186881572455 -0.0288816975613 0.918 2.3497541577e-38
0.0203870806315 -0.0288816975613 0.918 2.34946703164e-38
0.0220860040175 -0.0288816975613 0.918 1.99781664708e-38
0.0237849274034 -0.0288816975613 0.918 2.35097651035e-38
0.0254838507894 -0.0288816975613 0.918 2.35097749126e-38
0.0271827741753 -0.0288816975613 0.918 2.35097931294e-38
0.0287873129287 -0.0287873129287 0.915 2.35097749126e-38
0.0304806842775 -0.0287873129287 0.915 2.35097566957e-38
0.0321740556262 -0.0287873129287 0.915 2.35097454853e-38
0.033867426975 -0.0287873129287 0.915 2.35097244658e-38
0.0355607983237 -0.0287873129287 0.915 2.35097174593e-38
0.0372541696725 -0.0287873129287 0.915 2.35090168101e-38
0.0389475410212 -0.0287873129287 0.915 2.35079322051e-38
0.04064091237 -0.0287873129287 0.915 2.35082895362e-38
0.0423342837187 -0.0287873129287 0.915 2.35075776766e-38
0.0440276550675 -0.0287873129287 0.915 2.35097230645e-38
0.0457210264162 -0.0287873129287 0.915 2.35075944922e-38
0.047414397765 -0.0287873129287 0.915 2.35097552944e-38
0.0491077691137 -0.0287873129287 0.915 2.35097749126e-38
0.0508011404625 -0.0287873129287 0.915 2.35097987346e-38
0.0524945118112 -0.0287873129287 0.915 1.79690071535e-38
0.05418788316 -0.0287873129287 0.915 5.69702935346e-39
0.0558812545087 -0.0287873129287 0.915 2.35096179671e-38
0.0575746258575 -0.0287873129287 0.915 2.35098645957e-38
0.0591384496713 -0.0287243898404 0.913 2.76582685695e-39
0.0608281196619 -0.0287243898404 0.913 2.3509865997e-38
0.0625177896526 -0.0287243898404 0.913 2.35098856151e-38
0.0642074596432 -0.0287243898404 0.913 3.95396260147e-39
0.0658971296338 -0.0287243898404 0.913 2.35098856151e-38
0.0675867996244 -0.0287243898404 0.913 2.35098856151e-38
0.069276469615 -0.0287243898404 0.913 1.75058808136e-38
0.0709661396056 -0.0287243898404 0.913 2.34643406125e-38
0.0726558095962 -0.0287243898404 0.913 2.34976004315e-38
0.0743454795868 -0.0287243898404 0.913 2.35098225567e-38
0.00508011404625 -0.02709394158 0.915 1.77544599508e-38
0.006773485395 -0.02709394158 0.915 1.83986746899e-38
0.00846685674374 -0.02709394158 0.915 2.29277441941e-38
0.0101602280925 -0.02709394158 0.915 2.00714971525e-38
0.0118535994412 -0.02709394158 0.915 2.34871383372e-38
0.01354697079 -0.02709394158 0.915 2.18228077433e-38
0.0152403421387 -0.02709394158 0.915 1.75796815985e-38
0.0169892338596 -0.0271827741753 0.918 2.3488245363e-38
0.0186881572455 -0.0271827741753 0.918 2.26485705076e-38
0.0203870806315 -0.0271827741753 0.918 2.35097791165e-38
0.0220860040175 -0.0271827741753 0.918 2.35022219138e-38
0.0237849274034 -0.0271827741753 0.918 1.73999566627e-38
0.0254005702312 -0.02709394158 0.915 2.34946128632e-38
0.02709394158 -0.02709394158 0.915 2.35097735113e-38
0.0287873129287 -0.02709394158 0.915 2.35097917282e-38
0.0304806842775 -0.02709394158 0.915 2.35098085437e-38
0.0321740556262 -0.02709394158 0.915 2.35097637022e-38
0.033867426975 -0.02709394158 0.915 2.3509730071e-38
0.0355607983237 -0.02709394158 0.915 2.35097244658e-38
0.0372541696725 -0.02709394158 0.915 2.35097384788e-38
0.0389475410212 -0.02709394158 0.915 2.35097076502e-38
0.04064091237 -0.02709394158 0.915 2.35097342749e-38
0.0423342837187 -0.02709394158 0.915 2.35097048476e-38
0.0440276550675 -0.02709394158 0.915 2.3509716058e-38
0.0457210264162 -0.02709394158 0.915 2.35097286697e-38
0.047414397765 -0.02709394158 0.915 2.35097538931e-38
0.0491077691137 -0.02709394158 0.915 2.35097314723e-38
0.0508011404625 -0.02709394158 0.915 1.28910490408e-38
0.0524945118112 -0.02709394158 0.915 1.94049401106e-38
0.05418788316 -0.02709394158 0.915 2.3509702045e-38
0.0557591096901 -0.0270347198498 0.913 2.35098842138e-38
0.0574487796807 -0.0270347198498 0.913 4.14407676413e-39
0.0591384496713 -0.0270347198498 0.913 2.35097805178e-38
0.0608281196619 -0.0270347198498 0.913 2.35098856151e-38
0.0623123642758 -0.0269458872544 0.91 3.85718052174e-39
0.0639964822292 -0.0269458872544 0.91 2.35097777152e-38
0.0656806001826 -0.0269458872544 0.91 2.35098856151e-38
0.0675867996244 -0.0270347198498 0.913 2.24028149868e-38
0.069276469615 -0.0270347198498 0.913 1.87663684004e-38
0.0711215966475 -0.02709394158 0.915 2.3464493354e-38
0.0730537055962 -0.0271827741753 0.918 2.35004815012e-38
0.0747526289822 -0.0271827741753 0.918 2.35098337671e-38
0.00679569354383 -0.0254838507894 0.918 2.088289941e-38
0.00849461692979 -0.0254838507894 0.918 1.52687498543e-38
0.0101602280925 -0.0254005702312 0.915 2.26622373715e-38
0.0118535994412 -0.0254005702312 0.915 2.21930350015e-38
0.01354697079 -0.0254005702312 0.915 2.34784881218e-38
0.0152403421387 -0.0254005702312 0.915 2.07200250882e-38
0.0169337134875 -0.0254005702312 0.915 1.87782065699e-38
0.0186270848362 -0.0254005702312 0.915 2.34882229422e-38
0.020320456185 -0.0254005702312 0.915 2.04391376137e-38
0.0220138275337 -0.0254005702312 0.915 2.35097749126e-38
0.0237071988825 -0.0254005702312 0.915 2.35097847217e-38
0.0254005702312 -0.0254005702312 0.915 1.94314849074e-38
0.02709394158 -0.0254005702312 0.915 1.95176045072e-38
0.0287873129287 -0.0254005702312 0.915 2.34877731254e-38
0.0304806842775 -0.0254005702312 0.915 2.35096964399e-38
0.0321740556262 -0.0254005702312 0.915 2.35097454853e-38
0.0337933998122 -0.0253450498591 0.913 2.35097889256e-38
0.0354830698028 -0.0253450498591 0.913 2.35098211554e-38
0.0371727397934 -0.0253450498591 0.913 2.35097623009e-38
0.0389475410212 -0.0254005702312 0.915 2.35097735113e-38
0.04064091237 -0.0254005702312 0.915 2.350977211e-38
0.0423342837187 -0.0254005702312 0.915 2.35097763139e-38
0.0440276550675 -0.0254005702312 0.915 2.35097651035e-38
0.0457210264162 -0.0254005702312 0.915 2.35097496892e-38
0.047414397765 -0.0254005702312 0.915 1.39973797835e-38
0.0491077691137 -0.0254005702312 0.915 1.09370420284e-38
0.0508011404625 -0.0254005702312 0.915 2.35028721163e-38
0.0523797697089 -0.0253450498591 0.913 2.35098758061e-38
0.0540694396995 -0.0253450498591 0.913 2.0281574213e-38
0.0557591096901 -0.0253450498591 0.913 1.21531364798e-38
0.0574487796807 -0.0253450498591 0.913 2.35098603918e-38
0.0591384496713 -0.0253450498591 0.913 2.35098856151e-38
0.0608281196619 -0.0253450498591 0.913 4.50361912151e-39
0.0623123642758 -0.025261769301 0.91 2.35096908347e-38
0.0639964822292 -0.025261769301 0.91 2.35098856151e-38
0.0656806001826 -0.025261769301 0.91 2.35098856151e-38
0.0675867996244 -0.0253450498591 0.913 1.00172437294e-38
0.0694282252987 -0.0254005702312 0.915 2.34622372635e-38
0.0711215966475 -0.0254005702312 0.915 2.34605052586e-38
0.0728149679962 -0.0254005702312 0.915 2.35029996345e-38
0.00679569354383 -0.0237849274034 0.918 2.18077325744e-38
0.00849461692979 -0.0237849274034 0.918 1.8119997063e-38
0.0101602280925 -0.0237071988825 0.915 1.6281457044e-38
0.0118535994412 -0.0237071988825 0.915 2.07244293693e-38
0.01354697079 -0.0237071988825 0.915 2.34887428239e-38
0.0152403421387 -0.0237071988825 0.915 2.34774399505e-38
0.0169337134875 -0.0237071988825 0.915 2.10841917306e-38
0.0186270848362 -0.0237071988825 0.915 1.79416425971e-38
0.020320456185 -0.0237071988825 0.915 2.34978386522e-38
0.0220138275337 -0.0237071988825 0.915 1.77723923672e-38
0.0237071988825 -0.0237071988825 0.915 2.34938239321e-38
0.0254005702312 -0.0237071988825 0.915 2.3509795932e-38
0.02709394158 -0.0237071988825 0.915 2.35097707087e-38
0.0287873129287 -0.0237071988825 0.915 2.10936126601e-38
0.030414059831 -0.0236553798685 0.913 1.62886036662e-38
0.0321037298216 -0.0236553798685 0.913 1.85791100841e-38
0.0337933998122 -0.0236553798685 0.913 2.00696614515e-38
0.0354830698028 -0.0236553798685 0.913 1.9713123478e-38
0.0371727397934 -0.0236553798685 0.913 2.12865658535e-38
0.038862409784 -0.0236553798685 0.913 2.03649949119e-38
0.04064091237 -0.0237071988825 0.915 1.73186182933e-38
0.0423342837187 -0.0237071988825 0.915 1.3248346518e-38
0.0439314197559 -0.0236553798685 0.913 1.59951605574e-38
0.0456210897465 -0.0236553798685 0.913 1.85862903374e-38
0.047414397765 -0.0237071988825 0.915 2.35061917924e-38
0.0491077691137 -0.0237071988825 0.915 2.35098043398e-38
0.0508011404625 -0.0237071988825 0.915 2.35097917282e-38
0.0523797697089 -0.0236553798685 0.913 1.15156689928e-38
0.0540694396995 -0.0236553798685 0.913 2.23799626114e-38
0.0555758924622 -0.0235776513476 0.91 2.35098856151e-38
0.0572600104156 -0.0235776513476 0.91 2.35098856151e-38
0.0591384496713 -0.0236553798685 0.913 6.62621354957e-39
0.0608281196619 -0.0236553798685 0.913 2.35096544009e-38
0.0623123642758 -0.0235776513476 0.91 2.35098856151e-38
0.0639964822292 -0.0235776513476 0.91 2.35098856151e-38
0.0658971296338 -0.0236553798685 0.913 1.36185583619e-38
0.0675867996244 -0.0236553798685 0.913 2.16061095475e-38
0.0694282252987 -0.0237071988825 0.915 2.34672959509e-38
0.0711215966475 -0.0237071988825 0.915 2.34702288686e-38
0.0728149679962 -0.0237071988825 0.915 2.35037142967e-38
0.00679569354383 -0.0220860040175 0.918 2.00582156456e-38
0.00849461692979 -0.0220860040175 0.918 1.97849162022e-38
0.0101602280925 -0.0220138275337 0.915 1.7938107121e-38
0.0118535994412 -0.0220138275337 0.915 1.70164717197e-38
0.0135173599249 -0.0219657098779 0.913 1.94354183522e-38
0.0152070299155 -0.0219657098779 0.913 2.16413283818e-38
0.0169337134875 -0.0220138275337 0.915 2.34860663439e-38
0.0185863698967 -0.0219657098779 0.913 2.0071795629e-38
0.0202760398873 -0.0219657098779 0.913 1.85907086314e-38
0.0219657098779 -0.0219657098779 0.913 2.34898022056e-38
0.0236553798685 -0.0219657098779 0.913 2.32072640014e-38
0.0253450498591 -0.0219657098779 0.913 1.94185439161e-38
0.0270347198498 -0.0219657098779 0.913 2.23760515874e-38
0.0287243898404 -0.0219657098779 0.913 2.35098071424e-38
0.030414059831 -0.0219657098779 0.913 2.35097763139e-38
0.0321037298216 -0.0219657098779 0.913 2.35097665048e-38
0.0337933998122 -0.0219657098779 0.913 2.35097538931e-38
0.0354830698028 -0.0219657098779 0.913 2.33234989064e-38
0.0371727397934 -0.0219657098779 0.913 2.34993296338e-38
0.038862409784 -0.0219657098779 0.913 2.35018617801e-38
0.0405520797746 -0.0219657098779 0.913 2.35097258671e-38
0.0422417497652 -0.0219657098779 0.913 2.350977211e-38
0.0439314197559 -0.0219657098779 0.913 2.35098001359e-38
0.0456210897465 -0.0219657098779 0.913 2.35098211554e-38
0.0473107597371 -0.0219657098779 0.913 2.35098463788e-38
0.0490004297277 -0.0219657098779 0.913 1.28867442519e-38
0.0508011404625 -0.0220138275337 0.915 1.62898031777e-38
0.0523797697089 -0.0219657098779 0.913 2.35097356762e-38
0.0540694396995 -0.0219657098779 0.913 2.35098505827e-38
0.0555758924622 -0.0218935333942 0.91 2.35098421749e-38
0.0572600104156 -0.0218935333942 0.91 1.19662368959e-38
0.0591384496713 -0.0219657098779 0.913 2.35098351684e-38
0.0606282463224 -0.0218935333942 0.91 2.35098856151e-38
0.0623123642758 -0.0218935333942 0.91 2.35098744048e-38
0.0639964822292 -0.0218935333942 0.91 1.19597797125e-38
0.0656806001826 -0.0218935333942 0.91 2.34525276664e-38
0.06773485395 -0.0220138275337 0.915 2.12470800653e-38
0.0694282252987 -0.0220138275337 0.915 2.34615548311e-38
0.0713547822102 -0.0220860040175 0.918 2.34691358558e-38
0.0730537055962 -0.0220860040175 0.918 2.35098295632e-38
0.00679569354383 -0.0203870806315 0.918 1.98734362262e-38
0.00849461692979 -0.0203870806315 0.918 2.07061620425e-38
0.0101602280925 -0.020320456185 0.915 1.79420755983e-38
0.0118535994412 -0.020320456185 0.915 1.69203622633e-38
0.0135173599249 -0.0202760398873 0.913 1.81257073542e-38
0.0152070299155 -0.0202760398873 0.913 1.87875336124e-38
0.0169337134875 -0.020320456185 0.915 1.97866888448e-38
0.0185863698967 -0.0202760398873 0.913 2.34882061266e-38
0.0202760398873 -0.0202760398873 0.913 2.09087379524e-38
0.0219657098779 -0.0202760398873 0.913 1.87886714668e-38
0.0236553798685 -0.0202760398873 0.913 1.91474375048e-38
0.0253450498591 -0.0202760398873 0.913 2.34948412748e-38
0.0270347198498 -0.0202760398873 0.913 2.34917892468e-38
0.0287243898404 -0.0202760398873 0.913 1.78598614174e-38
0.0303141231612 -0.0202094154408 0.91 1.93181170591e-38
0.0319982411146 -0.0202094154408 0.91 1.99757057907e-38
0.033682359068 -0.0202094154408 0.91 2.2847172335e-38
0.0353664770214 -0.0202094154408 0.91 2.35094456074e-38
0.0371727397934 -0.0202760398873 0.913 2.350977211e-38
0.038862409784 -0.0202760398873 0.913 2.35098001359e-38
0.0405520797746 -0.0202760398873 0.913 2.35025161865e-38
0.0422417497652 -0.0202760398873 0.913 1.57553689629e-38
0.0439314197559 -0.0202760398873 0.913 1.50951555992e-38
0.0456210897465 -0.0202760398873 0.913 1.93263566941e-38
0.0471553026952 -0.0202094154408 0.91 2.3478479714e-38
0.0488394206486 -0.0202094154408 0.91 2.35097104528e-38
0.050523538602 -0.0202094154408 0.91 2.35097665048e-38
0.0520929144531 -0.0201649991431 0.908 2.35097454853e-38
0.0537733310484 -0.0201649991431 0.908 1.65877864935e-38
0.0554537476436 -0.0201649991431 0.908 2.34902071808e-38
0.0571341642389 -0.0201649991431 0.908 2.35098856151e-38
0.0591384496713 -0.0202760398873 0.913 2.35098856151e-38
0.0606282463224 -0.0202094154408 0.91 1.94398997047e-38
0.0623123642758 -0.0202094154408 0.91 1.66469773407e-38
0.0639964822292 -0.0202094154408 0.91 2.24279612877e-38
0.0656806001826 -0.0202094154408 0.91 2.3452971878e-38
0.06773485395 -0.020320456185 0.915 2.11495048507e-38
0.0694282252987 -0.020320456185 0.915 2.34662197537e-38
0.0711215966475 -0.020320456185 0.915 2.34644597228e-38
0.00681049897639 -0.0187288721851 0.92 1.87649334708e-38
0.00849461692979 -0.0186881572455 0.918 2.14415634766e-38
0.0101602280925 -0.0186270848362 0.915 1.86857110621e-38
0.0118535994412 -0.0186270848362 0.915 1.85888084707e-38
0.0135173599249 -0.0185863698967 0.913 1.67266523688e-38
0.0152070299155 -0.0185863698967 0.913 1.74699585275e-38
0.0168966999061 -0.0185863698967 0.913 2.00578625184e-38
0.0185863698967 -0.0185863698967 0.913 1.98805968614e-38
0.0202094154408 -0.0185252974874 0.91 2.16460521589e-38
0.0218935333942 -0.0185252974874 0.91 2.20123739983e-38
0.0235776513476 -0.0185252974874 0.91 2.12726187299e-38
0.025261769301 -0.0185252974874 0.91 1.81407615036e-38
0.0269458872544 -0.0185252974874 0.91 2.13679995111e-38
0.0286300052078 -0.0185252974874 0.91 2.23742270968e-38
0.0302474987147 -0.0184845825479 0.908 2.34980796756e-38
0.03192791531 -0.0184845825479 0.908 2.3501105079e-38
0.0336083319052 -0.0184845825479 0.908 2.3498222608e-38
0.0352887485005 -0.0184845825479 0.908 2.34898876848e-38
0.0370505949748 -0.0185252974874 0.91 2.34855324491e-38
0.0387347129282 -0.0185252974874 0.91 2.34869883982e-38
0.0405520797746 -0.0185863698967 0.913 2.35017594854e-38
0.0422417497652 -0.0185863698967 0.913 2.35096824269e-38
0.0439314197559 -0.0185863698967 0.913 2.35097608996e-38
0.0454711847418 -0.0185252974874 0.91 2.35097987346e-38
0.0471553026952 -0.0185252974874 0.91 2.35097174593e-38
0.0488394206486 -0.0185252974874 0.91 2.31294148652e-38
0.0504124978578 -0.0184845825479 0.908 2.09987601684e-38
0.0520929144531 -0.0184845825479 0.908 2.10870083405e-38
0.0537733310484 -0.0184845825479 0.908 2.35098561879e-38
0.055331602825 -0.0184438676083 0.906 2.3509865997e-38
0.0570083180621 -0.0184438676083 0.906 2.35097945307e-38
0.0588145808341 -0.0184845825479 0.908 1.64887763492e-38
0.0608281196619 -0.0185863698967 0.913 1.70814022854e-38
0.0625177896526 -0.0185863698967 0.913 2.34439012731e-38
0.0642074596432 -0.0185863698967 0.913 2.34439222925e-38
0.0658971296338 -0.0185863698967 0.913 2.34504103044e-38
0.0675867996244 -0.0185863698967 0.913 2.2712518763e-38
0.069807614508 -0.0187288721851 0.92 2.34633316776e-38
0.00681049897639 -0.017026247441 0.92 1.83969174616e-38
0.00849461692979 -0.0169892338596 0.918 1.95922362621e-38
0.0101602280925 -0.0169337134875 0.915 1.78513667461e-38
0.0118535994412 -0.0169337134875 0.915 2.04370777049e-38
0.0135173599249 -0.0168966999061 0.913 1.78437829188e-38
0.0152070299155 -0.0168966999061 0.913 1.7920143876e-38
0.0168966999061 -0.0168966999061 0.913 1.81030721801e-38
0.0185863698967 -0.0168966999061 0.913 2.12549861913e-38
0.0202094154408 -0.016841179534 0.91 1.77641050881e-38
0.0218935333942 -0.016841179534 0.91 1.86836049105e-38
0.0235258323337 -0.0168041659526 0.908 2.330119584e-38
0.0252062489289 -0.0168041659526 0.908 2.28453744691e-38
0.0268866655242 -0.0168041659526 0.908 2.3486006088e-38
0.0286300052078 -0.016841179534 0.91 2.26396932818e-38
0.0302474987147 -0.0168041659526 0.908 2.04265819794e-38
0.03192791531 -0.0168041659526 0.908 1.92377904272e-38
0.0336083319052 -0.0168041659526 0.908 2.34927757609e-38
0.0352887485005 -0.0168041659526 0.908 2.34956610344e-38
0.0369691650957 -0.0168041659526 0.908 2.34945526074e-38
0.038649581691 -0.0168041659526 0.908 2.3500997179e-38
0.0404188308816 -0.016841179534 0.91 2.35009929751e-38
0.042102948835 -0.016841179534 0.91 2.16481386923e-38
0.0437870667884 -0.016841179534 0.91 1.6560937615e-38
0.0454711847418 -0.016841179534 0.91 1.94106518032e-38
0.0470516646673 -0.0168041659526 0.908 2.08011140265e-38
0.0487320812626 -0.0168041659526 0.908 2.3500086335e-38
0.0504124978578 -0.0168041659526 0.908 2.35097917282e-38
0.0520929144531 -0.0168041659526 0.908 2.3509809945e-38
0.0537733310484 -0.0168041659526 0.908 2.3509786123e-38
0.055331602825 -0.0167671523712 0.906 1.97045769587e-38
0.0570083180621 -0.0167671523712 0.906 1.60712244393e-38
0.0588145808341 -0.0168041659526 0.908 2.03896367454e-38
0.0608281196619 -0.0168966999061 0.913 2.34417558851e-38
0.0626547399037 -0.0169337134875 0.915 2.33520783886e-38
0.0643481112525 -0.0169337134875 0.915 2.34406516619e-38
0.0660414826012 -0.0169337134875 0.915 2.34471719037e-38
0.0681049897639 -0.017026247441 0.92 2.34500487694e-38
0.069807614508 -0.017026247441 0.92 2.34597919976e-38
0.00681049897639 -0.0153236226969 0.92 1.90505713472e-38
0.00851312372049 -0.0153236226969 0.92 2.09837522618e-38
0.0101935403157 -0.0152903104736 0.918 1.54516991779e-38
0.0118535994412 -0.0152403421387 0.915 2.09845131669e-38
0.0135173599249 -0.0152070299155 0.913 2.00690182555e-38
0.0152070299155 -0.0152070299155 0.913 2.00510311884e-38
0.0168966999061 -0.0152070299155 0.913 1.84840908378e-38
0.0185863698967 -0.0152070299155 0.913 1.44181728968e-38
0.0202094154408 -0.0151570615806 0.91 1.83803989553e-38
0.0218935333942 -0.0151570615806 0.91 2.15311807173e-38
0.0235258323337 -0.0151237493574 0.908 1.96984014363e-38
0.0252062489289 -0.0151237493574 0.908 1.88736798368e-38
0.0268866655242 -0.0151237493574 0.908 2.06203619389e-38
0.0286300052078 -0.0151570615806 0.91 2.34852900245e-38
0.0302474987147 -0.0151237493574 0.908 2.35076113077e-38
0.03192791531 -0.0151237493574 0.908 2.35097188606e-38
0.0336083319052 -0.0151237493574 0.908 2.35000050597e-38
0.0352887485005 -0.0151237493574 0.908 2.34938645698e-38
0.0369691650957 -0.0151237493574 0.908 2.34877324877e-38
0.038649581691 -0.0151237493574 0.908 2.3489541564e-38
0.0403299982863 -0.0151237493574 0.908 2.35002769116e-38
0.0420104148815 -0.0151237493574 0.908 2.35096726178e-38
0.0436908314768 -0.0151237493574 0.908 2.35097384788e-38
0.0453712480721 -0.0151237493574 0.908 2.35097412814e-38
0.0470516646673 -0.0151237493574 0.908 2.27718105036e-38
0.0487320812626 -0.0151237493574 0.908 2.34924884947e-38
0.0504124978578 -0.0151237493574 0.908 2.34921045389e-38
0.0520929144531 -0.0151237493574 0.908 2.19107182025e-38
0.0537733310484 -0.0151237493574 0.908 1.81102790581e-38
0.0554537476436 -0.0151237493574 0.908 1.92915526441e-38
0.0571341642389 -0.0151237493574 0.908 2.1593538499e-38
0.0588145808341 -0.0151237493574 0.908 2.25130046902e-38
0.0608281196619 -0.0152070299155 0.913 2.34428236745e-38
0.0626547399037 -0.0152403421387 0.915 2.3258466046e-38
0.0643481112525 -0.0152403421387 0.915 2.27978382213e-38
0.0662580120524 -0.0152903104736 0.918 2.34468552102e-38
0.0681049897639 -0.0153236226969 0.92 2.34471901206e-38
0.069807614508 -0.0153236226969 0.92 2.34630079776e-38
0.0101935403157 -0.0135913870877 0.918 2.06186355392e-38
0.0118924637017 -0.0135913870877 0.918 1.48052451638e-38
0.01354697079 -0.01354697079 0.915 2.19018129507e-38
0.0152403421387 -0.01354697079 0.915 2.34722747644e-38
0.0169337134875 -0.01354697079 0.915 1.98781782202e-38
0.0185863698967 -0.0135173599249 0.913 1.58204592765e-38
0.0202094154408 -0.0134729436272 0.91 1.97546761814e-38
0.0218935333942 -0.0134729436272 0.91 1.77264073568e-38
0.0235258323337 -0.0134433327621 0.908 1.68977312931e-38
0.0252062489289 -0.0134433327621 0.908 1.99530916361e-38
0.0268866655242 -0.0134433327621 0.908 2.10719920261e-38
0.0286300052078 -0.0134729436272 0.91 2.06182221561e-38
0.0302474987147 -0.0134433327621 0.908 2.01625605332e-38
0.03192791531 -0.0134433327621 0.908 2.09923842604e-38
0.0336083319052 -0.0134433327621 0.908 2.32962016123e-38
0.0352887485005 -0.0134433327621 0.908 2.34788202295e-38
0.0369691650957 -0.0134433327621 0.908 2.34792069879e-38
0.038649581691 -0.0134433327621 0.908 2.34820712419e-38
0.0403299982863 -0.0134433327621 0.908 2.34841998143e-38
0.0420104148815 -0.0134433327621 0.908 2.34859808646e-38
0.0436908314768 -0.0134433327621 0.908 2.24678450446e-38
0.0453712480721 -0.0134433327621 0.908 2.34805284123e-38
0.0470516646673 -0.0134433327621 0.908 2.34754487054e-38
0.0487320812626 -0.0134433327621 0.908 2.02401055876e-38
0.0504124978578 -0.0134433327621 0.908 1.69921311654e-38
0.0520929144531 -0.0134433327621 0.908 1.87344412162e-38
0.0537733310484 -0.0134433327621 0.908 2.2135946102e-38
0.0554537476436 -0.0134433327621 0.908 2.24218852576e-38
0.0571341642389 -0.0134433327621 0.908 2.22392932651e-38
0.0591384496713 -0.0135173599249 0.913 2.34374847274e-38
0.060961368555 -0.01354697079 0.915 2.33470309115e-38
0.0628601652804 -0.0135913870877 0.918 2.26109400386e-38
0.0645590886664 -0.0135913870877 0.918 2.34439180886e-38
0.0664023650198 -0.0136209979528 0.92 2.34493453176e-38
0.0683270712523 -0.0136654142505 0.923 2.34511375783e-38
0.0700352480336 -0.0136654142505 0.923 2.34691162376e-38
0.0103823095809 -0.012112694511 0.935 1.72009526626e-38
0.0118924637017 -0.0118924637017 0.918 1.78487659361e-38
0.0135913870877 -0.0118924637017 0.918 1.7098311754e-38
0.0152903104736 -0.0118924637017 0.918 2.33697655778e-38
0.0169337134875 -0.0118535994412 0.915 1.87703915283e-38
0.0186270848362 -0.0118535994412 0.915 1.1312985183e-38
0.0202760398873 -0.0118276899343 0.913 1.69967414374e-38
0.0219657098779 -0.0118276899343 0.913 2.34694693648e-38
0.0235776513476 -0.0117888256738 0.91 1.94118499134e-38
0.0252062489289 -0.0117629161668 0.908 1.49785129163e-38
0.0268866655242 -0.0117629161668 0.908 1.83670992316e-38
0.0286300052078 -0.0117888256738 0.91 1.79079217508e-38
0.0302474987147 -0.0117629161668 0.908 1.85529226184e-38
0.03192791531 -0.0117629161668 0.908 1.88381148818e-38
0.0336083319052 -0.0117629161668 0.908 2.21596714863e-38
0.0352887485005 -0.0117629161668 0.908 2.07853312019e-38
0.0369691650957 -0.0117629161668 0.908 2.15254003611e-38
0.038649581691 -0.0117629161668 0.908 2.08796610093e-38
0.0403299982863 -0.0117629161668 0.908 2.10626145368e-38
0.0420104148815 -0.0117629161668 0.908 1.83861120492e-38
0.0436908314768 -0.0117629161668 0.908 1.92987272922e-38
0.0453712480721 -0.0117629161668 0.908 1.80915927431e-38
0.0470516646673 -0.0117629161668 0.908 1.94691251855e-38
0.0487320812626 -0.0117629161668 0.908 2.00201381624e-38
0.0504124978578 -0.0117629161668 0.908 2.29631872362e-38
0.0520929144531 -0.0117629161668 0.908 2.14970394815e-38
0.0537733310484 -0.0117629161668 0.908 2.31576706474e-38
0.0554537476436 -0.0117629161668 0.908 2.24240040209e-38
0.0571341642389 -0.0117629161668 0.908 2.2793522222e-38
0.0592679972062 -0.0118535994412 0.915 2.23354181358e-38
0.0611612418945 -0.0118924637017 0.918 2.34410538346e-38
0.0628601652804 -0.0118924637017 0.918 2.33513749368e-38
0.0649107176896 -0.0119572374691 0.923 2.34468075661e-38
0.0667632474384 -0.0119831469761 0.925 2.34515061198e-38
0.0688452613918 -0.0120479207436 0.93 2.34461027129e-38
0.0705663929266 -0.0120479207436 0.93 2.34712616256e-38
0.0722875244614 -0.0120479207436 0.93 2.34835468092e-38
0.00865192465071 -0.0103823095809 0.935 1.84955940969e-38
0.0103823095809 -0.0103823095809 0.935 1.75711420857e-38
0.012112694511 -0.0103823095809 0.935 2.05253104627e-38
0.013813468576 -0.010360101432 0.933 1.51672439974e-38
0.0153236226969 -0.0102157484646 0.92 1.82035887203e-38
0.0169892338596 -0.0101935403157 0.918 2.29173970063e-38
0.0186270848362 -0.0101602280925 0.915 9.01386918735e-39
0.020320456185 -0.0101602280925 0.915 1.97949130655e-38
0.0219657098779 -0.0101380199437 0.913 2.10819958959e-38
0.0235776513476 -0.0101047077204 0.91 1.32314860949e-38
0.025261769301 -0.0101047077204 0.91 1.91262372604e-38
0.0269458872544 -0.0101047077204 0.91 2.05145316749e-38
0.0286300052078 -0.0101047077204 0.91 1.95046396938e-38
0.0302474987147 -0.0100824995716 0.908 1.70071446772e-38
0.03192791531 -0.0100824995716 0.908 1.91161324971e-38
0.0336083319052 -0.0100824995716 0.908 1.89206233354e-38
0.0352887485005 -0.0100824995716 0.908 2.01119736586e-38
0.0369691650957 -0.0100824995716 0.908 2.03874801471e-38
0.038649581691 -0.0100824995716 0.908 2.03874801471e-38
0.0403299982863 -0.0100824995716 0.908 2.0938493124e-38
0.0420104148815 -0.0100824995716 0.908 2.14909410306e-38
0.0437870667884 -0.0101047077204 0.91 2.10321362952e-38
0.0454711847418 -0.0101047077204 0.91 2.23246855909e-38
0.0471553026952 -0.0101047077204 0.91 2.13137272216e-38
0.0488394206486 -0.0101047077204 0.91 2.13123006998e-38
0.050523538602 -0.0101047077204 0.91 2.26041031034e-38
0.0523797697089 -0.0101380199437 0.913 2.22364009851e-38
0.0540694396995 -0.0101380199437 0.913 2.29736521331e-38
0.0557591096901 -0.0101380199437 0.913 2.23292986654e-38
0.0574487796807 -0.0101380199437 0.913 2.34410426242e-38
0.0594623185085 -0.0101935403157 0.918 2.24304822237e-38
0.0612944907875 -0.0102157484646 0.92 2.34374637079e-38
0.0632025409083 -0.0102490606878 0.923 2.34414279813e-38
0.0650513692989 -0.0102712688367 0.925 2.34435705666e-38
0.0669797768895 -0.0103045810599 0.928 2.34472209491e-38
0.0688452613918 -0.0103267892088 0.93 2.34479117893e-38
0.0705663929266 -0.0103267892088 0.93 2.34741721225e-38
0.00865192465071 -0.00865192465071 0.935 1.91366755326e-38
0.0103823095809 -0.00865192465071 0.935 1.88647339474e-38
0.012112694511 -0.00865192465071 0.935 1.53605629296e-38
0.013813468576 -0.00863341786002 0.933 2.28277167071e-38
0.015406903255 -0.00855939069723 0.925 1.49860519021e-38
0.0170817678131 -0.00854088390653 0.923 1.85744563719e-38
0.0186881572455 -0.00849461692979 0.918 1.89504233485e-38
0.0203870806315 -0.00849461692979 0.918 2.16367167085e-38
0.0220138275337 -0.00846685674374 0.915 1.90566992254e-38
0.0236553798685 -0.00844834995305 0.913 1.24186138752e-38
0.0253450498591 -0.00844834995305 0.913 1.53631006812e-38
0.0270347198498 -0.00844834995305 0.913 1.55356243442e-38
0.0286300052078 -0.008420589767 0.91 1.65483329353e-38
0.0302474987147 -0.00840208297631 0.908 1.75653323023e-38
0.03192791531 -0.00840208297631 0.908 1.71079484835e-38
0.0336083319052 -0.00840208297631 0.908 2.34691610792e-38
0.0352887485005 -0.00840208297631 0.908 1.76327767973e-38
0.0369691650957 -0.00840208297631 0.908 2.09410042509e-38
0.0387347129282 -0.008420589767 0.91 2.17696761107e-38
0.0404188308816 -0.008420589767 0.91 2.13104986299e-38
0.042102948835 -0.008420589767 0.91 2.09431566453e-38
0.0439314197559 -0.00844834995305 0.913 2.23199716229e-38
0.0456210897465 -0.00844834995305 0.913 2.11275941479e-38
0.0473107597371 -0.00844834995305 0.913 2.20480804844e-38
0.0490004297277 -0.00844834995305 0.913 2.21442025526e-38
0.0506900997183 -0.00844834995305 0.913 2.19587364969e-38
0.0524945118112 -0.00846685674374 0.915 2.18658163958e-38
0.05418788316 -0.00846685674374 0.915 2.25097410661e-38
0.0558812545087 -0.00846685674374 0.915 2.25118934605e-38
0.0577633951226 -0.00849461692979 0.918 2.34342379188e-38
0.0595918660434 -0.00851312372049 0.92 2.28842885274e-38
0.061494364127 -0.00854088390653 0.923 2.34353155174e-38
0.0635449165362 -0.00858715088327 0.928 2.3249850863e-38
0.0654029983222 -0.00860565767397 0.93 2.34421342357e-38
0.0673406593081 -0.00863341786002 0.933 2.34493313046e-38
0.0692153972057 -0.00865192465071 0.935 2.34583794888e-38
0.0709457821358 -0.00865192465071 0.935 2.34810286759e-38
0.0729093526288 -0.00867968483676 0.938 2.34835327962e-38
0.00867968483676 -0.00694374786941 0.938 1.98713034499e-38
0.0103823095809 -0.00692153972057 0.935 1.87689411844e-38
0.012112694511 -0.00692153972057 0.935 1.72095244053e-38
0.0138430794411 -0.00692153972057 0.935 1.39826829653e-38
0.0154901838131 -0.00688452613918 0.93 2.29155823247e-38
0.0171743017665 -0.00686972070662 0.928 1.87661301797e-38
0.0187288721851 -0.00681049897639 0.92 1.4240241623e-38
0.0204314969292 -0.00681049897639 0.92 2.34744215536e-38
0.0220860040175 -0.00679569354383 0.918 1.59180330899e-38
0.0237071988825 -0.006773485395 0.915 1.35343417255e-38
0.0253450498591 -0.00675867996244 0.913 1.76853156807e-38
0.0270347198498 -0.00675867996244 0.913 1.904906355e-38
0.0287243898404 -0.00675867996244 0.913 1.62717432431e-38
0.0303141231612 -0.0067364718136 0.91 1.42574607785e-38
0.0319982411146 -0.0067364718136 0.91 8.64832086475e-39
0.0336083319052 -0.00672166638105 0.908 2.20037167763e-38
0.0352887485005 -0.00672166638105 0.908 1.75416559634e-38
0.0370505949748 -0.0067364718136 0.91 2.03892808156e-38
0.0387347129282 -0.0067364718136 0.91 2.21337923063e-38
0.0404188308816 -0.0067364718136 0.91 2.22317738975e-38
0.0422417497652 -0.00675867996244 0.913 2.06672914244e-38
0.0439314197559 -0.00675867996244 0.913 2.34302988689e-38
0.0457210264162 -0.006773485395 0.915 2.14945437689e-38
0.0473107597371 -0.00675867996244 0.913 2.2327146271e-38
0.0490004297277 -0.00675867996244 0.913 2.20502048529e-38
0.0506900997183 -0.00675867996244 0.913 2.25115347281e-38
0.0524945118112 -0.006773485395 0.915 2.19615979484e-38
0.05418788316 -0.006773485395 0.915 2.34374398858e-38
0.0560644717366 -0.00679569354383 0.918 2.13140929605e-38
0.0578892412993 -0.00681049897639 0.92 2.26034304801e-38
0.0597861873457 -0.00683270712523 0.923 2.34425518226e-38
0.0618274863596 -0.00686972070662 0.928 2.34432216433e-38
0.0636818667874 -0.00688452613918 0.93 2.34425139876e-38
0.0656139757361 -0.00690673428801 0.933 2.3446474057e-38
0.0674850122756 -0.00692153972057 0.935 2.34478459282e-38
0.0692153972057 -0.00692153972057 0.935 2.34839111468e-38
0.0711734156614 -0.00694374786941 0.938 2.14552331431e-38
0.0729093526288 -0.00694374786941 0.938 2.34864054581e-38
0.00867968483676 -0.00520781090205 0.938 1.72895175281e-38
0.0104156218041 -0.00520781090205 0.938 1.95947768162e-38
0.0121515587715 -0.00520781090205 0.938 1.83097637036e-38
0.0138874957388 -0.00520781090205 0.938 1.831808041e-38
0.015540152148 -0.00518005071601 0.933 1.31414442608e-38
0.0171743017665 -0.00515229052996 0.928 2.0598211614e-38
0.0187288721851 -0.00510787423229 0.92 2.05184707249e-38
0.0204314969292 -0.00510787423229 0.92 1.82053557577e-38
0.0220860040175 -0.00509677015787 0.918 1.46118883965e-38
0.0237849274034 -0.00509677015787 0.918 1.83926210805e-38
0.0254005702312 -0.00508011404625 0.915 1.85863477906e-38
0.02709394158 -0.00508011404625 0.915 1.96001241711e-38
0.0287243898404 -0.00506900997183 0.913 1.85986399808e-38
0.030414059831 -0.00506900997183 0.913 1.59346426806e-38
0.0319982411146 -0.0050523538602 0.91 1.3171667466e-38
0.033682359068 -0.0050523538602 0.91 2.18174982234e-38
0.0353664770214 -0.0050523538602 0.91 1.78200323111e-38
0.0370505949748 -0.0050523538602 0.91 2.22356933293e-38
0.038862409784 -0.00506900997183 0.913 2.06647802976e-38
0.0405520797746 -0.00506900997183 0.913 2.11246752432e-38
0.0422417497652 -0.00506900997183 0.913 2.14905879034e-38
0.0440276550675 -0.00508011404625 0.915 2.34295898118e-38
0.0457210264162 -0.00508011404625 0.915 2.07548459538e-38
0.047414397765 -0.00508011404625 0.915 2.11246752432e-38
0.0491077691137 -0.00508011404625 0.915 2.28817493746e-38
0.0508011404625 -0.00508011404625 0.915 2.04865001005e-38
0.0524945118112 -0.00508011404625 0.915 2.20545096418e-38
0.0543655483507 -0.00509677015787 0.918 2.29746582654e-38
0.0561866165552 -0.00510787423229 0.92 2.34478333166e-38
0.0580780105644 -0.00512453034392 0.923 2.34568422644e-38
0.0601100561829 -0.00515229052996 0.928 2.34651169318e-38
0.0619607352526 -0.00516339460438 0.93 2.16083151913e-38
0.0638872921641 -0.00518005071601 0.933 2.34371035742e-38
0.0657546273454 -0.00519115479043 0.935 2.34392223375e-38
0.0677015417267 -0.00520781090205 0.938 2.34510857303e-38
0.0694374786941 -0.00520781090205 0.938 2.34979185263e-38
0.0711734156614 -0.00520781090205 0.938 1.94096821046e-38
0.0729093526288 -0.00520781090205 0.938 2.34924997051e-38
0.00877221879024 -0.0035088875161 0.948 1.56357373104e-38
0.0105266625483 -0.0035088875161 0.948 1.78448423004e-38
0.0121774682784 -0.00347927665098 0.94 1.89493513552e-38
0.0138874957388 -0.0034718739347 0.938 1.80292111394e-38
0.0155734643713 -0.00346076986028 0.935 1.90512719964e-38
0.0172113153479 -0.00344226306959 0.93 1.43418119396e-38
0.0188306595339 -0.00342375627889 0.925 2.06099643043e-38
0.0204981213757 -0.00341635356261 0.923 2.0979780982e-38
0.0221341216733 -0.00340524948819 0.92 1.95973369885e-38
0.0237849274034 -0.00339784677192 0.918 2.34754585145e-38
0.0254005702312 -0.0033867426975 0.915 1.51643419083e-38
0.02709394158 -0.0033867426975 0.915 1.59858335148e-38
0.0287873129287 -0.0033867426975 0.915 1.86656150409e-38
0.0304806842775 -0.0033867426975 0.915 1.89522632534e-38
0.0321740556262 -0.0033867426975 0.915 1.95028936759e-38
0.0337933998122 -0.00337933998122 0.913 2.3465456046e-38
0.0354830698028 -0.00337933998122 0.913 1.76367200512e-38
0.0371727397934 -0.00337933998122 0.913 2.06654977624e-38
0.0389475410212 -0.0033867426975 0.915 2.13104986299e-38
0.04064091237 -0.0033867426975 0.915 2.13108573624e-38
0.0423342837187 -0.0033867426975 0.915 2.15877987805e-38
0.0440276550675 -0.0033867426975 0.915 2.25076195002e-38
0.0458709314209 -0.00339784677192 0.918 2.17689586459e-38
0.0475698548068 -0.00339784677192 0.918 2.25172744466e-38
0.0492687781928 -0.00339784677192 0.918 2.05887528494e-38
0.0509677015787 -0.00339784677192 0.918 2.10626383589e-38
0.052781367067 -0.00340524948819 0.92 2.05051443765e-38
0.0546616570018 -0.00341635356261 0.923 2.34627123036e-38
0.0564919786017 -0.00342375627889 0.925 2.34690924156e-38
0.0582038567412 -0.00342375627889 0.925 2.11447978891e-38
0.0601100561829 -0.00343486035331 0.928 2.34478837633e-38
0.0619607352526 -0.00344226306959 0.93 2.16965073114e-38
0.0640242424153 -0.00346076986028 0.935 2.34403756061e-38
0.0659656047594 -0.0034718739347 0.938 2.34406838918e-38
0.0677015417267 -0.0034718739347 0.938 2.34924842908e-38
0.0695855330196 -0.00347927665098 0.94 2.05350985325e-38
0.0713251713451 -0.00347927665098 0.94 2.26363736057e-38
0.0105044543995 -0.00175074239991 0.946 1.59980724556e-38
0.0122551967994 -0.00175074239991 0.946 1.80277860188e-38
0.0139615229016 -0.0017451903627 0.943 2.03279852182e-38
0.0156567449294 -0.00173963832549 0.94 1.84912654859e-38
0.0173963832549 -0.00173963832549 0.94 1.60953113586e-38
0.0189324468827 -0.00172113153479 0.93 1.85781277738e-38
0.0206091621199 -0.00171743017665 0.928 1.48016578397e-38
0.022206298157 -0.00170817678131 0.923 1.9309224419e-38
0.0238367464174 -0.0017026247441 0.92 2.09858598147e-38
0.0254838507894 -0.00169892338596 0.918 2.34744425731e-38
0.0271827741753 -0.00169892338596 0.918 2.24571391243e-38
0.0288816975613 -0.00169892338596 0.918 1.84801503865e-38
0.0304806842775 -0.00169337134875 0.915 1.76374613381e-38
0.0321740556262 -0.00169337134875 0.915 2.11350896934e-38
0.033867426975 -0.00169337134875 0.915 1.83678166964e-38
0.0355607983237 -0.00169337134875 0.915 2.14008991965e-38
0.0372541696725 -0.00169337134875 0.915 2.15867225832e-38
0.039075237877 -0.00169892338596 0.918 2.20494887894e-38
0.040774161263 -0.00169892338596 0.918 2.08523973464e-38
0.042473084649 -0.00169892338596 0.918 2.13090637003e-38
0.0441720080349 -0.00169892338596 0.918 2.26851934429e-38
0.0459708680906 -0.0017026247441 0.92 2.15928210341e-38
0.0476734928347 -0.0017026247441 0.92 2.14278139361e-38
0.0493761175788 -0.0017026247441 0.92 1.95950500694e-38
0.0510787423229 -0.0017026247441 0.92 1.78491162608e-38
0.0529534802205 -0.00170817678131 0.923 2.10658459311e-38
0.0547801004623 -0.00171187813945 0.925 2.34730328668e-38
0.0564919786017 -0.00171187813945 0.925 2.34821076757e-38
0.0582038567412 -0.00171187813945 0.925 1.93044852276e-38
0.0602396037178 -0.00172113153479 0.93 2.34482663178e-38
0.0622938574851 -0.00173038493014 0.935 2.0682726727e-38
0.064229667792 -0.00173593696735 0.938 2.26069575484e-38
0.0661062563686 -0.00173963832549 0.94 2.34828027197e-38
0.0678458946941 -0.00173963832549 0.94 2.34957801448e-38
0.069807614508 -0.0017451903627 0.943 1.80396185831e-38
0.0715528048707 -0.0017451903627 0.943 2.29181158724e-38
0.0105266625483 0.0 0.948 1.67359962269e-38
0.0122811063063 0.0 0.948 1.63643200261e-38
0.0140059391993 0.0 0.946 1.83018141374e-38
0.0157067132643 0.0 0.943 1.91279930873e-38
0.017451903627 0.0 0.943 1.99642445706e-38
0.0191360215804 0.0 0.94 1.82085801454e-38
0.0208756599059 0.0 0.94 2.10745564023e-38
0.022446886436 0.0 0.933 1.01019045774e-38
0.0240440224732 0.0 0.928 1.72970537113e-38
0.0256781720917 0.0 0.925 2.06975510635e-38
0.0273900502311 0.0 0.925 1.75682329901e-38
0.0290390052822 0.0 0.923 2.2917687075e-38
0.0307471820635 0.0 0.923 1.8765366472e-38
0.0324553588448 0.0 0.923 2.34727315877e-38
0.0341635356261 0.0 0.923 1.81934839571e-38
0.0358717124074 0.0 0.923 1.9285462601e-38
0.0375798891887 0.0 0.923 2.11221725241e-38
0.03928806597 0.0 0.923 2.04793156432e-38
0.0409962427514 0.0 0.923 2.11221893397e-38
0.0427044195327 0.0 0.923 2.34291932444e-38
0.044412596314 0.0 0.923 2.23389900456e-38
0.046220709765 0.0 0.925 2.24470259533e-38
0.0478289498766 0.0 0.923 2.22726315568e-38
0.0495371266579 0.0 0.923 2.0063250511e-38
0.0513563441834 0.0 0.925 2.28287592732e-38
0.0530682223228 0.0 0.925 2.19035757842e-38
0.054957765653 0.0 0.928 1.33183511854e-38
0.0567973406482 0.0 0.93 2.34866534879e-38
0.058518472183 0.0 0.93 1.66311931148e-38
0.0607577938573 0.0 0.938 2.1136242962e-38
0.0624937308247 0.0 0.938 2.31640689762e-38
0.0643666180432 0.0 0.94 2.34841787948e-38
0.0663172337826 0.0 0.943 2.3501546488e-38
0.0682789535964 0.0 0.946 1.57383628047e-38
0.0700296959964 0.0 0.946 1.9059458382e-38
0.0717804383963 0.0 0.946 2.28316851844e-38
0.0123199705668 0.00175999579526 0.951 1.59026426289e-38
0.0140355500644 0.00175444375805 0.948 1.57157304332e-38
0.0157899938224 0.00175444375805 0.948 1.85701950232e-38
0.0175074239991 0.00175074239991 0.946 1.92184202785e-38
0.019258166399 0.00175074239991 0.946 2.01349843807e-38
0.0210089087989 0.00175074239991 0.946 2.12521275424e-38
0.0225671805756 0.00173593696735 0.938 1.60881184936e-38
0.0240958414871 0.00172113153479 0.93 1.85870484399e-38
0.0257614526498 0.00171743017665 0.928 2.07075689462e-38
0.0274788828265 0.00171743017665 0.928 1.66402384964e-38
0.0291019283706 0.00171187813945 0.925 1.5444511918e-38
0.03081380651 0.00171187813945 0.925 1.8289680294e-38
0.0325256846495 0.00171187813945 0.925 2.11635500652e-38
0.0342375627889 0.00171187813945 0.925 2.08872910794e-38
0.0359494409284 0.00171187813945 0.925 1.94089211996e-38
0.0376613190678 0.00171187813945 0.925 2.1617262482e-38
0.0393731972073 0.00171187813945 0.925 2.18005621302e-38
0.0410850753467 0.00171187813945 0.925 2.34640477411e-38
0.0427969534861 0.00171187813945 0.925 2.34723448293e-38
0.0445088316256 0.00171187813945 0.925 2.32882548487e-38
0.0463706147697 0.00171743017665 0.928 2.05221056931e-38
0.0481916829742 0.00172113153479 0.93 1.80277832163e-38
