# .PCD v0.7 - Point Cloud Data file format
VERSION 0.7
FIELDS x y z rgb
SIZE 4 4 4 4
TYPE F F F F
COUNT 1 1 1 1
WIDTH 856
HEIGHT 1
VIEWPOINT 0 0 0 1 0 0 0
POINTS 856
DATA ascii
0.0404188308816 -0.0202094154408 0.91 2.35097566957e-38
0.042102948835 -0.0202094154408 0.91 2.35097707087e-38
0.0437870667884 -0.0202094154408 0.91 1.52863922019e-38
0.0454711847418 -0.0202094154408 0.91 1.35077100482e-38
0.0471553026952 -0.0202094154408 0.91 2.35097791165e-38
0.0487320812626 -0.0201649991431 0.908 2.35098856151e-38
0.0504124978578 -0.0201649991431 0.908 2.49067910088e-39
0.0520929144531 -0.0201649991431 0.908 2.35098856151e-38
0.0537733310484 -0.0201649991431 0.908 2.35098856151e-38
0.0554537476436 -0.0201649991431 0.908 6.72156910747e-39
0.0571341642389 -0.0201649991431 0.908 2.35098856151e-38
0.0588145808341 -0.0201649991431 0.908 2.35098856151e-38
0.0604949974294 -0.0201649991431 0.908 1.65694911408e-38
0.0621754140247 -0.0201649991431 0.908 2.34802915929e-38
-0.00339784677192 -0.0186881572455 0.918 1.88686800039e-38
-0.00169892338596 -0.0186881572455 0.918 1.61013453498e-38
0.0 -0.0186881572455 0.918 2.29281968135e-38
0.00169892338596 -0.0186881572455 0.918 1.74914334264e-38
0.00339784677192 -0.0186881572455 0.918 2.34900067951e-38
0.00508011404625 -0.0186270848362 0.915 2.12718382066e-38
0.006773485395 -0.0186270848362 0.915 1.58283499882e-38
0.00846685674374 -0.0186270848362 0.915 2.34896971082e-38
0.0101602280925 -0.0186270848362 0.915 2.18224602213e-38
0.0118276899343 -0.0185863698967 0.913 2.34810510966e-38
0.0135173599249 -0.0185863698967 0.913 2.3496762455e-38
0.0152070299155 -0.0185863698967 0.913 1.81357168292e-38
0.0168966999061 -0.0185863698967 0.913 2.3490560308e-38
0.0185863698967 -0.0185863698967 0.913 2.35097468866e-38
0.0202760398873 -0.0185863698967 0.913 2.35097763139e-38
0.0219657098779 -0.0185863698967 0.913 2.35097594983e-38
0.0236553798685 -0.0185863698967 0.913 2.35097777152e-38
0.0253450498591 -0.0185863698967 0.913 2.35097356762e-38
0.0270347198498 -0.0185863698967 0.913 2.35097426827e-38
0.0287243898404 -0.0185863698967 0.913 2.35097482879e-38
0.030414059831 -0.0185863698967 0.913 2.35097412814e-38
0.0319982411146 -0.0185252974874 0.91 2.35086622816e-38
0.033682359068 -0.0185252974874 0.91 2.35097482879e-38
0.0353664770214 -0.0185252974874 0.91 2.35097412814e-38
0.0369691650957 -0.0184845825479 0.908 2.35097538931e-38
0.038649581691 -0.0184845825479 0.908 2.35097763139e-38
0.0403299982863 -0.0184845825479 0.908 2.35097454853e-38
0.0420104148815 -0.0184845825479 0.908 7.72530238188e-39
0.0436908314768 -0.0184845825479 0.908 2.33600517768e-38
0.0453712480721 -0.0184845825479 0.908 2.35098085437e-38
0.0470516646673 -0.0184845825479 0.908 2.35098828126e-38
0.0487320812626 -0.0184845825479 0.908 5.25148370413e-39
0.0504124978578 -0.0184845825479 0.908 2.35098295632e-38
0.0520929144531 -0.0184845825479 0.908 2.35098856151e-38
0.0537733310484 -0.0184845825479 0.908 3.76709524736e-39
0.0554537476436 -0.0184845825479 0.908 2.35097945307e-38
0.0571341642389 -0.0184845825479 0.908 2.35098856151e-38
0.0588145808341 -0.0184845825479 0.908 1.8335738172e-38
0.0604949974294 -0.0184845825479 0.908 2.27228463327e-38
0.0621754140247 -0.0184845825479 0.908 2.34824327769e-38
-0.0033867426975 -0.0169337134875 0.915 1.83165978362e-38
-0.00169337134875 -0.0169337134875 0.915 2.03416170496e-38
0.0 -0.0169337134875 0.915 1.46255706747e-38
0.00169892338596 -0.0169892338596 0.918 2.23861115091e-38
0.0033867426975 -0.0169337134875 0.915 1.9798441535e-38
0.00508011404625 -0.0169337134875 0.915 2.34810426889e-38
0.006773485395 -0.0169337134875 0.915 1.998363714e-38
0.00844834995305 -0.0168966999061 0.913 1.65662625491e-38
0.0101380199437 -0.0168966999061 0.913 2.34892725147e-38
0.0118276899343 -0.0168966999061 0.913 2.08086319927e-38
0.0134729436272 -0.016841179534 0.91 2.3495382176e-38
0.0151570615806 -0.016841179534 0.91 2.35097384788e-38
0.016841179534 -0.016841179534 0.91 2.07186644274e-38
0.0185252974874 -0.016841179534 0.91 2.09897918582e-38
0.0202094154408 -0.016841179534 0.91 2.11849422875e-38
0.0218935333942 -0.016841179534 0.91 2.35097244658e-38
0.0235776513476 -0.016841179534 0.91 2.35097454853e-38
0.025261769301 -0.016841179534 0.91 2.35097623009e-38
0.0270347198498 -0.0168966999061 0.913 2.35097679061e-38
0.0286300052078 -0.016841179534 0.91 2.35097623009e-38
0.0303141231612 -0.016841179534 0.91 2.35097538931e-38
0.0319982411146 -0.016841179534 0.91 2.35097454853e-38
0.0336083319052 -0.0168041659526 0.908 2.35097426827e-38
0.0352887485005 -0.0168041659526 0.908 2.35097538931e-38
0.0369691650957 -0.0168041659526 0.908 2.21253270623e-38
0.038649581691 -0.0168041659526 0.908 1.19604971774e-38
0.0403299982863 -0.0168041659526 0.908 1.68231149524e-38
0.0420104148815 -0.0168041659526 0.908 2.35096207697e-38
0.0436908314768 -0.0168041659526 0.908 2.35098856151e-38
0.0453712480721 -0.0168041659526 0.908 1.7329185485e-38
0.0470516646673 -0.0168041659526 0.908 1.28802870686e-38
0.0487320812626 -0.0168041659526 0.908 2.35098491814e-38
0.0503014571137 -0.0167671523712 0.906 2.35098856151e-38
0.0519781723508 -0.0167671523712 0.906 4.59472313987e-39
0.0537733310484 -0.0168041659526 0.908 2.35097384788e-38
0.0554537476436 -0.0168041659526 0.908 2.35098856151e-38
0.0571341642389 -0.0168041659526 0.908 1.68660451322e-38
0.0588145808341 -0.0168041659526 0.908 1.88478006568e-38
0.0606282463224 -0.016841179534 0.91 2.34702456842e-38
-0.0033867426975 -0.0152403421387 0.915 1.79467391196e-38
-0.00169337134875 -0.0152403421387 0.915 1.94222265285e-38
0.0 -0.0152403421387 0.915 1.80342698268e-38
0.00169337134875 -0.0152403421387 0.915 1.63693184578e-38
0.0033867426975 -0.0152403421387 0.915 2.17410770104e-38
0.00508011404625 -0.0152403421387 0.915 2.10909543969e-38
0.006773485395 -0.0152403421387 0.915 2.3482804121e-38
0.00844834995305 -0.0152070299155 0.913 2.21018623195e-38
0.0101380199437 -0.0152070299155 0.913 1.72070104758e-38
0.0117888256738 -0.0151570615806 0.91 2.34950248449e-38
0.0134729436272 -0.0151570615806 0.91 1.93400305645e-38
0.0151570615806 -0.0151570615806 0.91 2.34847827545e-38
0.016841179534 -0.0151570615806 0.91 2.35097917282e-38
0.0185252974874 -0.0151570615806 0.91 2.35097679061e-38
0.0202094154408 -0.0151570615806 0.91 2.11976268412e-38
0.0218935333942 -0.0151570615806 0.91 1.51880995224e-38
0.0235776513476 -0.0151570615806 0.91 1.7656809066e-38
0.025261769301 -0.0151570615806 0.91 1.92294919377e-38
0.0270347198498 -0.0152070299155 0.913 1.80478848427e-38
0.0286300052078 -0.0151570615806 0.91 1.87015527413e-38
0.0303141231612 -0.0151570615806 0.91 1.78721283841e-38
0.0319982411146 -0.0151570615806 0.91 1.57458457385e-38
0.0336083319052 -0.0151237493574 0.908 1.26851366392e-38
0.0352887485005 -0.0151237493574 0.908 1.93927305971e-38
0.0369691650957 -0.0151237493574 0.908 2.04348496404e-38
0.0385644504538 -0.0150904371341 0.906 2.35097875243e-38
0.0402411656909 -0.0150904371341 0.906 2.35098772074e-38
0.041917880928 -0.0150904371341 0.906 2.35098856151e-38
0.0435945961652 -0.0150904371341 0.906 1.52048730651e-38
0.0452713114023 -0.0150904371341 0.906 2.21080280327e-38
0.0469480266394 -0.0150904371341 0.906 2.35098856151e-38
0.0487320812626 -0.0151237493574 0.908 2.35098856151e-38
0.0503014571137 -0.0150904371341 0.906 6.43996416808e-39
0.0519781723508 -0.0150904371341 0.906 2.35097552944e-38
0.0537733310484 -0.0151237493574 0.908 2.35098856151e-38
0.0554537476436 -0.0151237493574 0.908 1.79734590787e-38
0.0572600104156 -0.0151570615806 0.91 1.88564102346e-38
0.058944128369 -0.0151570615806 0.91 2.26223886471e-38
0.0606282463224 -0.0151570615806 0.91 2.34810286759e-38
-0.0033867426975 -0.01354697079 0.915 1.80386012404e-38
-0.00169337134875 -0.01354697079 0.915 2.03416548847e-38
0.0 -0.01354697079 0.915 1.74861519325e-38
0.00169337134875 -0.01354697079 0.915 1.8028504885e-38
0.0033867426975 -0.01354697079 0.915 1.73848899016e-38
0.00506900997183 -0.0135173599249 0.913 1.98964819808e-38
0.00675867996244 -0.0135173599249 0.913 2.09033373481e-38
0.008420589767 -0.0134729436272 0.91 2.34857258283e-38
0.0101047077204 -0.0134729436272 0.91 2.00718278589e-38
0.0117888256738 -0.0134729436272 0.91 1.86853046856e-38
0.0134729436272 -0.0134729436272 0.91 2.31185267761e-38
0.0151237493574 -0.0134433327621 0.908 2.34863718269e-38
0.0168041659526 -0.0134433327621 0.908 1.88700855063e-38
0.0184845825479 -0.0134433327621 0.908 2.26528963159e-38
0.0201649991431 -0.0134433327621 0.908 2.3509702045e-38
0.0218454157384 -0.0134433327621 0.908 2.35097973333e-38
0.0235258323337 -0.0134433327621 0.908 2.35097875243e-38
0.025261769301 -0.0134729436272 0.91 2.35097426827e-38
0.0270347198498 -0.0135173599249 0.913 2.35097566957e-38
0.0286300052078 -0.0134729436272 0.91 2.35090336257e-38
0.0303141231612 -0.0134729436272 0.91 2.35097693074e-38
0.0319982411146 -0.0134729436272 0.91 2.35097693074e-38
0.0336083319052 -0.0134433327621 0.908 2.3509795932e-38
0.0352887485005 -0.0134433327621 0.908 2.35098421749e-38
0.0369691650957 -0.0134433327621 0.908 2.35098547866e-38
0.0385644504538 -0.013413721897 0.906 2.33250809724e-38
0.0402411656909 -0.013413721897 0.906 1.67621304433e-38
0.041917880928 -0.013413721897 0.906 1.71216924188e-38
0.0435945961652 -0.013413721897 0.906 2.35097398801e-38
0.0452713114023 -0.013413721897 0.906 2.35098113463e-38
0.0469480266394 -0.013413721897 0.906 2.11062902073e-38
0.0486247418765 -0.013413721897 0.906 1.2799572277e-38
0.0503014571137 -0.013413721897 0.906 2.35098141489e-38
0.0519781723508 -0.013413721897 0.906 2.35098856151e-38
0.0537733310484 -0.0134433327621 0.908 1.87027074112e-38
0.0554537476436 -0.0134433327621 0.908 1.84011788103e-38
0.0571341642389 -0.0134433327621 0.908 2.21599769694e-38
0.0588145808341 -0.0134433327621 0.908 2.3455450775e-38
0.0606282463224 -0.0134729436272 0.91 2.34874171956e-38
-0.00169337134875 -0.0118535994412 0.915 1.82190142138e-38
0.0 -0.0118535994412 0.915 1.68447453955e-38
0.00169337134875 -0.0118535994412 0.915 1.77598689629e-38
0.0033867426975 -0.0118535994412 0.915 1.79348897398e-38
0.00506900997183 -0.0118276899343 0.913 1.73870436973e-38
0.00675867996244 -0.0118276899343 0.913 1.98023959993e-38
0.008420589767 -0.0117888256738 0.91 1.65609810552e-38
0.0101047077204 -0.0117888256738 0.91 2.34892683108e-38
0.0117629161668 -0.0117629161668 0.908 2.03577894352e-38
0.0134433327621 -0.0117629161668 0.908 1.94336905512e-38
0.0151237493574 -0.0117629161668 0.908 1.85017177712e-38
0.0168041659526 -0.0117629161668 0.908 2.34848346025e-38
0.0184845825479 -0.0117629161668 0.908 2.34892542979e-38
0.0201649991431 -0.0117629161668 0.908 1.77677078265e-38
0.0218454157384 -0.0117629161668 0.908 2.09765187591e-38
0.0235258323337 -0.0117629161668 0.908 1.94221312402e-38
0.025261769301 -0.0117888256738 0.91 2.05437053077e-38
0.0269458872544 -0.0117888256738 0.91 2.35001283739e-38
0.0286300052078 -0.0117888256738 0.91 2.35036862707e-38
0.0302474987147 -0.0117629161668 0.908 2.35040295889e-38
0.03192791531 -0.0117629161668 0.908 1.96278810911e-38
0.0336083319052 -0.0117629161668 0.908 1.55672698674e-38
0.0352887485005 -0.0117629161668 0.908 1.68436509814e-38
0.0368877352167 -0.0117370066599 0.906 1.72030279856e-38
0.0385644504538 -0.0117370066599 0.906 2.34828419561e-38
0.0402411656909 -0.0117370066599 0.906 2.35097763139e-38
0.041917880928 -0.0117370066599 0.906 2.35097735113e-38
0.0435945961652 -0.0117370066599 0.906 2.3509730071e-38
0.0452713114023 -0.0117370066599 0.906 1.92599841923e-38
0.0469480266394 -0.0117370066599 0.906 2.34995075987e-38
0.0486247418765 -0.0117370066599 0.906 2.3509865997e-38
0.0503014571137 -0.0117370066599 0.906 2.35098323658e-38
0.0519781723508 -0.0117370066599 0.906 1.69497530973e-38
0.0537733310484 -0.0117629161668 0.908 1.97715366045e-38
0.0554537476436 -0.0117629161668 0.908 2.09600170684e-38
0.0571341642389 -0.0117629161668 0.908 2.34453670313e-38
0.0588145808341 -0.0117629161668 0.908 2.34695618505e-38
0.0604949974294 -0.0117629161668 0.908 2.02501921339e-38
-0.00169892338596 -0.0101935403157 0.918 1.86810447382e-38
0.0 -0.0101935403157 0.918 1.86922144883e-38
0.00169892338596 -0.0101935403157 0.918 1.50990848401e-38
0.00339784677192 -0.0101935403157 0.918 1.80252832998e-38
0.00508011404625 -0.0101602280925 0.915 1.7283775007e-38
0.00675867996244 -0.0101380199437 0.913 1.7383454972e-38
0.008420589767 -0.0101047077204 0.91 1.97845028192e-38
0.0101047077204 -0.0101047077204 0.91 1.84130926498e-38
0.0117629161668 -0.0100824995716 0.908 2.12793001209e-38
0.0134433327621 -0.0100824995716 0.908 2.1642550314e-38
0.0151237493574 -0.0100824995716 0.908 2.17339472038e-38
0.0168041659526 -0.0100824995716 0.908 1.95243994034e-38
0.0184438676083 -0.0100602914227 0.906 2.06340918612e-38
0.0201205828455 -0.0100602914227 0.906 2.08069518359e-38
0.0217972980826 -0.0100602914227 0.906 2.3486663297e-38
0.0234740133197 -0.0100602914227 0.906 2.34982688509e-38
0.0252062489289 -0.0100824995716 0.908 2.34971141809e-38
0.0269458872544 -0.0101047077204 0.91 2.32172664698e-38
0.0286300052078 -0.0101047077204 0.91 2.25696886144e-38
0.0302474987147 -0.0100824995716 0.908 2.34966251278e-38
0.03192791531 -0.0100824995716 0.908 2.35018057282e-38
0.0336083319052 -0.0100824995716 0.908 2.35097034463e-38
0.0352887485005 -0.0100824995716 0.908 2.35097370775e-38
0.0368877352167 -0.0100602914227 0.906 2.35097847217e-38
0.0385644504538 -0.0100602914227 0.906 2.35097216632e-38
0.0402411656909 -0.0100602914227 0.906 1.78746591292e-38
0.041917880928 -0.0100602914227 0.906 2.25642739971e-38
0.0435945961652 -0.0100602914227 0.906 2.34815471563e-38
0.0452713114023 -0.0100602914227 0.906 2.35098071424e-38
0.0469480266394 -0.0100602914227 0.906 2.35098085437e-38
0.0486247418765 -0.0100602914227 0.906 2.09246384861e-38
0.0503014571137 -0.0100602914227 0.906 1.58294640205e-38
0.0519781723508 -0.0100602914227 0.906 1.93808770134e-38
0.0537733310484 -0.0100824995716 0.908 2.34396329179e-38
0.0554537476436 -0.0100824995716 0.908 2.34454118728e-38
0.0571341642389 -0.0100824995716 0.908 2.34482495022e-38
0.0588145808341 -0.0100824995716 0.908 2.34791831658e-38
0.0608281196619 -0.0101380199437 0.913 2.12463710083e-38
-0.00169892338596 -0.00849461692979 0.918 1.94236488464e-38
0.0 -0.00849461692979 0.918 1.43511319757e-38
0.00169892338596 -0.00849461692979 0.918 1.39920506455e-38
0.00340524948819 -0.00851312372049 0.92 2.34767224857e-38
0.00508011404625 -0.00846685674374 0.915 1.65601893216e-38
0.00675867996244 -0.00844834995305 0.913 1.84815965265e-38
0.008420589767 -0.008420589767 0.91 1.70997186576e-38
0.0101047077204 -0.008420589767 0.91 1.96894359288e-38
0.0117629161668 -0.00840208297631 0.908 1.74871300389e-38
0.0134433327621 -0.00840208297631 0.908 1.90508782315e-38
0.0150904371341 -0.00838357618561 0.906 2.05353689831e-38
0.0167671523712 -0.00838357618561 0.906 2.34017950568e-38
0.0184438676083 -0.00838357618561 0.906 2.34931653219e-38
0.0201205828455 -0.00838357618561 0.906 2.18174533819e-38
0.0217251215989 -0.00835581599956 0.903 2.10773225655e-38
0.0233962847988 -0.00835581599956 0.903 2.06174276199e-38
0.0252062489289 -0.00840208297631 0.908 2.23792773765e-38
0.0268866655242 -0.00840208297631 0.908 2.349567785e-38
0.0285041590311 -0.00838357618561 0.906 2.3498504269e-38
0.0302474987147 -0.00840208297631 0.908 2.34988181599e-38
0.03192791531 -0.00840208297631 0.908 2.34970118862e-38
0.0336083319052 -0.00840208297631 0.908 1.98016701267e-38
0.0352110199796 -0.00838357618561 0.906 1.72026930753e-38
0.0367655903981 -0.00835581599956 0.903 2.18924172445e-38
0.038436753598 -0.00835581599956 0.903 2.13542639836e-38
0.0401079167979 -0.00835581599956 0.903 2.35096319801e-38
0.0417790799978 -0.00835581599956 0.903 2.35098141489e-38
0.0435945961652 -0.00838357618561 0.906 2.35097426827e-38
0.0452713114023 -0.00838357618561 0.906 2.25683826042e-38
0.0469480266394 -0.00838357618561 0.906 2.09823453582e-38
0.0486247418765 -0.00838357618561 0.906 1.8569790048e-38
0.0503014571137 -0.00838357618561 0.906 1.91150562999e-38
0.0520929144531 -0.00840208297631 0.908 2.31576117929e-38
0.0537733310484 -0.00840208297631 0.908 2.34381699623e-38
0.0554537476436 -0.00840208297631 0.908 2.34396595426e-38
0.0572600104156 -0.008420589767 0.91 2.34598102145e-38
0.058944128369 -0.008420589767 0.91 2.33895659251e-38
0.0608281196619 -0.00844834995305 0.913 2.34626338309e-38
0.0 -0.00681049897639 0.92 1.84012881115e-38
0.0017026247441 -0.00681049897639 0.92 1.71205783866e-38
0.00339784677192 -0.00679569354383 0.918 2.34795054644e-38
0.00508011404625 -0.006773485395 0.915 1.46280313548e-38
0.006773485395 -0.006773485395 0.915 1.62768355617e-38
0.008420589767 -0.0067364718136 0.91 2.18938661871e-38
0.0100824995716 -0.00672166638105 0.908 1.66365741009e-38
0.0117629161668 -0.00672166638105 0.908 1.82921830131e-38
0.0134433327621 -0.00672166638105 0.908 1.96873297772e-38
0.0150904371341 -0.00670686094849 0.906 1.81310533079e-38
0.0167671523712 -0.00670686094849 0.906 1.78566230166e-38
0.0184438676083 -0.00670686094849 0.906 2.00686679309e-38
0.0201205828455 -0.00670686094849 0.906 2.34806517266e-38
0.0217251215989 -0.00668465279965 0.903 2.35053888484e-38
0.0233962847988 -0.00668465279965 0.903 2.3509744084e-38
0.0251507285568 -0.00670686094849 0.906 2.35039385045e-38
0.026827443794 -0.00670686094849 0.906 2.34992805884e-38
0.0285041590311 -0.00670686094849 0.906 2.34981623522e-38
0.0301808742682 -0.00670686094849 0.906 2.34996000844e-38
0.0318575895053 -0.00670686094849 0.906 2.35053580198e-38
0.0336083319052 -0.00672166638105 0.908 2.35096880321e-38
0.0352110199796 -0.00670686094849 0.906 2.35097286697e-38
0.0367655903981 -0.00668465279965 0.903 2.3509758097e-38
0.038436753598 -0.00668465279965 0.903 2.13870585715e-38
0.0401079167979 -0.00668465279965 0.903 2.34885200175e-38
0.0417790799978 -0.00668465279965 0.903 2.32944037464e-38
0.0435945961652 -0.00670686094849 0.906 2.11662882024e-38
0.0452713114023 -0.00670686094849 0.906 1.90275255926e-38
0.0469480266394 -0.00670686094849 0.906 2.02120600001e-38
0.0486247418765 -0.00670686094849 0.906 2.17689586459e-38
0.0504124978578 -0.00672166638105 0.908 2.31598104302e-38
0.0520929144531 -0.00672166638105 0.908 2.27945942153e-38
0.0538917745088 -0.0067364718136 0.91 2.34418007267e-38
0.0555758924622 -0.0067364718136 0.91 2.31648032566e-38
0.0574487796807 -0.00675867996244 0.913 2.3483503369e-38
0.0591384496713 -0.00675867996244 0.913 1.95097712488e-38
0.0608281196619 -0.00675867996244 0.913 2.34651477604e-38
0.0017026247441 -0.00510787423229 0.92 1.53548540397e-38
0.00339784677192 -0.00509677015787 0.918 2.34737587394e-38
0.00508011404625 -0.00508011404625 0.915 1.05693329035e-38
0.006773485395 -0.00508011404625 0.915 2.25608169938e-38
0.008420589767 -0.0050523538602 0.91 1.43263374006e-38
0.0100824995716 -0.00504124978578 0.908 1.8463598249e-38
0.0117629161668 -0.00504124978578 0.908 2.21568646855e-38
0.0134433327621 -0.00504124978578 0.908 1.74612999043e-38
0.0150904371341 -0.00503014571137 0.906 1.69895667892e-38
0.0167671523712 -0.00503014571137 0.906 1.98620086372e-38
0.0184438676083 -0.00503014571137 0.906 2.23655474541e-38
0.0201205828455 -0.00503014571137 0.906 1.96029632018e-38
0.0217972980826 -0.00503014571137 0.906 1.67435310088e-38
0.0234740133197 -0.00503014571137 0.906 1.76672123058e-38
0.0251507285568 -0.00503014571137 0.906 2.02483101901e-38
0.026827443794 -0.00503014571137 0.906 2.26454189873e-38
0.0285041590311 -0.00503014571137 0.906 2.25478451739e-38
0.0301808742682 -0.00503014571137 0.906 2.20876181206e-38
0.0318575895053 -0.00503014571137 0.906 2.24599907667e-38
0.0336083319052 -0.00504124978578 0.908 2.09859298796e-38
0.0352110199796 -0.00503014571137 0.906 1.97888384366e-38
0.0367655903981 -0.00501348959974 0.903 2.24607096328e-38
0.038436753598 -0.00501348959974 0.903 2.17237583627e-38
0.0401079167979 -0.00501348959974 0.903 2.02400411279e-38
0.0417790799978 -0.00501348959974 0.903 1.79122685786e-38
0.0435945961652 -0.00503014571137 0.906 1.92890415172e-38
0.0452713114023 -0.00503014571137 0.906 2.26887485371e-38
0.0469480266394 -0.00503014571137 0.906 2.30665133797e-38
0.0487320812626 -0.00504124978578 0.908 2.10382207331e-38
0.0504124978578 -0.00504124978578 0.908 2.34334854216e-38
0.0522076565554 -0.0050523538602 0.91 2.22381974497e-38
0.0538917745088 -0.0050523538602 0.91 2.21456907316e-38
0.0555758924622 -0.0050523538602 0.91 2.3463704423e-38
0.0574487796807 -0.00506900997183 0.913 2.34864348853e-38
0.0591384496713 -0.00506900997183 0.913 2.34666051108e-38
0.0608281196619 -0.00506900997183 0.913 2.34655191045e-38
0.0017026247441 -0.00340524948819 0.92 1.82121926929e-38
0.00339784677192 -0.00339784677192 0.918 1.9872050342e-38
0.00509677015787 -0.00339784677192 0.918 1.31482601765e-38
0.006773485395 -0.0033867426975 0.915 2.32969765304e-38
0.008420589767 -0.0033682359068 0.91 1.48838075609e-38
0.0101047077204 -0.0033682359068 0.91 1.60852388253e-38
0.0117629161668 -0.00336083319052 0.908 2.29790443296e-38
0.0134433327621 -0.00336083319052 0.908 2.34702456842e-38
0.0150904371341 -0.00335343047424 0.906 2.22731360243e-38
0.0167671523712 -0.00335343047424 0.906 1.72001427121e-38
0.0184438676083 -0.00335343047424 0.906 1.70814022854e-38
0.0201205828455 -0.00335343047424 0.906 1.82752637354e-38
0.0217972980826 -0.00335343047424 0.906 1.95681367311e-38
0.0234740133197 -0.00335343047424 0.906 1.95785469774e-38
0.0251507285568 -0.00335343047424 0.906 2.02307981632e-38
0.0268866655242 -0.00336083319052 0.908 1.99595207935e-38
0.0285041590311 -0.00335343047424 0.906 2.01418016977e-38
0.0301808742682 -0.00335343047424 0.906 2.11613037837e-38
0.0318575895053 -0.00335343047424 0.906 2.04230100696e-38
0.0336083319052 -0.00336083319052 0.908 1.95868034279e-38
0.0352110199796 -0.00335343047424 0.906 1.81045071098e-38
0.0368877352167 -0.00335343047424 0.906 1.76331327271e-38
0.0385644504538 -0.00335343047424 0.906 2.05729448014e-38
0.0402411656909 -0.00335343047424 0.906 2.10303286202e-38
0.041917880928 -0.00335343047424 0.906 2.12139996125e-38
0.0435945961652 -0.00335343047424 0.906 2.32444782847e-38
0.0452713114023 -0.00335343047424 0.906 2.27909998848e-38
0.0470516646673 -0.00336083319052 0.908 2.34420907954e-38
0.0488394206486 -0.0033682359068 0.91 2.18683275226e-38
0.050523538602 -0.0033682359068 0.91 2.34363917146e-38
0.0522076565554 -0.0033682359068 0.91 2.1878733565e-38
0.05418788316 -0.0033867426975 0.915 2.34432090316e-38
0.0558812545087 -0.0033867426975 0.915 2.34860313114e-38
0.0575746258575 -0.0033867426975 0.915 1.87689818221e-38
0.0592679972062 -0.0033867426975 0.915 2.34644246904e-38
0.060961368555 -0.0033867426975 0.915 2.34690854091e-38
0.00170817678131 -0.00170817678131 0.923 1.72905895214e-38
0.00340524948819 -0.0017026247441 0.92 1.84862404296e-38
0.00510787423229 -0.0017026247441 0.92 1.84008200778e-38
0.00681049897639 -0.0017026247441 0.92 2.31089937427e-38
0.00846685674374 -0.00169337134875 0.915 1.41498410565e-38
0.0101602280925 -0.00169337134875 0.915 1.87739466225e-38
0.0118276899343 -0.00168966999061 0.913 2.24535700172e-38
0.0134729436272 -0.0016841179534 0.91 1.64687251695e-38
0.0151237493574 -0.00168041659526 0.908 1.8105583307e-38
0.0167671523712 -0.00167671523712 0.906 1.90375799091e-38
0.0184438676083 -0.00167671523712 0.906 2.00506780612e-38
0.0201205828455 -0.00167671523712 0.906 1.96880290251e-38
0.0217972980826 -0.00167671523712 0.906 1.81221046159e-38
0.0234740133197 -0.00167671523712 0.906 1.73791529857e-38
0.0251507285568 -0.00167671523712 0.906 1.88413434735e-38
0.0268866655242 -0.00168041659526 0.908 1.96660748821e-38
0.0285041590311 -0.00167671523712 0.906 1.89191884058e-38
0.0301808742682 -0.00167671523712 0.906 1.94691251855e-38
0.0318575895053 -0.00167671523712 0.906 2.02956446509e-38
0.0336083319052 -0.00168041659526 0.908 2.11221739254e-38
0.0352887485005 -0.00168041659526 0.908 2.16732009154e-38
0.0368877352167 -0.00167671523712 0.906 2.14034103233e-38
0.0385644504538 -0.00167671523712 0.906 2.14934521574e-38
0.0402411656909 -0.00167671523712 0.906 2.14019781963e-38
0.0420104148815 -0.00168041659526 0.908 2.30607876742e-38
0.0436908314768 -0.00168041659526 0.908 2.19587280892e-38
0.0453712480721 -0.00168041659526 0.908 2.12218973306e-38
0.0471553026952 -0.0016841179534 0.91 2.26030493269e-38
0.0488394206486 -0.0016841179534 0.91 2.34363552808e-38
0.0506900997183 -0.00168966999061 0.913 2.23386341158e-38
0.0524945118112 -0.00169337134875 0.915 2.07802935339e-38
0.05418788316 -0.00169337134875 0.915 2.34756617028e-38
0.0558812545087 -0.00169337134875 0.915 2.2747013126e-38
0.0575746258575 -0.00169337134875 0.915 2.14293357462e-38
0.0592679972062 -0.00169337134875 0.915 2.34684099832e-38
0.0 0.0 0.935 1.72991528564e-38
0.00170817678131 0.0 0.923 2.34756028482e-38
0.00340524948819 0.0 0.92 1.40705794114e-38
0.00510787423229 0.0 0.92 1.94917407414e-38
0.00681049897639 0.0 0.92 1.61773966201e-38
0.00849461692979 0.0 0.918 1.72733255244e-38
0.0101935403157 0.0 0.918 1.84063552068e-38
0.0118535994412 0.0 0.915 2.11743372608e-38
0.0135173599249 0.0 0.913 1.44547958322e-38
0.0151570615806 0.0 0.91 9.28148356287e-39
0.016841179534 0.0 0.91 1.82953667632e-38
0.0185252974874 0.0 0.91 2.05126903688e-38
0.0201649991431 0.0 0.908 1.35170398934e-38
0.0218454157384 0.0 0.908 1.65620068057e-38
0.0235258323337 0.0 0.908 1.78508917059e-38
0.0252062489289 0.0 0.908 1.73863248312e-38
0.0269458872544 0.0 0.91 2.09733125883e-38
0.0286300052078 0.0 0.91 1.67413365754e-38
0.0302474987147 0.0 0.908 2.34821174848e-38
0.03192791531 0.0 0.908 1.66236597342e-38
0.0336083319052 0.0 0.908 2.20469944781e-38
0.0352887485005 0.0 0.908 2.15856533925e-38
0.0369691650957 0.0 0.908 2.15863638508e-38
0.038649581691 0.0 0.908 2.14927346926e-38
0.0403299982863 0.0 0.908 2.10303286202e-38
0.0420104148815 0.0 0.908 2.24118085203e-38
0.0437870667884 0.0 0.91 2.2596913041e-38
0.0456210897465 0.0 0.913 2.2139204121e-38
0.047414397765 0.0 0.915 2.17757899759e-38
0.0491077691137 0.0 0.915 2.33470309115e-38
0.0508011404625 0.0 0.915 2.05080212423e-38
0.0526666249647 0.0 0.918 2.34657993642e-38
0.0543655483507 0.0 0.918 2.34968339213e-38
0.0561866165552 0.0 0.92 1.72959242647e-38
0.0580780105644 0.0 0.923 2.34604071677e-38
0.0597861873457 0.0 0.923 2.34655485317e-38
0.0 0.00173038493014 0.935 1.33369800472e-38
0.001726683572 0.001726683572 0.933 1.81328974167e-38
0.00342375627889 0.00171187813945 0.925 2.00614176126e-38
0.00513563441834 0.00171187813945 0.925 1.48917276998e-38
0.00684751255778 0.00171187813945 0.925 2.18848670484e-38
0.00855939069723 0.00171187813945 0.925 2.34728002513e-38
0.0101935403157 0.00169892338596 0.918 2.01669970441e-38
0.0118535994412 0.00169337134875 0.915 1.87865232763e-38
0.01354697079 0.00169337134875 0.915 1.66718419806e-38
0.0152070299155 0.00168966999061 0.913 7.91941024516e-39
0.0168966999061 0.00168966999061 0.913 1.32559205362e-38
0.0185252974874 0.0016841179534 0.91 1.72930544054e-38
0.0202094154408 0.0016841179534 0.91 1.47030064279e-38
0.0218935333942 0.0016841179534 0.91 1.78315369715e-38
0.0236553798685 0.00168966999061 0.913 1.47883847407e-38
0.0253450498591 0.00168966999061 0.913 1.45207703652e-38
0.0270347198498 0.00168966999061 0.913 1.65498000948e-38
0.0287243898404 0.00168966999061 0.913 6.97949770801e-39
0.0303141231612 0.0016841179534 0.91 2.34842768857e-38
0.0319982411146 0.0016841179534 0.91 1.68137879099e-38
0.033682359068 0.0016841179534 0.91 2.16785580794e-38
0.0353664770214 0.0016841179534 0.91 2.1309423834e-38
0.0370505949748 0.0016841179534 0.91 2.15845715901e-38
0.0387347129282 0.0016841179534 0.91 2.14923759602e-38
0.0405520797746 0.00168966999061 0.913 2.3061143604e-38
0.0422417497652 0.00168966999061 0.913 2.30661350292e-38
0.0439314197559 0.00168966999061 0.913 2.19569344271e-38
0.0457210264162 0.00169337134875 0.915 2.24168658065e-38
0.0475698548068 0.00169892338596 0.918 2.28961421111e-38
0.0492687781928 0.00169892338596 0.918 2.14357046477e-38
0.0510787423229 0.0017026247441 0.92 1.69314521393e-38
0.052781367067 0.0017026247441 0.92 2.34953681631e-38
0.0546616570018 0.00170817678131 0.923 1.69336633883e-38
0.0566751958296 0.00171743017665 0.928 2.1154450033e-38
0.0583926260063 0.00171743017665 0.928 2.34605066599e-38
0.00173038493014 0.00346076986028 0.935 1.69332906429e-38
0.00345336714401 0.00345336714401 0.933 1.86771211025e-38
0.00518005071601 0.00345336714401 0.933 1.98727902276e-38
0.00690673428801 0.00345336714401 0.933 1.79334604153e-38
0.00858715088327 0.00343486035331 0.928 1.79093566804e-38
0.0102712688367 0.00342375627889 0.925 2.34812949226e-38
0.0118924637017 0.00339784677192 0.918 1.61124954817e-38
0.0135913870877 0.00339784677192 0.918 1.4825692911e-38
0.0152903104736 0.00339784677192 0.918 1.25259056934e-38
0.0169892338596 0.00339784677192 0.918 1.5845358949e-38
0.0185863698967 0.00337933998122 0.913 1.47314331685e-38
0.0202760398873 0.00337933998122 0.913 1.86770916753e-38
0.0219657098779 0.00337933998122 0.913 1.1756745578e-38
0.0237071988825 0.0033867426975 0.915 1.45354854003e-38
0.0254005702312 0.0033867426975 0.915 1.25150974784e-38
0.02709394158 0.0033867426975 0.915 1.33538138456e-38
0.0287873129287 0.0033867426975 0.915 3.95358985608e-39
0.0304806842775 0.0033867426975 0.915 2.34867838087e-38
0.0321037298216 0.00337933998122 0.913 1.54333856082e-38
0.0337933998122 0.00337933998122 0.913 2.19551673898e-38
0.0354830698028 0.00337933998122 0.913 2.13090917263e-38
0.0371727397934 0.00337933998122 0.913 2.21366915928e-38
0.038862409784 0.00337933998122 0.913 2.21470626028e-38
0.0405520797746 0.00337933998122 0.913 2.23239513105e-38
0.0423342837187 0.0033867426975 0.915 2.08477338251e-38
0.0440276550675 0.0033867426975 0.915 2.30657762967e-38
0.0458709314209 0.00339784677192 0.918 2.29900977719e-38
0.0476734928347 0.00340524948819 0.92 2.18027229324e-38
0.0493761175788 0.00340524948819 0.92 1.86778007323e-38
0.0512453034392 0.00341635356261 0.923 2.34812388706e-38
0.0530682223228 0.00342375627889 0.925 2.3112610494e-38
0.054957765653 0.00343486035331 0.928 1.62706670459e-38
0.0567973406482 0.00344226306959 0.93 2.21679601668e-38
0.058518472183 0.00344226306959 0.93 2.34626562517e-38
0.00173593696735 0.00520781090205 0.938 1.48107186356e-38
0.00346076986028 0.00519115479043 0.935 1.91442425443e-38
0.00519115479043 0.00519115479043 0.935 1.73842467056e-38
0.00692153972057 0.00519115479043 0.935 2.14469360549e-38
0.00863341786002 0.00518005071601 0.933 1.68163298653e-38
0.0103045810599 0.00515229052996 0.928 1.5888975765e-38
0.0119572374691 0.00512453034392 0.923 1.75438083578e-38
0.0136654142505 0.00512453034392 0.923 1.92285376535e-38
0.0153236226969 0.00510787423229 0.92 1.4356157032e-38
0.0169892338596 0.00509677015787 0.918 1.35300229236e-38
0.0186881572455 0.00509677015787 0.918 1.33525036316e-38
0.0203870806315 0.00509677015787 0.918 2.21073638173e-38
0.0220860040175 0.00509677015787 0.918 1.84185324904e-38
0.0237849274034 0.00509677015787 0.918 2.02606724451e-38
0.0254838507894 0.00509677015787 0.918 1.36197004201e-38
0.0271827741753 0.00509677015787 0.918 1.71385962822e-38
0.0288816975613 0.00509677015787 0.918 6.16841494647e-39
0.0305806209472 0.00509677015787 0.918 2.33884687084e-38
0.0321740556262 0.00508011404625 0.915 1.67258984702e-38
0.033867426975 0.00508011404625 0.915 2.18611752953e-38
0.0355607983237 0.00508011404625 0.915 2.16738945581e-38
0.0372541696725 0.00508011404625 0.915 2.17693355952e-38
0.0389475410212 0.00508011404625 0.915 2.34446845989e-38
0.04064091237 0.00508011404625 0.915 2.17812045932e-38
0.0423342837187 0.00508011404625 0.915 2.28839171833e-38
0.0441720080349 0.00509677015787 0.918 2.34449886807e-38
0.0459708680906 0.00510787423229 0.92 2.34539780103e-38
0.0476734928347 0.00510787423229 0.92 2.02339777094e-38
0.0496444660439 0.00513563441834 0.925 2.34722747644e-38
0.0513563441834 0.00513563441834 0.925 2.34928892661e-38
0.0530682223228 0.00513563441834 0.925 1.48056109027e-38
0.0550762091134 0.00516339460438 0.93 1.90340402292e-38
0.0567973406482 0.00516339460438 0.93 2.34709365243e-38
0.058518472183 0.00516339460438 0.93 2.34831446366e-38
0.00173963832549 0.00695855330196 0.94 1.69394017055e-38
0.0034718739347 0.00694374786941 0.938 1.48192847731e-38
0.00519115479043 0.00692153972057 0.935 1.77616317963e-38
0.00692153972057 0.00692153972057 0.935 1.72949055207e-38
0.00863341786002 0.00690673428801 0.933 2.34776837764e-38
0.0103267892088 0.00688452613918 0.93 1.78535093314e-38
0.0119831469761 0.00684751255778 0.925 2.051384644e-38
0.0136950251156 0.00684751255778 0.925 1.4510008393e-38
0.0153236226969 0.00681049897639 0.92 1.89299545819e-38
0.017026247441 0.00681049897639 0.92 1.80309669664e-38
0.0187288721851 0.00681049897639 0.92 1.72992243226e-38
0.0204314969292 0.00681049897639 0.92 1.65594466334e-38
0.0221341216733 0.00681049897639 0.92 1.77551017455e-38
0.0238367464174 0.00681049897639 0.92 1.80370822329e-38
0.0255393711615 0.00681049897639 0.92 1.65720877468e-38
0.0272419959056 0.00681049897639 0.92 1.40021343892e-38
0.0289446206497 0.00681049897639 0.92 1.2531335725e-38
0.0306472453938 0.00681049897639 0.92 2.33001995168e-38
0.0322795443332 0.00679569354383 0.918 1.4515032048e-38
0.033867426975 0.006773485395 0.915 2.32422908578e-38
0.0355607983237 0.006773485395 0.915 2.02977970454e-38
0.0372541696725 0.006773485395 0.915 2.24222103588e-38
0.039075237877 0.00679569354383 0.918 2.21452689407e-38
0.040774161263 0.00679569354383 0.918 2.17747025683e-38
0.042473084649 0.00679569354383 0.918 2.34356700459e-38
0.0441720080349 0.00679569354383 0.918 2.34471130491e-38
0.046220709765 0.00684751255778 0.925 2.18805356348e-38
0.0479325879045 0.00684751255778 0.925 2.30740341486e-38
0.049805475123 0.00686972070662 0.928 2.34967638563e-38
0.0515229052996 0.00686972070662 0.928 1.26930427652e-38
0.0532403354763 0.00686972070662 0.928 1.8569790048e-38
0.054957765653 0.00686972070662 0.928 2.07839271008e-38
0.0566751958296 0.00686972070662 0.928 2.34641374242e-38
0.00173593696735 0.00867968483676 0.938 2.04395832266e-38
0.0034718739347 0.00867968483676 0.938 1.33434106058e-38
0.00520781090205 0.00867968483676 0.938 1.75776286963e-38
0.00694374786941 0.00867968483676 0.938 1.51791003837e-38
0.00865192465071 0.00865192465071 0.935 1.93307077258e-38
0.010360101432 0.00863341786002 0.933 1.58226102697e-38
0.0120220112366 0.00858715088327 0.928 2.16166767392e-38
0.0136950251156 0.00855939069723 0.925 1.58126106038e-38
0.0153735910318 0.00854088390653 0.923 2.34805970759e-38
0.0170817678131 0.00854088390653 0.923 1.60073882878e-38
0.0187288721851 0.00851312372049 0.92 1.99304550607e-38
0.0204314969292 0.00851312372049 0.92 2.03067653555e-38
0.0221341216733 0.00851312372049 0.92 1.77393623611e-38
0.0239144749383 0.00854088390653 0.923 1.85788368309e-38
0.0256226517196 0.00854088390653 0.923 1.86771337142e-38
0.0273308285009 0.00854088390653 0.923 1.78495086243e-38
0.0290390052822 0.00854088390653 0.923 1.88654682278e-38
0.0307471820635 0.00854088390653 0.923 2.22669478903e-38
0.0323498701378 0.00851312372049 0.92 1.97693968217e-38
0.0340524948819 0.00851312372049 0.92 2.01367402077e-38
0.0356773911051 0.00849461692979 0.918 2.02300344555e-38
0.0373763144911 0.00849461692979 0.918 2.14328263807e-38
0.0391603691142 0.00851312372049 0.92 2.26281227604e-38
0.0408629938583 0.00851312372049 0.92 2.07724000196e-38
0.0425656186024 0.00851312372049 0.92 2.34457215598e-38
0.044412596314 0.00854088390653 0.923 2.3461840696e-38
0.046220709765 0.00855939069723 0.925 2.32695363038e-38
0.0480880449463 0.00858715088327 0.928 2.34946464943e-38
0.049805475123 0.00858715088327 0.928 1.58305458229e-38
0.0516339460438 0.00860565767397 0.93 1.83753542809e-38
0.0533550775786 0.00860565767397 0.93 2.19756697876e-38
0.0550762091134 0.00860565767397 0.93 2.25262805919e-38
0.00173593696735 0.0104156218041 0.938 1.96095254825e-38
0.0034718739347 0.0104156218041 0.938 1.49153984335e-38
0.00520781090205 0.0104156218041 0.938 1.91503466004e-38
0.00695855330196 0.0104378299529 0.94 1.53745534935e-38
0.00867968483676 0.0104156218041 0.938 1.49947007162e-38
0.0103823095809 0.0103823095809 0.935 1.78541959677e-38
0.012086785004 0.010360101432 0.933 1.78463164664e-38
0.0137394414132 0.0103045810599 0.928 1.58071847762e-38
0.015406903255 0.0102712688367 0.925 2.34788034139e-38
0.0171187813945 0.0102712688367 0.925 1.5266575039e-38
0.0188306595339 0.0102712688367 0.925 2.34812164499e-38
0.0205425376733 0.0102712688367 0.925 1.98723852524e-38
0.0222544158128 0.0102712688367 0.925 1.92180125007e-38
0.0239144749383 0.0102490606878 0.923 2.06705200161e-38
0.0256226517196 0.0102490606878 0.923 1.63467183161e-38
0.0273308285009 0.0102490606878 0.923 1.87344412162e-38
0.0291019283706 0.0102712688367 0.925 1.92937050385e-38
0.03081380651 0.0102712688367 0.925 2.14120311115e-38
0.0324553588448 0.0102490606878 0.923 2.13370798605e-38
0.0341635356261 0.0102490606878 0.923 1.7668288503e-38
0.035755119626 0.0102157484646 0.92 1.59187701729e-38
0.0374577443701 0.0102157484646 0.92 1.50897199625e-38
0.03928806597 0.0102490606878 0.923 1.94974650456e-38
0.0410850753467 0.0102712688367 0.925 2.20706526001e-38
0.0427969534861 0.0102712688367 0.925 2.33617571571e-38
0.0445088316256 0.0102712688367 0.925 2.20713700649e-38
0.0463706147697 0.0103045810599 0.928 2.34917359974e-38
0.0481916829742 0.0103267892088 0.93 1.67485560651e-38
0.0500738235881 0.010360101432 0.933 1.94985412429e-38
0.0519115479043 0.0103823095809 0.935 2.32734963733e-38
0.0536419328344 0.0103823095809 0.935 2.28024821244e-38
0.0561422002575 0.0105266625483 0.948 2.32605862106e-38
0.0580798612435 0.0105599747715 0.951 2.34619499973e-38
0.0034903807254 0.0122163325389 0.943 1.7776006316e-38
0.0052355710881 0.0122163325389 0.943 1.39895563342e-38
0.0069807614508 0.0122163325389 0.943 1.68465054264e-38
0.00869819162745 0.0121774682784 0.94 1.54588836351e-38
0.0104156218041 0.0121515587715 0.938 1.97914154245e-38
0.012112694511 0.012112694511 0.935 1.3155460048e-38
0.013813468576 0.012086785004 0.933 2.03380843762e-38
0.0154568715899 0.0120220112366 0.928 1.93178620228e-38
0.0171743017665 0.0120220112366 0.928 1.78379689315e-38
0.0188917319432 0.0120220112366 0.928 2.34672006626e-38
0.0206091621199 0.0120220112366 0.928 1.99634584422e-38
0.0223265922965 0.0120220112366 0.928 1.885067472e-38
0.0240440224732 0.0120220112366 0.928 2.34740824394e-38
0.0257614526498 0.0120220112366 0.928 2.23667833994e-38
0.0274788828265 0.0120220112366 0.928 2.34752343067e-38
0.0291963130031 0.0120220112366 0.928 2.06140308724e-38
0.0309137431798 0.0120220112366 0.928 2.07924890344e-38
0.0325256846495 0.0119831469761 0.925 1.94999803764e-38
0.0342375627889 0.0119831469761 0.925 1.74774792963e-38
0.0359494409284 0.0119831469761 0.925 1.99670737922e-38
0.0376613190678 0.0119831469761 0.925 1.56446817985e-38
0.0393731972073 0.0119831469761 0.925 2.10766247188e-38
0.0412183242397 0.0120220112366 0.928 2.19913769421e-38
0.0429357544164 0.0120220112366 0.928 2.07002948059e-38
0.044653184593 0.0120220112366 0.928 2.34874508267e-38
0.0464705514394 0.0120479207436 0.93 1.80367893615e-38
0.0483471400161 0.012086785004 0.933 2.10676367905e-38
0.0501811629741 0.012112694511 0.935 2.34583094239e-38
0.0519115479043 0.012112694511 0.935 2.22532473952e-38
0.0543877564995 0.0122811063063 0.948 2.34679741794e-38
0.0561422002575 0.0122811063063 0.948 2.17069147551e-38
0.0580798612435 0.0123199705668 0.951 2.34727021604e-38
0.0598398570387 0.0123199705668 0.951 2.23529750043e-38
0.00354960245563 0.0141984098225 0.959 1.91535835999e-38
0.00525222719973 0.0140059391993 0.946 1.141091913e-38
0.00700296959964 0.0140059391993 0.946 1.47303611752e-38
0.00875371199954 0.0140059391993 0.946 1.80471533649e-38
0.0104711421762 0.0139615229016 0.943 1.67456791993e-38
0.0121515587715 0.0138874957388 0.938 1.95147486609e-38
0.013813468576 0.013813468576 0.933 1.60070757982e-38
0.015540152148 0.013813468576 0.933 1.68397077276e-38
0.01726683572 0.013813468576 0.933 1.81199396098e-38
0.018993519292 0.013813468576 0.933 2.2272801114e-38
0.0206535784175 0.0137690522784 0.93 1.90480335957e-38
0.0223747099523 0.0137690522784 0.93 1.95893089496e-38
0.0240440224732 0.0137394414132 0.928 2.03232670462e-38
0.0257614526498 0.0137394414132 0.928 1.9297651095e-38
0.0274788828265 0.0137394414132 0.928 2.3467653282e-38
0.0291963130031 0.0137394414132 0.928 2.01472317293e-38
0.0309137431798 0.0137394414132 0.928 1.94128041976e-38
0.0326311733564 0.0137394414132 0.928 1.98705845838e-38
0.0343486035331 0.0137394414132 0.928 2.0596981274e-38
0.0360660337097 0.0137394414132 0.928 2.34528723858e-38
0.0377834638864 0.0137394414132 0.928 1.74846175107e-38
0.0395008940631 0.0137394414132 0.928 1.53745534935e-38
0.0413071568351 0.0137690522784 0.93 1.69318234834e-38
0.0430282883699 0.0137690522784 0.93 2.34923553714e-38
0.0447494199046 0.0137690522784 0.93 1.98832747427e-38
0.0467203931138 0.0138430794411 0.935 1.83929363727e-38
0.048450778044 0.0138430794411 0.935 2.18917039836e-38
0.0503421720532 0.0138874957388 0.938 2.26184818269e-38
0.0520781090205 0.0138874957388 0.938 2.34797997371e-38
0.0543877564995 0.0140355500644 0.948 2.22644437699e-38
0.0561422002575 0.0140355500644 0.948 1.84862432322e-38
0.0580798612435 0.0140799663621 0.951 2.19828626526e-38
0.0601544724806 0.0141539935248 0.956 2.27114411645e-38
0.0619237216712 0.0141539935248 0.956 2.34604968508e-38
0.00354960245563 0.0159732110503 0.959 1.79481880622e-38
0.00532440368344 0.0159732110503 0.959 1.92457399934e-38
0.00703998318103 0.0158399621573 0.951 1.27852650197e-38
0.00877221879024 0.0157899938224 0.948 1.72171096339e-38
0.0105266625483 0.0157899938224 0.948 1.38065341431e-38
0.0122551967994 0.0157566815992 0.946 1.70162180847e-38
0.0139171066039 0.0156567449294 0.94 1.45319275035e-38
0.0156234327062 0.0156234327062 0.938 1.68453563617e-38
0.0173593696735 0.0156234327062 0.938 2.02559724901e-38
0.0190342342316 0.0155734643713 0.935 1.89698607595e-38
0.0207646191617 0.0155734643713 0.935 1.00132976729e-38
0.022446886436 0.015540152148 0.933 1.86628166478e-38
0.024173570008 0.015540152148 0.933 2.21748069111e-38
0.0258169730219 0.0154901838131 0.93 2.34709281165e-38
0.0275381045567 0.0154901838131 0.93 2.18149927018e-38
0.0292592360915 0.0154901838131 0.93 2.34766468156e-38
0.0309803676263 0.0154901838131 0.93 1.89501276746e-38
0.0327014991611 0.0154901838131 0.93 2.16168939405e-38
0.0344226306959 0.0154901838131 0.93 2.26274109007e-38
0.0361437622307 0.0154901838131 0.93 1.99606278193e-38
0.0378648937655 0.0154901838131 0.93 1.68388991783e-38
0.0397137221561 0.015540152148 0.933 1.4070919927e-38
0.0414404057281 0.015540152148 0.933 2.34834655339e-38
0.0431670893001 0.015540152148 0.933 2.20087838716e-38
0.0451343611511 0.0156234327062 0.938 1.66495206974e-38
0.0468702981185 0.0156234327062 0.938 2.13428812362e-38
0.0487098731137 0.0156567449294 0.94 2.34572234176e-38
0.0506105205183 0.0157067132643 0.943 2.34691246454e-38
0.0525222719973 0.0157566815992 0.946 1.85916657183e-38
0.0543877564995 0.0157899938224 0.948 1.84080675935e-38
0.0564975306389 0.0158899304922 0.954 1.83151530975e-38
0.0582630784714 0.0158899304922 0.954 2.14350740634e-38
0.0601544724806 0.0159232427154 0.956 2.27189661372e-38
0.0619237216712 0.0159232427154 0.956 2.34673071613e-38
0.00354960245563 0.0177480122781 0.959 2.15401434223e-38
0.00532440368344 0.0177480122781 0.959 2.08941308172e-38
0.00707699676242 0.0176924919061 0.956 1.69185377727e-38
0.00882773916233 0.0176554783247 0.954 1.66466648511e-38
0.0105599747715 0.0175999579526 0.951 1.94211279105e-38
0.0122811063063 0.0175444375805 0.948 1.71923584991e-38
0.0139615229016 0.017451903627 0.943 1.68307071875e-38
0.0157067132643 0.017451903627 0.943 1.91441850911e-38
0.0173963832549 0.0173963832549 0.94 1.78563427569e-38
0.0190953066409 0.0173593696735 0.938 1.84113522371e-38
0.0208312436082 0.0173593696735 0.938 1.01022633098e-38
0.0224950040919 0.0173038493014 0.935 1.4510008393e-38
0.024225389022 0.0173038493014 0.935 1.40508309122e-38
0.0259557739521 0.0173038493014 0.935 1.43263374006e-38
0.0276861588823 0.0173038493014 0.935 1.89220694754e-38
0.0294165438124 0.0173038493014 0.935 2.24424296944e-38
0.0310803042961 0.01726683572 0.933 2.2442658106e-38
0.0328069878681 0.01726683572 0.933 2.1144764258e-38
0.0346076986028 0.0173038493014 0.935 2.1886663513e-38
0.036338083533 0.0173038493014 0.935 1.89486044631e-38
0.0380684684631 0.0173038493014 0.935 1.746811582e-38
0.0397988533933 0.0173038493014 0.935 2.34827732925e-38
0.0415292383234 0.0173038493014 0.935 2.34893187576e-38
0.0432596232536 0.0173038493014 0.935 1.19508114024e-38
0.0453749494302 0.017451903627 0.943 1.8573729098e-38
0.0471201397929 0.017451903627 0.943 2.34704712932e-38
0.0488653301556 0.017451903627 0.943 2.15217920176e-38
0.0507715295974 0.0175074239991 0.946 1.60012590083e-38
0.0525222719973 0.0175074239991 0.946 1.66657505362e-38
0.054559869653 0.0175999579526 0.951 1.7955281435e-38
0.0564975306389 0.0176554783247 0.954 1.95982912727e-38
0.05838522329 0.0176924919061 0.956 2.34673520029e-38
0.0601544724806 0.0176924919061 0.956 2.34550808322e-38
0.0621180429735 0.0177480122781 0.959 2.34662477797e-38
0.00353849838121 0.0194617410967 0.956 1.4440414306e-38
0.00530774757182 0.0194617410967 0.956 1.85712179711e-38
0.00707699676242 0.0194617410967 0.956 1.73705406053e-38
0.00884624595303 0.0194617410967 0.956 2.00456249789e-38
0.0105599747715 0.0193599537478 0.951 1.76514280799e-38
0.0122811063063 0.0192988813385 0.948 1.81931140143e-38
0.0140059391993 0.019258166399 0.946 1.88467244596e-38
0.0157067132643 0.0191970939897 0.943 1.99520224454e-38
0.017451903627 0.0191970939897 0.943 1.61810217792e-38
0.0191970939897 0.0191970939897 0.943 1.434005331e-38
0.0208756599059 0.0191360215804 0.94 2.08005703227e-38
0.0225671805756 0.0190953066409 0.938 1.62007226343e-38
0.0243031175429 0.0190953066409 0.938 1.24896274775e-38
0.0260390545103 0.0190953066409 0.938 1.83743229252e-38
0.0277749914776 0.0190953066409 0.938 2.34335148488e-38
0.029510928445 0.0190953066409 0.938 1.91986409507e-38
0.0312468654123 0.0190953066409 0.938 1.96527961778e-38
0.0329828023797 0.0190953066409 0.938 2.34493649358e-38
0.034718739347 0.0190953066409 0.938 2.22611647315e-38
0.0364546763144 0.0190953066409 0.938 2.3471606345e-38
0.0381906132817 0.0190953066409 0.938 2.34763189117e-38
0.0400116814863 0.0191360215804 0.94 2.34900152029e-38
0.0417513198118 0.0191360215804 0.94 1.72095720494e-38
0.0436297590675 0.0191970939897 0.943 1.71918918667e-38
0.0455193023976 0.019258166399 0.946 2.34701349816e-38
0.0472700447975 0.019258166399 0.946 1.94013429775e-38
0.0491244252253 0.0192988813385 0.948 1.84837222963e-38
0.0508788689834 0.0192988813385 0.948 1.80388815001e-38
0.0527998738577 0.0193599537478 0.951 1.69347227699e-38
0.0548467249088 0.0194617410967 0.956 1.95907985299e-38
0.0566159740994 0.0194617410967 0.956 2.34643910592e-38
0.0585684405179 0.019522813506 0.959 2.3451807399e-38
0.0603432417457 0.019522813506 0.959 2.3457244437e-38
0.0621180429735 0.019522813506 0.959 1.96865842864e-38
0.00532440368344 0.0212976147338 0.959 1.68263435441e-38
0.00709920491126 0.0212976147338 0.959 1.73716168025e-38
0.00887400613907 0.0212976147338 0.959 1.80126716136e-38
0.0105932869948 0.0211865739896 0.954 1.89292329132e-38
0.0123199705668 0.0211199495431 0.951 2.08671053751e-38
0.0140355500644 0.0210533250966 0.948 1.95785385696e-38
0.0157899938224 0.0210533250966 0.948 1.966355815e-38
0.0175074239991 0.0210089087989 0.946 2.21682684524e-38
0.019258166399 0.0210089087989 0.946 2.19932925171e-38
0.0210089087989 0.0210089087989 0.946 2.24599963719e-38
0.0226152982314 0.0208756599059 0.94 2.24618236651e-38
0.0243549365569 0.0208756599059 0.94 2.00582604872e-38
0.0260945748824 0.0208756599059 0.94 2.20786161793e-38
0.0278342132079 0.0208756599059 0.94 2.3466530842e-38
0.029510928445 0.0208312436082 0.938 2.34629715439e-38
0.0312468654123 0.0208312436082 0.938 2.34815751823e-38
0.0330531281843 0.0208756599059 0.94 2.34860411205e-38
0.0347927665098 0.0208756599059 0.94 2.34849537129e-38
0.0366489976167 0.0209422843524 0.943 2.34809726239e-38
0.0383941879794 0.0209422843524 0.943 2.34798922228e-38
0.0402670751979 0.0210089087989 0.946 2.3481719516e-38
