# .PCD v0.7 - Point Cloud Data file format
VERSION 0.7
FIELDS x y z rgb
SIZE 4 4 4 4
TYPE F F F F
COUNT 1 1 1 1
WIDTH 840
HEIGHT 1
VIEWPOINT 0 0 0 1 0 0 0
POINTS 840
DATA ascii
0.00324979244634 -0.0503717829183 0.878 1.43292072599e-38
0.00487468866951 -0.0503717829183 0.878 1.64500486636e-38
0.00649958489268 -0.0503717829183 0.878 1.65476140692e-38
0.00812448111586 -0.0503717829183 0.878 1.46108121993e-38
0.00974937733903 -0.0503717829183 0.878 1.52446923622e-38
0.0113742735622 -0.0503717829183 0.878 1.48773503776e-38
0.0130287806505 -0.0504865250206 0.88 2.3376950035e-38
0.0146573782318 -0.0504865250206 0.88 1.43565620072e-38
0.0162859758131 -0.0504865250206 0.88 2.13669975827e-38
0.0179145733944 -0.0504865250206 0.88 7.54307332569e-39
0.0195875872734 -0.0506012671229 0.882 7.25500419648e-39
0.0212198862128 -0.0506012671229 0.882 8.54070114269e-39
0.0229299136732 -0.0507733802764 0.885 1.91500116901e-38
0.0245677646499 -0.0507733802764 0.885 1.85968827525e-38
0.026324059087 -0.0510028644811 0.889 1.90535196792e-38
0.0279693127799 -0.0510028644811 0.889 1.76395899105e-38
0.0296811909194 -0.0511176065834 0.891 1.9868111292e-38
0.0314356346774 -0.0512897197369 0.894 1.84776911077e-38
0.0330901417657 -0.0512897197369 0.894 2.25371462602e-38
0.0349001058959 -0.0515192039415 0.898 1.49752941338e-38
0.0365620157004 -0.0515192039415 0.898 1.8657371202e-38
-0.0300143131519 -0.0500238552532 0.901 1.99873099433e-38
-0.0282524666776 -0.0498572941369 0.898 1.40849791544e-38
-0.0265313351428 -0.0497462533928 0.896 1.1496734648e-38
-0.0248731266964 -0.0497462533928 0.896 1.22213166566e-38
-0.02321491825 -0.0497462533928 0.896 1.41494823241e-38
-0.0215085921477 -0.0496352126486 0.894 1.41584842654e-38
-0.0198540850594 -0.0496352126486 0.894 1.10295865815e-38
-0.0181385055618 -0.0494686515323 0.891 5.97648189841e-39
-0.0164525369294 -0.0493576107881 0.889 8.64473354068e-39
-0.0148072832364 -0.0493576107881 0.889 1.27802343582e-38
-0.0131324186784 -0.0492465700439 0.887 1.88799282267e-38
-0.0114908663436 -0.0492465700439 0.887 1.74130545994e-38
-0.00982710585995 -0.0491355292998 0.885 7.90941198062e-39
-0.00816149469725 -0.0489689681835 0.882 1.24229466901e-38
-0.0065291957578 -0.0489689681835 0.882 5.23605821063e-39
-0.00488579274393 -0.0488579274393 0.88 9.36757934052e-39
-0.00325719516262 -0.0488579274393 0.88 1.1389753918e-38
-0.00162859758131 -0.0488579274393 0.88 1.15723501144e-38
0.0 -0.0488579274393 0.88 1.19404081626e-38
0.00162859758131 -0.0488579274393 0.88 1.3133196218e-38
0.00325719516262 -0.0488579274393 0.88 1.43302834571e-38
0.00488579274393 -0.0488579274393 0.88 1.59894362532e-38
0.00651439032524 -0.0488579274393 0.88 1.5809695903e-38
0.00814298790655 -0.0488579274393 0.88 1.34998179352e-38
0.00977158548786 -0.0488579274393 0.88 1.9122272987e-38
0.0114001830692 -0.0488579274393 0.88 1.24896274775e-38
0.0130287806505 -0.0488579274393 0.88 2.05267538001e-38
0.014690690455 -0.0489689681835 0.882 1.76820884903e-38
0.0163229893945 -0.0489689681835 0.882 1.90563460982e-38
0.0179552883339 -0.0489689681835 0.882 2.026251235e-38
0.0195875872734 -0.0489689681835 0.882 1.83328500958e-38
0.0212920626966 -0.0491355292998 0.885 1.94420675134e-38
0.0229299136732 -0.0491355292998 0.885 1.9249414198e-38
0.024623285022 -0.0492465700439 0.887 2.09906620646e-38
0.026324059087 -0.0493576107881 0.889 1.23116962037e-38
0.0279693127799 -0.0493576107881 0.889 2.20761148615e-38
0.0296811909194 -0.0494686515323 0.891 1.76486324895e-38
0.0314356346774 -0.0496352126486 0.894 1.96712134435e-38
0.0330901417657 -0.0496352126486 0.894 1.65321829705e-38
0.0349001058959 -0.0498572941369 0.898 1.77318247767e-38
0.0365620157004 -0.0498572941369 0.898 1.92141603312e-38
0.038223925505 -0.0498572941369 0.898 1.77429230605e-38
-0.0301808742682 -0.0486247418765 0.906 1.95267045394e-38
-0.0283468513102 -0.0483563934114 0.901 1.24269025556e-38
-0.026590556873 -0.0481953843324 0.898 1.47235144309e-38
-0.0249286470685 -0.0481953843324 0.898 1.25047811191e-38
-0.02321491825 -0.0480880449463 0.896 1.24006618406e-38
-0.0215567098035 -0.0480880449463 0.896 1.78556182856e-38
-0.0198540850594 -0.0479807055603 0.894 1.38949182411e-38
-0.0181995779711 -0.0479807055603 0.894 1.195045267e-38
-0.0164895505108 -0.0478196964812 0.891 7.34683969264e-39
-0.0148072832364 -0.0477123570952 0.889 1.86058973055e-38
-0.0131620295435 -0.0477123570952 0.889 1.57535528801e-38
-0.0114908663436 -0.0476050177091 0.887 8.09981901465e-39
-0.00984931400879 -0.0476050177091 0.887 1.25188179258e-38
-0.00818925488329 -0.0474976783231 0.885 6.79582671569e-39
-0.0065291957578 -0.047336669244 0.882 8.99987862348e-39
-0.00489689681835 -0.047336669244 0.882 1.01058520352e-38
-0.0032645978789 -0.047336669244 0.882 1.12071619255e-38
-0.00163229893945 -0.047336669244 0.882 1.17592496984e-38
0.0 -0.047229329858 0.88 1.17578147688e-38
0.00162859758131 -0.047229329858 0.88 1.26743858774e-38
0.00325719516262 -0.047229329858 0.88 1.32243184532e-38
0.00488579274393 -0.047229329858 0.88 1.70007561575e-38
0.00651439032524 -0.047229329858 0.88 1.49814276171e-38
0.00816149469725 -0.047336669244 0.882 1.73827823487e-38
0.0097937936367 -0.047336669244 0.882 1.51808520068e-38
0.0114260925761 -0.047336669244 0.882 1.18679442164e-38
0.0130583915156 -0.047336669244 0.882 1.1877271259e-38
0.014690690455 -0.047336669244 0.882 1.89809744577e-38
0.0163785097666 -0.0474976783231 0.885 2.02646409224e-38
0.0180163607432 -0.0474976783231 0.885 1.89667162458e-38
0.0196986280176 -0.0476050177091 0.887 1.96099178461e-38
0.0213401803524 -0.0476050177091 0.887 2.14566792831e-38
0.0229817326872 -0.0476050177091 0.887 1.64727048572e-38
0.024623285022 -0.0476050177091 0.887 1.47855148814e-38
0.0263832808172 -0.0478196964812 0.891 2.13184916364e-38
0.0280322358683 -0.0478196964812 0.891 1.57063921803e-38
0.0297811275891 -0.0479807055603 0.894 1.73569087739e-38
0.0314356346774 -0.0479807055603 0.894 1.68058971982e-38
0.0331641689285 -0.0480880449463 0.896 1.88327997567e-38
0.0349001058959 -0.0481953843324 0.898 1.87520877678e-38
0.0365620157004 -0.0481953843324 0.898 1.74656677516e-38
0.0383516223608 -0.0483563934114 0.901 1.91269659356e-38
-0.0284097743985 -0.0467925695976 0.903 1.24272654919e-38
-0.0266793894684 -0.0466889315697 0.901 1.23196051322e-38
-0.0250119276266 -0.0466889315697 0.901 1.85960489799e-38
-0.0232667372639 -0.0465334745278 0.898 1.51902855481e-38
-0.0216048274593 -0.0465334745278 0.898 1.01108728876e-38
-0.0198985013571 -0.0464298364999 0.896 9.36722060812e-39
-0.0181995779711 -0.046326198472 0.894 1.18467790044e-38
-0.0164895505108 -0.0461707414302 0.891 1.79536811522e-38
-0.0148405954597 -0.0461707414302 0.891 1.72279458749e-38
-0.0131620295435 -0.0460671034023 0.889 7.45194828785e-39
-0.0115167758506 -0.0460671034023 0.889 1.17830101152e-38
-0.00984931400879 -0.0459634653743 0.887 1.04861069851e-38
-0.00820776167399 -0.0459634653743 0.887 1.38861951582e-38
-0.00655140390664 -0.0458598273464 0.885 1.16670540685e-38
-0.00489689681835 -0.0457043703046 0.882 1.08365885466e-38
-0.0032645978789 -0.0457043703046 0.882 1.10216944686e-38
-0.00163229893945 -0.0457043703046 0.882 1.13901126504e-38
0.0 -0.0457043703046 0.882 1.08365885466e-38
0.00163229893945 -0.0457043703046 0.882 1.5805437357e-38
0.0032645978789 -0.0457043703046 0.882 1.60845059462e-38
0.00489689681835 -0.0457043703046 0.882 1.70093208937e-38
0.0065291957578 -0.0457043703046 0.882 1.69271963959e-38
0.00816149469725 -0.0457043703046 0.882 1.40824161796e-38
0.0097937936367 -0.0457043703046 0.882 1.41836347702e-38
0.0114260925761 -0.0457043703046 0.882 9.48490165315e-39
0.0130583915156 -0.0457043703046 0.882 7.18182278548e-39
0.0147406587899 -0.0458598273464 0.885 1.03931952918e-38
0.0163785097666 -0.0458598273464 0.885 1.47926951348e-38
0.0180163607432 -0.0458598273464 0.885 1.58169013797e-38
0.0196986280176 -0.0459634653743 0.887 1.47912545999e-38
0.0213401803524 -0.0459634653743 0.887 1.5703869843e-38
0.0230335517011 -0.0460671034023 0.889 1.58875408353e-38
0.0246788053941 -0.0460671034023 0.889 1.73569087739e-38
0.0263832808172 -0.0461707414302 0.891 1.8183440851e-38
0.0281266205009 -0.046326198472 0.894 1.60712118276e-38
0.0297811275891 -0.046326198472 0.894 1.59793763315e-38
0.0314356346774 -0.046326198472 0.894 1.6165222139e-38
0.0332381960913 -0.0465334745278 0.898 1.93895510509e-38
0.0349001058959 -0.0465334745278 0.898 1.69081499472e-38
0.036684160519 -0.0466889315697 0.901 1.76475198585e-38
0.0383516223608 -0.0466889315697 0.901 2.0510268925e-38
-0.026827443794 -0.0452713114023 0.906 1.25976171423e-38
-0.0250674479987 -0.0451214063976 0.903 1.3422733908e-38
-0.0233444657848 -0.0450214697279 0.901 1.8230551104e-38
-0.0216048274593 -0.0448715647232 0.898 1.58417660197e-38
-0.0199429176548 -0.0448715647232 0.898 1.59339840703e-38
-0.0182402929107 -0.0447716280535 0.896 1.54733618508e-38
-0.0165820844643 -0.0447716280535 0.896 1.80555401362e-38
-0.0148905637946 -0.0446716913837 0.894 6.6243582304e-39
-0.0131916404086 -0.0445217863791 0.891 1.35297104341e-38
-0.0115167758506 -0.0444218497093 0.889 9.74715185815e-39
-0.00987152215763 -0.0444218497093 0.889 1.37947590321e-38
-0.00820776167399 -0.0443219130396 0.887 1.73892563476e-38
-0.00656620933919 -0.0443219130396 0.887 1.64655358142e-38
-0.00492465700439 -0.0443219130396 0.887 1.24896274775e-38
-0.0032831046696 -0.0443219130396 0.887 1.25814629736e-38
-0.00163785097666 -0.0442219763698 0.885 9.82639808891e-39
0.0 -0.0442219763698 0.885 1.9775562535e-38
0.00163785097666 -0.0442219763698 0.885 1.90488729734e-38
0.00327570195332 -0.0442219763698 0.885 1.3958995416e-38
0.00491355292998 -0.0442219763698 0.885 1.77425881502e-38
0.00655140390664 -0.0442219763698 0.885 1.49892748885e-38
0.00818925488329 -0.0442219763698 0.885 1.42628445672e-38
0.00982710585995 -0.0442219763698 0.885 1.38018888387e-38
0.0114649568366 -0.0442219763698 0.885 9.47017680889e-39
0.0131028078133 -0.0442219763698 0.885 8.91127171899e-39
0.0147739710132 -0.0443219130396 0.887 1.5817588016e-38
0.016415523348 -0.0443219130396 0.887 1.91236770881e-38
0.0180977906223 -0.0444218497093 0.889 1.66376769228e-38
0.0197430443153 -0.0444218497093 0.889 1.59794071601e-38
0.0213882980082 -0.0444218497093 0.889 1.73569157804e-38
0.0230335517011 -0.0444218497093 0.889 1.78160862547e-38
0.0247343257662 -0.0445217863791 0.891 1.66222248046e-38
0.0264721134126 -0.0446716913837 0.894 1.67140603008e-38
0.0281266205009 -0.0446716913837 0.894 1.64385622201e-38
0.0298477520357 -0.0447716280535 0.896 1.52454140309e-38
0.0315059604821 -0.0447716280535 0.896 1.80083892455e-38
0.0332381960913 -0.0448715647232 0.898 1.7916190813e-38
0.0349001058959 -0.0448715647232 0.898 1.68188508012e-38
0.036684160519 -0.0450214697279 0.901 1.82028544399e-38
0.038436753598 -0.0451214063976 0.903 2.02308107749e-38
0.0403299982863 -0.0453712480721 0.908 2.34882327513e-38
-0.026827443794 -0.0435945961652 0.906 1.19515288672e-38
-0.0251507285568 -0.0435945961652 0.906 1.25926131055e-38
-0.0233962847988 -0.0434502431977 0.903 1.47087587581e-38
-0.0216770039431 -0.0433540078861 0.901 1.67580218362e-38
-0.0199429176548 -0.0432096549187 0.898 1.41840691728e-38
-0.0182402929107 -0.0431134196071 0.896 1.40904246003e-38
-0.0165820844643 -0.0431134196071 0.896 1.75023817713e-38
-0.0148905637946 -0.0430171842954 0.894 1.01235069945e-38
-0.0132360567063 -0.0430171842954 0.894 8.92167495879e-39
-0.0115426853575 -0.042872831328 0.891 1.37047115928e-38
-0.00987152215763 -0.0427765960164 0.889 1.35152434287e-38
-0.00822626846469 -0.0427765960164 0.889 1.36931747025e-38
-0.00658101477175 -0.0427765960164 0.889 1.55363544207e-38
-0.00493576107881 -0.0427765960164 0.889 1.38689535819e-38
-0.0032831046696 -0.0426803607048 0.887 1.3958995416e-38
-0.0016415523348 -0.0426803607048 0.887 1.34079936495e-38
0.0 -0.0426803607048 0.887 1.58097015082e-38
0.0016415523348 -0.0426803607048 0.887 1.56235137839e-38
0.0032831046696 -0.0426803607048 0.887 1.78470227208e-38
0.00492465700439 -0.0426803607048 0.887 1.5449887299e-38
0.00656620933919 -0.0426803607048 0.887 1.56242312487e-38
0.00820776167399 -0.0426803607048 0.887 1.93153060544e-38
0.00984931400879 -0.0426803607048 0.887 1.72937732716e-38
0.0114908663436 -0.0426803607048 0.887 1.63722079352e-38
0.0131324186784 -0.0426803607048 0.887 1.85009568661e-38
0.0148072832364 -0.0427765960164 0.889 1.71137554643e-38
0.0164525369294 -0.0427765960164 0.889 1.51528568661e-38
0.0180977906223 -0.0427765960164 0.889 1.64385538123e-38
0.0197430443153 -0.0427765960164 0.889 1.68058957969e-38
0.0213882980082 -0.0427765960164 0.889 1.68977312931e-38
0.0230335517011 -0.0427765960164 0.889 1.74487540791e-38
0.0247343257662 -0.042872831328 0.891 1.46018438891e-38
0.0264721134126 -0.0430171842954 0.894 1.63467183161e-38
0.0281895435892 -0.0431134196071 0.896 1.69895709931e-38
0.0298477520357 -0.0431134196071 0.896 1.76424934009e-38
0.0315762862867 -0.0432096549187 0.898 1.65400764847e-38
0.0333492368355 -0.0433540078861 0.901 1.64457522825e-38
0.0350166986772 -0.0433540078861 0.901 1.77372099667e-38
0.036684160519 -0.0433540078861 0.901 1.7371318326e-38
0.0385644504538 -0.0435945961652 0.906 1.95836084674e-38
0.0402411656909 -0.0435945961652 0.906 2.34875040761e-38
-0.0268866655242 -0.0420104148815 0.908 1.305785961e-38
-0.0251507285568 -0.041917880928 0.906 1.26840926719e-38
-0.0233962847988 -0.0417790799978 0.903 1.31446728524e-38
-0.0217251215989 -0.0417790799978 0.903 1.58219236334e-38
-0.0200095421013 -0.0416865460443 0.901 1.54704905903e-38
-0.0182810078502 -0.0415477451141 0.898 1.47354226652e-38
-0.0165820844643 -0.0414552111606 0.896 1.56591922441e-38
-0.0148905637946 -0.0413626772071 0.894 4.77544580022e-39
-0.0132360567063 -0.0413626772071 0.894 9.00023735589e-39
-0.0115426853575 -0.0412238762769 0.891 1.46191218992e-38
-0.00989373030646 -0.0412238762769 0.891 1.40619516168e-38
-0.00822626846469 -0.0411313423234 0.889 1.23977919813e-38
-0.00658101477175 -0.0411313423234 0.889 1.41437552172e-38
-0.00493576107881 -0.0411313423234 0.889 1.3958995416e-38
-0.00329050738588 -0.0411313423234 0.889 1.38671599199e-38
-0.00164525369294 -0.0411313423234 0.889 1.44181728968e-38
0.0 -0.0411313423234 0.889 1.58875478418e-38
0.00164525369294 -0.0411313423234 0.889 2.28169967739e-38
0.00329050738588 -0.0411313423234 0.889 1.95148929946e-38
0.00493576107881 -0.0411313423234 0.889 1.86844064533e-38
0.00658101477175 -0.0411313423234 0.889 1.47855148814e-38
0.00820776167399 -0.04103880837 0.887 1.63467519473e-38
0.00984931400879 -0.04103880837 0.887 1.70024965702e-38
0.0114908663436 -0.04103880837 0.887 1.73791501831e-38
0.0131324186784 -0.04103880837 0.887 1.78440940071e-38
0.0148072832364 -0.0411313423234 0.889 1.59079885825e-38
0.0164525369294 -0.0411313423234 0.889 1.41426664083e-38
0.0180977906223 -0.0411313423234 0.889 1.56120343469e-38
0.0197430443153 -0.0411313423234 0.889 1.67140603008e-38
0.021436415664 -0.0412238762769 0.891 1.76324152623e-38
0.0230853707151 -0.0412238762769 0.891 1.63467183161e-38
0.0248176063243 -0.0413626772071 0.894 1.68058957969e-38
0.0265313351428 -0.0414552111606 0.896 1.78204050565e-38
0.0281895435892 -0.0414552111606 0.896 1.625488282e-38
0.0299143764822 -0.0415477451141 0.898 1.55216337803e-38
0.0315762862867 -0.0415477451141 0.898 1.589078344e-38
0.0334232639983 -0.0417790799978 0.903 1.76442954707e-38
0.0352110199796 -0.041917880928 0.906 1.70021686663e-38
0.0368877352167 -0.041917880928 0.906 1.78355040475e-38
0.0385644504538 -0.041917880928 0.906 1.9956016146e-38
0.0402411656909 -0.041917880928 0.906 2.34893103498e-38
-0.0268866655242 -0.0403299982863 0.908 1.10288691167e-38
-0.0251507285568 -0.0402411656909 0.906 1.35124086019e-38
-0.0234740133197 -0.0402411656909 0.906 1.443687883e-38
-0.0217251215989 -0.0401079167979 0.903 1.35192063008e-38
-0.0200095421013 -0.0400190842026 0.901 1.64744676906e-38
-0.0182810078502 -0.0398858353096 0.898 1.62087562784e-38
-0.0166190980456 -0.0398858353096 0.898 6.53325421204e-39
-0.0149238760178 -0.0397970027142 0.896 7.07133320417e-39
-0.0132656675714 -0.0397970027142 0.896 1.37068219483e-38
-0.011581549618 -0.0397081701189 0.894 1.41595352392e-38
-0.00992704252972 -0.0397081701189 0.894 1.29563383388e-38
-0.00824477525538 -0.0395749212258 0.891 1.47998823946e-38
-0.00659582020431 -0.0395749212258 0.891 1.48927870815e-38
-0.00494686515323 -0.0395749212258 0.891 1.47987879805e-38
-0.00329791010215 -0.0395749212258 0.891 1.36921055118e-38
-0.00164895505108 -0.0395749212258 0.891 1.4513595717e-38
0.0 -0.0394860886305 0.889 1.44181728968e-38
0.00164525369294 -0.0394860886305 0.889 1.49699033386e-38
0.00329050738588 -0.0394860886305 0.889 1.44181728968e-38
0.00493576107881 -0.0394860886305 0.889 1.37753244237e-38
0.00658101477175 -0.0394860886305 0.889 1.48773503776e-38
0.00822626846469 -0.0394860886305 0.889 1.47855148814e-38
0.00987152215763 -0.0394860886305 0.889 1.47855148814e-38
0.0115167758506 -0.0394860886305 0.889 1.42345019045e-38
0.0131620295435 -0.0394860886305 0.889 1.44181728968e-38
0.0148072832364 -0.0394860886305 0.889 1.43263374006e-38
0.0164525369294 -0.0394860886305 0.889 1.48773503776e-38
0.0181385055618 -0.0395749212258 0.891 1.50610213699e-38
0.0197874606129 -0.0395749212258 0.891 1.68058957969e-38
0.021436415664 -0.0395749212258 0.891 1.88291647885e-38
0.023163099236 -0.0397081701189 0.894 1.74487568817e-38
0.0248731266964 -0.0397970027142 0.896 1.66222248046e-38
0.026590556873 -0.0398858353096 0.898 1.6622583537e-38
0.0282524666776 -0.0398858353096 0.898 1.51535743309e-38
0.0300143131519 -0.0400190842026 0.901 1.55263001042e-38
0.0316817749937 -0.0400190842026 0.901 1.75520970383e-38
0.0335343047424 -0.0402411656909 0.906 1.58936504966e-38
0.0352110199796 -0.0402411656909 0.906 1.68199480179e-38
0.0368877352167 -0.0402411656909 0.906 1.84801700047e-38
0.0385644504538 -0.0402411656909 0.906 2.04155551618e-38
0.0402411656909 -0.0402411656909 0.906 2.34889319992e-38
-0.0269458872544 -0.0387347129282 0.91 1.26004757912e-38
-0.0252062489289 -0.038649581691 0.908 1.16738882012e-38
-0.0235258323337 -0.038649581691 0.908 1.2683351385e-38
-0.0218454157384 -0.038649581691 0.908 1.47109097512e-38
-0.020053958399 -0.038436753598 0.903 1.60995699047e-38
-0.018382795199 -0.038436753598 0.903 7.34721103673e-39
-0.0166190980456 -0.038223925505 0.898 8.55543999994e-39
-0.0149571882411 -0.038223925505 0.898 7.71741026893e-39
-0.0132656675714 -0.0381387942678 0.896 1.73964996594e-38
-0.011607459125 -0.0381387942678 0.896 1.76697234326e-38
-0.00992704252972 -0.0380536630306 0.894 1.4627327903e-38
-0.00827253544143 -0.0380536630306 0.894 1.49103789824e-38
-0.00659582020431 -0.0379259661748 0.891 1.7497614554e-38
-0.00494686515323 -0.0379259661748 0.891 1.67532952565e-38
-0.00329791010215 -0.0379259661748 0.891 1.74807064867e-38
-0.00164895505108 -0.0379259661748 0.891 1.53502003275e-38
0.0 -0.0379259661748 0.891 1.78362046967e-38
0.00164895505108 -0.0379259661748 0.891 1.53480072954e-38
0.00329791010215 -0.0379259661748 0.891 1.39629414725e-38
0.00494686515323 -0.0379259661748 0.891 1.5705315983e-38
0.00659582020431 -0.0379259661748 0.891 1.44181728968e-38
0.00824477525538 -0.0379259661748 0.891 1.37753244237e-38
0.00987152215763 -0.0378408349376 0.889 1.32243114468e-38
0.0115167758506 -0.0378408349376 0.889 1.34079992546e-38
0.0131620295435 -0.0378408349376 0.889 1.36842176027e-38
0.0148072832364 -0.0378408349376 0.889 1.34083411715e-38
0.0164895505108 -0.0379259661748 0.891 1.35916534314e-38
0.0181385055618 -0.0379259661748 0.891 1.46936793853e-38
0.0198540850594 -0.0380536630306 0.894 1.7173244788e-38
0.0215085921477 -0.0380536630306 0.894 1.61630473238e-38
0.023163099236 -0.0380536630306 0.894 1.60712426562e-38
0.0248731266964 -0.0381387942678 0.896 1.4510008393e-38
0.0266793894684 -0.0383516223608 0.901 1.56167132824e-38
0.0283468513102 -0.0383516223608 0.901 1.56152727476e-38
0.0300809375984 -0.038436753598 0.903 1.58043261273e-38
0.0317521007983 -0.038436753598 0.903 1.57114088288e-38
0.0335343047424 -0.0385644504538 0.906 1.76471821456e-38
0.0352887485005 -0.038649581691 0.908 1.67302523045e-38
0.0369691650957 -0.038649581691 0.908 1.79277417163e-38
0.0385644504538 -0.0385644504538 0.906 2.02300526724e-38
0.0402411656909 -0.0385644504538 0.906 2.34925459479e-38
-0.0270347198498 -0.0371727397934 0.913 1.21427500556e-38
-0.025261769301 -0.0370505949748 0.91 1.20458754902e-38
-0.0235776513476 -0.0370505949748 0.91 1.25004020614e-38
-0.0218454157384 -0.0369691650957 0.908 1.35073513158e-38
-0.0201649991431 -0.0369691650957 0.908 1.53512414923e-38
-0.0184438676083 -0.0368877352167 0.906 7.25500419648e-39
-0.0167116319991 -0.0367655903981 0.903 8.82487886606e-39
-0.0149571882411 -0.0365620157004 0.898 8.45388790023e-39
-0.0132952784365 -0.0365620157004 0.898 1.0654352484e-38
-0.011607459125 -0.0364805858214 0.896 1.24896274775e-38
-0.00994925067855 -0.0364805858214 0.896 1.58943763692e-38
-0.00829104223213 -0.0364805858214 0.896 5.87747175411e-39
-0.00661802835314 -0.0363991559423 0.894 7.63456270113e-39
-0.00496352126486 -0.0363991559423 0.894 1.16702826602e-38
-0.00330901417657 -0.0363991559423 0.894 1.29502398879e-38
-0.00165450708829 -0.0363991559423 0.894 1.37753244237e-38
0.0 -0.0362770111237 0.891 1.70864581702e-38
0.00164895505108 -0.0362770111237 0.891 1.9038710757e-38
0.00329791010215 -0.0362770111237 0.891 1.77551998364e-38
0.00494686515323 -0.0362770111237 0.891 1.90436881691e-38
0.00659582020431 -0.0362770111237 0.891 1.39654525993e-38
0.00827253544143 -0.0363991559423 0.894 1.57045873078e-38
0.00989373030646 -0.0362770111237 0.891 1.33161469429e-38
0.0115426853575 -0.0362770111237 0.891 1.30406558687e-38
0.0131916404086 -0.0362770111237 0.891 1.33190168022e-38
0.0148905637946 -0.0363991559423 0.894 1.33222453938e-38
0.0165450708829 -0.0363991559423 0.894 1.34119284955e-38
0.0181995779711 -0.0363991559423 0.894 1.38682361171e-38
0.0198985013571 -0.0364805858214 0.896 1.7546682421e-38
0.0215567098035 -0.0364805858214 0.896 1.42345019045e-38
0.02321491825 -0.0364805858214 0.896 1.43306421895e-38
0.0249286470685 -0.0365620157004 0.898 1.36834889275e-38
0.0266793894684 -0.036684160519 0.901 1.56177740654e-38
0.0283468513102 -0.036684160519 0.901 1.59822461907e-38
0.0300809375984 -0.0367655903981 0.903 1.54308800866e-38
0.0317521007983 -0.0367655903981 0.903 1.60787494121e-38
0.0335343047424 -0.0368877352167 0.906 1.71854879327e-38
0.0352887485005 -0.0369691650957 0.908 1.70965096841e-38
0.0369691650957 -0.0369691650957 0.908 1.71868948364e-38
0.038649581691 -0.0369691650957 0.908 2.3465498085e-38
0.0403299982863 -0.0369691650957 0.908 2.34925431454e-38
-0.0287873129287 -0.0355607983237 0.915 1.30776977923e-38
-0.02709394158 -0.0355607983237 0.915 9.37907419182e-39
-0.0254005702312 -0.0355607983237 0.915 1.27784561105e-38
-0.0237071988825 -0.0355607983237 0.915 1.30535604263e-38
-0.0219657098779 -0.0354830698028 0.913 1.32343559541e-38
-0.0202094154408 -0.0353664770214 0.91 1.46129758041e-38
-0.0184845825479 -0.0352887485005 0.908 1.39795202346e-38
-0.0167671523712 -0.0352110199796 0.906 5.42044666776e-39
-0.015007156576 -0.0350166986772 0.901 9.18677820746e-39
-0.0133396947342 -0.0350166986772 0.901 1.13076196111e-38
-0.011633368632 -0.0349001058959 0.898 1.02949026123e-38
-0.00997145882739 -0.0349001058959 0.898 1.07551717046e-38
-0.00830954902282 -0.0349001058959 0.898 7.90574478254e-39
-0.0066328337857 -0.0348223773749 0.896 6.53217801482e-39
-0.00497462533928 -0.0348223773749 0.896 1.27038776049e-38
-0.00331641689285 -0.0348223773749 0.896 1.46414305707e-38
-0.00165820844643 -0.0348223773749 0.896 1.159495446e-38
0.0 -0.0348223773749 0.896 1.1389406396e-38
0.00165820844643 -0.0348223773749 0.896 1.67395303016e-38
0.00330901417657 -0.034744648854 0.894 1.63657311337e-38
0.00496352126486 -0.034744648854 0.894 1.35030465269e-38
0.00661802835314 -0.034744648854 0.894 1.56120343469e-38
0.00827253544143 -0.034744648854 0.894 1.80040732462e-38
0.00992704252972 -0.034744648854 0.894 1.65429631596e-38
0.011581549618 -0.034744648854 0.894 1.42345103123e-38
0.0132360567063 -0.034744648854 0.894 1.40508533329e-38
0.0149238760178 -0.0348223773749 0.896 1.37771335e-38
0.0165820844643 -0.0348223773749 0.896 1.18496488636e-38
0.0182402929107 -0.0348223773749 0.896 1.36863671946e-38
0.0199429176548 -0.0349001058959 0.898 1.70896797554e-38
0.0216048274593 -0.0349001058959 0.898 1.46018438891e-38
0.0232667372639 -0.0349001058959 0.898 1.48791440396e-38
0.0250119276266 -0.0350166986772 0.901 1.52446923622e-38
0.0267386111986 -0.0350944271982 0.903 1.51528568661e-38
0.0284097743985 -0.0350944271982 0.903 1.59829636556e-38
0.0300809375984 -0.0350944271982 0.903 1.57971402688e-38
0.0318575895053 -0.0352110199796 0.906 1.66297707968e-38
0.0336083319052 -0.0352887485005 0.908 1.76403452103e-38
0.0352887485005 -0.0352887485005 0.908 1.7001430182e-38
0.0369691650957 -0.0352887485005 0.908 1.66222248046e-38
0.038649581691 -0.0352887485005 0.908 2.34828447587e-38
0.0403299982863 -0.0352887485005 0.908 2.34911222287e-38
-0.0287873129287 -0.033867426975 0.915 1.22486405754e-38
-0.02709394158 -0.033867426975 0.915 1.16897228738e-38
-0.0254005702312 -0.033867426975 0.915 1.12150932748e-38
-0.0237071988825 -0.033867426975 0.915 1.21283839438e-38
-0.0219657098779 -0.0337933998122 0.913 1.21280294153e-38
-0.0202094154408 -0.033682359068 0.91 1.51700970411e-38
-0.0184845825479 -0.0336083319052 0.908 1.48261945759e-38
-0.0167671523712 -0.0335343047424 0.906 4.77544580022e-39
-0.0150404687992 -0.0334232639983 0.903 1.18586662193e-38
-0.0133693055993 -0.0334232639983 0.903 1.195045267e-38
-0.0116722328924 -0.0333492368355 0.901 1.1126099612e-38
-0.0100047710506 -0.0333492368355 0.901 1.24311737133e-38
-0.00830954902282 -0.0332381960913 0.898 7.91903609847e-39
-0.00664763921826 -0.0332381960913 0.898 9.12047296802e-39
-0.00498572941369 -0.0332381960913 0.898 1.23436444074e-38
-0.00332381960913 -0.0332381960913 0.898 5.06314919052e-39
-0.00166190980456 -0.0332381960913 0.898 6.25701624577e-39
0.0 -0.0331641689285 0.896 1.41635191308e-38
0.00165820844643 -0.0331641689285 0.896 1.77634871155e-38
0.00331641689285 -0.0331641689285 0.896 1.77552474805e-38
0.00497462533928 -0.0331641689285 0.896 1.43281310627e-38
0.0066328337857 -0.0331641689285 0.896 1.92148203428e-38
0.00829104223213 -0.0331641689285 0.896 1.91369880222e-38
0.00994925067855 -0.0331641689285 0.896 1.88629346802e-38
0.011607459125 -0.0331641689285 0.896 1.89533324441e-38
0.0132656675714 -0.0331641689285 0.896 1.39693986558e-38
0.0149238760178 -0.0331641689285 0.896 1.50610213699e-38
0.0165820844643 -0.0331641689285 0.896 1.23059592878e-38
0.0182810078502 -0.0332381960913 0.898 1.04703227592e-38
0.0199429176548 -0.0332381960913 0.898 1.66322749172e-38
0.0216048274593 -0.0332381960913 0.898 1.56120343469e-38
0.0233444657848 -0.0333492368355 0.901 1.42345019045e-38
0.0250674479987 -0.0334232639983 0.903 1.59822503946e-38
0.0267386111986 -0.0334232639983 0.903 1.53365278584e-38
0.0285041590311 -0.0335343047424 0.906 1.58007275929e-38
0.0301808742682 -0.0335343047424 0.906 1.63506657739e-38
0.0318575895053 -0.0335343047424 0.906 1.77303758341e-38
0.0336083319052 -0.0336083319052 0.908 1.82860677466e-38
0.0352887485005 -0.0336083319052 0.908 1.64507521154e-38
0.0369691650957 -0.0336083319052 0.908 2.27193262709e-38
0.038649581691 -0.0336083319052 0.908 2.26548567325e-38
0.0403299982863 -0.0336083319052 0.908 2.3491137643e-38
-0.0288816975613 -0.0322795443332 0.918 1.15110979573e-38
-0.0271827741753 -0.0322795443332 0.918 7.82004276976e-39
-0.0254005702312 -0.0321740556262 0.915 1.34407195738e-38
-0.0237071988825 -0.0321740556262 0.915 1.4179694319e-38
-0.0220138275337 -0.0321740556262 0.915 1.60239726551e-38
-0.0202760398873 -0.0321037298216 0.913 1.33525092368e-38
-0.0184845825479 -0.03192791531 0.908 4.13331479192e-39
-0.0168041659526 -0.03192791531 0.908 7.98969797483e-39
-0.0150904371341 -0.0318575895053 0.906 1.32347623307e-38
-0.013413721897 -0.0318575895053 0.906 1.27780483326e-38
-0.0116981423994 -0.0317521007983 0.903 1.55474793292e-38
-0.0100047710506 -0.0316817749937 0.901 9.66102244934e-39
-0.00833730920887 -0.0316817749937 0.901 8.28817314644e-39
-0.00666984736709 -0.0316817749937 0.901 6.26418528871e-39
-0.00500238552532 -0.0316817749937 0.901 4.22766141493e-39
-0.00332381960913 -0.0315762862867 0.898 1.03125141314e-38
-0.00166190980456 -0.0315762862867 0.898 1.0498369748e-38
0.0 -0.0315762862867 0.898 9.74137850848e-39
0.00165820844643 -0.0315059604821 0.896 1.47880260083e-38
0.00331641689285 -0.0315059604821 0.896 1.51528568661e-38
0.00497462533928 -0.0315059604821 0.896 1.89339384734e-38
0.0066328337857 -0.0315059604821 0.896 1.83904280484e-38
0.00829104223213 -0.0315059604821 0.896 1.78476659168e-38
0.00994925067855 -0.0315059604821 0.896 1.84015683712e-38
0.011607459125 -0.0315059604821 0.896 1.90469770166e-38
0.0132656675714 -0.0315059604821 0.896 1.53530295491e-38
0.0149238760178 -0.0315059604821 0.896 1.98486864927e-38
0.0165820844643 -0.0315059604821 0.896 9.73456259275e-39
0.0182810078502 -0.0315762862867 0.898 6.79582671569e-39
0.0199429176548 -0.0315762862867 0.898 1.60862912004e-38
0.0216770039431 -0.0316817749937 0.901 1.53365278584e-38
0.0233444657848 -0.0316817749937 0.901 1.35916534314e-38
0.0250674479987 -0.0317521007983 0.903 1.44224776857e-38
0.026827443794 -0.0318575895053 0.906 1.56145454737e-38
0.0285041590311 -0.0318575895053 0.906 1.52489971511e-38
0.0301808742682 -0.0318575895053 0.906 1.67226726811e-38
0.03192791531 -0.03192791531 0.908 1.74530644732e-38
0.033682359068 -0.0319982411146 0.91 1.76407263635e-38
0.0353664770214 -0.0319982411146 0.91 1.59800937963e-38
0.0369691650957 -0.03192791531 0.908 2.14516780489e-38
0.038649581691 -0.03192791531 0.908 2.30247280608e-38
-0.0271827741753 -0.0305806209472 0.918 7.35978769045e-39
-0.0254005702312 -0.0304806842775 0.915 6.33884647089e-39
-0.0237071988825 -0.0304806842775 0.915 5.96930725027e-39
-0.0220860040175 -0.0305806209472 0.918 6.3366492349e-39
-0.020320456185 -0.0304806842775 0.915 4.49993931174e-39
-0.0185252974874 -0.0303141231612 0.91 7.25715659092e-39
-0.016841179534 -0.0303141231612 0.91 8.99987862348e-39
-0.0151237493574 -0.0302474987147 0.908 1.19425773726e-38
-0.0134433327621 -0.0302474987147 0.908 1.22187845103e-38
-0.0117370066599 -0.0301808742682 0.906 1.52691422178e-38
-0.0100269791995 -0.0300809375984 0.903 1.46460576583e-38
-0.00835581599956 -0.0300809375984 0.903 1.08689052918e-38
-0.00666984736709 -0.0300143131519 0.901 1.10464638202e-38
-0.00500238552532 -0.0300143131519 0.901 7.72207379022e-39
-0.00333492368355 -0.0300143131519 0.901 1.40889756577e-38
-0.00166746184177 -0.0300143131519 0.901 6.90237024053e-39
0.0 -0.0299143764822 0.898 9.92827809246e-39
0.00166190980456 -0.0299143764822 0.898 1.25814629736e-38
0.00332381960913 -0.0299143764822 0.898 1.40508407213e-38
0.00498572941369 -0.0299143764822 0.898 1.53365278584e-38
0.00664763921826 -0.0299143764822 0.898 1.80988304497e-38
0.00830954902282 -0.0299143764822 0.898 1.78415576568e-38
0.00994925067855 -0.0298477520357 0.896 1.76600979135e-38
0.011607459125 -0.0298477520357 0.896 1.83054449018e-38
0.0132656675714 -0.0298477520357 0.896 1.49824589728e-38
0.0149238760178 -0.0298477520357 0.896 2.01252761849e-38
0.0166190980456 -0.0299143764822 0.898 1.18467790044e-38
0.0182810078502 -0.0299143764822 0.898 8.55218057971e-39
0.0199429176548 -0.0299143764822 0.898 1.59051341376e-38
0.0216770039431 -0.0300143131519 0.901 1.4510008393e-38
0.0233962847988 -0.0300809375984 0.903 1.4604355016e-38
0.0251507285568 -0.0301808742682 0.906 1.48787853072e-38
0.026827443794 -0.0301808742682 0.906 1.61691457747e-38
0.0285041590311 -0.0301808742682 0.906 1.51550092605e-38
0.0302474987147 -0.0302474987147 0.908 1.65372220398e-38
0.0319982411146 -0.0303141231612 0.91 1.65354521998e-38
0.033682359068 -0.0303141231612 0.91 1.38671655251e-38
0.0353664770214 -0.0303141231612 0.91 2.34767196831e-38
0.0370505949748 -0.0303141231612 0.91 1.84214513951e-38
0.0387347129282 -0.0303141231612 0.91 2.10907862411e-38
-0.0271827741753 -0.0288816975613 0.918 1.0031298753e-38
-0.0254005702312 -0.0287873129287 0.915 1.01152323271e-38
-0.0237071988825 -0.0287873129287 0.915 8.08763192191e-39
-0.0220860040175 -0.0288816975613 0.918 8.91738838678e-39
-0.0203870806315 -0.0288816975613 0.918 6.15728303147e-39
-0.0185863698967 -0.0287243898404 0.913 7.8157141588e-39
-0.016841179534 -0.0286300052078 0.91 9.92253977524e-39
-0.0151570615806 -0.0286300052078 0.91 1.17592496984e-38
-0.0134433327621 -0.0285670821194 0.908 1.17570959027e-38
-0.0117629161668 -0.0285670821194 0.908 1.17581720999e-38
-0.0100602914227 -0.0285041590311 0.906 1.04724751537e-38
-0.00838357618561 -0.0285041590311 0.906 9.82675682131e-39
-0.00670686094849 -0.0285041590311 0.906 1.36910545379e-38
-0.00503014571137 -0.0285041590311 0.906 1.27701562197e-38
-0.00334232639983 -0.0284097743985 0.903 1.12957660274e-38
-0.00167116319991 -0.0284097743985 0.903 1.27698241119e-38
0.0 -0.0284097743985 0.903 1.08366011583e-38
0.00166746184177 -0.0283468513102 0.901 1.25814629736e-38
0.00333492368355 -0.0283468513102 0.901 1.31324801545e-38
0.00500238552532 -0.0283468513102 0.901 1.46936891944e-38
0.00666984736709 -0.0283468513102 0.901 1.49691858738e-38
0.00833730920887 -0.0283468513102 0.901 1.52447161843e-38
0.0100047710506 -0.0283468513102 0.901 1.83757298288e-38
0.0116722328924 -0.0283468513102 0.901 1.74648872283e-38
0.0133396947342 -0.0283468513102 0.901 1.61669933803e-38
0.015007156576 -0.0283468513102 0.901 2.10536812591e-38
0.0166746184177 -0.0283468513102 0.901 1.50699896801e-38
0.0183420802595 -0.0283468513102 0.901 8.54536466398e-39
0.0200095421013 -0.0283468513102 0.901 1.71966016308e-38
0.0216770039431 -0.0283468513102 0.901 1.35916534314e-38
0.0233962847988 -0.0284097743985 0.903 1.62602652074e-38
0.0251507285568 -0.0285041590311 0.906 1.51528568661e-38
0.0268866655242 -0.0285670821194 0.908 1.62595463413e-38
0.0285670821194 -0.0285670821194 0.908 1.60712118276e-38
0.0303141231612 -0.0286300052078 0.91 1.45103671254e-38
0.0321037298216 -0.0287243898404 0.913 1.52446965661e-38
0.0337933998122 -0.0287243898404 0.913 1.9971838207e-38
0.0354830698028 -0.0287243898404 0.913 2.17365662306e-38
0.0370505949748 -0.0286300052078 0.91 1.9340492993e-38
0.0387347129282 -0.0286300052078 0.91 1.74912554615e-38
-0.0272419959056 -0.0272419959056 0.92 1.01249110956e-38
-0.0255393711615 -0.0272419959056 0.92 1.07605765127e-38
-0.0238367464174 -0.0272419959056 0.92 1.00197716718e-38
-0.0220860040175 -0.0271827741753 0.918 9.4708942737e-39
-0.0203870806315 -0.0271827741753 0.918 5.97755809563e-39
-0.0186270848362 -0.02709394158 0.915 1.03957372472e-38
-0.0169337134875 -0.02709394158 0.915 1.24193159257e-38
-0.0152070299155 -0.0270347198498 0.913 1.2506846633e-38
-0.0134729436272 -0.0269458872544 0.91 1.3236867081e-38
-0.0117629161668 -0.0268866655242 0.908 1.14794370197e-38
-0.0100824995716 -0.0268866655242 0.908 1.18467790044e-38
-0.00838357618561 -0.026827443794 0.906 1.2214120989e-38
-0.00670686094849 -0.026827443794 0.906 1.31324759506e-38
-0.00503014571137 -0.026827443794 0.906 1.45118118641e-38
-0.00335343047424 -0.026827443794 0.906 1.47012127658e-38
-0.00167671523712 -0.026827443794 0.906 1.81149776119e-38
0.0 -0.026827443794 0.906 1.54495313691e-38
0.00167116319991 -0.0267386111986 0.903 1.27676450928e-38
0.00334232639983 -0.0267386111986 0.903 1.30406404544e-38
0.00501348959974 -0.0267386111986 0.903 1.39597128808e-38
0.00668465279965 -0.0267386111986 0.903 1.55223512451e-38
0.00835581599956 -0.0267386111986 0.903 1.46018915333e-38
0.0100269791995 -0.0267386111986 0.903 1.5703869843e-38
0.0116981423994 -0.0267386111986 0.903 1.63467183161e-38
0.0133396947342 -0.0266793894684 0.901 1.68977312931e-38
0.015007156576 -0.0266793894684 0.901 2.04111789067e-38
0.0167116319991 -0.0267386111986 0.903 1.60884309832e-38
0.018382795199 -0.0267386111986 0.903 1.10385548917e-38
0.020053958399 -0.0267386111986 0.903 1.49821408781e-38
0.0217972980826 -0.026827443794 0.906 1.41426664083e-38
0.0235258323337 -0.0268866655242 0.908 1.59840398528e-38
0.0252062489289 -0.0268866655242 0.908 1.46936793853e-38
0.0269458872544 -0.0269458872544 0.91 1.55241449072e-38
0.0287243898404 -0.0270347198498 0.913 1.51528568661e-38
0.0304806842775 -0.02709394158 0.915 1.77282094267e-38
0.0323498701378 -0.0272419959056 0.92 2.00690574918e-38
0.0340524948819 -0.0272419959056 0.92 1.56558977914e-38
0.035755119626 -0.0272419959056 0.92 2.21039040114e-38
0.0375798891887 -0.0273308285009 0.923 2.06294591685e-38
-0.0256226517196 -0.0256226517196 0.923 1.03896486053e-38
-0.0239144749383 -0.0256226517196 0.923 1.23196233491e-38
-0.0221341216733 -0.0255393711615 0.92 8.91881771122e-39
-0.0204314969292 -0.0255393711615 0.92 6.34992233396e-39
-0.0186881572455 -0.0254838507894 0.918 6.25557571095e-39
-0.0169337134875 -0.0254005702312 0.915 1.22374848383e-38
-0.0152403421387 -0.0254005702312 0.915 1.25129450839e-38
-0.0135173599249 -0.0253450498591 0.913 1.5083980244e-38
-0.0117888256738 -0.025261769301 0.91 1.30449452433e-38
-0.0100824995716 -0.0252062489289 0.908 1.34998221391e-38
-0.00840208297631 -0.0252062489289 0.908 1.23977919813e-38
-0.00670686094849 -0.0251507285568 0.906 1.23977919813e-38
-0.00503014571137 -0.0251507285568 0.906 1.32246701792e-38
-0.00335343047424 -0.0251507285568 0.906 1.33161469429e-38
-0.00167671523712 -0.0251507285568 0.906 1.45125195198e-38
0.0 -0.0251507285568 0.906 1.8205005433e-38
0.00167671523712 -0.0251507285568 0.906 1.83987713795e-38
0.00335343047424 -0.0251507285568 0.906 1.12968422247e-38
0.00503014571137 -0.0251507285568 0.906 1.31324829571e-38
0.00670686094849 -0.0251507285568 0.906 1.54326765512e-38
0.00838357618561 -0.0251507285568 0.906 1.46936793853e-38
0.0100602914227 -0.0251507285568 0.906 1.56120343469e-38
0.0117370066599 -0.0251507285568 0.906 1.63467183161e-38
0.013413721897 -0.0251507285568 0.906 1.7545250294e-38
0.0150904371341 -0.0251507285568 0.906 1.95832707545e-38
0.0167671523712 -0.0251507285568 0.906 1.41595268315e-38
0.0184438676083 -0.0251507285568 0.906 8.8334267867e-39
0.0201205828455 -0.0251507285568 0.906 1.48899452482e-38
0.0218454157384 -0.0252062489289 0.908 1.47855148814e-38
0.0235258323337 -0.0252062489289 0.908 1.57992926632e-38
0.025261769301 -0.025261769301 0.91 1.53394005202e-38
0.0270347198498 -0.0253450498591 0.913 1.29488049583e-38
0.0287873129287 -0.0254005702312 0.915 1.64414390858e-38
0.0305806209472 -0.0254838507894 0.918 2.34756883274e-38
0.0323498701378 -0.0255393711615 0.92 1.44570196928e-38
0.0340524948819 -0.0255393711615 0.92 1.52857279865e-38
0.035755119626 -0.0255393711615 0.92 2.15553769379e-38
0.0375798891887 -0.0256226517196 0.923 1.28803753504e-38
-0.0256226517196 -0.0239144749383 0.923 8.08622501825e-39
-0.0239144749383 -0.0239144749383 0.923 1.33337976984e-38
-0.022206298157 -0.0239144749383 0.923 9.00633580681e-39
-0.0204981213757 -0.0239144749383 0.923 9.38626145165e-39
-0.0186881572455 -0.0237849274034 0.918 4.59572086438e-39
-0.0169337134875 -0.0237071988825 0.915 8.27920623756e-39
-0.0152403421387 -0.0237071988825 0.915 1.04943578305e-38
-0.01354697079 -0.0237071988825 0.915 1.50933072865e-38
-0.0118276899343 -0.0236553798685 0.913 1.64611833812e-38
-0.0101047077204 -0.0235776513476 0.91 1.36917397729e-38
-0.00840208297631 -0.0235258323337 0.908 1.32243114468e-38
-0.00672166638105 -0.0235258323337 0.908 1.26732984698e-38
-0.00504124978578 -0.0235258323337 0.908 1.26732984698e-38
-0.00336083319052 -0.0235258323337 0.908 1.23059564852e-38
-0.00168041659526 -0.0235258323337 0.908 1.28569694621e-38
0.0 -0.0234740133197 0.906 1.46047137484e-38
0.00167671523712 -0.0234740133197 0.906 1.53498009574e-38
0.00335343047424 -0.0234740133197 0.906 1.61802664793e-38
0.00504124978578 -0.0235258323337 0.908 1.34079880443e-38
0.00672166638105 -0.0235258323337 0.908 1.36834889275e-38
0.00840208297631 -0.0235258323337 0.908 1.48773503776e-38
0.0100602914227 -0.0234740133197 0.906 1.49691858738e-38
0.0117370066599 -0.0234740133197 0.906 1.69953107116e-38
0.0134433327621 -0.0235258323337 0.908 1.58922057579e-38
0.0151237493574 -0.0235258323337 0.908 1.9953832923e-38
0.0168041659526 -0.0235258323337 0.908 1.02977724715e-38
0.0184845825479 -0.0235258323337 0.908 8.10555873316e-39
0.0201649991431 -0.0235258323337 0.908 1.48935003424e-38
0.0218454157384 -0.0235258323337 0.908 1.55201988507e-38
0.0236553798685 -0.0236553798685 0.913 1.38671599199e-38
0.0253450498591 -0.0236553798685 0.913 1.52461300945e-38
0.02709394158 -0.0237071988825 0.915 2.02476894149e-38
0.0287873129287 -0.0237071988825 0.915 1.43548243971e-38
0.0305806209472 -0.0237849274034 0.918 1.86958298383e-38
0.0323498701378 -0.0238367464174 0.92 1.38141712197e-38
0.0340524948819 -0.0238367464174 0.92 1.99902386571e-38
0.0358717124074 -0.0239144749383 0.923 1.57459396255e-38
0.0375798891887 -0.0239144749383 0.923 1.49053315053e-38
-0.0259557739521 -0.0224950040919 0.935 7.63133971466e-39
-0.0240440224732 -0.0223265922965 0.928 1.39892214239e-38
-0.0222544158128 -0.0222544158128 0.925 1.53728803431e-38
-0.0205425376733 -0.0222544158128 0.925 1.24160873341e-38
-0.0187899445944 -0.022206298157 0.923 1.21445283034e-38
-0.0169892338596 -0.0220860040175 0.918 9.47484733667e-39
-0.0152903104736 -0.0220860040175 0.918 3.3067953265e-39
-0.01354697079 -0.0220138275337 0.915 1.35181469191e-38
-0.0118276899343 -0.0219657098779 0.913 1.42345019045e-38
-0.0101047077204 -0.0218935333942 0.91 1.78365578239e-38
-0.008420589767 -0.0218935333942 0.91 1.44210833937e-38
-0.00672166638105 -0.0218454157384 0.908 1.43263472097e-38
-0.00504124978578 -0.0218454157384 0.908 1.38671599199e-38
-0.00336083319052 -0.0218454157384 0.908 1.24896274775e-38
-0.00168041659526 -0.0218454157384 0.908 1.28569694621e-38
0.0 -0.0218454157384 0.908 1.29488049583e-38
0.00168041659526 -0.0218454157384 0.908 1.40508351161e-38
0.00336083319052 -0.0218454157384 0.908 1.41426664083e-38
0.00504124978578 -0.0218454157384 0.908 1.40508309122e-38
0.00672166638105 -0.0218454157384 0.908 1.38671599199e-38
0.00840208297631 -0.0218454157384 0.908 1.41426664083e-38
0.0100824995716 -0.0218454157384 0.908 1.64446732827e-38
0.0117629161668 -0.0218454157384 0.908 1.53429850417e-38
0.0134433327621 -0.0218454157384 0.908 1.71861647599e-38
0.0151237493574 -0.0218454157384 0.908 1.7195522631e-38
0.0168041659526 -0.0218454157384 0.908 8.92562101526e-39
0.0184845825479 -0.0218454157384 0.908 8.29461771807e-39
0.0202094154408 -0.0218935333942 0.91 1.26801241946e-38
0.0218935333942 -0.0218935333942 0.91 1.54283633545e-38
0.0236553798685 -0.0219657098779 0.913 2.14437312853e-38
0.0254005702312 -0.0220138275337 0.915 2.22860644039e-38
0.02709394158 -0.0220138275337 0.915 1.80461990807e-38
0.0288816975613 -0.0220860040175 0.918 8.92138068611e-39
0.0306472453938 -0.0221341216733 0.92 1.77785622844e-38
0.0323498701378 -0.0221341216733 0.92 1.8145584773e-38
0.0341635356261 -0.022206298157 0.923 2.08167553199e-38
0.0358717124074 -0.022206298157 0.923 1.26022694532e-38
0.0375798891887 -0.022206298157 0.923 2.03466967566e-38
-0.0259557739521 -0.0207646191617 0.935 7.54632994332e-39
-0.0240958414871 -0.0206535784175 0.93 9.47130205155e-39
-0.0223747099523 -0.0206535784175 0.93 1.37986616483e-38
-0.0206091621199 -0.0206091621199 0.928 1.11142474296e-38
-0.0188306595339 -0.0205425376733 0.925 1.52547648956e-38
-0.0170817678131 -0.0204981213757 0.923 1.01019045774e-38
-0.0152903104736 -0.0203870806315 0.918 7.98968816575e-39
-0.01354697079 -0.020320456185 0.915 1.83934016038e-38
-0.0118535994412 -0.020320456185 0.915 1.35034052593e-38
-0.0101380199437 -0.0202760398873 0.913 1.47855148814e-38
-0.00844834995305 -0.0202760398873 0.913 1.54369729323e-38
-0.0067364718136 -0.0202094154408 0.91 1.58050323818e-38
-0.0050523538602 -0.0202094154408 0.91 1.44181981202e-38
-0.0033682359068 -0.0202094154408 0.91 1.42345019045e-38
-0.00168041659526 -0.0201649991431 0.908 1.42345019045e-38
0.0 -0.0201649991431 0.908 1.31331934154e-38
0.00168041659526 -0.0201649991431 0.908 1.38671627225e-38
0.00336083319052 -0.0201649991431 0.908 1.45107356669e-38
0.00504124978578 -0.0201649991431 0.908 1.44228392207e-38
0.00672166638105 -0.0201649991431 0.908 1.47916133324e-38
0.00840208297631 -0.0201649991431 0.908 1.4147688662e-38
0.0100824995716 -0.0201649991431 0.908 1.45150796921e-38
0.0117629161668 -0.0201649991431 0.908 1.5896877687e-38
0.0134729436272 -0.0202094154408 0.91 1.77440048629e-38
0.0151237493574 -0.0201649991431 0.908 1.24185984609e-38
0.0168041659526 -0.0201649991431 0.908 6.5454314957e-39
0.0185252974874 -0.0202094154408 0.91 7.92871206437e-39
0.0202094154408 -0.0202094154408 0.91 1.29502398879e-38
0.0219657098779 -0.0202760398873 0.913 2.34858000971e-38
0.0237071988825 -0.020320456185 0.915 2.33063722366e-38
0.0254838507894 -0.0203870806315 0.918 1.74977126449e-38
0.0271827741753 -0.0203870806315 0.918 1.72171796988e-38
0.0289446206497 -0.0204314969292 0.92 1.20534481071e-38
0.0306472453938 -0.0204314969292 0.92 2.18323239612e-38
0.0324553588448 -0.0204981213757 0.923 1.9061763518e-38
0.0341635356261 -0.0204981213757 0.923 1.29678177758e-38
0.0359494409284 -0.0205425376733 0.925 1.34345426502e-38
0.0376613190678 -0.0205425376733 0.925 2.3492531935e-38
-0.0259557739521 -0.0190342342316 0.935 1.25248967585e-38
-0.024173570008 -0.018993519292 0.933 6.99061841262e-39
-0.0223747099523 -0.0189324468827 0.93 8.54177733991e-39
-0.0206091621199 -0.0188917319432 0.928 1.23063152176e-38
-0.0188306595339 -0.0188306595339 0.925 1.40540637077e-38
-0.0171187813945 -0.0188306595339 0.925 1.59991290346e-38
-0.0153735910318 -0.0187899445944 0.923 1.4711974738e-38
-0.0135913870877 -0.0186881572455 0.918 1.13893951856e-38
-0.0118535994412 -0.0186270848362 0.915 1.34998179352e-38
-0.0101602280925 -0.0186270848362 0.915 1.59844041904e-38
-0.00846685674374 -0.0186270848362 0.915 1.75692783587e-38
-0.00675867996244 -0.0185863698967 0.913 1.80309879858e-38
-0.00506900997183 -0.0185863698967 0.913 1.7202006439e-38
-0.00337933998122 -0.0185863698967 0.913 1.83983467861e-38
-0.0016841179534 -0.0185252974874 0.91 1.41530696481e-38
0.0 -0.0185252974874 0.91 1.46018579021e-38
0.0016841179534 -0.0185252974874 0.91 1.47855148814e-38
0.0033682359068 -0.0185252974874 0.91 1.40515553835e-38
0.0050523538602 -0.0185252974874 0.91 1.39625827401e-38
0.0067364718136 -0.0185252974874 0.91 1.44228364181e-38
0.008420589767 -0.0185252974874 0.91 1.43310009219e-38
0.0101047077204 -0.0185252974874 0.91 1.46090185373e-38
0.0117888256738 -0.0185252974874 0.91 1.64525499813e-38
0.0134729436272 -0.0185252974874 0.91 1.42581950589e-38
0.0151570615806 -0.0185252974874 0.91 7.64494632275e-39
0.016841179534 -0.0185252974874 0.91 6.09131270236e-39
0.0185863698967 -0.0185863698967 0.913 6.91062949368e-39
0.0202760398873 -0.0185863698967 0.913 1.29488049583e-38
0.0219657098779 -0.0185863698967 0.913 2.34846860649e-38
0.0237071988825 -0.0186270848362 0.915 2.1740488465e-38
0.0254838507894 -0.0186881572455 0.918 1.83260313775e-38
0.0271827741753 -0.0186881572455 0.918 1.91575310577e-38
0.0289446206497 -0.0187288721851 0.92 1.92468904594e-38
0.0307471820635 -0.0187899445944 0.923 1.7668128755e-38
0.0324553588448 -0.0187899445944 0.923 1.36038503332e-38
0.0342375627889 -0.0188306595339 0.925 1.4818551894e-38
0.0360660337097 -0.0188917319432 0.928 2.10915093111e-38
-0.022446886436 -0.01726683572 0.933 6.8015664342e-39
-0.0206535784175 -0.0172113153479 0.93 8.63361563867e-39
-0.0188917319432 -0.0171743017665 0.928 1.19386145005e-38
-0.0171187813945 -0.0171187813945 0.925 1.40580055603e-38
-0.015406903255 -0.0171187813945 0.925 1.6092749785e-38
-0.0136654142505 -0.0170817678131 0.923 1.4806724935e-38
-0.0118924637017 -0.0169892338596 0.918 1.45218465624e-38
-0.0101935403157 -0.0169892338596 0.918 1.34101348335e-38
-0.00849461692979 -0.0169892338596 0.918 1.46018438891e-38
-0.006773485395 -0.0169337134875 0.915 1.70060712825e-38
-0.00508011404625 -0.0169337134875 0.915 1.70143193253e-38
-0.0033867426975 -0.0169337134875 0.915 1.76593201928e-38
-0.00169337134875 -0.0169337134875 0.915 1.47980705157e-38
0.0 -0.0168966999061 0.913 1.60712202354e-38
0.00168966999061 -0.0168966999061 0.913 1.65332591677e-38
