# .PCD v0.7 - Point Cloud Data file format
VERSION 0.7
FIELDS x y z rgb
SIZE 4 4 4 4
TYPE F F F F
COUNT 1 1 1 1
WIDTH 835
HEIGHT 1
VIEWPOINT 0 0 0 1 0 0 0
POINTS 835
DATA ascii
-0.0314134265286 -0.0436297590675 0.943 1.67420428298e-38
-0.0295738515333 -0.0434909581373 0.94 9.82890921575e-39
-0.0278342132079 -0.0434909581373 0.94 1.27827118539e-38
-0.0260390545103 -0.0433984241838 0.938 6.79582671569e-39
-0.0243031175429 -0.0433984241838 0.938 1.888100022e-38
-0.0225671805756 -0.0433984241838 0.938 1.34443125031e-38
-0.0207646191617 -0.0432596232536 0.935 1.18765537942e-38
-0.0190342342316 -0.0432596232536 0.935 7.63095575888e-39
-0.0173038493014 -0.0432596232536 0.935 1.08365885466e-38
-0.015540152148 -0.0431670893001 0.933 1.15712739172e-38
-0.013813468576 -0.0431670893001 0.933 1.19386145005e-38
-0.012086785004 -0.0431670893001 0.933 1.1755660973e-38
-0.0103267892088 -0.0430282883699 0.93 1.15719899807e-38
-0.00860565767397 -0.0430282883699 0.93 1.2214120989e-38
-0.00688452613918 -0.0430282883699 0.93 1.77379008068e-38
-0.00516339460438 -0.0430282883699 0.93 1.7466322158e-38
-0.00344226306959 -0.0430282883699 0.93 1.19457891487e-38
-0.00172113153479 -0.0430282883699 0.93 1.72895007125e-38
0.0 -0.0430282883699 0.93 1.32447591939e-38
0.00172113153479 -0.0430282883699 0.93 1.41739153641e-38
0.00345336714401 -0.0431670893001 0.933 1.04853895203e-38
0.00519115479043 -0.0432596232536 0.935 1.37218732951e-38
0.00692153972057 -0.0432596232536 0.935 2.08180319028e-38
0.00865192465071 -0.0432596232536 0.935 1.91470969893e-38
0.0103823095809 -0.0432596232536 0.935 1.84026978178e-38
0.012112694511 -0.0432596232536 0.935 2.00679770907e-38
0.0138874957388 -0.0433984241838 0.938 2.30174861504e-38
0.0156234327062 -0.0433984241838 0.938 1.48020502033e-38
0.0173593696735 -0.0433984241838 0.938 1.63467183161e-38
0.0190953066409 -0.0433984241838 0.938 2.12380472954e-38
0.0208756599059 -0.0434909581373 0.94 2.09608396306e-38
0.0226152982314 -0.0434909581373 0.94 2.06920761904e-38
0.0244326650778 -0.0436297590675 0.943 1.92069926896e-38
0.0262611359986 -0.0437685599977 0.946 1.70889538828e-38
0.0280118783985 -0.0437685599977 0.946 1.88356121628e-38
0.0298255438868 -0.0438610939512 0.948 2.3484639822e-38
-0.0406927313839 -0.0424619805745 0.956 2.34867824074e-38
-0.0389234821933 -0.0424619805745 0.956 1.54654108833e-38
-0.0370765044818 -0.0423731479792 0.954 7.25930898536e-39
-0.0351999159051 -0.0422398990862 0.951 1.3969404261e-38
-0.0333344314029 -0.0421066501932 0.948 1.2765133966e-38
-0.0314134265286 -0.0418845687048 0.943 1.81249744751e-38
-0.0295738515333 -0.0417513198118 0.94 1.47185047889e-38
-0.0278342132079 -0.0417513198118 0.94 1.06529175543e-38
-0.0260390545103 -0.0416624872164 0.938 1.78581153995e-38
-0.0243031175429 -0.0416624872164 0.938 1.75012551274e-38
-0.0225671805756 -0.0416624872164 0.938 8.46464987244e-39
-0.0208312436082 -0.0416624872164 0.938 1.08549259383e-38
-0.0190342342316 -0.0415292383234 0.935 1.37039464838e-38
-0.0173038493014 -0.0415292383234 0.935 1.72041111893e-38
-0.0155734643713 -0.0415292383234 0.935 1.33261914503e-38
-0.013813468576 -0.0414404057281 0.933 1.33161469429e-38
-0.012086785004 -0.0414404057281 0.933 1.2214120989e-38
-0.010360101432 -0.0414404057281 0.933 1.11120950351e-38
-0.00860565767397 -0.0413071568351 0.93 1.72891097503e-38
-0.00688452613918 -0.0413071568351 0.93 1.88546165725e-38
-0.00516339460438 -0.0413071568351 0.93 1.90260962682e-38
-0.00344226306959 -0.0413071568351 0.93 1.49828177052e-38
-0.001726683572 -0.0414404057281 0.933 1.58258388614e-38
0.0 -0.0414404057281 0.933 1.3623939348e-38
0.001726683572 -0.0414404057281 0.933 1.33566837049e-38
0.00345336714401 -0.0414404057281 0.933 6.99528193391e-39
0.00519115479043 -0.0415292383234 0.935 1.04893355768e-38
0.00692153972057 -0.0415292383234 0.935 1.29488049583e-38
0.00865192465071 -0.0415292383234 0.935 1.931344513e-38
0.0103823095809 -0.0415292383234 0.935 1.96829717389e-38
0.0121515587715 -0.0416624872164 0.938 1.67313369095e-38
0.0138874957388 -0.0416624872164 0.938 1.59793763315e-38
0.0156234327062 -0.0416624872164 0.938 1.61630473238e-38
0.0173593696735 -0.0416624872164 0.938 2.11383519162e-38
0.0191360215804 -0.0417513198118 0.94 1.57045873078e-38
0.0209422843524 -0.0418845687048 0.943 2.30784706595e-38
0.0226874747151 -0.0418845687048 0.943 1.53415501121e-38
0.0245103935987 -0.0420178175978 0.946 1.7999757247e-38
0.0262611359986 -0.0420178175978 0.946 1.58875520457e-38
0.0280711001288 -0.0421066501932 0.948 1.9941963925e-38
0.0298255438868 -0.0421066501932 0.948 2.34842866948e-38
-0.0406927313839 -0.0406927313839 0.956 2.34878445916e-38
-0.0389234821933 -0.0406927313839 0.956 1.05747208961e-38
-0.0370765044818 -0.0406076001467 0.954 1.70287064566e-38
-0.0351999159051 -0.0404799032909 0.951 1.29693269743e-38
-0.0333344314029 -0.0403522064351 0.948 1.14794398223e-38
-0.0314134265286 -0.0401393783421 0.943 1.23059564852e-38
-0.0296682361659 -0.0401393783421 0.943 1.08365885466e-38
-0.0278342132079 -0.0400116814863 0.94 1.78463010521e-38
-0.0260945748824 -0.0400116814863 0.94 1.86969438706e-38
-0.0243549365569 -0.0400116814863 0.94 7.7263799804e-39
-0.0225671805756 -0.0399265502491 0.938 1.3159037563e-38
-0.0208312436082 -0.0399265502491 0.938 1.0195892468e-38
-0.0190953066409 -0.0399265502491 0.938 1.40644627436e-38
-0.0173038493014 -0.0397988533933 0.935 1.76560944038e-38
-0.0155734643713 -0.0397988533933 0.935 1.65523042151e-38
-0.0138430794411 -0.0397988533933 0.935 1.56120343469e-38
-0.012112694511 -0.0397988533933 0.935 1.16631080121e-38
-0.010360101432 -0.0397137221561 0.933 1.53426445262e-38
-0.00863341786002 -0.0397137221561 0.933 1.92241613983e-38
-0.00690673428801 -0.0397137221561 0.933 1.36842063924e-38
-0.00518005071601 -0.0397137221561 0.933 1.73579849711e-38
-0.00345336714401 -0.0397137221561 0.933 1.80115954164e-38
-0.001726683572 -0.0397137221561 0.933 1.3594882023e-38
0.0 -0.0397137221561 0.933 1.24067602915e-38
0.001726683572 -0.0397137221561 0.933 1.27773308678e-38
0.00346076986028 -0.0397988533933 0.935 8.81620763117e-39
0.00519115479043 -0.0397988533933 0.935 1.48938520683e-38
0.00692153972057 -0.0397988533933 0.935 2.04061762712e-38
0.00865192465071 -0.0397988533933 0.935 1.68195276284e-38
0.0103823095809 -0.0397988533933 0.935 1.66222248046e-38
0.0121515587715 -0.0399265502491 0.938 1.70814022854e-38
0.0138874957388 -0.0399265502491 0.938 1.75405797662e-38
0.0156234327062 -0.0399265502491 0.938 1.77242507585e-38
0.0173963832549 -0.0400116814863 0.94 1.79079217508e-38
0.0191970939897 -0.0401393783421 0.943 1.73569087739e-38
0.0209422843524 -0.0401393783421 0.943 1.625488282e-38
0.0226874747151 -0.0401393783421 0.943 1.77242507585e-38
0.0245103935987 -0.0402670751979 0.946 1.69938715781e-38
0.0263166563707 -0.0403522064351 0.948 1.79173076479e-38
0.0281599327241 -0.0404799032909 0.951 1.86576724812e-38
0.0299199285194 -0.0404799032909 0.951 2.34871579554e-38
-0.0408204282397 -0.0390456270119 0.959 2.33942364529e-38
-0.0389234821933 -0.0389234821933 0.956 1.06658445327e-38
-0.0370765044818 -0.0388420523143 0.954 1.48020165722e-38
-0.0351999159051 -0.0387199074957 0.951 1.88697295765e-38
-0.0334399201099 -0.0387199074957 0.951 1.77713526038e-38
-0.0315133631984 -0.038516332798 0.946 1.69430338711e-38
-0.0296682361659 -0.0383941879794 0.943 1.56537622125e-38
-0.0279230458032 -0.0383941879794 0.943 1.52831846297e-38
-0.0260945748824 -0.0382720431608 0.94 1.83267166125e-38
-0.0243549365569 -0.0382720431608 0.94 1.12254544757e-38
-0.0226152982314 -0.0382720431608 0.94 9.10391102147e-39
-0.0208756599059 -0.0382720431608 0.94 1.47134250819e-38
-0.0190953066409 -0.0381906132817 0.938 1.43374581053e-38
-0.0173593696735 -0.0381906132817 0.938 1.54351792703e-38
-0.0155734643713 -0.0380684684631 0.935 1.53454961686e-38
-0.0138430794411 -0.0380684684631 0.935 1.54283633545e-38
-0.012112694511 -0.0380684684631 0.935 1.33161469429e-38
-0.010360101432 -0.0379870385841 0.933 1.63517447737e-38
-0.00863341786002 -0.0379870385841 0.933 1.75441670902e-38
-0.00690673428801 -0.0379870385841 0.933 2.27376538535e-38
-0.00519115479043 -0.0380684684631 0.935 1.9511570516e-38
-0.00346076986028 -0.0380684684631 0.935 1.55420815275e-38
-0.00173038493014 -0.0380684684631 0.935 1.99441023065e-38
0.0 -0.0380684684631 0.935 1.88538991077e-38
0.00173038493014 -0.0380684684631 0.935 1.91319629659e-38
0.00346076986028 -0.0380684684631 0.935 1.90458265506e-38
0.00519115479043 -0.0380684684631 0.935 1.84902089069e-38
0.00692153972057 -0.0380684684631 0.935 1.58875408353e-38
0.00867968483676 -0.0381906132817 0.938 1.7173596514e-38
0.0104156218041 -0.0381906132817 0.938 1.70814022854e-38
0.0121515587715 -0.0381906132817 0.938 1.744874427e-38
0.0138874957388 -0.0381906132817 0.938 1.76324166636e-38
0.0156234327062 -0.0381906132817 0.938 1.69895667892e-38
0.0173963832549 -0.0382720431608 0.94 1.66222248046e-38
0.0191970939897 -0.0383941879794 0.943 1.625488282e-38
0.0210089087989 -0.038516332798 0.946 1.55201988507e-38
0.0227596511988 -0.038516332798 0.946 1.67180063572e-38
0.0245622126127 -0.0385977626771 0.948 1.79086560312e-38
0.0263166563707 -0.0385977626771 0.948 1.80999038443e-38
0.0282487653195 -0.0388420523143 0.954 1.99516398909e-38
0.0300143131519 -0.0388420523143 0.954 2.34889291966e-38
-0.0408204282397 -0.0372708257841 0.959 2.33034589371e-38
-0.0389234821933 -0.0371542330027 0.956 1.16810712571e-38
-0.0371542330027 -0.0371542330027 0.956 1.35087862454e-38
-0.0353109566493 -0.0370765044818 0.954 1.32354321514e-38
-0.0334399201099 -0.0369599117004 0.951 1.87775339466e-38
-0.0315133631984 -0.0367655903981 0.946 1.51906330701e-38
-0.0297626207984 -0.0367655903981 0.946 1.46381655453e-38
-0.0279230458032 -0.0366489976167 0.943 1.500695367e-38
-0.0260945748824 -0.0365324048353 0.94 1.66679197462e-38
-0.0243549365569 -0.0365324048353 0.94 6.88766221185e-39
-0.0226152982314 -0.0365324048353 0.94 1.15777296992e-38
-0.0208756599059 -0.0365324048353 0.94 1.59969794428e-38
-0.0190953066409 -0.0364546763144 0.938 1.39643764021e-38
-0.0173593696735 -0.0364546763144 0.938 1.50610213699e-38
-0.0156234327062 -0.0364546763144 0.938 1.49691858738e-38
-0.0138430794411 -0.036338083533 0.935 1.48773503776e-38
-0.012112694511 -0.036338083533 0.935 1.36834889275e-38
-0.0103823095809 -0.036338083533 0.935 1.48773503776e-38
-0.00865192465071 -0.036338083533 0.935 1.89267526149e-38
-0.00692153972057 -0.036338083533 0.935 2.09862802043e-38
-0.00519115479043 -0.036338083533 0.935 1.92328508501e-38
-0.00346076986028 -0.036338083533 0.935 1.25854090301e-38
-0.00173038493014 -0.036338083533 0.935 1.60712118276e-38
0.0 -0.036338083533 0.935 1.77264031529e-38
0.00173038493014 -0.036338083533 0.935 1.87516603718e-38
0.0034718739347 -0.0364546763144 0.938 1.88553340373e-38
0.00520781090205 -0.0364546763144 0.938 1.79337729049e-38
0.00694374786941 -0.0364546763144 0.938 1.46018438891e-38
0.00867968483676 -0.0364546763144 0.938 1.67140603008e-38
0.0104156218041 -0.0364546763144 0.938 1.70814022854e-38
0.0121515587715 -0.0364546763144 0.938 1.78160862547e-38
0.0138874957388 -0.0364546763144 0.938 1.78160862547e-38
0.0156567449294 -0.0365324048353 0.94 1.55201988507e-38
0.0173963832549 -0.0365324048353 0.94 1.49691858738e-38
0.0191970939897 -0.0366489976167 0.943 1.625488282e-38
0.0210089087989 -0.0367655903981 0.946 1.49691858738e-38
0.0227596511988 -0.0367655903981 0.946 1.94788403877e-38
0.0245622126127 -0.036843318919 0.948 1.73590611683e-38
0.0263166563707 -0.036843318919 0.948 1.72740471931e-38
0.0282487653195 -0.0370765044818 0.954 1.91240540374e-38
-0.0408204282397 -0.0354960245563 0.959 2.33960090954e-38
-0.0390456270119 -0.0354960245563 0.959 1.1035701848e-38
-0.0371542330027 -0.0353849838121 0.956 1.3142520458e-38
-0.0353109566493 -0.0353109566493 0.954 1.36024154036e-38
-0.0335454088169 -0.0353109566493 0.954 1.369140206e-38
-0.0316799243146 -0.0351999159051 0.951 1.73035249076e-38
-0.0297626207984 -0.0350148479982 0.946 1.50987765544e-38
-0.0279230458032 -0.034903807254 0.943 1.53782543228e-38
-0.0261778554405 -0.034903807254 0.943 8.46611843323e-39
-0.0244326650778 -0.034903807254 0.943 7.80601717343e-39
-0.0226874747151 -0.034903807254 0.943 1.26736852282e-38
-0.0209422843524 -0.034903807254 0.943 1.44181728968e-38
-0.0191360215804 -0.0347927665098 0.94 1.49691858738e-38
-0.0173593696735 -0.034718739347 0.938 1.47855148814e-38
-0.0156234327062 -0.034718739347 0.938 1.64457284604e-38
-0.0138874957388 -0.034718739347 0.938 1.58028799873e-38
-0.012112694511 -0.0346076986028 0.935 1.48834488285e-38
-0.0103823095809 -0.0346076986028 0.935 1.51550092605e-38
-0.00865192465071 -0.0346076986028 0.935 1.5703869843e-38
-0.00692153972057 -0.0346076986028 0.935 1.53365278584e-38
-0.00519115479043 -0.0346076986028 0.935 1.51528568661e-38
-0.00346076986028 -0.0346076986028 0.935 1.51528568661e-38
-0.00173038493014 -0.0346076986028 0.935 1.53365278584e-38
0.0 -0.034718739347 0.938 1.51528568661e-38
0.00173593696735 -0.034718739347 0.938 1.54283633545e-38
0.0034718739347 -0.034718739347 0.938 1.56120343469e-38
0.00520781090205 -0.034718739347 0.938 1.48773503776e-38
0.00694374786941 -0.034718739347 0.938 1.53365278584e-38
0.00867968483676 -0.034718739347 0.938 1.625488282e-38
0.0104156218041 -0.034718739347 0.938 1.68058957969e-38
0.0121515587715 -0.034718739347 0.938 1.78160862547e-38
0.0139171066039 -0.0347927665098 0.94 1.7081405088e-38
0.0156567449294 -0.0347927665098 0.94 1.67140603008e-38
0.017451903627 -0.034903807254 0.943 1.57957053392e-38
0.019258166399 -0.0350148479982 0.946 1.75405797662e-38
0.0210089087989 -0.0350148479982 0.946 1.65303893084e-38
0.0228077688546 -0.035088875161 0.948 1.81855974493e-38
0.0245622126127 -0.035088875161 0.948 1.71779097106e-38
0.026483217487 -0.0353109566493 0.954 1.6443937601e-38
-0.0410332563327 -0.0338970378401 0.964 2.28432066604e-38
-0.0390456270119 -0.0337212233285 0.959 1.20494880376e-38
-0.0371542330027 -0.0336157346215 0.956 1.38718234411e-38
-0.0353849838121 -0.0336157346215 0.956 1.16666953361e-38
-0.0335454088169 -0.0335454088169 0.954 1.43331533164e-38
-0.0316799243146 -0.0334399201099 0.951 1.60949007782e-38
-0.0297626207984 -0.0332641055983 0.946 1.6662153403e-38
-0.0280118783985 -0.0332641055983 0.946 1.64842291357e-38
-0.0261778554405 -0.0331586168913 0.943 3.58158435016e-39
-0.0244326650778 -0.0331586168913 0.943 1.13051267012e-38
-0.0226874747151 -0.0331586168913 0.943 1.6840709656e-38
-0.0209422843524 -0.0331586168913 0.943 1.92324781047e-38
-0.0191360215804 -0.0330531281843 0.94 1.56421832833e-38
-0.0173963832549 -0.0330531281843 0.94 1.78617783937e-38
-0.0156234327062 -0.0329828023797 0.938 1.99808275366e-38
-0.0138874957388 -0.0329828023797 0.938 1.66548904731e-38
-0.0121515587715 -0.0329828023797 0.938 1.70121669309e-38
-0.0103823095809 -0.0328773136727 0.935 1.58053911142e-38
-0.00865192465071 -0.0328773136727 0.935 1.59793763315e-38
-0.00694374786941 -0.0329828023797 0.938 1.5703869843e-38
-0.00520781090205 -0.0329828023797 0.938 1.55201988507e-38
-0.0034718739347 -0.0329828023797 0.938 1.55201988507e-38
-0.00173593696735 -0.0329828023797 0.938 1.42345019045e-38
0.0 -0.0329828023797 0.938 1.40508309122e-38
0.00173593696735 -0.0329828023797 0.938 1.43263374006e-38
0.0034718739347 -0.0329828023797 0.938 1.44181728968e-38
0.00520781090205 -0.0329828023797 0.938 1.46936793853e-38
0.00694374786941 -0.0329828023797 0.938 1.42345019045e-38
0.00867968483676 -0.0329828023797 0.938 1.56120343469e-38
0.0104156218041 -0.0329828023797 0.938 1.71732377815e-38
0.0121774682784 -0.0330531281843 0.94 1.79079217508e-38
0.0139171066039 -0.0330531281843 0.94 1.79079217508e-38
0.0157067132643 -0.0331586168913 0.943 1.80915927431e-38
0.0175074239991 -0.0332641055983 0.946 1.68977312931e-38
0.019258166399 -0.0332641055983 0.946 1.57957053392e-38
0.0210533250966 -0.0333344314029 0.948 1.61630473238e-38
0.0228799453383 -0.0334399201099 0.951 1.67140631034e-38
0.0246399411336 -0.0334399201099 0.951 1.81927861104e-38
0.026483217487 -0.0335454088169 0.954 1.63560453587e-38
0.0283079870497 -0.0336157346215 0.956 2.21618266834e-38
-0.0410332563327 -0.0321129832169 0.964 2.21971183852e-38
-0.0392492017096 -0.0321129832169 0.964 1.14026682847e-38
-0.0371542330027 -0.0318464854309 0.956 1.40572880955e-38
-0.0353849838121 -0.0318464854309 0.956 1.38797155541e-38
-0.0336157346215 -0.0318464854309 0.956 1.55370746881e-38
-0.0317798609844 -0.0317798609844 0.954 1.52662163066e-38
-0.0299199285194 -0.0316799243146 0.951 1.68363908541e-38
-0.0280118783985 -0.0315133631984 0.946 6.97954254956e-39
-0.0262611359986 -0.0315133631984 0.946 6.88946007778e-39
-0.0245103935987 -0.0315133631984 0.946 1.27766582445e-38
-0.0227596511988 -0.0315133631984 0.946 1.50861326384e-38
-0.0210089087989 -0.0315133631984 0.946 1.51596727818e-38
-0.0191970939897 -0.0314134265286 0.943 8.17335915806e-39
-0.017451903627 -0.0314134265286 0.943 7.16461624164e-39
-0.0157067132643 -0.0314134265286 0.943 1.36085502883e-38
-0.0138874957388 -0.0312468654123 0.938 1.31324759506e-38
-0.0121515587715 -0.0312468654123 0.938 1.52446923622e-38
-0.0104156218041 -0.0312468654123 0.938 1.69895667892e-38
-0.00867968483676 -0.0312468654123 0.938 2.04998068307e-38
-0.00694374786941 -0.0312468654123 0.938 1.94117476186e-38
-0.00520781090205 -0.0312468654123 0.938 1.93188779641e-38
-0.0034718739347 -0.0312468654123 0.938 1.5807902241e-38
-0.00173593696735 -0.0312468654123 0.938 1.64385538123e-38
0.0 -0.0312468654123 0.938 1.34998179352e-38
0.00173963832549 -0.0313134898588 0.94 1.32243114468e-38
0.00347927665098 -0.0313134898588 0.94 1.33161469429e-38
0.00521891497647 -0.0313134898588 0.94 1.39618652753e-38
0.00695855330196 -0.0313134898588 0.94 1.29488049583e-38
0.00869819162745 -0.0313134898588 0.94 1.54283633545e-38
0.0104378299529 -0.0313134898588 0.94 1.744874427e-38
0.0121774682784 -0.0313134898588 0.94 1.73569087739e-38
0.0139615229016 -0.0314134265286 0.943 1.60712118276e-38
0.0157067132643 -0.0314134265286 0.943 1.59793763315e-38
0.0175074239991 -0.0315133631984 0.946 1.63467183161e-38
0.0192988813385 -0.0315799876449 0.948 1.46018438891e-38
0.0210533250966 -0.0315799876449 0.948 1.51564441901e-38
0.0228799453383 -0.0316799243146 0.951 1.64385552136e-38
0.0246399411336 -0.0316799243146 0.951 1.80998982391e-38
0.026483217487 -0.0317798609844 0.954 1.63539069772e-38
0.0283079870497 -0.0318464854309 0.956 2.22518839318e-38
-0.0410332563327 -0.0303289285938 0.964 2.15528027526e-38
-0.0392492017096 -0.0303289285938 0.964 1.0850238595e-38
-0.0372708257841 -0.0301716208728 0.959 1.32293337004e-38
-0.0353849838121 -0.0300772362403 0.956 1.34162472974e-38
-0.0336157346215 -0.0300772362403 0.956 1.47044413575e-38
-0.0317798609844 -0.0300143131519 0.954 1.53530295491e-38
-0.0300143131519 -0.0300143131519 0.954 1.39722685151e-38
-0.0281599327241 -0.0299199285194 0.951 5.60196526564e-39
-0.0262611359986 -0.0297626207984 0.946 7.9993991641e-39
-0.0245103935987 -0.0297626207984 0.946 9.36722060812e-39
-0.0227596511988 -0.0297626207984 0.946 1.23977919813e-38
-0.0210089087989 -0.0297626207984 0.946 1.56156286774e-38
-0.019258166399 -0.0297626207984 0.946 9.91823358506e-39
-0.0175074239991 -0.0297626207984 0.946 6.06580626772e-39
-0.0157067132643 -0.0296682361659 0.943 8.17838561565e-39
-0.0139171066039 -0.0295738515333 0.94 1.6476220715e-38
-0.0121515587715 -0.029510928445 0.938 1.65655829194e-38
-0.0104156218041 -0.029510928445 0.938 1.1020259539e-38
-0.00869819162745 -0.0295738515333 0.94 1.67172973002e-38
-0.00695855330196 -0.0295738515333 0.94 1.78347403398e-38
-0.00521891497647 -0.0295738515333 0.94 1.52493558835e-38
-0.00347927665098 -0.0295738515333 0.94 1.66222248046e-38
-0.00173963832549 -0.0295738515333 0.94 1.88291521768e-38
0.0 -0.0296682361659 0.943 1.6813070445e-38
0.0017451903627 -0.0296682361659 0.943 1.23059564852e-38
0.0034903807254 -0.0296682361659 0.943 1.34079824391e-38
0.0052355710881 -0.0296682361659 0.943 1.4053342039e-38
0.0069807614508 -0.0296682361659 0.943 1.28569694621e-38
0.0087259518135 -0.0296682361659 0.943 1.69027619546e-38
0.0105044543995 -0.0297626207984 0.946 1.68977312931e-38
0.0122551967994 -0.0297626207984 0.946 1.625488282e-38
0.0140059391993 -0.0297626207984 0.946 1.38671599199e-38
0.0157566815992 -0.0297626207984 0.946 1.61641431392e-38
0.0175444375805 -0.0298255438868 0.948 1.54283633545e-38
0.0192988813385 -0.0298255438868 0.948 1.44181728968e-38
0.0211199495431 -0.0299199285194 0.951 1.67194524972e-38
0.0228799453383 -0.0299199285194 0.951 1.65303893084e-38
0.0247176696545 -0.0300143131519 0.954 1.68141466423e-38
0.0265387378591 -0.0300772362403 0.956 1.85644300813e-38
-0.0410332563327 -0.0285448739706 0.964 2.14602694098e-38
-0.0392492017096 -0.0285448739706 0.964 9.74353090292e-39
-0.0372708257841 -0.028396819645 0.959 1.45279450133e-38
-0.0354960245563 -0.028396819645 0.959 1.13007882811e-38
-0.0337212233285 -0.028396819645 0.959 1.39611478105e-38
-0.0318464854309 -0.0283079870497 0.956 1.44214014885e-38
-0.0300143131519 -0.0282487653195 0.954 1.52540236087e-38
-0.0281599327241 -0.0281599327241 0.951 1.46334824058e-38
-0.0263166563707 -0.0280711001288 0.948 6.3366492349e-39
-0.0245622126127 -0.0280711001288 0.948 9.91859231747e-39
-0.0227596511988 -0.0280118783985 0.946 1.24075001771e-38
-0.0210089087989 -0.0280118783985 0.946 1.30592959409e-38
-0.019258166399 -0.0280118783985 0.946 8.91521777546e-39
-0.0175074239991 -0.0280118783985 0.946 8.92491055694e-39
-0.0157566815992 -0.0280118783985 0.946 1.16021739496e-38
-0.0139615229016 -0.0279230458032 0.943 1.0218851342e-38
-0.0122163325389 -0.0279230458032 0.943 6.5296472698e-39
-0.0104711421762 -0.0279230458032 0.943 8.45604029467e-39
-0.0087259518135 -0.0279230458032 0.943 2.07032893807e-38
-0.0069807614508 -0.0279230458032 0.943 1.97809925665e-38
-0.0052355710881 -0.0279230458032 0.943 1.59858335148e-38
-0.00347927665098 -0.0278342132079 0.94 1.72654320101e-38
-0.00173963832549 -0.0278342132079 0.94 1.80080361183e-38
0.0 -0.0279230458032 0.943 1.8105583307e-38
0.0017451903627 -0.0279230458032 0.943 1.56120343469e-38
0.0034903807254 -0.0279230458032 0.943 1.49691858738e-38
0.0052355710881 -0.0279230458032 0.943 1.41426664083e-38
0.00700296959964 -0.0280118783985 0.946 1.23977919813e-38
0.00875371199954 -0.0280118783985 0.946 1.61655584507e-38
0.0105044543995 -0.0280118783985 0.946 1.80923102079e-38
0.0122551967994 -0.0280118783985 0.946 1.56120343469e-38
0.0140059391993 -0.0280118783985 0.946 1.3958995416e-38
0.0157899938224 -0.0280711001288 0.948 1.60722880249e-38
0.0175444375805 -0.0280711001288 0.948 1.52446923622e-38
0.0193599537478 -0.0281599327241 0.951 1.54283633545e-38
0.0211199495431 -0.0281599327241 0.951 1.56120343469e-38
0.0229521218221 -0.0282487653195 0.954 1.68977340957e-38
0.0247176696545 -0.0282487653195 0.954 1.63467211187e-38
0.0265387378591 -0.0283079870497 0.956 1.9299125261e-38
-0.0411609531886 -0.0268440999056 0.967 2.08152377137e-38
-0.0392492017096 -0.0267608193474 0.964 1.00190373914e-38
-0.0373874185655 -0.0267052989754 0.962 1.268226678e-38
-0.0354960245563 -0.0266220184172 0.959 1.33208300824e-38
-0.0337212233285 -0.0266220184172 0.959 1.34122872279e-38
-0.0318464854309 -0.0265387378591 0.956 1.44235538829e-38
-0.0300772362403 -0.0265387378591 0.956 1.50689134829e-38
-0.0282487653195 -0.026483217487 0.954 1.22360036658e-38
-0.0263999369289 -0.0263999369289 0.951 7.53051068496e-39
-0.0245622126127 -0.0263166563707 0.948 1.30521268979e-38
-0.0228077688546 -0.0263166563707 0.948 1.02877279641e-38
-0.0210089087989 -0.0262611359986 0.946 1.35271488605e-38
-0.019258166399 -0.0262611359986 0.946 6.72049291025e-39
-0.0175074239991 -0.0262611359986 0.946 1.23390159185e-38
-0.0157566815992 -0.0262611359986 0.946 1.12347815183e-38
-0.0139615229016 -0.0261778554405 0.943 6.44355149215e-39
-0.0122163325389 -0.0261778554405 0.943 1.16042801012e-38
-0.0104711421762 -0.0261778554405 0.943 8.26519465422e-39
-0.0087259518135 -0.0261778554405 0.943 2.05141547257e-38
-0.0069807614508 -0.0261778554405 0.943 1.73759328018e-38
-0.0052355710881 -0.0261778554405 0.943 1.63467183161e-38
-0.0034903807254 -0.0261778554405 0.943 2.04033078132e-38
-0.0017451903627 -0.0261778554405 0.943 1.93166807282e-38
0.0 -0.0261778554405 0.943 2.03327174031e-38
0.0017451903627 -0.0261778554405 0.943 1.9688033229e-38
0.0034903807254 -0.0261778554405 0.943 1.57157080124e-38
0.00525222719973 -0.0262611359986 0.946 1.3958995416e-38
0.00700296959964 -0.0262611359986 0.946 1.17549435082e-38
0.00875371199954 -0.0262611359986 0.946 1.49702718801e-38
0.0105044543995 -0.0262611359986 0.946 1.79115244892e-38
0.0122811063063 -0.0263166563707 0.948 1.51528568661e-38
0.0140355500644 -0.0263166563707 0.948 1.40508463265e-38
0.0157899938224 -0.0263166563707 0.948 1.51539330633e-38
0.0175999579526 -0.0263999369289 0.951 1.4510008393e-38
0.0193599537478 -0.0263999369289 0.951 1.58875408353e-38
0.0211865739896 -0.026483217487 0.954 1.56120343469e-38
0.0230002394779 -0.0265387378591 0.956 1.74516211358e-38
0.0248472171894 -0.0266220184172 0.959 1.94785026748e-38
0.0266220184172 -0.0266220184172 0.959 1.78268482269e-38
-0.0411609531886 -0.0250544932452 0.967 2.0168808923e-38
-0.0392492017096 -0.0249767647243 0.964 1.06647557238e-38
-0.0373874185655 -0.0249249457103 0.962 1.38811504837e-38
-0.0356070653005 -0.0249249457103 0.962 1.37850101987e-38
-0.0337212233285 -0.0248472171894 0.959 1.32329210245e-38
-0.0318464854309 -0.0247694886685 0.956 1.35030465269e-38
-0.0300772362403 -0.0247694886685 0.956 1.87729096617e-38
-0.0282487653195 -0.0247176696545 0.954 5.51012976948e-39
-0.0263999369289 -0.0246399411336 0.951 9.1835496158e-39
-0.0246399411336 -0.0246399411336 0.951 1.45254619124e-38
-0.0228077688546 -0.0245622126127 0.948 1.57218064634e-38
-0.0210533250966 -0.0245622126127 0.948 1.20419294337e-38
-0.019258166399 -0.0245103935987 0.946 1.04014461371e-38
-0.0175074239991 -0.0245103935987 0.946 7.63669547739e-39
-0.0157566815992 -0.0245103935987 0.946 4.40810381558e-39
-0.0140059391993 -0.0245103935987 0.946 9.47486275095e-39
-0.0122551967994 -0.0245103935987 0.946 1.10489581315e-38
-0.0105044543995 -0.0245103935987 0.946 1.11235744721e-38
-0.00875371199954 -0.0245103935987 0.946 1.40508309122e-38
-0.0069807614508 -0.0244326650778 0.943 1.57957053392e-38
-0.0052355710881 -0.0244326650778 0.943 1.76324180649e-38
-0.00350148479982 -0.0245103935987 0.946 2.05859040096e-38
-0.00175074239991 -0.0245103935987 0.946 1.83032448632e-38
0.0 -0.0245103935987 0.946 1.93170576774e-38
0.00175074239991 -0.0245103935987 0.946 1.98716243473e-38
0.00350148479982 -0.0245103935987 0.946 1.45196941679e-38
0.00525222719973 -0.0245103935987 0.946 1.73587024359e-38
0.00700296959964 -0.0245103935987 0.946 1.00100690812e-38
0.00875371199954 -0.0245103935987 0.946 1.28612910666e-38
0.0105266625483 -0.0245622126127 0.948 1.58875408353e-38
0.0122811063063 -0.0245622126127 0.948 1.46936793853e-38
0.0140355500644 -0.0245622126127 0.948 1.37753244237e-38
0.0158399621573 -0.0246399411336 0.951 1.54283633545e-38
0.0175999579526 -0.0246399411336 0.951 1.49691858738e-38
0.0194210261571 -0.0247176696545 0.954 1.58875408353e-38
0.0212309902873 -0.0247694886685 0.956 1.57957053392e-38
0.0230724159616 -0.0248472171894 0.959 1.69945946481e-38
0.0248472171894 -0.0248472171894 0.959 1.7910805623e-38
0.0266220184172 -0.0248472171894 0.959 1.92025870072e-38
-0.0411609531886 -0.0232648865848 0.967 1.84171101725e-38
-0.0392492017096 -0.0231927101011 0.964 9.00526521478e-39
-0.0374651470864 -0.0231927101011 0.964 1.35080687806e-38
-0.0356070653005 -0.0231445924453 0.962 1.27680038252e-38
-0.0337212233285 -0.0230724159616 0.959 1.35030465269e-38
-0.0318464854309 -0.0230002394779 0.956 1.77608807003e-38
-0.0300772362403 -0.0230002394779 0.956 8.54686265204e-39
-0.0282487653195 -0.0229521218221 0.954 8.72437213501e-39
-0.026483217487 -0.0229521218221 0.954 1.0103339507e-38
-0.0246399411336 -0.0228799453383 0.951 1.18478552016e-38
-0.0228799453383 -0.0228799453383 0.951 1.80163205948e-38
-0.0210533250966 -0.0228077688546 0.948 1.47177859228e-38
-0.0192988813385 -0.0228077688546 0.948 1.24232675874e-38
-0.0175444375805 -0.0228077688546 0.948 1.15013196966e-38
-0.0157566815992 -0.0227596511988 0.946 9.46838314685e-39
-0.0140059391993 -0.0227596511988 0.946 1.43601395222e-38
-0.0122551967994 -0.0227596511988 0.946 5.24251539396e-39
-0.0105044543995 -0.0227596511988 0.946 9.27682004158e-39
-0.00875371199954 -0.0227596511988 0.946 1.28569694621e-38
-0.00700296959964 -0.0227596511988 0.946 1.51528568661e-38
-0.00525222719973 -0.0227596511988 0.946 1.625488282e-38
-0.00350148479982 -0.0227596511988 0.946 1.93830672429e-38
-0.00175074239991 -0.0227596511988 0.946 1.92201648951e-38
0.0 -0.0227596511988 0.946 1.87609874143e-38
0.00175074239991 -0.0227596511988 0.946 1.87620636116e-38
0.00350148479982 -0.0227596511988 0.946 1.43313596543e-38
0.00525222719973 -0.0227596511988 0.946 2.0948206925e-38
0.00700296959964 -0.0227596511988 0.946 7.07133320417e-39
0.00877221879024 -0.0228077688546 0.948 1.3790424816e-38
0.0105266625483 -0.0228077688546 0.948 1.65336179001e-38
0.0122811063063 -0.0228077688546 0.948 1.41426664083e-38
0.0140799663621 -0.0228799453383 0.951 1.34079824391e-38
0.0158399621573 -0.0228799453383 0.951 1.64403474743e-38
0.0176554783247 -0.0229521218221 0.954 1.50610213699e-38
0.0194617410967 -0.0230002394779 0.956 1.71771866406e-38
0.0212976147338 -0.0230724159616 0.959 1.58875408353e-38
0.0230724159616 -0.0230724159616 0.959 1.74537665237e-38
0.0248472171894 -0.0230724159616 0.959 1.85550750128e-38
0.0267052989754 -0.0231445924453 0.962 1.80980499264e-38
0.0287225391613 -0.0233370630686 0.97 2.33665383874e-38
-0.0411609531886 -0.0214752799245 0.967 1.7404737893e-38
-0.0392492017096 -0.021408655478 0.964 1.21442200177e-38
-0.0374651470864 -0.021408655478 0.964 1.16713588574e-38
-0.0356070653005 -0.0213642391803 0.962 1.51751291039e-38
-0.0337212233285 -0.0212976147338 0.959 1.64777817615e-38
-0.0319464221007 -0.0212976147338 0.959 5.78958231443e-39
-0.0300772362403 -0.0212309902873 0.956 6.79582671569e-39
-0.0283079870497 -0.0212309902873 0.956 7.89785266959e-39
-0.026483217487 -0.0211865739896 0.954 1.11120950351e-38
-0.0246399411336 -0.0211199495431 0.951 1.29488049583e-38
-0.0228799453383 -0.0211199495431 0.951 1.33161469429e-38
-0.0211199495431 -0.0211199495431 0.951 1.51772506697e-38
-0.0192988813385 -0.0210533250966 0.948 9.37116666459e-39
-0.0175444375805 -0.0210533250966 0.948 1.31371394719e-38
-0.0157899938224 -0.0210533250966 0.948 1.42431114823e-38
-0.0140059391993 -0.0210089087989 0.946 1.18467790044e-38
-0.0122551967994 -0.0210089087989 0.946 1.16631080121e-38
-0.0105044543995 -0.0210089087989 0.946 1.20304499967e-38
-0.00875371199954 -0.0210089087989 0.946 1.31324759506e-38
-0.00700296959964 -0.0210089087989 0.946 1.4510008393e-38
-0.00525222719973 -0.0210089087989 0.946 1.53365278584e-38
-0.00350148479982 -0.0210089087989 0.946 1.58875408353e-38
-0.00175074239991 -0.0210089087989 0.946 1.68977312931e-38
0.0 -0.0210089087989 0.946 1.96707440085e-38
0.00175074239991 -0.0210089087989 0.946 1.74656046931e-38
0.00350148479982 -0.0210089087989 0.946 1.76363613188e-38
0.00525222719973 -0.0210089087989 0.946 2.03071268905e-38
0.00701777503219 -0.0210533250966 0.948 8.0815236619e-39
0.00877221879024 -0.0210533250966 0.948 1.36164199804e-38
0.0105266625483 -0.0210533250966 0.948 1.58875408353e-38
0.0122811063063 -0.0210533250966 0.948 1.35916548327e-38
0.0140799663621 -0.0211199495431 0.951 1.43263374006e-38
0.0158399621573 -0.0211199495431 0.951 1.65303893084e-38
0.0176554783247 -0.0211865739896 0.954 1.50610213699e-38
0.0194617410967 -0.0212309902873 0.956 1.73612135627e-38
0.0212976147338 -0.0212976147338 0.959 1.69895667892e-38
0.0231445924453 -0.0213642391803 0.962 1.79125852721e-38
0.0249767647243 -0.021408655478 0.964 1.75466782171e-38
0.0268440999056 -0.0214752799245 0.967 1.65303893084e-38
0.0287225391613 -0.021541904371 0.97 2.34806713448e-38
-0.0412886500444 -0.0197467456734 0.97 1.63931097031e-38
-0.0393713465282 -0.0196856732641 0.967 7.44549110453e-39
-0.0374651470864 -0.0196246008548 0.964 1.22385610355e-38
-0.0356070653005 -0.0195838859153 0.962 9.19216199616e-39
-0.0338267120354 -0.0195838859153 0.962 6.06114274643e-39
-0.0319464221007 -0.019522813506 0.959 4.95911679253e-39
-0.0300772362403 -0.0194617410967 0.956 8.17802267935e-39
-0.0283079870497 -0.0194617410967 0.956 1.09309351696e-38
-0.026483217487 -0.0194210261571 0.954 1.19404081626e-38
-0.0247176696545 -0.0194210261571 0.954 1.34119284955e-38
-0.0229521218221 -0.0194210261571 0.954 1.23977919813e-38
-0.0211199495431 -0.0193599537478 0.951 1.2214120989e-38
-0.0193599537478 -0.0193599537478 0.951 1.25814629736e-38
-0.0175999579526 -0.0193599537478 0.951 1.35916534314e-38
-0.0157899938224 -0.0192988813385 0.948 1.50610213699e-38
-0.0140355500644 -0.0192988813385 0.948 1.51528568661e-38
-0.0122811063063 -0.0192988813385 0.948 1.87545484479e-38
-0.0105266625483 -0.0192988813385 0.948 1.66387264953e-38
-0.00877221879024 -0.0192988813385 0.948 1.28569694621e-38
-0.00701777503219 -0.0192988813385 0.948 1.42345019045e-38
-0.00526333127414 -0.0192988813385 0.948 1.47855148814e-38
-0.00350148479982 -0.019258166399 0.946 1.72675872071e-38
-0.00175074239991 -0.019258166399 0.946 1.61630473238e-38
0.0 -0.019258166399 0.946 1.65303893084e-38
0.00175074239991 -0.019258166399 0.946 1.72650732777e-38
0.00350148479982 -0.019258166399 0.946 1.83670992316e-38
0.00525222719973 -0.019258166399 0.946 2.14185163208e-38
0.00701777503219 -0.0192988813385 0.948 8.54070114269e-39
0.00877221879024 -0.0192988813385 0.948 1.33391128234e-38
0.0105266625483 -0.0192988813385 0.948 1.59793763315e-38
0.0123199705668 -0.0193599537478 0.951 1.43263374006e-38
0.0140799663621 -0.0193599537478 0.951 1.56120343469e-38
0.0158899304922 -0.0194210261571 0.954 1.73569087739e-38
0.0176924919061 -0.0194617410967 0.956 1.5703869843e-38
0.0194617410967 -0.0194617410967 0.956 1.69895667892e-38
0.0212976147338 -0.019522813506 0.959 1.68977312931e-38
0.0231445924453 -0.0195838859153 0.962 1.67162126952e-38
0.0249767647243 -0.0196246008548 0.964 1.59793763315e-38
0.0268440999056 -0.0196856732641 0.967 2.33572001345e-38
0.0287225391613 -0.0197467456734 0.97 2.3485700605e-38
-0.0412886500444 -0.0179515869758 0.97 1.61158137565e-38
-0.0394934913468 -0.0179515869758 0.97 6.62004783633e-39
-0.0374651470864 -0.0178405462316 0.964 7.1724957429e-39
-0.0356810924633 -0.0178405462316 0.964 6.61789544189e-39
-0.0338267120354 -0.0178035326502 0.962 8.63971128699e-39
-0.0319464221007 -0.0177480122781 0.959 5.69451822661e-39
-0.0300772362403 -0.0176924919061 0.956 9.74785530998e-39
-0.0283079870497 -0.0176924919061 0.956 1.23235441822e-38
-0.026483217487 -0.0176554783247 0.954 1.13944174393e-38
-0.0247176696545 -0.0176554783247 0.954 1.57207302661e-38
-0.0229521218221 -0.0176554783247 0.954 1.29516748175e-38
-0.0211865739896 -0.0176554783247 0.954 1.2214120989e-38
-0.0193599537478 -0.0175999579526 0.951 1.26732984698e-38
-0.0175999579526 -0.0175999579526 0.951 1.28569694621e-38
-0.0158399621573 -0.0175999579526 0.951 1.38671599199e-38
-0.0140355500644 -0.0175444375805 0.948 1.49691858738e-38
-0.0122811063063 -0.0175444375805 0.948 1.69988938318e-38
-0.0105266625483 -0.0175444375805 0.948 1.8662352818e-38
-0.00877221879024 -0.0175444375805 0.948 1.77522753265e-38
-0.00701777503219 -0.0175444375805 0.948 1.25821804385e-38
-0.00526333127414 -0.0175444375805 0.948 1.4510008393e-38
-0.0035088875161 -0.0175444375805 0.948 1.70857126795e-38
-0.00175444375805 -0.0175444375805 0.948 1.48773503776e-38
0.0 -0.0175444375805 0.948 1.61630473238e-38
0.00175444375805 -0.0175444375805 0.948 1.77242507585e-38
0.0035088875161 -0.0175444375805 0.948 1.90135364301e-38
0.00526333127414 -0.0175444375805 0.948 2.12369753021e-38
0.00701777503219 -0.0175444375805 0.948 8.91127171899e-39
0.00877221879024 -0.0175444375805 0.948 1.27859404456e-38
0.0105599747715 -0.0175999579526 0.951 1.61630473238e-38
0.0123199705668 -0.0175999579526 0.951 1.50610213699e-38
0.0141243826597 -0.0176554783247 0.954 1.51528568661e-38
0.0158899304922 -0.0176554783247 0.954 1.78160862547e-38
0.0176924919061 -0.0176924919061 0.956 1.63467183161e-38
0.019522813506 -0.0177480122781 0.959 1.62559590172e-38
0.0212976147338 -0.0177480122781 0.959 1.65329060405e-38
0.0231445924453 -0.0178035326502 0.962 1.46936793853e-38
0.0249767647243 -0.0178405462316 0.964 2.10483086808e-38
0.0268440999056 -0.0178960666037 0.967 2.34688906286e-38
0.028633706566 -0.0178960666037 0.967 2.33891721602e-38
-0.0433058902303 -0.0162397088364 0.975 1.546900101e-38
-0.0412886500444 -0.0161564282782 0.97 1.39056199575e-38
-0.0394934913468 -0.0161564282782 0.97 7.63167322369e-39
-0.0375817398678 -0.0161064599433 0.967 9.4680650521e-39
-0.0356810924633 -0.0160564916085 0.964 8.73298171277e-39
-0.0338970378401 -0.0160564916085 0.964 8.91952256434e-39
-0.0320463587704 -0.0160231793852 0.962 6.06652373253e-39
-0.0301716208728 -0.0159732110503 0.959 7.44872249879e-39
-0.0283079870497 -0.0159232427154 0.956 1.11296897386e-38
-0.026483217487 -0.0158899304922 0.954 1.26029869181e-38
-0.0247176696545 -0.0158899304922 0.954 1.48920584063e-38
-0.0230002394779 -0.0159232427154 0.956 1.46943968501e-38
-0.0211865739896 -0.0158899304922 0.954 1.4510008393e-38
-0.0194210261571 -0.0158899304922 0.954 1.32243114468e-38
-0.0175999579526 -0.0158399621573 0.951 1.28569694621e-38
-0.0158399621573 -0.0158399621573 0.951 1.30406404544e-38
-0.0140355500644 -0.0157899938224 0.948 1.38671599199e-38
-0.0122811063063 -0.0157899938224 0.948 1.57042285754e-38
-0.0105266625483 -0.0157899938224 0.948 1.63553278939e-38
-0.00877221879024 -0.0157899938224 0.948 1.72855210249e-38
-0.00701777503219 -0.0157899938224 0.948 1.4336381908e-38
-0.00526333127414 -0.0157899938224 0.948 1.42345019045e-38
-0.0035088875161 -0.0157899938224 0.948 1.52446923622e-38
-0.00175444375805 -0.0157899938224 0.948 1.52446923622e-38
0.0 -0.0157899938224 0.948 1.5703869843e-38
0.00175444375805 -0.0157899938224 0.948 1.82784937284e-38
0.0035088875161 -0.0157899938224 0.948 1.82831558484e-38
0.00526333127414 -0.0157899938224 0.948 2.02267848444e-38
0.00703998318103 -0.0158399621573 0.951 8.7290356563e-39
0.00879997897629 -0.0158399621573 0.951 1.38018706218e-38
0.0105599747715 -0.0158399621573 0.951 1.59793763315e-38
0.0123588348273 -0.0158899304922 0.954 1.53365278584e-38
0.0141243826597 -0.0158899304922 0.954 1.49691858738e-38
0.0159232427154 -0.0159232427154 0.956 1.59793763315e-38
0.0176924919061 -0.0159232427154 0.956 1.64385538123e-38
0.019522813506 -0.0159732110503 0.959 1.56120343469e-38
0.0212976147338 -0.0159732110503 0.959 1.48773503776e-38
0.0231445924453 -0.0160231793852 0.962 1.99552608461e-38
0.0249767647243 -0.0160564916085 0.964 2.34768065636e-38
0.0268440999056 -0.0161064599433 0.967 2.07161603071e-38
-0.0414163469002 -0.0144056858783 0.973 1.20595815905e-38
-0.0396156361654 -0.0144056858783 0.973 1.01180475357e-38
-0.0375817398678 -0.014316853283 0.967 1.15831345074e-38
-0.0357921332074 -0.014316853283 0.967 1.15798820937e-38
-0.0338970378401 -0.0142724369853 0.964 9.65241287157e-39
-0.0320463587704 -0.0142428261202 0.962 7.08317137359e-39
-0.0301716208728 -0.0141984098225 0.959 5.51407582596e-39
-0.0283079870497 -0.0141539935248 0.956 1.03056926104e-38
-0.026483217487 -0.0141243826597 0.954 1.1139358698e-38
-0.0247176696545 -0.0141243826597 0.954 1.44447190949e-38
-0.0230002394779 -0.0141539935248 0.956 1.66373083813e-38
-0.0211865739896 -0.0141243826597 0.954 1.53440612389e-38
-0.0194210261571 -0.0141243826597 0.954 1.42345019045e-38
-0.0176554783247 -0.0141243826597 0.954 1.38671599199e-38
-0.0158899304922 -0.0141243826597 0.954 1.31324759506e-38
-0.0140799663621 -0.0140799663621 0.951 1.24896274775e-38
-0.0123199705668 -0.0140799663621 0.951 1.34998179352e-38
-0.0105266625483 -0.0140355500644 0.948 1.44181728968e-38
-0.00877221879024 -0.0140355500644 0.948 1.5703869843e-38
-0.00701777503219 -0.0140355500644 0.948 1.54283633545e-38
-0.00526333127414 -0.0140355500644 0.948 1.44181728968e-38
-0.0035088875161 -0.0140355500644 0.948 1.47855148814e-38
-0.00175444375805 -0.0140355500644 0.948 1.53365278584e-38
0.0 -0.0140355500644 0.948 1.68998836875e-38
0.00175444375805 -0.0140355500644 0.948 1.74537665237e-38
0.0035088875161 -0.0140355500644 0.948 1.82867431725e-38
0.00526333127414 -0.0140355500644 0.948 1.69160266458e-38
0.00703998318103 -0.0140799663621 0.951 7.90861464179e-39
0.00879997897629 -0.0140799663621 0.951 1.37078827312e-38
0.0105932869948 -0.0141243826597 0.954 1.59793763315e-38
0.0123588348273 -0.0141243826597 0.954 1.56120343469e-38
0.0141539935248 -0.0141539935248 0.956 1.53365278584e-38
0.0159232427154 -0.0141539935248 0.956 1.49691858738e-38
0.0176924919061 -0.0141539935248 0.956 1.53365278584e-38
0.019522813506 -0.0141984098225 0.959 1.67148240084e-38
0.0212976147338 -0.0141984098225 0.959 2.08966335363e-38
0.0231927101011 -0.0142724369853 0.964 1.7215269729e-38
0.0250544932452 -0.014316853283 0.967 2.09932152304e-38
0.0268440999056 -0.014316853283 0.967 2.11761197124e-38
-0.0375817398678 -0.0125272466226 0.967 1.25990450655e-38
-0.0357921332074 -0.0125272466226 0.967 1.30506919683e-38
-0.0338970378401 -0.0124883823621 0.964 9.82890921575e-39
-0.0320463587704 -0.0124624728552 0.962 8.65047325919e-39
-0.0302660055054 -0.0124624728552 0.962 4.7801093215e-39
-0.0283079870497 -0.0123847443342 0.956 8.835611411e-39
-0.026483217487 -0.0123588348273 0.954 4.69042621979e-39
-0.0247176696545 -0.0123588348273 0.954 1.33326864687e-38
-0.0230002394779 -0.0123847443342 0.956 1.47855148814e-38
-0.0211865739896 -0.0123588348273 0.954 1.73741279294e-38
-0.0194210261571 -0.0123588348273 0.954 1.53390389852e-38
-0.0176554783247 -0.0123588348273 0.954 1.54283633545e-38
-0.0158899304922 -0.0123588348273 0.954 1.46018438891e-38
-0.0140799663621 -0.0123199705668 0.951 1.31324759506e-38
-0.0123199705668 -0.0123199705668 0.951 1.34079824391e-38
-0.0105599747715 -0.0123199705668 0.951 1.38671599199e-38
-0.00879997897629 -0.0123199705668 0.951 1.46936793853e-38
-0.00703998318103 -0.0123199705668 0.951 1.47855148814e-38
-0.00527998738577 -0.0123199705668 0.951 1.54283633545e-38
-0.00351999159051 -0.0123199705668 0.951 1.47855148814e-38
-0.00175999579526 -0.0123199705668 0.951 1.54290808194e-38
0.0 -0.0123199705668 0.951 1.60726467573e-38
0.00175999579526 -0.0123199705668 0.951 1.7364083422e-38
0.00351999159051 -0.0123199705668 0.951 1.90289605223e-38
0.00527998738577 -0.0123199705668 0.951 1.27834293187e-38
0.00703998318103 -0.0123199705668 0.951 6.91062108589e-39
0.00884624595303 -0.0123847443342 0.956 1.33391058169e-38
0.0106154951436 -0.0123847443342 0.956 1.53365278584e-38
0.0123847443342 -0.0123847443342 0.956 1.4510008393e-38
0.0141539935248 -0.0123847443342 0.956 1.53365278584e-38
0.0159232427154 -0.0123847443342 0.956 1.71732377815e-38
0.0176924919061 -0.0123847443342 0.956 2.02415951678e-38
0.019522813506 -0.0124236085947 0.959 2.00748560649e-38
0.0212976147338 -0.0124236085947 0.959 1.69441128709e-38
0.0231927101011 -0.0124883823621 0.964 1.46367432274e-38
0.0250544932452 -0.0125272466226 0.967 2.15520993008e-38
0.0269273804637 -0.0125661108831 0.97 2.10874693677e-38
-0.0375817398678 -0.0107376399622 0.967 1.13022232108e-38
-0.0357921332074 -0.0107376399622 0.967 1.36999906183e-38
-0.0338970378401 -0.010704327739 0.964 1.03774110659e-38
-0.0321129832169 -0.010704327739 0.964 1.24060540371e-38
-0.0302660055054 -0.0106821195901 0.962 1.31532824302e-38
-0.028396819645 -0.0106488073669 0.959 8.54787579083e-39
-0.026483217487 -0.0105932869948 0.954 3.67341984632e-39
-0.0247176696545 -0.0105932869948 0.954 1.70190571154e-38
-0.0230002394779 -0.0106154951436 0.956 1.45125195198e-38
-0.0212309902873 -0.0106154951436 0.956 1.5798216466e-38
-0.0194617410967 -0.0106154951436 0.956 1.53365278584e-38
-0.0176924919061 -0.0106154951436 0.956 1.56120343469e-38
-0.0158899304922 -0.0105932869948 0.954 1.61630473238e-38
-0.0141243826597 -0.0105932869948 0.954 1.50610213699e-38
-0.0123588348273 -0.0105932869948 0.954 1.51528568661e-38
-0.0105599747715 -0.0105599747715 0.951 1.40508309122e-38
-0.00879997897629 -0.0105599747715 0.951 1.50610213699e-38
-0.00703998318103 -0.0105599747715 0.951 1.49691858738e-38
-0.00527998738577 -0.0105599747715 0.951 1.50617388347e-38
-0.00351999159051 -0.0105599747715 0.951 1.5337962788e-38
-0.00175999579526 -0.0105599747715 0.951 1.49695446062e-38
0.0 -0.0105599747715 0.951 1.74566405869e-38
0.00175999579526 -0.0105599747715 0.951 1.69099281949e-38
0.00351999159051 -0.0105599747715 0.951 1.79309170586e-38
0.0052966434974 -0.0105932869948 0.954 9.10965073998e-39
0.00706219132986 -0.0105932869948 0.954 5.62887019615e-39
0.00884624595303 -0.0106154951436 0.956 1.31536411626e-38
0.0106154951436 -0.0106154951436 0.956 1.64385538123e-38
0.0123847443342 -0.0106154951436 0.956 2.08883742831e-38
0.0141539935248 -0.0106154951436 0.956 2.27434103876e-38
0.0159732110503 -0.0106488073669 0.959 2.11764756422e-38
0.0177480122781 -0.0106488073669 0.959 7.35078574911e-39
0.0195838859153 -0.0106821195901 0.962 1.79643814672e-38
0.021408655478 -0.010704327739 0.964 1.50959038926e-38
0.0232648865848 -0.0107376399622 0.967 1.65681430917e-38
0.0251322217661 -0.0107709521855 0.97 2.17357478723e-38
-0.0321129832169 -0.00892027311581 0.964 1.22166321159e-38
-0.0302660055054 -0.00890176632512 0.962 1.49788716487e-38
-0.028396819645 -0.00887400613907 0.959 1.17549435082e-38
-0.0265387378591 -0.00884624595303 0.956 1.01937400735e-38
-0.0247694886685 -0.00884624595303 0.956 1.39597128808e-38
-0.0230724159616 -0.00887400613907 0.959 1.49691858738e-38
-0.0212309902873 -0.00884624595303 0.956 1.76381774016e-38
-0.0194617410967 -0.00884624595303 0.956 1.8853191452e-38
-0.0176924919061 -0.00884624595303 0.956 1.85830659496e-38
-0.0159232427154 -0.00884624595303 0.956 1.74760345576e-38
-0.0141243826597 -0.00882773916233 0.954 1.90361351704e-38
-0.0123588348273 -0.00882773916233 0.954 1.3958995416e-38
-0.0105932869948 -0.00882773916233 0.954 1.59793763315e-38
-0.00882773916233 -0.00882773916233 0.954 1.46018438891e-38
-0.00706219132986 -0.00882773916233 0.954 1.48773503776e-38
-0.0052966434974 -0.00882773916233 0.954 1.53376040556e-38
-0.00353109566493 -0.00882773916233 0.954 1.53376040556e-38
-0.00176554783247 -0.00882773916233 0.954 1.52468447567e-38
0.0 -0.00882773916233 0.954 1.62577526792e-38
0.00176554783247 -0.00882773916233 0.954 1.8386843527e-38
0.00353109566493 -0.00882773916233 0.954 1.21398633808e-38
0.0052966434974 -0.00882773916233 0.954 7.64853364681e-39
0.00707699676242 -0.00884624595303 0.956 5.44268807699e-39
0.00884624595303 -0.00884624595303 0.956 1.10263579899e-38
0.0106154951436 -0.00884624595303 0.956 2.3476080691e-38
0.0124236085947 -0.00887400613907 0.959 2.34885858785e-38
0.0141984098225 -0.00887400613907 0.959 1.81383554742e-38
0.0159732110503 -0.00887400613907 0.959 1.7214974055e-38
0.0178035326502 -0.00890176632512 0.962 8.82661927876e-39
0.0196246008548 -0.00892027311581 0.964 1.80558330076e-38
0.0214752799245 -0.00894803330186 0.967 1.60181937003e-38
-0.0284856522404 -0.00712141306009 0.962 1.58111308327e-38
-0.0265387378591 -0.00707699676242 0.956 1.52608605439e-38
-0.0247694886685 -0.00707699676242 0.956 1.32264638412e-38
-0.0230724159616 -0.00709920491126 0.959 1.47855148814e-38
-0.0212309902873 -0.00707699676242 0.956 1.52446923622e-38
-0.0194617410967 -0.00707699676242 0.956 1.65461735343e-38
-0.0176924919061 -0.00707699676242 0.956 1.65472497316e-38
-0.0159232427154 -0.00707699676242 0.956 1.81181389412e-38
-0.0141539935248 -0.00707699676242 0.956 1.80241510506e-38
-0.0123847443342 -0.00707699676242 0.956 1.55270147664e-38
-0.0105932869948 -0.00706219132986 0.954 1.88298682404e-38
-0.00882773916233 -0.00706219132986 0.954 1.56120343469e-38
-0.00706219132986 -0.00706219132986 0.954 1.48773503776e-38
-0.0052966434974 -0.00706219132986 0.954 1.53376040556e-38
-0.00353849838121 -0.00707699676242 0.956 1.51550092605e-38
-0.00176924919061 -0.00707699676242 0.956 1.5617415333e-38
0.0 -0.00707699676242 0.956 1.65407925482e-38
0.00176924919061 -0.00707699676242 0.956 1.36081551221e-38
