# .PCD v0.7 - Point Cloud Data file format
VERSION 0.7
FIELDS x y z rgb
SIZE 4 4 4 4
TYPE F F F F
COUNT 1 1 1 1
WIDTH 834
HEIGHT 1
VIEWPOINT 0 0 0 1 0 0 0
POINTS 834
DATA ascii
0.165465514261 -0.0131620295435 1.016 2.35055359847e-38
0.167345804196 -0.0131620295435 1.016 2.35098253593e-38
0.169226094131 -0.0131620295435 1.016 2.35098029385e-38
0.171106384066 -0.0131620295435 1.016 2.35098225567e-38
0.172986674 -0.0131620295435 1.016 2.35098127476e-38
0.174866963935 -0.0131620295435 1.016 2.35098337671e-38
0.17674725387 -0.0131620295435 1.016 2.35098309645e-38
0.178627543805 -0.0131620295435 1.016 2.35098127476e-38
0.180507833739 -0.0131620295435 1.016 2.3508030296e-38
0.182388123674 -0.0131620295435 1.016 2.35098211554e-38
0.184268413609 -0.0131620295435 1.016 2.35091050919e-38
0.186148703544 -0.0131620295435 1.016 2.35098183528e-38
0.188028993479 -0.0131620295435 1.016 2.35098211554e-38
0.189909283413 -0.0131620295435 1.016 2.35094736334e-38
0.191789573348 -0.0131620295435 1.016 2.35098323658e-38
0.193669863283 -0.0131620295435 1.016 2.35098267606e-38
0.195550153218 -0.0131620295435 1.016 2.35098267606e-38
0.197430443153 -0.0131620295435 1.016 2.35098183528e-38
0.198722217143 -0.013123165283 1.013 2.35098323658e-38
0.200596955041 -0.013123165283 1.013 2.35098337671e-38
0.204346430836 -0.013123165283 1.013 2.3509837971e-38
0.206221168733 -0.013123165283 1.013 2.35098295632e-38
0.208095906631 -0.013123165283 1.013 2.35098309645e-38
0.209970644529 -0.013123165283 1.013 2.35098477801e-38
0.211845382426 -0.013123165283 1.013 2.35080274934e-38
0.213087188082 -0.0130843010226 1.01 2.35098491814e-38
0.214317889663 -0.0130454367621 1.007 2.35098533853e-38
0.216181523486 -0.0130454367621 1.007 2.35098421749e-38
0.21804515731 -0.0130454367621 1.007 2.26710207103e-38
0.219908791133 -0.0130454367621 1.007 2.34878361838e-38
-0.145433764011 -0.0114816129482 1.034 1.81412127217e-38
-0.143520161853 -0.0114816129482 1.034 1.8511421763e-38
-0.141606559695 -0.0114816129482 1.034 1.43600764638e-38
-0.139692957537 -0.0114816129482 1.034 2.3488898368e-38
-0.137779355379 -0.0114816129482 1.034 2.34968339213e-38
-0.124023257854 -0.011448300725 1.031 2.34975569913e-38
-0.122115207733 -0.011448300725 1.031 2.34903445081e-38
-0.120207157612 -0.011448300725 1.031 2.34946703164e-38
-0.118299107492 -0.011448300725 1.031 2.34946661125e-38
-0.116391057371 -0.011448300725 1.031 2.34953849786e-38
-0.11448300725 -0.011448300725 1.031 2.34979521574e-38
-0.112574957129 -0.011448300725 1.031 2.34982576405e-38
-0.110666907008 -0.011448300725 1.031 2.3491095604e-38
-0.108758856887 -0.011448300725 1.031 2.34964835966e-38
-0.106850806767 -0.011448300725 1.031 2.34939416412e-38
-0.104942756646 -0.011448300725 1.031 2.34932031569e-38
-0.103034706525 -0.011448300725 1.031 2.34925417441e-38
-0.101126656404 -0.011448300725 1.031 2.34939444438e-38
-0.0992186062832 -0.011448300725 1.031 2.34957619279e-38
-0.0973105561624 -0.011448300725 1.031 2.34968409277e-38
-0.0951249041811 -0.0114149885017 1.028 2.34939556542e-38
-0.0932224060975 -0.0114149885017 1.028 2.34957619279e-38
-0.0913199080138 -0.0114149885017 1.028 2.34943241957e-38
-0.0894174099302 -0.0114149885017 1.028 2.34957563227e-38
-0.0875149118466 -0.0114149885017 1.028 2.34964695836e-38
-0.085612413763 -0.0114149885017 1.028 2.34979269341e-38
-0.0837099156794 -0.0114149885017 1.028 2.34964793927e-38
-0.0818074175957 -0.0114149885017 1.028 2.34957296981e-38
-0.0799049195121 -0.0114149885017 1.028 2.34917934507e-38
-0.0780024214285 -0.0114149885017 1.028 2.34946801255e-38
-0.0760999233449 -0.0114149885017 1.028 2.34961122525e-38
-0.0741974252613 -0.0114149885017 1.028 2.34939682659e-38
-0.0722949271776 -0.0114149885017 1.028 2.34965130239e-38
-0.070392429094 -0.0114149885017 1.028 2.34964709849e-38
-0.0682900576709 -0.0113816762785 1.025 2.34993534559e-38
-0.0663931116244 -0.0113816762785 1.025 2.35007743725e-38
-0.064496165578 -0.0113816762785 1.025 2.3500781379e-38
-0.0625992195316 -0.0113816762785 1.025 2.34997556285e-38
-0.0607022734852 -0.0113816762785 1.025 2.35000765259e-38
-0.0588053274388 -0.0113816762785 1.025 2.35000681181e-38
-0.0569083813924 -0.0113816762785 1.025 2.35004394622e-38
-0.055011435346 -0.0113816762785 1.025 2.34993646663e-38
-0.0531144892996 -0.0113816762785 1.025 2.35022233151e-38
-0.0512175432531 -0.0113816762785 1.025 2.34989933222e-38
-0.0493205972067 -0.0113816762785 1.025 2.34961206603e-38
-0.0474236511603 -0.0113816762785 1.025 2.35004492713e-38
-0.0455267051139 -0.0113816762785 1.025 2.35008444375e-38
-0.0436297590675 -0.0113816762785 1.025 2.35022191112e-38
-0.0417328130211 -0.0113816762785 1.025 2.3498987717e-38
-0.0398358669747 -0.0113816762785 1.025 2.34989975261e-38
-0.0379389209283 -0.0113816762785 1.025 2.35004772973e-38
-0.0360419748818 -0.0113816762785 1.025 2.34968521381e-38
-0.0340450921657 -0.0113483640552 1.022 2.34982590418e-38
-0.0321536981565 -0.0113483640552 1.022 2.34975177549e-38
-0.0302623041473 -0.0113483640552 1.022 2.34975457809e-38
-0.0283709101381 -0.0113483640552 1.022 2.34975401757e-38
-0.0264795161289 -0.0113483640552 1.022 2.34975499848e-38
-0.0245881221196 -0.0113483640552 1.022 2.3494311584e-38
-0.0226967281104 -0.0113483640552 1.022 2.35000849337e-38
-0.0208664065105 -0.0113816762785 1.025 2.34957619279e-38
-0.0189694604641 -0.0113816762785 1.025 2.34925221259e-38
-0.0170725144177 -0.0113816762785 1.025 2.34939598581e-38
-0.0151755683713 -0.0113816762785 1.025 2.34932395907e-38
-0.0132786223249 -0.0113816762785 1.025 2.34943157879e-38
-0.0113816762785 -0.0113816762785 1.025 2.34907172535e-38
-0.00948473023206 -0.0113816762785 1.025 2.34928696479e-38
-0.00758778418565 -0.0113816762785 1.025 2.34932325842e-38
-0.00567418202761 -0.0113483640552 1.022 2.34871117125e-38
-0.00378278801841 -0.0113483640552 1.022 2.34921507818e-38
-0.0018913940092 -0.0113483640552 1.022 2.34899675588e-38
0.0 -0.0113483640552 1.022 2.34838747131e-38
0.0018913940092 -0.0113483640552 1.022 1.7478552691e-38
0.00339784677192 -0.0101935403157 0.918 1.90397505204e-38
0.00509677015787 -0.0101935403157 0.918 1.80238329559e-38
0.00679569354383 -0.0101935403157 0.918 1.92194922719e-38
0.008420589767 -0.0101047077204 0.91 1.72919796095e-38
0.0101047077204 -0.0101047077204 0.91 2.07979036517e-38
0.0117629161668 -0.0100824995716 0.908 1.84052593914e-38
0.0134433327621 -0.0100824995716 0.908 2.3491686952e-38
0.0151237493574 -0.0100824995716 0.908 2.34863844386e-38
0.0168041659526 -0.0100824995716 0.908 2.1450856888e-38
0.0184845825479 -0.0100824995716 0.908 1.9982233039e-38
0.0201205828455 -0.0100602914227 0.906 2.14557852547e-38
0.0217972980826 -0.0100602914227 0.906 2.34931975517e-38
0.0234740133197 -0.0100602914227 0.906 2.15491733896e-38
0.0251507285568 -0.0100602914227 0.906 2.06131718764e-38
0.026827443794 -0.0100602914227 0.906 1.90480518125e-38
0.0285041590311 -0.0100602914227 0.906 1.96155959075e-38
0.0301808742682 -0.0100602914227 0.906 2.23901640642e-38
0.0318575895053 -0.0100602914227 0.906 2.3506208608e-38
0.0335343047424 -0.0100602914227 0.906 2.35058386652e-38
0.0352110199796 -0.0100602914227 0.906 2.23958995789e-38
0.0368877352167 -0.0100602914227 0.906 1.68627927185e-38
0.0385644504538 -0.0100602914227 0.906 1.40868064476e-38
0.0402411656909 -0.0100602914227 0.906 1.88625086855e-38
0.041917880928 -0.0100602914227 0.906 1.94203375782e-38
0.0435945961652 -0.0100602914227 0.906 2.35096249736e-38
0.0452713114023 -0.0100602914227 0.906 2.35098001359e-38
0.0469480266394 -0.0100602914227 0.906 2.35097510905e-38
0.0486247418765 -0.0100602914227 0.906 1.30894280618e-38
0.0503014571137 -0.0100602914227 0.906 1.57538891917e-38
0.0519781723508 -0.0100602914227 0.906 2.35098505827e-38
0.0536548875879 -0.0100602914227 0.906 2.35098856151e-38
0.055331602825 -0.0100602914227 0.906 2.07414383301e-38
0.0570083180621 -0.0100602914227 0.906 1.76697234326e-38
0.0586850332993 -0.0100602914227 0.906 2.05040681793e-38
0.0603617485364 -0.0100602914227 0.906 2.27078075975e-38
0.0625177896526 -0.0101380199437 0.913 2.34457832169e-38
0.0645590886664 -0.0101935403157 0.918 2.34539808129e-38
0.0664023650198 -0.0102157484646 0.92 2.34676350651e-38
0.0684751255778 -0.0102712688367 0.925 2.34889291966e-38
0.0770918873262 -0.0112817396087 1.016 2.35098113463e-38
0.078972177261 -0.0112817396087 1.016 2.35098449775e-38
0.0808524671958 -0.0112817396087 1.016 2.35098113463e-38
0.0827327571306 -0.0112817396087 1.016 2.35098505827e-38
0.0846130470654 -0.0112817396087 1.016 2.35098393723e-38
0.0862379432885 -0.0112484273855 1.013 2.3509837971e-38
0.0881126811861 -0.0112484273855 1.013 2.35098547866e-38
0.0899874190837 -0.0112484273855 1.013 2.35098351684e-38
0.0918621569813 -0.0112484273855 1.013 2.35098253593e-38
0.0937368948788 -0.0112484273855 1.013 2.35098365697e-38
0.0956116327764 -0.0112484273855 1.013 2.35098281619e-38
0.097486370674 -0.0112484273855 1.013 2.35098365697e-38
0.0993611085716 -0.0112484273855 1.013 2.35098337671e-38
0.101235846469 -0.0112484273855 1.013 2.35098505827e-38
0.103110584367 -0.0112484273855 1.013 2.35098407736e-38
0.104985322264 -0.0112484273855 1.013 2.35084212583e-38
0.106860060162 -0.0112484273855 1.013 2.35098351684e-38
0.108734798059 -0.0112484273855 1.013 2.35098687996e-38
0.110609535957 -0.0112484273855 1.013 2.35098309645e-38
0.112817396087 -0.0112817396087 1.016 2.35098253593e-38
0.114697686022 -0.0112817396087 1.016 2.35098337671e-38
0.116577975957 -0.0112817396087 1.016 2.35098309645e-38
0.118458265892 -0.0112817396087 1.016 2.35098309645e-38
0.120338555826 -0.0112817396087 1.016 2.35098421749e-38
0.122218845761 -0.0112817396087 1.016 2.35098337671e-38
0.124099135696 -0.0112817396087 1.016 2.35098435762e-38
0.125979425631 -0.0112817396087 1.016 2.35098253593e-38
0.127859715565 -0.0112817396087 1.016 2.35098337671e-38
0.1297400055 -0.0112817396087 1.016 2.35098449775e-38
0.131620295435 -0.0112817396087 1.016 2.35098645957e-38
0.13350058537 -0.0112817396087 1.016 2.35098183528e-38
0.135380875305 -0.0112817396087 1.016 2.35098365697e-38
0.137261165239 -0.0112817396087 1.016 2.35097987346e-38
0.139141455174 -0.0112817396087 1.016 2.35098477801e-38
0.141021745109 -0.0112817396087 1.016 2.35098253593e-38
0.142902035044 -0.0112817396087 1.016 2.35098561879e-38
0.144782324979 -0.0112817396087 1.016 2.35098337671e-38
0.146662614913 -0.0112817396087 1.016 2.35098309645e-38
0.148542904848 -0.0112817396087 1.016 2.35098337671e-38
0.150423194783 -0.0112817396087 1.016 2.35098169515e-38
0.152303484718 -0.0112817396087 1.016 2.35098295632e-38
0.154183774652 -0.0112817396087 1.016 2.35098253593e-38
0.156064064587 -0.0112817396087 1.016 2.35098253593e-38
0.157944354522 -0.0112817396087 1.016 2.3509809945e-38
0.159824644457 -0.0112817396087 1.016 2.35083680089e-38
0.161704934392 -0.0112817396087 1.016 2.35098323658e-38
0.163585224326 -0.0112817396087 1.016 2.35098421749e-38
0.165465514261 -0.0112817396087 1.016 2.35098337671e-38
0.167345804196 -0.0112817396087 1.016 2.35098365697e-38
0.168726410782 -0.0112484273855 1.013 2.35098295632e-38
0.170601148679 -0.0112484273855 1.013 2.35098309645e-38
0.172986674 -0.0112817396087 1.016 2.35098281619e-38
0.174866963935 -0.0112817396087 1.016 2.35098309645e-38
0.17674725387 -0.0112817396087 1.016 2.35098463788e-38
0.178627543805 -0.0112817396087 1.016 2.35098505827e-38
0.180507833739 -0.0112817396087 1.016 2.35098225567e-38
0.182388123674 -0.0112817396087 1.016 2.35098351684e-38
0.184268413609 -0.0112817396087 1.016 2.35098155502e-38
0.186148703544 -0.0112817396087 1.016 2.35098337671e-38
0.196847479246 -0.0112484273855 1.013 2.35098393723e-38
0.198722217143 -0.0112484273855 1.013 2.35098351684e-38
0.200596955041 -0.0112484273855 1.013 2.35098351684e-38
0.202471692938 -0.0112484273855 1.013 2.35098295632e-38
0.204346430836 -0.0112484273855 1.013 2.35098561879e-38
0.206221168733 -0.0112484273855 1.013 2.35098351684e-38
0.208095906631 -0.0112484273855 1.013 2.35098365697e-38
0.209970644529 -0.0112484273855 1.013 2.35098435762e-38
0.211218002222 -0.0112151151622 1.01 2.35098435762e-38
0.213087188082 -0.0112151151622 1.01 2.35098351684e-38
0.214317889663 -0.011181802939 1.007 2.35098744048e-38
0.216181523486 -0.011181802939 1.007 2.35098197541e-38
0.21804515731 -0.011181802939 1.007 2.21189399439e-38
0.219908791133 -0.011181802939 1.007 2.3489597616e-38
0.221772424956 -0.011181802939 1.007 2.34914235079e-38
-0.131655458337 -0.00954025060415 1.031 2.34961248642e-38
-0.129747408216 -0.00954025060415 1.031 2.34900404263e-38
-0.127839358096 -0.00954025060415 1.031 2.349361654e-38
-0.125931307975 -0.00954025060415 1.031 2.34968311187e-38
-0.124023257854 -0.00954025060415 1.031 2.34921816103e-38
-0.122115207733 -0.00954025060415 1.031 2.34971968576e-38
-0.119857379268 -0.00951249041811 1.028 2.3492879457e-38
-0.117954881185 -0.00951249041811 1.028 2.34960982396e-38
-0.116052383101 -0.00951249041811 1.028 2.34903627249e-38
-0.114149885017 -0.00951249041811 1.028 2.34957465136e-38
-0.112247386934 -0.00951249041811 1.028 2.34928710492e-38
-0.11034488885 -0.00951249041811 1.028 2.34928948713e-38
-0.108442390766 -0.00951249041811 1.028 2.34954059981e-38
-0.106850806767 -0.00954025060415 1.031 2.3493226979e-38
-0.104637394599 -0.00951249041811 1.028 2.34971898511e-38
-0.102734896516 -0.00951249041811 1.028 2.34953905838e-38
-0.101126656404 -0.00954025060415 1.031 2.34975485835e-38
-0.0989299003483 -0.00951249041811 1.028 2.34953891825e-38
-0.0970274022647 -0.00951249041811 1.028 2.34961122525e-38
-0.0951249041811 -0.00951249041811 1.028 2.34957212903e-38
-0.0932224060975 -0.00951249041811 1.028 2.34921367688e-38
-0.0913199080138 -0.00951249041811 1.028 2.34957184877e-38
-0.0894174099302 -0.00951249041811 1.028 2.3495743711e-38
-0.0875149118466 -0.00951249041811 1.028 2.34978848951e-38
-0.0853625720886 -0.00948473023206 1.025 2.34975401757e-38
-0.0834656260422 -0.00948473023206 1.025 2.3493574501e-38
-0.0818074175957 -0.00951249041811 1.028 2.34964541694e-38
-0.0799049195121 -0.00951249041811 1.028 2.34946633099e-38
-0.0777747879029 -0.00948473023206 1.025 2.34986219781e-38
-0.0758778418565 -0.00948473023206 1.025 2.34943143866e-38
-0.0739808958101 -0.00948473023206 1.025 2.3493602527e-38
-0.0720839497637 -0.00948473023206 1.025 2.34946829281e-38
-0.0701870037173 -0.00948473023206 1.025 2.34957507175e-38
-0.0682900576709 -0.00948473023206 1.025 2.35007911881e-38
-0.0663931116244 -0.00948473023206 1.025 2.35015086529e-38
-0.064496165578 -0.00948473023206 1.025 2.34975611952e-38
-0.0625992195316 -0.00948473023206 1.025 2.34982884691e-38
-0.0607022734852 -0.00948473023206 1.025 2.34975541887e-38
-0.0588053274388 -0.00948473023206 1.025 2.34989610923e-38
-0.0567418202761 -0.00945697004602 1.022 2.35000821311e-38
-0.0548504262669 -0.00945697004602 1.022 2.34993590611e-38
-0.0529590322577 -0.00945697004602 1.022 2.34982982781e-38
-0.0510676382485 -0.00945697004602 1.022 2.34982716535e-38
-0.0491762442393 -0.00945697004602 1.022 2.34975541887e-38
-0.0472848502301 -0.00945697004602 1.022 2.35004184427e-38
-0.0455267051139 -0.00948473023206 1.025 2.34989989274e-38
-0.0435020622117 -0.00945697004602 1.022 2.34986415963e-38
-0.0416106682025 -0.00945697004602 1.022 2.3500781379e-38
-0.0398358669747 -0.00948473023206 1.025 2.34943199918e-38
-0.0379389209283 -0.00948473023206 1.025 2.34957395071e-38
-0.0359364861749 -0.00945697004602 1.022 2.34943157879e-38
-0.0340450921657 -0.00945697004602 1.022 2.34896508653e-38
-0.0321536981565 -0.00945697004602 1.022 2.35022387294e-38
-0.0302623041473 -0.00945697004602 1.022 2.34957815461e-38
-0.0283709101381 -0.00945697004602 1.022 2.34968339213e-38
-0.0264795161289 -0.00945697004602 1.022 2.34982590418e-38
-0.0245881221196 -0.00945697004602 1.022 2.34961122525e-38
-0.0226967281104 -0.00945697004602 1.022 2.34936053296e-38
-0.0208664065105 -0.00948473023206 1.025 2.34950374566e-38
-0.0189694604641 -0.00948473023206 1.025 2.34942989723e-38
-0.0170725144177 -0.00948473023206 1.025 2.34939178191e-38
-0.0151755683713 -0.00948473023206 1.025 2.34917934507e-38
-0.0132786223249 -0.00948473023206 1.025 2.34917962533e-38
-0.0113816762785 -0.00948473023206 1.025 2.34903599223e-38
-0.00948473023206 -0.00948473023206 1.025 2.34907172535e-38
-0.00758778418565 -0.00948473023206 1.025 2.34910563677e-38
-0.00569083813924 -0.00948473023206 1.025 2.34881837058e-38
-0.00379389209283 -0.00948473023206 1.025 2.34860355153e-38
-0.00189694604641 -0.00948473023206 1.025 2.34907018392e-38
0.0 -0.00948473023206 1.025 2.3488898368e-38
0.00340524948819 -0.00851312372049 0.92 1.72909230305e-38
0.00510787423229 -0.00851312372049 0.92 1.86695582947e-38
0.00681049897639 -0.00851312372049 0.92 1.85694537363e-38
0.008420589767 -0.008420589767 0.91 1.77382665457e-38
0.0101047077204 -0.008420589767 0.91 1.70014049587e-38
0.0117629161668 -0.00840208297631 0.908 2.06017204654e-38
0.013413721897 -0.00838357618561 0.906 1.90644750305e-38
0.0150904371341 -0.00838357618561 0.906 1.96086861048e-38
0.0167671523712 -0.00838357618561 0.906 2.3483583243e-38
0.0184438676083 -0.00838357618561 0.906 2.33034435228e-38
0.0201205828455 -0.00838357618561 0.906 2.02508115078e-38
0.0217972980826 -0.00838357618561 0.906 2.33901740886e-38
0.0234740133197 -0.00838357618561 0.906 2.15516648983e-38
0.0251507285568 -0.00838357618561 0.906 2.3477606705e-38
0.026827443794 -0.00838357618561 0.906 2.34964247421e-38
0.0285041590311 -0.00838357618561 0.906 2.35032504669e-38
0.0301808742682 -0.00838357618561 0.906 2.34974925315e-38
0.0318575895053 -0.00838357618561 0.906 2.34945357918e-38
0.0335343047424 -0.00838357618561 0.906 2.34905490976e-38
0.0352110199796 -0.00838357618561 0.906 2.35006776829e-38
0.0368877352167 -0.00838357618561 0.906 2.35086945115e-38
0.0385644504538 -0.00838357618561 0.906 2.35097482879e-38
0.0402411656909 -0.00838357618561 0.906 2.35097875243e-38
0.0417790799978 -0.00835581599956 0.903 2.35097552944e-38
0.0434502431977 -0.00835581599956 0.903 2.35089495478e-38
0.0452713114023 -0.00838357618561 0.906 1.87878923449e-38
0.0469480266394 -0.00838357618561 0.906 1.7591519768e-38
0.0486247418765 -0.00838357618561 0.906 2.35097034463e-38
0.0503014571137 -0.00838357618561 0.906 2.35097202619e-38
0.0519781723508 -0.00838357618561 0.906 2.35097132554e-38
0.0536548875879 -0.00838357618561 0.906 1.77716062388e-38
0.055331602825 -0.00838357618561 0.906 1.89313853076e-38
0.0570083180621 -0.00838357618561 0.906 2.13234129966e-38
0.0586850332993 -0.00838357618561 0.906 2.34417376682e-38
0.0603617485364 -0.00838357618561 0.906 2.34507662342e-38
0.0628601652804 -0.00849461692979 0.918 2.31698773584e-38
0.0646997402757 -0.00851312372049 0.92 2.3453333413e-38
0.0666188944709 -0.00854088390653 0.923 2.34698547219e-38
0.0683270712523 -0.00854088390653 0.923 2.34867515788e-38
0.0770918873262 -0.00940144967393 1.016 2.35098337671e-38
0.078972177261 -0.00940144967393 1.016 2.35098309645e-38
0.0808524671958 -0.00940144967393 1.016 2.35087491621e-38
0.0827327571306 -0.00940144967393 1.016 2.35098421749e-38
0.084363205391 -0.00937368948788 1.013 2.35098267606e-38
0.0862379432885 -0.00937368948788 1.013 2.35098253593e-38
0.0881126811861 -0.00937368948788 1.013 2.35098085437e-38
0.0899874190837 -0.00937368948788 1.013 2.35098365697e-38
0.0918621569813 -0.00937368948788 1.013 2.35098351684e-38
0.0937368948788 -0.00937368948788 1.013 2.35098449775e-38
0.0956116327764 -0.00937368948788 1.013 2.35098323658e-38
0.097486370674 -0.00937368948788 1.013 2.3509837971e-38
0.0990668505995 -0.00934592930184 1.01 2.35098421749e-38
0.10093603646 -0.00934592930184 1.01 2.35094806399e-38
0.10280522232 -0.00934592930184 1.01 2.35098435762e-38
0.104674408181 -0.00934592930184 1.01 2.3509823958e-38
0.106860060162 -0.00937368948788 1.013 2.35098085437e-38
0.108734798059 -0.00937368948788 1.013 2.35098393723e-38
0.110609535957 -0.00937368948788 1.013 2.35098113463e-38
0.112817396087 -0.00940144967393 1.016 2.35098281619e-38
0.114697686022 -0.00940144967393 1.016 2.35098337671e-38
0.116577975957 -0.00940144967393 1.016 2.35098337671e-38
0.118458265892 -0.00940144967393 1.016 2.35098141489e-38
0.120338555826 -0.00940144967393 1.016 2.35098575892e-38
0.122218845761 -0.00940144967393 1.016 2.35098393723e-38
0.124099135696 -0.00940144967393 1.016 2.3509837971e-38
0.125979425631 -0.00940144967393 1.016 2.3509823958e-38
0.127859715565 -0.00940144967393 1.016 2.35098057411e-38
0.1297400055 -0.00940144967393 1.016 2.35098323658e-38
0.131620295435 -0.00940144967393 1.016 2.35098477801e-38
0.13350058537 -0.00940144967393 1.016 2.35098393723e-38
0.135380875305 -0.00940144967393 1.016 2.35098337671e-38
0.137261165239 -0.00940144967393 1.016 2.35098337671e-38
0.139141455174 -0.00940144967393 1.016 2.35098463788e-38
0.141021745109 -0.00940144967393 1.016 2.35098309645e-38
0.142902035044 -0.00940144967393 1.016 2.35098786087e-38
0.144782324979 -0.00940144967393 1.016 2.35098309645e-38
0.146662614913 -0.00940144967393 1.016 2.35098295632e-38
0.148542904848 -0.00940144967393 1.016 2.35098603918e-38
0.150423194783 -0.00940144967393 1.016 2.35098435762e-38
0.152303484718 -0.00940144967393 1.016 2.35098309645e-38
0.154183774652 -0.00940144967393 1.016 2.35098295632e-38
0.156064064587 -0.00940144967393 1.016 2.35090826711e-38
0.157477983396 -0.00937368948788 1.013 2.35098505827e-38
0.159352721294 -0.00937368948788 1.013 2.35098225567e-38
0.161704934392 -0.00940144967393 1.016 2.35098183528e-38
0.163585224326 -0.00940144967393 1.016 2.35094526139e-38
0.164976934987 -0.00937368948788 1.013 2.35098365697e-38
0.166851672884 -0.00937368948788 1.013 2.3508753366e-38
0.168726410782 -0.00937368948788 1.013 2.35098449775e-38
0.170601148679 -0.00937368948788 1.013 2.35080148817e-38
0.172475886577 -0.00937368948788 1.013 2.35098309645e-38
0.174350624475 -0.00937368948788 1.013 2.35094315944e-38
0.176225362372 -0.00937368948788 1.013 2.35069569014e-38
0.17810010027 -0.00937368948788 1.013 2.35098435762e-38
0.179974838167 -0.00937368948788 1.013 2.35098267606e-38
0.194972741348 -0.00937368948788 1.013 2.35098365697e-38
0.196847479246 -0.00937368948788 1.013 2.35098449775e-38
0.198722217143 -0.00937368948788 1.013 2.3509865997e-38
0.200596955041 -0.00937368948788 1.013 2.35098253593e-38
0.202471692938 -0.00937368948788 1.013 2.35098113463e-38
0.204346430836 -0.00937368948788 1.013 2.35098267606e-38
0.206221168733 -0.00937368948788 1.013 2.35098351684e-38
0.208095906631 -0.00937368948788 1.013 2.35098407736e-38
0.209970644529 -0.00937368948788 1.013 2.35098575892e-38
0.211218002222 -0.00934592930184 1.01 2.3509837971e-38
0.213087188082 -0.00934592930184 1.01 2.35098267606e-38
0.214317889663 -0.00931816911579 1.007 2.35098295632e-38
0.216181523486 -0.00931816911579 1.007 2.35098155502e-38
0.21804515731 -0.00931816911579 1.007 2.23984233174e-38
0.219908791133 -0.00931816911579 1.007 2.34899493419e-38
0.221772424956 -0.00931816911579 1.007 2.34896102277e-38
0.223636058779 -0.00931816911579 1.007 2.34917822403e-38
-0.1373796087 -0.00763220048332 1.031 2.34964976096e-38
-0.135471558579 -0.00763220048332 1.031 2.34910731833e-38
-0.133563508458 -0.00763220048332 1.031 2.34961206603e-38
-0.131655458337 -0.00763220048332 1.031 2.34917990559e-38
-0.129747408216 -0.00763220048332 1.031 2.34906990366e-38
-0.127839358096 -0.00763220048332 1.031 2.34932479985e-38
-0.125931307975 -0.00763220048332 1.031 2.34935857114e-38
-0.123662375435 -0.00760999233449 1.028 2.34957479149e-38
-0.121759877352 -0.00760999233449 1.028 2.34968100992e-38
-0.119507600924 -0.00758778418565 1.025 2.34917962533e-38
-0.117610654878 -0.00758778418565 1.025 2.34939388386e-38
-0.115713708831 -0.00758778418565 1.025 2.34939388386e-38
-0.114149885017 -0.00760999233449 1.028 2.34982492327e-38
-0.112247386934 -0.00760999233449 1.028 2.34925305337e-38
-0.11034488885 -0.00760999233449 1.028 2.34968367238e-38
-0.108442390766 -0.00760999233449 1.028 2.34961094499e-38
-0.106539892683 -0.00760999233449 1.028 2.34928710492e-38
-0.104637394599 -0.00760999233449 1.028 2.34950416605e-38
-0.102734896516 -0.00760999233449 1.028 2.34996995766e-38
-0.100832398432 -0.00760999233449 1.028 2.34946647112e-38
-0.0989299003483 -0.00760999233449 1.028 2.34939612594e-38
-0.0970274022647 -0.00760999233449 1.028 2.34982674496e-38
-0.0951249041811 -0.00760999233449 1.028 2.34943171892e-38
-0.0932224060975 -0.00760999233449 1.028 2.34932395907e-38
-0.0913199080138 -0.00760999233449 1.028 2.34968213096e-38
-0.0891564641814 -0.00758778418565 1.025 2.34979101185e-38
-0.087259518135 -0.00758778418565 1.025 2.34979143224e-38
-0.0853625720886 -0.00758778418565 1.025 2.34989891183e-38
-0.0834656260422 -0.00758778418565 1.025 2.34943101827e-38
-0.0815686799958 -0.00758778418565 1.025 2.34979213289e-38
-0.0796717339493 -0.00758778418565 1.025 2.34961178577e-38
-0.0777747879029 -0.00758778418565 1.025 2.34950374566e-38
-0.0758778418565 -0.00758778418565 1.025 2.34993394429e-38
-0.0739808958101 -0.00758778418565 1.025 2.34960996409e-38
-0.0720839497637 -0.00758778418565 1.025 2.3496456972e-38
-0.0701870037173 -0.00758778418565 1.025 2.34975611952e-38
-0.0682900576709 -0.00758778418565 1.025 2.3499696774e-38
-0.0663931116244 -0.00758778418565 1.025 2.34989723027e-38
-0.064496165578 -0.00758778418565 1.025 2.35011415127e-38
-0.0625992195316 -0.00758778418565 1.025 2.34996911688e-38
-0.0607022734852 -0.00758778418565 1.025 2.35000779272e-38
-0.0588053274388 -0.00758778418565 1.025 2.34982758574e-38
-0.0567418202761 -0.00756557603682 1.022 2.350117094e-38
-0.0548504262669 -0.00756557603682 1.022 2.34989779079e-38
-0.0529590322577 -0.00756557603682 1.022 2.3497917125e-38
-0.0510676382485 -0.00756557603682 1.022 2.34979311379e-38
-0.0491762442393 -0.00756557603682 1.022 2.3499762635e-38
-0.0472848502301 -0.00756557603682 1.022 2.34982464301e-38
-0.0453934562209 -0.00756557603682 1.022 2.34982716535e-38
-0.0435020622117 -0.00756557603682 1.022 2.34971772394e-38
-0.0416106682025 -0.00756557603682 1.022 2.35018743918e-38
-0.0397192741933 -0.00756557603682 1.022 2.34961290681e-38
-0.0378278801841 -0.00756557603682 1.022 2.3499039565e-38
-0.0359364861749 -0.00756557603682 1.022 2.34993436468e-38
-0.0340450921657 -0.00756557603682 1.022 2.34964779914e-38
-0.0321536981565 -0.00756557603682 1.022 2.34978905003e-38
-0.0302623041473 -0.00756557603682 1.022 2.34964709849e-38
-0.0283709101381 -0.00756557603682 1.022 2.34950472657e-38
-0.0264795161289 -0.00756557603682 1.022 2.34975401757e-38
-0.0245159456359 -0.00754336788798 1.019 2.34910535651e-38
-0.0226301036639 -0.00754336788798 1.019 2.34928780557e-38
-0.0208053341012 -0.00756557603682 1.022 2.3494673119e-38
-0.018913940092 -0.00756557603682 1.022 2.34896508653e-38
-0.0170225460828 -0.00756557603682 1.022 2.34946773229e-38
-0.0151311520736 -0.00756557603682 1.022 2.34932493998e-38
-0.0132397580644 -0.00756557603682 1.022 2.34932423933e-38
-0.0113483640552 -0.00756557603682 1.022 2.34935801062e-38
-0.00945697004602 -0.00756557603682 1.022 2.34910563677e-38
-0.00756557603682 -0.00756557603682 1.022 2.34867473749e-38
-0.00567418202761 -0.00756557603682 1.022 2.34867641905e-38
0.00340524948819 -0.00681049897639 0.92 1.75707483208e-38
0.00513563441834 -0.00684751255778 0.925 1.82085801454e-38
0.00684751255778 -0.00684751255778 0.925 1.82946647127e-38
0.00844834995305 -0.00675867996244 0.913 1.77375504822e-38
0.0101047077204 -0.0067364718136 0.91 1.89328202372e-38
0.0117629161668 -0.00672166638105 0.908 1.59847671267e-38
0.013413721897 -0.00670686094849 0.906 1.88535417766e-38
0.0150904371341 -0.00670686094849 0.906 2.04323931642e-38
0.0167671523712 -0.00670686094849 0.906 1.67549557951e-38
0.0184438676083 -0.00670686094849 0.906 1.90562311917e-38
0.0201205828455 -0.00670686094849 0.906 2.3496119259e-38
0.0217972980826 -0.00670686094849 0.906 2.34967610537e-38
0.0234740133197 -0.00670686094849 0.906 2.16438016736e-38
0.0251507285568 -0.00670686094849 0.906 2.16329990637e-38
0.0267386111986 -0.00668465279965 0.903 2.15329155248e-38
0.0284097743985 -0.00668465279965 0.903 2.34798109475e-38
0.0301808742682 -0.00670686094849 0.906 2.34921689987e-38
0.0318575895053 -0.00670686094849 0.906 2.34938379451e-38
0.0335343047424 -0.00670686094849 0.906 2.35002376752e-38
0.0352110199796 -0.00670686094849 0.906 2.34909568755e-38
0.0368877352167 -0.00670686094849 0.906 2.08150905774e-38
0.0385644504538 -0.00670686094849 0.906 1.87731871188e-38
0.0401079167979 -0.00668465279965 0.903 2.07071107216e-38
0.0417790799978 -0.00668465279965 0.903 2.20957778816e-38
0.0434502431977 -0.00668465279965 0.903 2.35015072516e-38
0.0452713114023 -0.00670686094849 0.906 2.35098029385e-38
0.0469480266394 -0.00670686094849 0.906 2.35097272684e-38
0.0486247418765 -0.00670686094849 0.906 2.22186185075e-38
0.0503014571137 -0.00670686094849 0.906 1.9700611284e-38
0.0519781723508 -0.00670686094849 0.906 2.03236496007e-38
0.0536548875879 -0.00670686094849 0.906 1.88499530512e-38
0.055331602825 -0.00670686094849 0.906 2.22543502171e-38
0.0570083180621 -0.00670686094849 0.906 2.34633961373e-38
0.0588145808341 -0.00672166638105 0.908 2.31637340659e-38
0.0608281196619 -0.00675867996244 0.913 2.34504145083e-38
0.0626547399037 -0.006773485395 0.915 2.34471817128e-38
0.0646997402757 -0.00681049897639 0.92 2.34558291256e-38
0.0666188944709 -0.00683270712523 0.923 2.34734406447e-38
0.0683270712523 -0.00683270712523 0.923 2.34914389222e-38
0.0770918873262 -0.00752115973914 1.016 2.35098253593e-38
0.078972177261 -0.00752115973914 1.016 2.35098295632e-38
0.0808524671958 -0.00752115973914 1.016 2.35098197541e-38
0.0827327571306 -0.00752115973914 1.016 2.35098323658e-38
0.084363205391 -0.00749895159031 1.013 2.35098435762e-38
0.0862379432885 -0.00749895159031 1.013 2.35098477801e-38
0.0881126811861 -0.00749895159031 1.013 2.35098323658e-38
0.0899874190837 -0.00749895159031 1.013 2.35098337671e-38
0.0918621569813 -0.00749895159031 1.013 2.35098295632e-38
0.0937368948788 -0.00749895159031 1.013 2.35090952828e-38
0.0956116327764 -0.00749895159031 1.013 2.35098477801e-38
0.097486370674 -0.00749895159031 1.013 2.3509837971e-38
0.0990668505995 -0.00747674344147 1.01 2.3509865997e-38
0.10093603646 -0.00747674344147 1.01 2.35098589905e-38
0.10280522232 -0.00747674344147 1.01 2.35098323658e-38
0.104674408181 -0.00747674344147 1.01 2.35098393723e-38
0.106543594041 -0.00747674344147 1.01 2.35098197541e-38
0.108412779901 -0.00747674344147 1.01 2.35098211554e-38
0.110281965762 -0.00747674344147 1.01 2.3509837971e-38
0.112817396087 -0.00752115973914 1.016 2.35098365697e-38
0.114697686022 -0.00752115973914 1.016 2.35098449775e-38
0.116577975957 -0.00752115973914 1.016 2.35098491814e-38
0.118108487547 -0.00749895159031 1.013 2.35098449775e-38
0.119983225445 -0.00749895159031 1.013 2.35098281619e-38
0.121857963342 -0.00749895159031 1.013 2.35098309645e-38
0.12373270124 -0.00749895159031 1.013 2.35098533853e-38
0.125607439138 -0.00749895159031 1.013 2.35098533853e-38
0.127482177035 -0.00749895159031 1.013 2.35098295632e-38
0.129356914933 -0.00749895159031 1.013 2.35098253593e-38
0.13123165283 -0.00749895159031 1.013 2.35098449775e-38
0.13350058537 -0.00752115973914 1.016 2.35098351684e-38
0.135380875305 -0.00752115973914 1.016 2.35098561879e-38
0.137261165239 -0.00752115973914 1.016 2.35098716022e-38
0.139141455174 -0.00752115973914 1.016 2.35098589905e-38
0.141021745109 -0.00752115973914 1.016 2.35098477801e-38
0.142902035044 -0.00752115973914 1.016 2.35098393723e-38
0.144782324979 -0.00752115973914 1.016 2.35098547866e-38
0.146662614913 -0.00752115973914 1.016 2.35098267606e-38
0.148542904848 -0.00752115973914 1.016 2.35098477801e-38
0.149979031806 -0.00749895159031 1.013 2.35098421749e-38
0.151853769704 -0.00749895159031 1.013 2.35098295632e-38
0.153728507601 -0.00749895159031 1.013 2.3508030296e-38
0.155603245499 -0.00749895159031 1.013 2.35098309645e-38
0.157477983396 -0.00749895159031 1.013 2.35098127476e-38
0.159352721294 -0.00749895159031 1.013 2.35087365504e-38
0.161227459192 -0.00749895159031 1.013 2.35098113463e-38
0.163102197089 -0.00749895159031 1.013 2.35098281619e-38
0.164976934987 -0.00749895159031 1.013 2.35098477801e-38
0.166851672884 -0.00749895159031 1.013 2.35098057411e-38
0.168726410782 -0.00749895159031 1.013 2.3509823958e-38
0.170601148679 -0.00749895159031 1.013 2.35098281619e-38
0.171965099154 -0.00747674344147 1.01 2.35066093793e-38
0.173834285014 -0.00747674344147 1.01 2.35098281619e-38
0.175703470875 -0.00747674344147 1.01 2.35098225567e-38
0.17810010027 -0.00749895159031 1.013 2.35073016208e-38
0.179974838167 -0.00749895159031 1.013 2.35098267606e-38
0.181849576065 -0.00749895159031 1.013 2.35087547673e-38
0.191223265553 -0.00749895159031 1.013 2.35098351684e-38
0.19309800345 -0.00749895159031 1.013 2.35098365697e-38
0.194972741348 -0.00749895159031 1.013 2.3509837971e-38
0.196847479246 -0.00749895159031 1.013 2.35098351684e-38
0.198722217143 -0.00749895159031 1.013 2.35097987346e-38
0.200596955041 -0.00749895159031 1.013 2.35098421749e-38
0.20187207292 -0.00747674344147 1.01 2.35098491814e-38
0.20374125878 -0.00747674344147 1.01 2.35098323658e-38
0.206221168733 -0.00749895159031 1.013 2.35098015372e-38
0.207479630501 -0.00747674344147 1.01 2.35098155502e-38
0.209348816361 -0.00747674344147 1.01 2.3509809945e-38
0.211218002222 -0.00747674344147 1.01 2.35098043398e-38
0.21245425584 -0.00745453529263 1.007 2.35098407736e-38
0.214317889663 -0.00745453529263 1.007 2.35098309645e-38
0.216181523486 -0.00745453529263 1.007 2.35098197541e-38
0.21804515731 -0.00745453529263 1.007 2.24927419144e-38
0.219908791133 -0.00745453529263 1.007 2.34906598002e-38
0.221772424956 -0.00745453529263 1.007 2.34906948327e-38
-0.145011809183 -0.00572415036249 1.031 1.83223557716e-38
-0.143103759062 -0.00572415036249 1.031 1.77709798584e-38
-0.141195708941 -0.00572415036249 1.031 1.11293141906e-38
-0.139287658821 -0.00572415036249 1.031 2.34961570941e-38
-0.1373796087 -0.00572415036249 1.031 2.3493240992e-38
-0.135471558579 -0.00572415036249 1.031 2.34942849593e-38
-0.133563508458 -0.00572415036249 1.031 2.3495048667e-38
-0.131655458337 -0.00572415036249 1.031 2.34925305337e-38
-0.129747408216 -0.00572415036249 1.031 2.34946829281e-38
-0.127467371603 -0.00570749425087 1.028 2.34910787885e-38
-0.125564873519 -0.00570749425087 1.028 2.34968171057e-38
-0.123662375435 -0.00570749425087 1.028 2.34924884947e-38
-0.12140454697 -0.00569083813924 1.025 2.34964597746e-38
-0.119507600924 -0.00569083813924 1.025 2.34946549021e-38
-0.117610654878 -0.00569083813924 1.025 2.34975457809e-38
-0.115713708831 -0.00569083813924 1.025 2.34961010422e-38
-0.113816762785 -0.00569083813924 1.025 2.3493936036e-38
-0.111919816738 -0.00569083813924 1.025 2.34935941192e-38
-0.110022870692 -0.00569083813924 1.025 2.34935941192e-38
-0.108125924646 -0.00569083813924 1.025 2.34943508204e-38
-0.106539892683 -0.00570749425087 1.028 2.34954031955e-38
-0.104332032553 -0.00569083813924 1.025 2.34932816296e-38
-0.102435086506 -0.00569083813924 1.025 2.34936067309e-38
-0.100832398432 -0.00570749425087 1.028 2.34946829281e-38
-0.0989299003483 -0.00570749425087 1.028 2.34914683494e-38
-0.0970274022647 -0.00570749425087 1.028 2.34971982589e-38
-0.0948473023206 -0.00569083813924 1.025 2.34982590418e-38
-0.0929503562742 -0.00569083813924 1.025 2.34960982396e-38
-0.0910534102278 -0.00569083813924 1.025 2.34950178384e-38
-0.0891564641814 -0.00569083813924 1.025 2.34975625965e-38
-0.087259518135 -0.00569083813924 1.025 2.34928738518e-38
-0.0853625720886 -0.00569083813924 1.025 2.34950416605e-38
-0.0834656260422 -0.00569083813924 1.025 2.34979003094e-38
-0.0815686799958 -0.00569083813924 1.025 2.34964751888e-38
-0.0796717339493 -0.00569083813924 1.025 2.34961318707e-38
-0.0777747879029 -0.00569083813924 1.025 2.34953891825e-38
-0.0758778418565 -0.00569083813924 1.025 2.34953835773e-38
-0.0739808958101 -0.00569083813924 1.025 2.34975499848e-38
-0.0720839497637 -0.00569083813924 1.025 2.34932493998e-38
-0.0701870037173 -0.00569083813924 1.025 2.34950528709e-38
-0.0682900576709 -0.00569083813924 1.025 2.34986415963e-38
-0.0663931116244 -0.00569083813924 1.025 2.34957619279e-38
-0.064496165578 -0.00569083813924 1.025 2.34986289846e-38
-0.0625992195316 -0.00569083813924 1.025 2.3500743544e-38
-0.0607022734852 -0.00569083813924 1.025 2.3497217877e-38
-0.0588053274388 -0.00569083813924 1.025 2.35011583283e-38
-0.0567418202761 -0.00567418202761 1.022 2.34982800613e-38
-0.0548504262669 -0.00567418202761 1.022 2.34994011e-38
-0.0529590322577 -0.00567418202761 1.022 2.34964920044e-38
-0.0510676382485 -0.00567418202761 1.022 2.35000765259e-38
-0.0491762442393 -0.00567418202761 1.022 2.34979283354e-38
-0.0472848502301 -0.00567418202761 1.022 2.349755559e-38
-0.0453934562209 -0.00567418202761 1.022 2.34986598131e-38
-0.0435020622117 -0.00567418202761 1.022 2.34950598774e-38
-0.0416106682025 -0.00567418202761 1.022 2.34975976289e-38
-0.0397192741933 -0.00567418202761 1.022 2.34961206603e-38
-0.0378278801841 -0.00567418202761 1.022 2.3498654208e-38
-0.0359364861749 -0.00567418202761 1.022 2.34968241122e-38
-0.0340450921657 -0.00567418202761 1.022 2.34939514503e-38
-0.0321536981565 -0.00567418202761 1.022 2.34957268955e-38
-0.0301734715519 -0.00565752591598 1.019 2.34946717177e-38
-0.0282876295799 -0.00565752591598 1.019 2.34961094499e-38
-0.0264017876079 -0.00565752591598 1.019 2.34950276475e-38
-0.0245159456359 -0.00565752591598 1.019 2.34924955012e-38
-0.0226301036639 -0.00565752591598 1.019 2.34907186548e-38
-0.0208053341012 -0.00567418202761 1.022 2.34932283803e-38
-0.018913940092 -0.00567418202761 1.022 2.34925095142e-38
-0.0170225460828 -0.00567418202761 1.022 2.34914221066e-38
-0.0151311520736 -0.00567418202761 1.022 2.3489996986e-38
-0.0132397580644 -0.00567418202761 1.022 2.34878403877e-38
-0.0113483640552 -0.00567418202761 1.022 2.34892725147e-38
-0.00945697004602 -0.00567418202761 1.022 2.34907004379e-38
-0.00756557603682 -0.00567418202761 1.022 2.34889067758e-38
-0.00567418202761 -0.00567418202761 1.022 2.34852998336e-38
0.00340524948819 -0.00510787423229 0.92 1.9046237131e-38
0.00510787423229 -0.00510787423229 0.92 1.74710431325e-38
0.00681049897639 -0.00510787423229 0.92 1.79266010593e-38
0.00844834995305 -0.00506900997183 0.913 1.75524361525e-38
0.0101047077204 -0.0050523538602 0.91 2.25306414327e-38
0.0117629161668 -0.00504124978578 0.908 2.03363117336e-38
0.0134433327621 -0.00504124978578 0.908 1.6724822273e-38
0.0150904371341 -0.00503014571137 0.906 1.77292730122e-38
0.0167671523712 -0.00503014571137 0.906 1.96783404475e-38
0.0184438676083 -0.00503014571137 0.906 2.07040208585e-38
0.0201205828455 -0.00503014571137 0.906 1.88682848378e-38
0.0217972980826 -0.00503014571137 0.906 1.850200784e-38
0.0234740133197 -0.00503014571137 0.906 2.07122352701e-38
0.0251507285568 -0.00503014571137 0.906 2.34942653412e-38
0.0267386111986 -0.00501348959974 0.903 2.35061861872e-38
0.0284097743985 -0.00501348959974 0.903 2.3509716058e-38
0.0300809375984 -0.00501348959974 0.903 2.35039300967e-38
0.0318575895053 -0.00503014571137 0.906 2.35021364346e-38
0.0335343047424 -0.00503014571137 0.906 2.35014091607e-38
0.0350944271982 -0.00501348959974 0.903 2.35075426441e-38
0.0367655903981 -0.00501348959974 0.903 2.35097679061e-38
0.0385644504538 -0.00503014571137 0.906 2.35096908347e-38
0.0401079167979 -0.00501348959974 0.903 2.35097118541e-38
0.0417790799978 -0.00501348959974 0.903 2.3048725297e-38
0.0434502431977 -0.00501348959974 0.903 2.3494259736e-38
0.0451214063976 -0.00501348959974 0.903 2.34827999171e-38
0.0469480266394 -0.00503014571137 0.906 2.15332714546e-38
0.0486247418765 -0.00503014571137 0.906 2.13413986624e-38
0.0503014571137 -0.00503014571137 0.906 1.8292482891e-38
0.0519781723508 -0.00503014571137 0.906 2.12301565838e-38
0.0537733310484 -0.00504124978578 0.908 2.34622470726e-38
0.0554537476436 -0.00504124978578 0.908 1.76651117594e-38
0.0571341642389 -0.00504124978578 0.908 2.2367387359e-38
0.0588145808341 -0.00504124978578 0.908 2.26166433233e-38
0.0608281196619 -0.00506900997183 0.913 2.34496858331e-38
0.0626547399037 -0.00508011404625 0.915 2.34460872987e-38
0.0649107176896 -0.00512453034392 0.923 2.34608485767e-38
0.0666188944709 -0.00512453034392 0.923 2.34806054837e-38
0.0754336788798 -0.00565752591598 1.019 2.34975906224e-38
0.0770918873262 -0.00564086980436 1.016 2.35097973333e-38
0.078972177261 -0.00564086980436 1.016 2.35098323658e-38
0.0808524671958 -0.00564086980436 1.016 2.35098281619e-38
0.0827327571306 -0.00564086980436 1.016 2.35098183528e-38
0.084363205391 -0.00562421369273 1.013 2.35098351684e-38
0.0862379432885 -0.00562421369273 1.013 2.35098505827e-38
0.0881126811861 -0.00562421369273 1.013 2.35098477801e-38
0.0899874190837 -0.00562421369273 1.013 2.35098295632e-38
0.0918621569813 -0.00562421369273 1.013 2.35098295632e-38
0.0934592930184 -0.0056075575811 1.01 2.35098225567e-38
0.0953284788788 -0.0056075575811 1.01 2.35098211554e-38
0.0971976647391 -0.0056075575811 1.01 2.35098393723e-38
0.0990668505995 -0.0056075575811 1.01 2.35098603918e-38
0.10093603646 -0.0056075575811 1.01 2.35097987346e-38
0.10280522232 -0.0056075575811 1.01 2.35098337671e-38
0.104674408181 -0.0056075575811 1.01 2.35098197541e-38
0.106543594041 -0.0056075575811 1.01 2.3509837971e-38
0.108412779901 -0.0056075575811 1.01 2.35098225567e-38
0.110281965762 -0.0056075575811 1.01 2.35098449775e-38
0.112484273855 -0.00562421369273 1.013 2.35098407736e-38
0.114697686022 -0.00564086980436 1.016 2.3509851984e-38
0.11623374965 -0.00562421369273 1.013 2.35098449775e-38
0.118108487547 -0.00562421369273 1.013 2.35098295632e-38
0.119983225445 -0.00562421369273 1.013 2.35098309645e-38
0.121857963342 -0.00562421369273 1.013 2.35098183528e-38
0.12373270124 -0.00562421369273 1.013 2.35098421749e-38
0.125607439138 -0.00562421369273 1.013 2.35098071424e-38
0.127104638505 -0.0056075575811 1.01 2.35098393723e-38
0.128973824365 -0.0056075575811 1.01 2.35098477801e-38
0.130843010226 -0.0056075575811 1.01 2.35098547866e-38
0.133106390728 -0.00562421369273 1.013 2.35098309645e-38
0.134981128626 -0.00562421369273 1.013 2.35098449775e-38
0.136855866523 -0.00562421369273 1.013 2.35098575892e-38
0.138730604421 -0.00562421369273 1.013 2.35098491814e-38
0.140605342318 -0.00562421369273 1.013 2.35098337671e-38
0.142480080216 -0.00562421369273 1.013 2.35098183528e-38
0.144354818113 -0.00562421369273 1.013 2.35098533853e-38
0.146229556011 -0.00562421369273 1.013 2.35098421749e-38
0.148104293909 -0.00562421369273 1.013 2.35098477801e-38
0.149979031806 -0.00562421369273 1.013 2.35098505827e-38
0.151853769704 -0.00562421369273 1.013 2.3509837971e-38
0.153728507601 -0.00562421369273 1.013 2.3509823958e-38
0.155603245499 -0.00562421369273 1.013 2.35098463788e-38
0.157477983396 -0.00562421369273 1.013 2.35083904297e-38
0.159352721294 -0.00562421369273 1.013 2.3509823958e-38
0.161227459192 -0.00562421369273 1.013 2.3509823958e-38
0.163102197089 -0.00562421369273 1.013 2.35090896776e-38
0.164488355712 -0.0056075575811 1.01 2.35094596204e-38
0.166357541573 -0.0056075575811 1.01 2.3509837971e-38
0.168226727433 -0.0056075575811 1.01 2.35094568178e-38
0.170095913293 -0.0056075575811 1.01 2.35098463788e-38
0.171965099154 -0.0056075575811 1.01 2.35087519647e-38
0.173834285014 -0.0056075575811 1.01 2.3509823958e-38
0.175703470875 -0.0056075575811 1.01 2.35098267606e-38
0.177572656735 -0.0056075575811 1.01 2.35098463788e-38
0.179441842595 -0.0056075575811 1.01 2.35098421749e-38
0.181849576065 -0.00562421369273 1.013 2.35098295632e-38
0.183724313963 -0.00562421369273 1.013 2.35098043398e-38
0.189348527655 -0.00562421369273 1.013 2.35098323658e-38
0.191223265553 -0.00562421369273 1.013 2.35098197541e-38
0.19309800345 -0.00562421369273 1.013 2.35080274934e-38
0.194972741348 -0.00562421369273 1.013 2.35098449775e-38
0.196264515339 -0.0056075575811 1.01 2.35098365697e-38
0.198133701199 -0.0056075575811 1.01 2.35098491814e-38
0.200002887059 -0.0056075575811 1.01 2.35098421749e-38
0.20187207292 -0.0056075575811 1.01 2.35098267606e-38
0.20374125878 -0.0056075575811 1.01 2.3509851984e-38
0.20561044464 -0.0056075575811 1.01 2.35098547866e-38
0.207479630501 -0.0056075575811 1.01 2.35098365697e-38
0.209348816361 -0.0056075575811 1.01 2.35098295632e-38
0.211218002222 -0.0056075575811 1.01 2.35098295632e-38
0.21245425584 -0.00559090146948 1.007 2.35098547866e-38
0.214317889663 -0.00559090146948 1.007 2.35098253593e-38
0.216181523486 -0.00559090146948 1.007 2.35098225567e-38
0.21804515731 -0.00559090146948 1.007 2.3138855413e-38
0.219908791133 -0.00559090146948 1.007 2.34906850236e-38
0.221772424956 -0.00559090146948 1.007 2.34921465779e-38
-0.144589854355 -0.00380499616724 1.028 1.74958222932e-38
-0.142687356272 -0.00380499616724 1.028 1.74958250958e-38
-0.140784858188 -0.00380499616724 1.028 1.11257268666e-38
-0.138882360104 -0.00380499616724 1.028 2.35018211425e-38
-0.13127236777 -0.00380499616724 1.028 2.34924983038e-38
-0.129369869686 -0.00380499616724 1.028 2.34921507818e-38
-0.127467371603 -0.00380499616724 1.028 2.34943199918e-38
-0.125564873519 -0.00380499616724 1.028 2.34979017107e-38
-0.123662375435 -0.00380499616724 1.028 2.34914445274e-38
-0.12140454697 -0.00379389209283 1.025 2.34903683301e-38
-0.119507600924 -0.00379389209283 1.025 2.34939374373e-38
-0.117610654878 -0.00379389209283 1.025 2.34942933671e-38
-0.115713708831 -0.00379389209283 1.025 2.34932493998e-38
-0.113816762785 -0.00379389209283 1.025 2.34957563227e-38
-0.111919816738 -0.00379389209283 1.025 2.34961010422e-38
-0.110022870692 -0.00379389209283 1.025 2.34932564063e-38
-0.108125924646 -0.00379389209283 1.025 2.34946787242e-38
-0.106228978599 -0.00379389209283 1.025 2.34943157879e-38
-0.104332032553 -0.00379389209283 1.025 2.34928738518e-38
-0.102435086506 -0.00379389209283 1.025 2.34935899153e-38
-0.10053814046 -0.00379389209283 1.025 2.34932339855e-38
-0.0986411944135 -0.00379389209283 1.025 2.34968143031e-38
-0.0967442483671 -0.00379389209283 1.025 2.34925207246e-38
-0.0948473023206 -0.00379389209283 1.025 2.34971926537e-38
-0.0929503562742 -0.00379389209283 1.025 2.34946366853e-38
-0.0910534102278 -0.00379389209283 1.025 2.3496095437e-38
-0.0891564641814 -0.00379389209283 1.025 2.34943326035e-38
-0.087259518135 -0.00379389209283 1.025 2.34961150551e-38
-0.0853625720886 -0.00379389209283 1.025 2.3493602527e-38
-0.0834656260422 -0.00379389209283 1.025 2.34936081322e-38
-0.0815686799958 -0.00379389209283 1.025 2.34964765901e-38
-0.0796717339493 -0.00379389209283 1.025 2.34993324364e-38
-0.0777747879029 -0.00379389209283 1.025 2.34953877812e-38
-0.0758778418565 -0.00379389209283 1.025 2.34964723862e-38
-0.0739808958101 -0.00379389209283 1.025 2.34918046611e-38
-0.0720839497637 -0.00379389209283 1.025 2.34921788078e-38
-0.0701870037173 -0.00379389209283 1.025 2.3497203864e-38
-0.0682900576709 -0.00379389209283 1.025 2.35008304245e-38
-0.0663931116244 -0.00379389209283 1.025 2.34964878005e-38
-0.064496165578 -0.00379389209283 1.025 2.35000821311e-38
-0.0625992195316 -0.00379389209283 1.025 2.34982870678e-38
-0.0607022734852 -0.00379389209283 1.025 2.35007911881e-38
-0.0586332142853 -0.00378278801841 1.022 2.34979059146e-38
-0.0567418202761 -0.00378278801841 1.022 2.34982716535e-38
-0.0548504262669 -0.00378278801841 1.022 2.34986163729e-38
-0.0529590322577 -0.00378278801841 1.022 2.35015030477e-38
-0.0510676382485 -0.00378278801841 1.022 2.34957493162e-38
-0.0491762442393 -0.00378278801841 1.022 2.34961178577e-38
-0.0472848502301 -0.00378278801841 1.022 2.34971996601e-38
-0.0453934562209 -0.00378278801841 1.022 2.34993534559e-38
-0.0435020622117 -0.00378278801841 1.022 2.34964765901e-38
-0.0416106682025 -0.00378278801841 1.022 2.3495771737e-38
-0.0397192741933 -0.00378278801841 1.022 2.34964737875e-38
-0.0378278801841 -0.00378278801841 1.022 2.34983010807e-38
-0.0359364861749 -0.00378278801841 1.022 2.34946759216e-38
-0.0339451554959 -0.00377168394399 1.019 2.34964597746e-38
-0.0320593135239 -0.00377168394399 1.019 2.34972024627e-38
-0.0301734715519 -0.00377168394399 1.019 2.34928766544e-38
-0.0282876295799 -0.00377168394399 1.019 2.34935618893e-38
-0.0264017876079 -0.00377168394399 1.019 2.34942933671e-38
-0.0245159456359 -0.00377168394399 1.019 2.34932157686e-38
-0.0226301036639 -0.00377168394399 1.019 2.3492851431e-38
-0.0207442616919 -0.00377168394399 1.019 2.3493226979e-38
