# .PCD v0.7 - Point Cloud Data file format
VERSION 0.7
FIELDS x y z rgb
SIZE 4 4 4 4
TYPE F F F F
COUNT 1 1 1 1
WIDTH 846
HEIGHT 1
VIEWPOINT 0 0 0 1 0 0 0
POINTS 846
DATA ascii
0.0255393711615 -0.035755119626 0.92 2.3509823958e-38
0.0272419959056 -0.035755119626 0.92 2.35098267606e-38
0.0289446206497 -0.035755119626 0.92 2.30491050489e-38
0.0306472453938 -0.035755119626 0.92 2.35090055997e-38
0.0323498701378 -0.035755119626 0.92 2.35096908347e-38
0.0340524948819 -0.035755119626 0.92 2.35097833204e-38
0.035755119626 -0.035755119626 0.92 2.35097833204e-38
0.0374577443701 -0.035755119626 0.92 2.34870892917e-38
0.0391603691142 -0.035755119626 0.92 2.35078481272e-38
0.0408629938583 -0.035755119626 0.92 2.35097637022e-38
0.0425656186024 -0.035755119626 0.92 2.35097637022e-38
0.0441720080349 -0.0356773911051 0.918 2.3509744084e-38
0.0458709314209 -0.0356773911051 0.918 2.35097118541e-38
0.0475698548068 -0.0356773911051 0.918 2.35097328736e-38
0.0492687781928 -0.0356773911051 0.918 2.35097889256e-38
0.0509677015787 -0.0356773911051 0.918 1.5857453556e-38
0.0526666249647 -0.0356773911051 0.918 1.66380692863e-38
0.0543655483507 -0.0356773911051 0.918 2.350977211e-38
0.0560644717366 -0.0356773911051 0.918 2.66502305062e-39
0.0577633951226 -0.0356773911051 0.918 2.3509837971e-38
0.0592679972062 -0.0355607983237 0.915 1.54890591962e-38
0.060961368555 -0.0355607983237 0.915 1.93121012848e-38
0.0626547399037 -0.0355607983237 0.915 2.35096936373e-38
0.0643481112525 -0.0355607983237 0.915 6.06114274643e-39
0.0660414826012 -0.0355607983237 0.915 2.35097735113e-38
-0.00854088390653 -0.0341635356261 0.923 2.35036750604e-38
-0.00683270712523 -0.0341635356261 0.923 4.59285100512e-39
-0.00512453034392 -0.0341635356261 0.923 2.35079560272e-38
-0.00341635356261 -0.0341635356261 0.923 2.35097118541e-38
-0.00170817678131 -0.0341635356261 0.923 2.29540353559e-38
0.0 -0.0341635356261 0.923 7.00030418761e-39
0.00170817678131 -0.0341635356261 0.923 2.35098085437e-38
0.00341635356261 -0.0341635356261 0.923 2.35098828126e-38
0.00512453034392 -0.0341635356261 0.923 2.35098856151e-38
0.00683270712523 -0.0341635356261 0.923 2.35098856151e-38
0.00854088390653 -0.0341635356261 0.923 2.35098856151e-38
0.0102490606878 -0.0341635356261 0.923 2.35098547866e-38
0.0119572374691 -0.0341635356261 0.923 2.350988001e-38
0.0136209979528 -0.0340524948819 0.92 2.35098856151e-38
0.0153236226969 -0.0340524948819 0.92 2.35098856151e-38
0.017026247441 -0.0340524948819 0.92 2.35098856151e-38
0.0187288721851 -0.0340524948819 0.92 2.35098856151e-38
0.0204314969292 -0.0340524948819 0.92 2.35098856151e-38
0.0221341216733 -0.0340524948819 0.92 2.35098744048e-38
0.0238367464174 -0.0340524948819 0.92 2.35098575892e-38
0.0255393711615 -0.0340524948819 0.92 2.35098323658e-38
0.0272419959056 -0.0340524948819 0.92 2.35098211554e-38
0.0288816975613 -0.0339784677192 0.918 2.35098225567e-38
0.0305806209472 -0.0339784677192 0.918 2.35079378103e-38
0.0322795443332 -0.0339784677192 0.918 2.15599914137e-38
0.0339784677192 -0.0339784677192 0.918 2.35064145989e-38
0.0356773911051 -0.0339784677192 0.918 2.35032378552e-38
0.0373763144911 -0.0339784677192 0.918 2.35064230066e-38
0.039075237877 -0.0339784677192 0.918 1.95255386591e-38
0.040774161263 -0.0339784677192 0.918 2.35078789557e-38
0.042473084649 -0.0339784677192 0.918 2.35097230645e-38
0.0441720080349 -0.0339784677192 0.918 2.3509730071e-38
0.0458709314209 -0.0339784677192 0.918 2.35097370775e-38
0.0475698548068 -0.0339784677192 0.918 2.35097426827e-38
0.0492687781928 -0.0339784677192 0.918 2.35097945307e-38
0.0509677015787 -0.0339784677192 0.918 1.327561999e-38
0.0524945118112 -0.033867426975 0.915 1.74710697572e-38
0.05418788316 -0.033867426975 0.915 2.35097987346e-38
0.0560644717366 -0.0339784677192 0.918 2.38772290011e-39
0.0577633951226 -0.0339784677192 0.918 2.35098183528e-38
0.0592679972062 -0.033867426975 0.915 1.25385047679e-38
0.060961368555 -0.033867426975 0.915 2.06964776688e-38
0.0626547399037 -0.033867426975 0.915 2.35097090515e-38
0.0642074596432 -0.0337933998122 0.913 6.97949770801e-39
0.0658971296338 -0.0337933998122 0.913 2.35098169515e-38
-0.0102490606878 -0.0324553588448 0.923 2.34975682016e-38
-0.00854088390653 -0.0324553588448 0.923 2.350044787e-38
-0.00681049897639 -0.0323498701378 0.92 4.49993931174e-39
-0.00510787423229 -0.0323498701378 0.92 2.35096810256e-38
-0.00340524948819 -0.0323498701378 0.92 2.34984356054e-38
-0.0017026247441 -0.0323498701378 0.92 2.35097623009e-38
0.0 -0.0323498701378 0.92 6.81555699807e-39
0.0017026247441 -0.0323498701378 0.92 2.35097146567e-38
0.00340524948819 -0.0323498701378 0.92 2.35098281619e-38
0.00510787423229 -0.0323498701378 0.92 2.35098393723e-38
0.00681049897639 -0.0323498701378 0.92 2.35098856151e-38
0.00851312372049 -0.0323498701378 0.92 2.35098856151e-38
0.0102157484646 -0.0323498701378 0.92 2.35098575892e-38
0.0118924637017 -0.0322795443332 0.918 2.35098786087e-38
0.0135913870877 -0.0322795443332 0.918 2.35098856151e-38
0.0153236226969 -0.0323498701378 0.92 2.35098856151e-38
0.017026247441 -0.0323498701378 0.92 2.35098814113e-38
0.0187288721851 -0.0323498701378 0.92 2.35098744048e-38
0.0204314969292 -0.0323498701378 0.92 2.3509851984e-38
0.0221341216733 -0.0323498701378 0.92 2.35098547866e-38
0.0238367464174 -0.0323498701378 0.92 2.35098435762e-38
0.0255393711615 -0.0323498701378 0.92 2.35098253593e-38
0.0271827741753 -0.0322795443332 0.918 2.35098015372e-38
0.0288816975613 -0.0322795443332 0.918 2.3509795932e-38
0.0305806209472 -0.0322795443332 0.918 2.03689451723e-38
0.0322795443332 -0.0322795443332 0.918 2.34981889769e-38
0.0339784677192 -0.0322795443332 0.918 2.31225653183e-38
0.0356773911051 -0.0322795443332 0.918 2.35082292804e-38
0.0373763144911 -0.0322795443332 0.918 2.10110481546e-38
0.039075237877 -0.0322795443332 0.918 2.35039679317e-38
0.040774161263 -0.0322795443332 0.918 2.35079294025e-38
0.042473084649 -0.0322795443332 0.918 2.35097174593e-38
0.0441720080349 -0.0322795443332 0.918 2.35097272684e-38
0.0458709314209 -0.0322795443332 0.918 2.35089859815e-38
0.0475698548068 -0.0322795443332 0.918 2.3509744084e-38
0.0492687781928 -0.0322795443332 0.918 2.35098281619e-38
0.0508011404625 -0.0321740556262 0.915 5.98939626505e-39
0.0524945118112 -0.0321740556262 0.915 2.18168676391e-38
0.05418788316 -0.0321740556262 0.915 2.35098029385e-38
0.0558812545087 -0.0321740556262 0.915 2.11221641163e-39
0.0575746258575 -0.0321740556262 0.915 2.35098856151e-38
0.0592679972062 -0.0321740556262 0.915 1.75204907514e-39
0.060961368555 -0.0321740556262 0.915 2.34799931163e-38
0.0626547399037 -0.0321740556262 0.915 2.32331067477e-38
0.0642074596432 -0.0321037298216 0.913 1.81124020253e-38
0.0658971296338 -0.0321037298216 0.913 2.35098505827e-38
-0.0102490606878 -0.0307471820635 0.923 2.34957647305e-38
-0.00851312372049 -0.0306472453938 0.92 2.35022387294e-38
-0.00681049897639 -0.0306472453938 0.92 1.29800314933e-38
-0.00510787423229 -0.0306472453938 0.92 2.35029043462e-38
-0.00340524948819 -0.0306472453938 0.92 2.00671461207e-38
-0.0017026247441 -0.0306472453938 0.92 2.35097735113e-38
0.0 -0.0306472453938 0.92 4.96449777863e-39
0.0017026247441 -0.0306472453938 0.92 2.35098856151e-38
0.00340524948819 -0.0306472453938 0.92 2.350977211e-38
0.00510787423229 -0.0306472453938 0.92 2.35050315173e-38
0.00681049897639 -0.0306472453938 0.92 2.35098673983e-38
0.00851312372049 -0.0306472453938 0.92 2.35098603918e-38
0.0101935403157 -0.0305806209472 0.918 2.35098477801e-38
0.0118924637017 -0.0305806209472 0.918 2.35098716022e-38
0.0135913870877 -0.0305806209472 0.918 2.35098561879e-38
0.0152903104736 -0.0305806209472 0.918 2.35098575892e-38
0.0169892338596 -0.0305806209472 0.918 2.35098702009e-38
0.0186881572455 -0.0305806209472 0.918 2.35098253593e-38
0.0203870806315 -0.0305806209472 0.918 2.35098351684e-38
0.0220860040175 -0.0305806209472 0.918 2.35098365697e-38
0.0237849274034 -0.0305806209472 0.918 2.35098253593e-38
0.0254838507894 -0.0305806209472 0.918 2.35098071424e-38
0.0271827741753 -0.0305806209472 0.918 2.35097889256e-38
0.0288816975613 -0.0305806209472 0.918 2.35097538931e-38
0.0305806209472 -0.0305806209472 0.918 2.35097566957e-38
0.0322795443332 -0.0305806209472 0.918 2.26576228956e-38
0.0339784677192 -0.0305806209472 0.918 2.35021448424e-38
0.0356773911051 -0.0305806209472 0.918 2.34830983937e-38
0.0373763144911 -0.0305806209472 0.918 2.3509702045e-38
0.0389475410212 -0.0304806842775 0.915 2.35097216632e-38
0.04064091237 -0.0304806842775 0.915 2.35097132554e-38
0.0423342837187 -0.0304806842775 0.915 2.3508992988e-38
0.0440276550675 -0.0304806842775 0.915 2.35079336064e-38
0.0457210264162 -0.0304806842775 0.915 2.35097412814e-38
0.047414397765 -0.0304806842775 0.915 2.35097651035e-38
0.0491077691137 -0.0304806842775 0.915 2.35097693074e-38
0.0508011404625 -0.0304806842775 0.915 3.58588913904e-39
0.0524945118112 -0.0304806842775 0.915 2.35015506919e-38
0.05418788316 -0.0304806842775 0.915 2.35098225567e-38
0.0558812545087 -0.0304806842775 0.915 8.0815236619e-39
0.0575746258575 -0.0304806842775 0.915 2.35098856151e-38
0.0592679972062 -0.0304806842775 0.915 0.0
0.060961368555 -0.0304806842775 0.915 2.35037633422e-38
0.0626547399037 -0.0304806842775 0.915 2.15736372582e-38
0.0643481112525 -0.0304806842775 0.915 2.34493803501e-38
0.0660414826012 -0.0304806842775 0.915 2.35097552944e-38
-0.00851312372049 -0.0289446206497 0.92 2.34986345898e-38
-0.00681049897639 -0.0289446206497 0.92 2.33084783882e-38
-0.00510787423229 -0.0289446206497 0.92 2.34823949419e-38
-0.00340524948819 -0.0289446206497 0.92 1.6110341686e-38
-0.0017026247441 -0.0289446206497 0.92 2.35065098871e-38
0.0 -0.0288816975613 0.918 1.94387071997e-38
0.00169892338596 -0.0288816975613 0.918 2.35096810256e-38
0.00339784677192 -0.0288816975613 0.918 2.03754317829e-38
0.00509677015787 -0.0288816975613 0.918 2.2099737951e-38
0.00679569354383 -0.0288816975613 0.918 2.3509702045e-38
0.00849461692979 -0.0288816975613 0.918 2.35097594983e-38
0.0101935403157 -0.0288816975613 0.918 2.35097693074e-38
0.0118924637017 -0.0288816975613 0.918 2.35097847217e-38
0.0135913870877 -0.0288816975613 0.918 2.35098463788e-38
0.0152903104736 -0.0288816975613 0.918 2.35098393723e-38
0.0169337134875 -0.0287873129287 0.915 2.35098225567e-38
0.0186270848362 -0.0287873129287 0.915 2.35098197541e-38
0.020320456185 -0.0287873129287 0.915 2.35098197541e-38
0.0220860040175 -0.0288816975613 0.918 2.35098113463e-38
0.0237849274034 -0.0288816975613 0.918 2.35097987346e-38
0.0254838507894 -0.0288816975613 0.918 2.35097805178e-38
0.02709394158 -0.0287873129287 0.915 2.35097510905e-38
0.0287873129287 -0.0287873129287 0.915 2.35097328736e-38
0.0305806209472 -0.0288816975613 0.918 2.35097370775e-38
0.0322795443332 -0.0288816975613 0.918 2.23897688981e-38
0.033867426975 -0.0287873129287 0.915 2.35003189505e-38
0.0355607983237 -0.0287873129287 0.915 2.34877661189e-38
0.0372541696725 -0.0287873129287 0.915 2.35057377717e-38
0.0389475410212 -0.0287873129287 0.915 2.35068504027e-38
0.04064091237 -0.0287873129287 0.915 2.35071923195e-38
0.0423342837187 -0.0287873129287 0.915 2.35053832432e-38
0.0440276550675 -0.0287873129287 0.915 2.35082727206e-38
0.0456210897465 -0.0287243898404 0.913 2.35068546066e-38
0.0473107597371 -0.0287243898404 0.913 2.35097651035e-38
0.0490004297277 -0.0287243898404 0.913 2.35097566957e-38
0.0506900997183 -0.0287243898404 0.913 8.44886564654e-39
0.0523797697089 -0.0287243898404 0.913 2.35098449775e-38
0.0540694396995 -0.0287243898404 0.913 1.29143666472e-39
0.0557591096901 -0.0287243898404 0.913 2.34925963947e-38
0.0574487796807 -0.0287243898404 0.913 2.35098856151e-38
0.0591384496713 -0.0287243898404 0.913 3.67341984632e-40
0.0608281196619 -0.0287243898404 0.913 2.35098856151e-38
0.0625177896526 -0.0287243898404 0.913 1.36448775497e-38
0.0642074596432 -0.0287243898404 0.913 2.34795124709e-38
-0.00679569354383 -0.0271827741753 0.918 2.35004534752e-38
-0.00509677015787 -0.0271827741753 0.918 1.33276670176e-38
-0.00339784677192 -0.0271827741753 0.918 2.01698108514e-38
-0.00169892338596 -0.0271827741753 0.918 2.35061679703e-38
0.0 -0.0271827741753 0.918 2.34996575377e-38
0.00169892338596 -0.0271827741753 0.918 1.60095098537e-38
0.00339784677192 -0.0271827741753 0.918 2.3504720429e-38
0.00509677015787 -0.0271827741753 0.918 2.29281141369e-38
0.00679569354383 -0.0271827741753 0.918 2.35095815334e-38
0.00849461692979 -0.0271827741753 0.918 2.34946030541e-38
0.0101602280925 -0.02709394158 0.915 2.35097552944e-38
0.0118535994412 -0.02709394158 0.915 2.35097805178e-38
0.01354697079 -0.02709394158 0.915 2.35098309645e-38
0.0152403421387 -0.02709394158 0.915 2.35098225567e-38
0.0169337134875 -0.02709394158 0.915 2.35098169515e-38
0.0186270848362 -0.02709394158 0.915 2.35098043398e-38
0.020320456185 -0.02709394158 0.915 2.35097973333e-38
0.0220138275337 -0.02709394158 0.915 2.35097777152e-38
0.0237071988825 -0.02709394158 0.915 2.35097637022e-38
0.0254005702312 -0.02709394158 0.915 2.35097566957e-38
0.02709394158 -0.02709394158 0.915 2.35097538931e-38
0.0287873129287 -0.02709394158 0.915 2.35097398801e-38
0.0304806842775 -0.02709394158 0.915 2.35097370775e-38
0.0321740556262 -0.02709394158 0.915 2.35068728234e-38
0.033867426975 -0.02709394158 0.915 2.35096123619e-38
0.0355607983237 -0.02709394158 0.915 2.35053902497e-38
0.0372541696725 -0.02709394158 0.915 2.33023322931e-38
0.0389475410212 -0.02709394158 0.915 2.35064874664e-38
0.04064091237 -0.02709394158 0.915 2.35046867978e-38
0.0423342837187 -0.02709394158 0.915 2.35054238808e-38
0.0440276550675 -0.02709394158 0.915 2.35090112049e-38
0.0456210897465 -0.0270347198498 0.913 2.35097314723e-38
0.0473107597371 -0.0270347198498 0.913 2.35098085437e-38
0.0490004297277 -0.0270347198498 0.913 5.52125047409e-39
0.0506900997183 -0.0270347198498 0.913 2.34663080355e-38
0.0522076565554 -0.0269458872544 0.91 2.35098183528e-38
0.0538917745088 -0.0269458872544 0.91 4.96700890548e-39
0.0557591096901 -0.0270347198498 0.913 2.35098407736e-38
0.0574487796807 -0.0270347198498 0.913 2.35098856151e-38
0.0591384496713 -0.0270347198498 0.913 1.12226911151e-38
0.0608281196619 -0.0270347198498 0.913 2.35098645957e-38
0.0625177896526 -0.0270347198498 0.913 1.42798100877e-38
0.0642074596432 -0.0270347198498 0.913 2.34928598388e-38
-0.00679569354383 -0.0254838507894 0.918 2.35022513411e-38
-0.00509677015787 -0.0254838507894 0.918 1.24214683202e-38
-0.00339784677192 -0.0254838507894 0.918 2.34967021992e-38
-0.00169892338596 -0.0254838507894 0.918 2.34916463143e-38
0.0 -0.0254005702312 0.915 2.25737271566e-38
0.00169337134875 -0.0254005702312 0.915 1.62014316913e-38
0.0033867426975 -0.0254005702312 0.915 2.35060222353e-38
0.00508011404625 -0.0254005702312 0.915 2.34895779978e-38
0.00679569354383 -0.0254838507894 0.918 2.32976057134e-38
0.00846685674374 -0.0254005702312 0.915 2.34881724954e-38
0.0101602280925 -0.0254005702312 0.915 2.35064790586e-38
0.0118535994412 -0.0254005702312 0.915 2.35097328736e-38
0.01354697079 -0.0254005702312 0.915 2.3509795932e-38
0.0152403421387 -0.0254005702312 0.915 2.35098057411e-38
0.0169337134875 -0.0254005702312 0.915 2.35098253593e-38
0.0186270848362 -0.0254005702312 0.915 2.35097833204e-38
0.020320456185 -0.0254005702312 0.915 2.35097637022e-38
0.0220138275337 -0.0254005702312 0.915 2.35097496892e-38
0.0237071988825 -0.0254005702312 0.915 2.35097356762e-38
0.0254005702312 -0.0254005702312 0.915 2.35097328736e-38
0.02709394158 -0.0254005702312 0.915 2.35097412814e-38
0.0287873129287 -0.0254005702312 0.915 2.35097342749e-38
0.0304806842775 -0.0254005702312 0.915 2.35097272684e-38
0.0321740556262 -0.0254005702312 0.915 2.35097090515e-38
0.033867426975 -0.0254005702312 0.915 2.35014301802e-38
0.0355607983237 -0.0254005702312 0.915 2.34999938493e-38
0.0372541696725 -0.0254005702312 0.915 2.35050133004e-38
0.038862409784 -0.0253450498591 0.913 2.350395532e-38
0.0405520797746 -0.0253450498591 0.913 2.35057882184e-38
0.0423342837187 -0.0254005702312 0.915 2.35082937401e-38
0.0439314197559 -0.0253450498591 0.913 2.35079434155e-38
0.0456210897465 -0.0253450498591 0.913 2.35097412814e-38
0.0473107597371 -0.0253450498591 0.913 2.35097146567e-38
0.0490004297277 -0.0253450498591 0.913 2.8469003809e-39
0.050523538602 -0.025261769301 0.91 2.35098225567e-38
0.0522076565554 -0.025261769301 0.91 1.60427080156e-38
0.0538917745088 -0.025261769301 0.91 2.16350968075e-38
0.0555758924622 -0.025261769301 0.91 2.35098856151e-38
0.0574487796807 -0.0253450498591 0.913 2.66900694215e-39
0.0591384496713 -0.0253450498591 0.913 2.34998411078e-38
0.0606282463224 -0.025261769301 0.91 2.35098856151e-38
0.0623123642758 -0.025261769301 0.91 1.80500498489e-38
0.0642074596432 -0.0253450498591 0.913 2.35018687866e-38
-0.006773485395 -0.0237071988825 0.915 2.34989891183e-38
-0.00508011404625 -0.0237071988825 0.915 1.89738586641e-38
-0.0033867426975 -0.0237071988825 0.915 2.34687420909e-38
-0.00169337134875 -0.0237071988825 0.915 1.44515714444e-38
0.0 -0.0237071988825 0.915 2.35043420784e-38
0.00169337134875 -0.0237071988825 0.915 2.16424522232e-38
0.0033867426975 -0.0237071988825 0.915 2.34772998207e-38
0.00508011404625 -0.0237071988825 0.915 2.3487841789e-38
0.006773485395 -0.0237071988825 0.915 2.34873555384e-38
0.00846685674374 -0.0237071988825 0.915 2.3509570323e-38
0.0101602280925 -0.0237071988825 0.915 2.06256784652e-38
0.0118535994412 -0.0237071988825 0.915 2.35097482879e-38
0.01354697079 -0.0237071988825 0.915 2.35098197541e-38
0.0152403421387 -0.0237071988825 0.915 2.35097889256e-38
0.0169337134875 -0.0237071988825 0.915 2.350977211e-38
0.0186270848362 -0.0237071988825 0.915 2.35097468866e-38
0.020320456185 -0.0237071988825 0.915 2.35097426827e-38
0.0220138275337 -0.0237071988825 0.915 2.35097594983e-38
0.0237071988825 -0.0237071988825 0.915 2.35097370775e-38
0.0254005702312 -0.0237071988825 0.915 2.35097370775e-38
0.02709394158 -0.0237071988825 0.915 2.3507588887e-38
0.0287873129287 -0.0237071988825 0.915 2.35097398801e-38
0.0304806842775 -0.0237071988825 0.915 2.35093629308e-38
0.0321740556262 -0.0237071988825 0.915 2.3507213339e-38
0.033867426975 -0.0237071988825 0.915 2.3509354523e-38
0.0355607983237 -0.0237071988825 0.915 2.35089803763e-38
0.0371727397934 -0.0236553798685 0.913 2.35035979889e-38
0.038862409784 -0.0236553798685 0.913 2.35039707343e-38
0.0405520797746 -0.0236553798685 0.913 2.35036190084e-38
0.0422417497652 -0.0236553798685 0.913 2.35097328736e-38
0.0439314197559 -0.0236553798685 0.913 2.3509744084e-38
0.0456210897465 -0.0236553798685 0.913 2.35097889256e-38
0.0473107597371 -0.0236553798685 0.913 4.50209170618e-39
0.0488394206486 -0.0235776513476 0.91 2.34993702715e-38
0.050523538602 -0.0235776513476 0.91 2.35098589905e-38
0.0522076565554 -0.0235776513476 0.91 3.58588913904e-39
0.0538917745088 -0.0235776513476 0.91 2.35098295632e-38
0.0555758924622 -0.0235776513476 0.91 2.35098856151e-38
0.0572600104156 -0.0235776513476 0.91 1.61831699698e-38
0.0591384496713 -0.0236553798685 0.913 2.35098856151e-38
0.0606282463224 -0.0235776513476 0.91 1.97298647908e-38
0.0623123642758 -0.0235776513476 0.91 2.34806475227e-38
0.0642074596432 -0.0236553798685 0.913 2.34961108512e-38
-0.006773485395 -0.0220138275337 0.915 2.34968493355e-38
-0.00508011404625 -0.0220138275337 0.915 2.17386163303e-38
-0.0033867426975 -0.0220138275337 0.915 1.5547877298e-38
-0.00168966999061 -0.0219657098779 0.913 2.34877030605e-38
0.0 -0.0219657098779 0.913 2.3496654555e-38
0.00168966999061 -0.0219657098779 0.913 2.05378857151e-38
0.0033867426975 -0.0220138275337 0.915 1.37046541395e-38
0.00508011404625 -0.0220138275337 0.915 2.34981525431e-38
0.006773485395 -0.0220138275337 0.915 2.16380815732e-38
0.00844834995305 -0.0219657098779 0.913 2.10745564023e-38
0.0101380199437 -0.0219657098779 0.913 2.34960772201e-38
0.0118535994412 -0.0220138275337 0.915 2.14500455362e-38
0.01354697079 -0.0220138275337 0.915 2.35065393144e-38
0.0152403421387 -0.0220138275337 0.915 2.35097735113e-38
0.0169337134875 -0.0220138275337 0.915 2.35097482879e-38
0.0185863698967 -0.0219657098779 0.913 2.35097370775e-38
0.0202760398873 -0.0219657098779 0.913 2.35097230645e-38
0.0220138275337 -0.0220138275337 0.915 2.35097566957e-38
0.0237071988825 -0.0220138275337 0.915 2.35097356762e-38
0.0253450498591 -0.0219657098779 0.913 2.35097202619e-38
0.0270347198498 -0.0219657098779 0.913 2.35061315366e-38
0.0287243898404 -0.0219657098779 0.913 2.35071783065e-38
0.030414059831 -0.0219657098779 0.913 2.35050455303e-38
0.0321037298216 -0.0219657098779 0.913 2.35064986768e-38
0.0337933998122 -0.0219657098779 0.913 2.35064860651e-38
0.0354830698028 -0.0219657098779 0.913 2.35072077338e-38
0.0371727397934 -0.0219657098779 0.913 2.35039665304e-38
0.0387347129282 -0.0218935333942 0.91 2.35072175429e-38
0.0404188308816 -0.0218935333942 0.91 2.35097412814e-38
0.042102948835 -0.0218935333942 0.91 2.35097763139e-38
0.0437870667884 -0.0218935333942 0.91 2.35097833204e-38
0.0454711847418 -0.0218935333942 0.91 5.88285274021e-39
0.0471553026952 -0.0218935333942 0.91 2.34717058372e-38
0.0488394206486 -0.0218935333942 0.91 2.35098856151e-38
0.050523538602 -0.0218935333942 0.91 5.60627706101e-39
0.0520929144531 -0.0218454157384 0.908 2.35033569656e-38
0.0537733310484 -0.0218454157384 0.908 2.35098856151e-38
0.0554537476436 -0.0218454157384 0.908 2.94057718324e-39
0.0572600104156 -0.0218935333942 0.91 2.35096319801e-38
0.0591384496713 -0.0219657098779 0.913 2.35098856151e-38
0.0606282463224 -0.0218935333942 0.91 1.57591188376e-38
0.0623123642758 -0.0218935333942 0.91 2.34864194711e-38
0.0642074596432 -0.0219657098779 0.913 2.3495743711e-38
-0.00675867996244 -0.0202760398873 0.913 2.34989807105e-38
-0.00506900997183 -0.0202760398873 0.913 2.19240992015e-38
-0.00337933998122 -0.0202760398873 0.913 1.82229574677e-38
-0.0016841179534 -0.0202094154408 0.91 2.06145759775e-38
0.0 -0.0202094154408 0.91 1.66574492441e-38
0.0016841179534 -0.0202094154408 0.91 2.34958095721e-38
0.00337933998122 -0.0202760398873 0.913 2.15469327133e-38
0.00506900997183 -0.0202760398873 0.913 1.23156422602e-38
0.006773485395 -0.020320456185 0.915 2.34936459672e-38
0.00844834995305 -0.0202760398873 0.913 2.20075857614e-38
0.0101380199437 -0.0202760398873 0.913 2.34791803632e-38
0.0118535994412 -0.020320456185 0.915 2.34921704e-38
0.01354697079 -0.020320456185 0.915 1.94235661698e-38
0.0152403421387 -0.020320456185 0.915 2.35071558857e-38
0.0169337134875 -0.020320456185 0.915 2.35097693074e-38
0.0185863698967 -0.0202760398873 0.913 2.35097917282e-38
0.0202760398873 -0.0202760398873 0.913 2.35097412814e-38
0.0219657098779 -0.0202760398873 0.913 2.35097623009e-38
0.0237071988825 -0.020320456185 0.915 2.35097356762e-38
0.0253450498591 -0.0202760398873 0.913 2.35097482879e-38
0.0270347198498 -0.0202760398873 0.913 2.35093797464e-38
0.0287243898404 -0.0202760398873 0.913 2.35011204933e-38
0.030414059831 -0.0202760398873 0.913 2.35061273327e-38
0.0321037298216 -0.0202760398873 0.913 2.35075384402e-38
0.0337933998122 -0.0202760398873 0.913 2.35064888677e-38
0.0354830698028 -0.0202760398873 0.913 2.35054196769e-38
0.0370505949748 -0.0202094154408 0.91 2.35093699373e-38
0.0387347129282 -0.0202094154408 0.91 2.35097202619e-38
0.0403299982863 -0.0201649991431 0.908 2.35097651035e-38
0.0420104148815 -0.0201649991431 0.908 2.35097048476e-38
0.0437870667884 -0.0202094154408 0.91 6.62184149836e-39
0.0454711847418 -0.0202094154408 0.91 2.3488151476e-38
0.0471553026952 -0.0202094154408 0.91 2.35098856151e-38
0.0488394206486 -0.0202094154408 0.91 1.05909815635e-38
0.0504124978578 -0.0201649991431 0.908 2.34856543621e-38
0.0520929144531 -0.0201649991431 0.908 2.35098856151e-38
0.0537733310484 -0.0201649991431 0.908 1.3367290133e-38
0.0554537476436 -0.0201649991431 0.908 2.34996897675e-38
0.0571341642389 -0.0201649991431 0.908 2.35098856151e-38
0.0591384496713 -0.0202760398873 0.913 2.06518210894e-38
0.0606282463224 -0.0202094154408 0.91 2.34708818737e-38
0.0623123642758 -0.0202094154408 0.91 2.25540094859e-38
0.0642074596432 -0.0202760398873 0.913 2.35004913102e-38
-0.00506900997183 -0.0185863698967 0.913 2.3492865444e-38
-0.00336083319052 -0.0184845825479 0.908 1.77619975352e-38
-0.00168041659526 -0.0184845825479 0.908 1.58269458871e-38
0.0 -0.0184845825479 0.908 2.32111904397e-38
0.00168041659526 -0.0184845825479 0.908 1.72152094731e-38
0.00337933998122 -0.0185863698967 0.913 2.34850167713e-38
0.00506900997183 -0.0185863698967 0.913 2.15479892924e-38
0.00675867996244 -0.0185863698967 0.913 1.63822328244e-38
0.00844834995305 -0.0185863698967 0.913 2.3490386547e-38
0.0101380199437 -0.0185863698967 0.913 2.20072172199e-38
0.0118535994412 -0.0186270848362 0.915 2.34860453244e-38
0.01354697079 -0.0186270848362 0.915 2.34985589197e-38
0.0152403421387 -0.0186270848362 0.915 1.91484184138e-38
0.0169337134875 -0.0186270848362 0.915 2.32896561472e-38
0.0185863698967 -0.0185863698967 0.913 2.35097174593e-38
0.0202760398873 -0.0185863698967 0.913 2.35097735113e-38
0.0219657098779 -0.0185863698967 0.913 2.35097735113e-38
0.0237071988825 -0.0186270848362 0.915 2.35097693074e-38
0.0253450498591 -0.0185863698967 0.913 2.35097538931e-38
0.0270347198498 -0.0185863698967 0.913 2.35097370775e-38
0.0287243898404 -0.0185863698967 0.913 2.3509730071e-38
0.0303141231612 -0.0185252974874 0.91 2.35097202619e-38
0.0319982411146 -0.0185252974874 0.91 2.35097118541e-38
0.033682359068 -0.0185252974874 0.91 2.35097174593e-38
0.0353664770214 -0.0185252974874 0.91 2.35097454853e-38
0.0370505949748 -0.0185252974874 0.91 2.35097665048e-38
0.038649581691 -0.0184845825479 0.908 2.35097538931e-38
0.0403299982863 -0.0184845825479 0.908 1.62111370845e-38
0.0420104148815 -0.0184845825479 0.908 8.91378284584e-39
0.0436908314768 -0.0184845825479 0.908 2.35096473944e-38
0.0453712480721 -0.0184845825479 0.908 2.35098856151e-38
0.0471553026952 -0.0185252974874 0.91 9.94164367721e-39
0.0487320812626 -0.0184845825479 0.908 2.34745252497e-38
0.0504124978578 -0.0184845825479 0.908 2.35098856151e-38
0.0520929144531 -0.0184845825479 0.908 2.0928407979e-38
0.0537733310484 -0.0184845825479 0.908 1.69537664161e-38
0.0554537476436 -0.0184845825479 0.908 2.35098856151e-38
0.0571341642389 -0.0184845825479 0.908 2.35098856151e-38
0.0591384496713 -0.0185863698967 0.913 1.76754631512e-38
0.0606282463224 -0.0185252974874 0.91 2.34827592795e-38
0.0623123642758 -0.0185252974874 0.91 2.13525824254e-38
0.0642074596432 -0.0185863698967 0.913 2.35019626736e-38
-0.00504124978578 -0.0168041659526 0.908 2.34982772587e-38
-0.00336083319052 -0.0168041659526 0.908 1.89612834116e-38
-0.00168041659526 -0.0168041659526 0.908 1.86850146168e-38
0.0 -0.0168041659526 0.908 1.49932391619e-38
0.00168041659526 -0.0168041659526 0.908 2.22034998984e-38
0.0033682359068 -0.016841179534 0.91 1.95222175817e-38
0.0050523538602 -0.016841179534 0.91 2.34820936627e-38
0.00675867996244 -0.0168966999061 0.913 1.94300878129e-38
0.008420589767 -0.016841179534 0.91 1.77622763936e-38
0.0101047077204 -0.016841179534 0.91 2.34889446109e-38
0.0118276899343 -0.0168966999061 0.913 2.03473021175e-38
0.0135173599249 -0.0168966999061 0.913 2.34971590225e-38
0.0152070299155 -0.0168966999061 0.913 2.35097524918e-38
0.0168966999061 -0.0168966999061 0.913 2.29392670714e-38
0.0185863698967 -0.0168966999061 0.913 1.72991822836e-38
0.0202760398873 -0.0168966999061 0.913 1.98834611154e-38
0.0219657098779 -0.0168966999061 0.913 2.35010882634e-38
0.0236553798685 -0.0168966999061 0.913 2.35096670126e-38
0.025261769301 -0.016841179534 0.91 2.35097048476e-38
0.0269458872544 -0.016841179534 0.91 2.35097707087e-38
0.0286300052078 -0.016841179534 0.91 2.35097651035e-38
0.0303141231612 -0.016841179534 0.91 2.35097566957e-38
0.0319982411146 -0.016841179534 0.91 2.35097735113e-38
0.033682359068 -0.016841179534 0.91 2.35097538931e-38
0.0353664770214 -0.016841179534 0.91 2.2401172665e-38
0.0369691650957 -0.0168041659526 0.908 1.28882240231e-38
0.038649581691 -0.0168041659526 0.908 1.33294214433e-38
0.0403299982863 -0.0168041659526 0.908 2.34889207888e-38
0.0420104148815 -0.0168041659526 0.908 2.35098856151e-38
0.0436908314768 -0.0168041659526 0.908 2.35098645957e-38
0.0453712480721 -0.0168041659526 0.908 6.9009353109e-39
0.0470516646673 -0.0168041659526 0.908 2.35032168358e-38
0.0487320812626 -0.0168041659526 0.908 2.35098856151e-38
0.0504124978578 -0.0168041659526 0.908 2.31410834775e-38
0.0519781723508 -0.0167671523712 0.906 1.33599122965e-38
0.0536548875879 -0.0167671523712 0.906 2.35098856151e-38
0.055331602825 -0.0167671523712 0.906 2.35098856151e-38
0.0571341642389 -0.0168041659526 0.908 1.58384043047e-38
0.058944128369 -0.016841179534 0.91 2.21664481657e-38
0.0606282463224 -0.016841179534 0.91 2.34870892917e-38
0.0623123642758 -0.016841179534 0.91 2.34644288943e-38
-0.00336083319052 -0.0151237493574 0.908 1.72063042214e-38
-0.00168041659526 -0.0151237493574 0.908 1.98857186073e-38
0.0 -0.0151237493574 0.908 1.80321020181e-38
0.00168041659526 -0.0151237493574 0.908 1.59980612452e-38
0.0033682359068 -0.0151570615806 0.91 2.13698169952e-38
0.0050523538602 -0.0151570615806 0.91 2.06317769162e-38
0.0067364718136 -0.0151570615806 0.91 2.34842754844e-38
0.008420589767 -0.0151570615806 0.91 2.18249461248e-38
0.0101047077204 -0.0151570615806 0.91 1.68353945309e-38
0.0118276899343 -0.0152070299155 0.913 2.349495478e-38
0.0135173599249 -0.0152070299155 0.913 2.00743459922e-38
0.0152070299155 -0.0152070299155 0.913 2.25567350114e-38
0.0168966999061 -0.0152070299155 0.913 2.3509730071e-38
0.0185863698967 -0.0152070299155 0.913 2.35097426827e-38
0.0202760398873 -0.0152070299155 0.913 2.35096894334e-38
0.0219657098779 -0.0152070299155 0.913 1.70384538888e-38
0.0236553798685 -0.0152070299155 0.913 1.79463061183e-38
0.025261769301 -0.0151570615806 0.91 1.88524641781e-38
0.0269458872544 -0.0151570615806 0.91 1.43378168377e-38
0.0286300052078 -0.0151570615806 0.91 1.67352255128e-38
0.0303141231612 -0.0151570615806 0.91 1.33283438447e-38
0.0319982411146 -0.0151570615806 0.91 1.69106456597e-38
0.033682359068 -0.0151570615806 0.91 1.84722078268e-38
0.0353664770214 -0.0151570615806 0.91 1.91495058214e-38
0.0369691650957 -0.0151237493574 0.908 2.35097777152e-38
0.038649581691 -0.0151237493574 0.908 2.35098744048e-38
0.0402411656909 -0.0150904371341 0.906 2.35098575892e-38
0.041917880928 -0.0150904371341 0.906 1.24405694195e-38
0.0435945961652 -0.0150904371341 0.906 1.3069339047e-38
0.0452713114023 -0.0150904371341 0.906 2.35097426827e-38
0.0469480266394 -0.0150904371341 0.906 2.35098856151e-38
0.0487320812626 -0.0151237493574 0.908 1.47419681304e-38
0.0504124978578 -0.0151237493574 0.908 1.88797754852e-38
0.0519781723508 -0.0150904371341 0.906 2.35098856151e-38
0.0536548875879 -0.0150904371341 0.906 2.35098856151e-38
0.055331602825 -0.0150904371341 0.906 1.39026744281e-38
0.0571341642389 -0.0151237493574 0.908 2.02253330992e-38
0.058944128369 -0.0151570615806 0.91 2.34731127408e-38
0.0606282463224 -0.0151570615806 0.91 2.07158492188e-38
-0.00336083319052 -0.0134433327621 0.908 1.71144575149e-38
-0.00168041659526 -0.0134433327621 0.908 2.07125855947e-38
0.0 -0.0134433327621 0.908 1.64709083925e-38
0.00168041659526 -0.0134433327621 0.908 1.84841174625e-38
0.00336083319052 -0.0134433327621 0.908 1.81210354252e-38
0.0050523538602 -0.0134729436272 0.91 1.94350554159e-38
0.0067364718136 -0.0134729436272 0.91 1.94275122263e-38
0.008420589767 -0.0134729436272 0.91 2.34918004572e-38
0.0101047077204 -0.0134729436272 0.91 2.05317522318e-38
0.0117888256738 -0.0134729436272 0.91 1.97913705829e-38
0.0134729436272 -0.0134729436272 0.91 2.14568894779e-38
0.0152070299155 -0.0135173599249 0.913 2.34878207695e-38
0.0168966999061 -0.0135173599249 0.913 1.90616051713e-38
0.0185252974874 -0.0134729436272 0.91 1.96958622835e-38
0.0202094154408 -0.0134729436272 0.91 2.35025806463e-38
0.0218935333942 -0.0134729436272 0.91 2.35097006437e-38
0.0236553798685 -0.0135173599249 0.913 2.35098085437e-38
0.025261769301 -0.0134729436272 0.91 2.35098197541e-38
0.0269458872544 -0.0134729436272 0.91 2.35097805178e-38
0.0286300052078 -0.0134729436272 0.91 2.35097847217e-38
0.0303141231612 -0.0134729436272 0.91 2.35097566957e-38
0.0319982411146 -0.0134729436272 0.91 2.35098365697e-38
0.033682359068 -0.0134729436272 0.91 2.35098702009e-38
0.0352887485005 -0.0134433327621 0.908 2.35098856151e-38
0.0369691650957 -0.0134433327621 0.908 2.35098435762e-38
0.038649581691 -0.0134433327621 0.908 1.36286056719e-38
0.0402411656909 -0.013413721897 0.906 1.40785527997e-38
0.041917880928 -0.013413721897 0.906 2.35095941451e-38
0.0435945961652 -0.013413721897 0.906 2.35098547866e-38
0.0452713114023 -0.013413721897 0.906 2.35098169515e-38
0.0469480266394 -0.013413721897 0.906 1.3635418785e-38
0.0486247418765 -0.013413721897 0.906 2.35096207697e-38
0.0504124978578 -0.0134433327621 0.908 2.35098856151e-38
0.0520929144531 -0.0134433327621 0.908 2.35098814113e-38
0.0537733310484 -0.0134433327621 0.908 1.47324224852e-38
0.0554537476436 -0.0134433327621 0.908 2.04086453591e-38
0.0574487796807 -0.0135173599249 0.913 2.2617369196e-38
0.058944128369 -0.0134729436272 0.91 2.3487146745e-38
0.0606282463224 -0.0134729436272 0.91 1.79423628645e-38
-0.0033682359068 -0.0117888256738 0.91 1.89594715327e-38
-0.0016841179534 -0.0117888256738 0.91 1.91413166331e-38
0.0 -0.0117888256738 0.91 1.47245682073e-38
0.00168041659526 -0.0117629161668 0.908 1.82169038583e-38
0.00336083319052 -0.0117629161668 0.908 1.82049928213e-38
0.0050523538602 -0.0117888256738 0.91 1.74735612658e-38
0.0067364718136 -0.0117888256738 0.91 2.02608476074e-38
0.008420589767 -0.0117888256738 0.91 1.78494511711e-38
0.0101047077204 -0.0117888256738 0.91 2.3496842329e-38
0.0117888256738 -0.0117888256738 0.91 2.15524496254e-38
0.0134729436272 -0.0117888256738 0.91 1.97988801414e-38
0.0151570615806 -0.0117888256738 0.91 1.97060357104e-38
0.016841179534 -0.0117888256738 0.91 2.15469201017e-38
0.0185252974874 -0.0117888256738 0.91 2.34875068787e-38
0.0201649991431 -0.0117629161668 0.908 2.09027474015e-38
0.0218454157384 -0.0117629161668 0.908 1.97855271684e-38
0.0235258323337 -0.0117629161668 0.908 2.02350188742e-38
0.025261769301 -0.0117888256738 0.91 1.84958841657e-38
0.0269458872544 -0.0117888256738 0.91 1.77720364374e-38
0.0285670821194 -0.0117629161668 0.908 1.75902011461e-38
0.0302474987147 -0.0117629161668 0.908 1.40853420908e-38
0.03192791531 -0.0117629161668 0.908 1.54649624678e-38
0.0336083319052 -0.0117629161668 0.908 1.77601239992e-38
0.0352110199796 -0.0117370066599 0.906 1.78408387907e-38
0.0368877352167 -0.0117370066599 0.906 2.34788706762e-38
0.0385644504538 -0.0117370066599 0.906 2.35096656113e-38
0.0402411656909 -0.0117370066599 0.906 2.35097875243e-38
0.041917880928 -0.0117370066599 0.906 2.35097398801e-38
0.0435945961652 -0.0117370066599 0.906 1.3820524707e-38
0.0452713114023 -0.0117370066599 0.906 1.50124005171e-38
0.0469480266394 -0.0117370066599 0.906 2.35098533853e-38
0.0486247418765 -0.0117370066599 0.906 2.35098856151e-38
0.0504124978578 -0.0117629161668 0.908 2.04627032499e-38
0.0520929144531 -0.0117629161668 0.908 1.65644688871e-38
0.0537733310484 -0.0117629161668 0.908 1.98518926636e-38
0.0554537476436 -0.0117629161668 0.908 2.24308900015e-38
0.0572600104156 -0.0117888256738 0.91 2.34640211164e-38
0.058944128369 -0.0117888256738 0.91 2.34846468285e-38
0.0606282463224 -0.0117888256738 0.91 2.34629603335e-38
0.0 -0.0101047077204 0.91 1.47260423733e-38
0.0016841179534 -0.0101047077204 0.91 2.0538293493e-38
0.0033682359068 -0.0101047077204 0.91 1.72941992663e-38
0.0050523538602 -0.0101047077204 0.91 1.76450437641e-38
0.0067364718136 -0.0101047077204 0.91 1.89479080178e-38
0.008420589767 -0.0101047077204 0.91 1.83082671169e-38
0.0101047077204 -0.0101047077204 0.91 1.76751534642e-38
0.0117629161668 -0.0100824995716 0.908 2.0075091483e-38
0.0134433327621 -0.0100824995716 0.908 2.25641212556e-38
0.0151237493574 -0.0100824995716 0.908 2.21073932445e-38
0.0168041659526 -0.0100824995716 0.908 2.05317522318e-38
0.0184845825479 -0.0100824995716 0.908 2.09927948408e-38
0.0201649991431 -0.0100824995716 0.908 2.16435116048e-38
0.0218454157384 -0.0100824995716 0.908 2.34737293122e-38
0.0235258323337 -0.0100824995716 0.908 2.34971113783e-38
0.0252062489289 -0.0100824995716 0.908 2.35032869007e-38
0.0268866655242 -0.0100824995716 0.908 2.35097244658e-38
0.0285670821194 -0.0100824995716 0.908 2.35096431905e-38
0.0302474987147 -0.0100824995716 0.908 2.3509716058e-38
0.03192791531 -0.0100824995716 0.908 2.35097398801e-38
0.0336083319052 -0.0100824995716 0.908 2.35097735113e-38
0.0352110199796 -0.0100602914227 0.906 2.35039931551e-38
0.0368877352167 -0.0100602914227 0.906 2.35097104528e-38
0.038436753598 -0.0100269791995 0.903 1.91635650489e-38
0.0401079167979 -0.0100269791995 0.903 1.98892008339e-38
0.0417790799978 -0.0100269791995 0.903 1.9149494611e-38
0.0434502431977 -0.0100269791995 0.903 2.35097062489e-38
0.0451214063976 -0.0100269791995 0.903 2.35097104528e-38
0.0469480266394 -0.0100602914227 0.906 2.26799343698e-38
0.0486247418765 -0.0100602914227 0.906 1.84137540627e-38
0.0504124978578 -0.0100824995716 0.908 1.96728851926e-38
0.0520929144531 -0.0100824995716 0.908 2.09592996036e-38
0.0537733310484 -0.0100824995716 0.908 2.34443398795e-38
0.0554537476436 -0.0100824995716 0.908 2.28007248961e-38
0.0572600104156 -0.0101047077204 0.91 2.34824678094e-38
0.0591384496713 -0.0101380199437 0.913 1.90473665776e-38
0.0608281196619 -0.0101380199437 0.913 2.3474179129e-38
-0.0017451903627 -0.0087259518135 0.943 1.91427207342e-38
0.0 -0.0087259518135 0.943 1.46267029239e-38
0.00168966999061 -0.00844834995305 0.913 1.67564776053e-38
0.00337933998122 -0.00844834995305 0.913 2.20004405405e-38
0.00506900997183 -0.00844834995305 0.913 1.5453474623e-38
0.00675867996244 -0.00844834995305 0.913 2.09676191126e-38
0.00840208297631 -0.00840208297631 0.908 1.52590416585e-38
0.0100824995716 -0.00840208297631 0.908 1.88578773941e-38
0.0117629161668 -0.00840208297631 0.908 1.82196784293e-38
0.0134433327621 -0.00840208297631 0.908 1.90548411036e-38
0.0151237493574 -0.00840208297631 0.908 1.8599608278e-38
0.0168041659526 -0.00840208297631 0.908 2.34993660676e-38
0.0184845825479 -0.00840208297631 0.908 2.35028763202e-38
0.0201205828455 -0.00838357618561 0.906 2.08111557313e-38
0.0217972980826 -0.00838357618561 0.906 2.29147961963e-38
0.0234740133197 -0.00838357618561 0.906 2.11637966937e-38
0.0251507285568 -0.00838357618561 0.906 2.00617511216e-38
0.026827443794 -0.00838357618561 0.906 2.05248746589e-38
0.0285670821194 -0.00840208297631 0.908 1.98841785802e-38
0.0302474987147 -0.00840208297631 0.908 1.98834611154e-38
0.03192791531 -0.00840208297631 0.908 1.95067920882e-38
0.0336083319052 -0.00840208297631 0.908 1.93216861663e-38
0.0352110199796 -0.00838357618561 0.906 2.33707745127e-38
0.0367655903981 -0.00835581599956 0.903 2.15404909443e-38
0.038436753598 -0.00835581599956 0.903 2.35090294218e-38
0.0400190842026 -0.00833730920887 0.901 2.35098141489e-38
0.0416865460443 -0.00833730920887 0.901 2.35097945307e-38
0.0434502431977 -0.00835581599956 0.903 2.34953625579e-38
0.0451214063976 -0.00835581599956 0.903 2.15416498181e-38
0.0469480266394 -0.00838357618561 0.906 2.02332252121e-38
0.0486247418765 -0.00838357618561 0.906 1.71854346834e-38
0.0504124978578 -0.00840208297631 0.908 2.287995291e-38
0.0520929144531 -0.00840208297631 0.908 2.34352818862e-38
0.0537733310484 -0.00840208297631 0.908 2.31651956202e-38
0.0554537476436 -0.00840208297631 0.908 2.34568492709e-38
0.0574487796807 -0.00844834995305 0.913 2.34900236107e-38
0.0591384496713 -0.00844834995305 0.913 1.8667738008e-38
-0.00350148479982 -0.00700296959964 0.946 1.86896809407e-38
-0.0017451903627 -0.0069807614508 0.943 1.95108376369e-38
0.0 -0.0069807614508 0.943 1.49868282214e-38
0.0017451903627 -0.0069807614508 0.943 2.00690308672e-38
0.00337933998122 -0.00675867996244 0.913 2.21819423228e-38
0.00506900997183 -0.00675867996244 0.913 9.3769063831e-39
0.0067364718136 -0.0067364718136 0.91 1.8746304609e-38
0.00840208297631 -0.00672166638105 0.908 2.14307552616e-38
0.0100824995716 -0.00672166638105 0.908 1.68163452796e-38
0.0117629161668 -0.00672166638105 0.908 1.71790069273e-38
0.0134433327621 -0.00672166638105 0.908 1.94982679897e-38
0.0150904371341 -0.00670686094849 0.906 1.94154232244e-38
0.0167671523712 -0.00670686094849 0.906 1.61974856349e-38
0.0184845825479 -0.00672166638105 0.908 1.81310925442e-38
0.0201205828455 -0.00670686094849 0.906 2.21844954886e-38
0.0217972980826 -0.00670686094849 0.906 2.34827592795e-38
0.0234740133197 -0.00670686094849 0.906 2.35028805241e-38
0.0251507285568 -0.00670686094849 0.906 2.35097146567e-38
0.026827443794 -0.00670686094849 0.906 2.35096880321e-38
0.0285041590311 -0.00670686094849 0.906 2.35097188606e-38
0.0301808742682 -0.00670686094849 0.906 2.35096908347e-38
0.0318575895053 -0.00670686094849 0.906 2.35097048476e-38
0.0335343047424 -0.00670686094849 0.906 2.35096964399e-38
0.0350944271982 -0.00668465279965 0.903 2.35018155373e-38
0.0367655903981 -0.00668465279965 0.903 2.34910703807e-38
0.038436753598 -0.00668465279965 0.903 2.34856739803e-38
0.0400190842026 -0.00666984736709 0.901 2.24632585947e-38
0.0416865460443 -0.00666984736709 0.901 2.11688021318e-38
0.0434502431977 -0.00668465279965 0.903 1.95000644543e-38
0.0451214063976 -0.00668465279965 0.903 1.7826130762e-38
0.0467925695976 -0.00668465279965 0.903 2.1123599046e-38
0.0486247418765 -0.00670686094849 0.906 2.26959231853e-38
0.0504124978578 -0.00672166638105 0.908 2.34378154338e-38
0.0522076565554 -0.0067364718136 0.91 2.27967438072e-38
0.0537733310484 -0.00672166638105 0.908 2.34392895998e-38
0.0554537476436 -0.00672166638105 0.908 2.34850349882e-38
0.0571341642389 -0.00672166638105 0.908 1.88705199088e-38
0.0595918660434 -0.00681049897639 0.92 2.34536122714e-38
-0.0034903807254 -0.0052355710881 0.943 1.80460995885e-38
-0.00173963832549 -0.00521891497647 0.94 2.16345643141e-38
0.0 -0.00520781090205 0.938 1.70179304714e-38
0.00172113153479 -0.00516339460438 0.93 1.80299496237e-38
0.0033867426975 -0.00508011404625 0.915 2.16295098305e-38
0.00506900997183 -0.00506900997183 0.913 9.935811473e-39
0.0067364718136 -0.0050523538602 0.91 1.77552208559e-38
0.008420589767 -0.0050523538602 0.91 1.64496829247e-38
0.0100824995716 -0.00504124978578 0.908 2.29195199734e-38
0.0117629161668 -0.00504124978578 0.908 2.19050653645e-38
0.013413721897 -0.00503014571137 0.906 1.71911744019e-38
0.0150904371341 -0.00503014571137 0.906 1.73569087739e-38
0.0167671523712 -0.00503014571137 0.906 1.93067118909e-38
0.0184438676083 -0.00503014571137 0.906 2.02396823954e-38
0.0201205828455 -0.00503014571137 0.906 2.07964420974e-38
0.0217972980826 -0.00503014571137 0.906 2.00664580832e-38
0.0234740133197 -0.00503014571137 0.906 1.86839005845e-38
0.0251507285568 -0.00503014571137 0.906 1.90501747797e-38
0.026827443794 -0.00503014571137 0.906 1.92341582616e-38
0.0285041590311 -0.00503014571137 0.906 2.02483073875e-38
0.0301808742682 -0.00503014571137 0.906 1.90515648678e-38
0.0318575895053 -0.00503014571137 0.906 1.95129157625e-38
0.0335343047424 -0.00503014571137 0.906 2.0891904154e-38
0.0350944271982 -0.00501348959974 0.903 2.09855641407e-38
0.0367655903981 -0.00501348959974 0.903 2.34726405033e-38
0.038436753598 -0.00501348959974 0.903 2.04255057822e-38
0.0400190842026 -0.00500238552532 0.901 1.88427784031e-38
0.0416865460443 -0.00500238552532 0.901 1.8281003454e-38
0.0434502431977 -0.00501348959974 0.903 2.1123599046e-38
0.0451214063976 -0.00501348959974 0.903 2.2602336066e-38
0.0467925695976 -0.00501348959974 0.903 2.25118934605e-38
0.0486247418765 -0.00503014571137 0.906 2.22389135132e-38
0.0504124978578 -0.00504124978578 0.908 2.22356961319e-38
0.0522076565554 -0.0050523538602 0.91 2.24200579644e-38
0.0538917745088 -0.0050523538602 0.91 2.34486740956e-38
0.0555758924622 -0.0050523538602 0.91 2.34900362224e-38
0.0578892412993 -0.00510787423229 0.92 2.00574463328e-38
0.0595918660434 -0.00510787423229 0.92 2.34633639074e-38
-0.0034903807254 -0.0034903807254 0.943 2.01669942415e-38
-0.00173963832549 -0.00347927665098 0.94 1.65613285772e-38
0.0 -0.0034718739347 0.938 2.00629240085e-38
0.00172113153479 -0.00344226306959 0.93 1.79413315088e-38
0.00339784677192 -0.00339784677192 0.918 2.0891594467e-38
0.00508011404625 -0.0033867426975 0.915 1.03031618654e-38
0.006773485395 -0.0033867426975 0.915 1.88672310613e-38
0.008420589767 -0.0033682359068 0.91 1.77555109246e-38
0.0101047077204 -0.0033682359068 0.91 1.69307991342e-38
0.0117629161668 -0.00336083319052 0.908 1.91207960184e-38
0.013413721897 -0.00335343047424 0.906 1.96837270388e-38
0.0150904371341 -0.00335343047424 0.906 2.1991057446e-38
0.0167671523712 -0.00335343047424 0.906 1.55392228787e-38
0.0184438676083 -0.00335343047424 0.906 1.74641809739e-38
0.0201205828455 -0.00335343047424 0.906 1.75405797662e-38
0.0217972980826 -0.00335343047424 0.906 1.80915927431e-38
0.0234740133197 -0.00335343047424 0.906 1.89252868567e-38
0.0251507285568 -0.00335343047424 0.906 1.88366799522e-38
0.026827443794 -0.00335343047424 0.906 2.05955743703e-38
0.0285670821194 -0.00336083319052 0.908 1.83843422092e-38
0.0301808742682 -0.00335343047424 0.906 2.01345864119e-38
0.0318575895053 -0.00335343047424 0.906 1.95803322316e-38
0.0335343047424 -0.00335343047424 0.906 1.7728196815e-38
0.0350944271982 -0.00334232639983 0.903 1.82756224678e-38
0.0367655903981 -0.00334232639983 0.903 1.98364671701e-38
0.038436753598 -0.00334232639983 0.903 2.12139996125e-38
0.0401079167979 -0.00334232639983 0.903 2.25951277867e-38
0.0417790799978 -0.00334232639983 0.903 2.16821566138e-38
0.0434502431977 -0.00334232639983 0.903 2.24186412516e-38
0.0452713114023 -0.00335343047424 0.906 2.18697624522e-38
0.0469480266394 -0.00335343047424 0.906 2.31579705253e-38
0.0487320812626 -0.00336083319052 0.908 2.17772094913e-38
0.0506900997183 -0.00337933998122 0.913 2.27942677128e-38
0.0524945118112 -0.0033867426975 0.915 2.2971111579e-38
0.05418788316 -0.0033867426975 0.915 2.34928486284e-38
0.0560644717366 -0.00339784677192 0.918 1.78527736497e-38
0.0578892412993 -0.00340524948819 0.92 2.34636553775e-38
0.0599157348806 -0.00342375627889 0.925 2.34597751821e-38
0.0618274863596 -0.00343486035331 0.928 2.34629379127e-38
0.0636818667874 -0.00344226306959 0.93 2.34752483197e-38
-0.0034903807254 -0.0017451903627 0.943 2.20119760295e-38
-0.00173963832549 -0.00173963832549 0.94 1.2601193256e-38
0.0 -0.00173593696735 0.938 2.21863157753e-38
0.001726683572 -0.001726683572 0.933 1.63708192484e-38
0.00342375627889 -0.00171187813945 0.925 1.85812624785e-38
0.00512453034392 -0.00170817678131 0.923 1.10256405251e-38
0.00683270712523 -0.00170817678131 0.923 2.08927028941e-38
0.00849461692979 -0.00169892338596 0.918 2.0716831529e-38
0.0101602280925 -0.00169337134875 0.915 1.77731322528e-38
0.0118276899343 -0.00168966999061 0.913 8.54285353713e-39
0.0134433327621 -0.00168041659526 0.908 1.58115540248e-38
0.0151237493574 -0.00168041659526 0.908 1.78351341047e-38
0.0168041659526 -0.00168041659526 0.908 1.38850965402e-38
0.0184845825479 -0.00168041659526 0.908 1.97844803984e-38
0.0201205828455 -0.00167671523712 0.906 2.11599136957e-38
0.0217972980826 -0.00167671523712 0.906 1.98774201177e-38
0.0234740133197 -0.00167671523712 0.906 1.80270433307e-38
0.0251507285568 -0.00167671523712 0.906 1.65486846612e-38
0.026827443794 -0.00167671523712 0.906 2.04101293342e-38
0.0285670821194 -0.00168041659526 0.908 2.01119736586e-38
0.0301808742682 -0.00167671523712 0.906 2.04793156432e-38
0.0318575895053 -0.00167671523712 0.906 2.17664475191e-38
0.0335343047424 -0.00167671523712 0.906 2.14956045519e-38
0.0352110199796 -0.00167671523712 0.906 2.09449503073e-38
0.0368877352167 -0.00167671523712 0.906 2.06698025513e-38
0.0385644504538 -0.00167671523712 0.906 2.18622290717e-38
0.0402411656909 -0.00167671523712 0.906 2.26894660019e-38
0.041917880928 -0.00167671523712 0.906 2.1959445554e-38
0.0435945961652 -0.00167671523712 0.906 2.21423990815e-38
0.0453712480721 -0.00168041659526 0.908 2.24211341616e-38
0.0470516646673 -0.00168041659526 0.908 2.19623154132e-38
0.0488394206486 -0.0016841179534 0.91 2.31665997213e-38
0.0506900997183 -0.00168966999061 0.913 2.03164511305e-38
0.0526666249647 -0.00169892338596 0.918 2.34652360422e-38
0.0543655483507 -0.00169892338596 0.918 2.34849957518e-38
