# .PCD v0.7 - Point Cloud Data file format
VERSION 0.7
FIELDS x y z rgb
SIZE 4 4 4 4
TYPE F F F F
COUNT 1 1 1 1
WIDTH 853
HEIGHT 1
VIEWPOINT 0 0 0 1 0 0 0
POINTS 853
DATA ascii
0.0440276550675 -0.0287873129287 0.915 2.3509837971e-38
0.0457210264162 -0.0287873129287 0.915 2.35098169515e-38
0.047414397765 -0.0287873129287 0.915 2.35097987346e-38
0.0491077691137 -0.0287873129287 0.915 2.35097847217e-38
0.0508011404625 -0.0287873129287 0.915 2.35097665048e-38
0.0524945118112 -0.0287873129287 0.915 2.35097412814e-38
0.05418788316 -0.0287873129287 0.915 2.35097805178e-38
0.0558812545087 -0.0287873129287 0.915 2.35098057411e-38
0.0575746258575 -0.0287873129287 0.915 2.35098113463e-38
0.0591384496713 -0.0287243898404 0.913 2.35098071424e-38
0.0608281196619 -0.0287243898404 0.913 6.88981460629e-39
0.0625177896526 -0.0287243898404 0.913 2.35098561879e-38
0.0639964822292 -0.0286300052078 0.91 7.83696625131e-39
0.0656806001826 -0.0286300052078 0.91 2.34994403364e-38
0.0675867996244 -0.0287243898404 0.913 2.35098856151e-38
0.069276469615 -0.0287243898404 0.913 9.1835496158e-40
0.0709661396056 -0.0287243898404 0.913 2.35098856151e-38
0.0726558095962 -0.0287243898404 0.913 1.86234555753e-38
0.074508339345 -0.0287873129287 0.915 2.34866703035e-38
0.0762017106937 -0.0287873129287 0.915 2.35098337671e-38
0.0033867426975 -0.02709394158 0.915 2.35018884048e-38
0.00508011404625 -0.02709394158 0.915 1.4357227624e-38
0.006773485395 -0.02709394158 0.915 2.34952252306e-38
0.00846685674374 -0.02709394158 0.915 2.34978274419e-38
0.0101602280925 -0.02709394158 0.915 2.35097566957e-38
0.0118535994412 -0.02709394158 0.915 1.46406276267e-38
0.01354697079 -0.02709394158 0.915 2.35091905711e-38
0.0152403421387 -0.02709394158 0.915 2.34942359139e-38
0.0169337134875 -0.02709394158 0.915 2.3509758097e-38
0.0186270848362 -0.02709394158 0.915 2.04560610952e-38
0.020320456185 -0.02709394158 0.915 2.35097062489e-38
0.0220138275337 -0.02709394158 0.915 2.35098351684e-38
0.0237071988825 -0.02709394158 0.915 2.35098435762e-38
0.0254005702312 -0.02709394158 0.915 2.35098631944e-38
0.02709394158 -0.02709394158 0.915 2.02754407297e-38
0.0287873129287 -0.02709394158 0.915 2.35003778051e-38
0.0304806842775 -0.02709394158 0.915 2.35098449775e-38
0.0321740556262 -0.02709394158 0.915 2.35098435762e-38
0.033867426975 -0.02709394158 0.915 2.35098407736e-38
0.0355607983237 -0.02709394158 0.915 2.35098295632e-38
0.0372541696725 -0.02709394158 0.915 2.35098015372e-38
0.0389475410212 -0.02709394158 0.915 2.35098071424e-38
0.04064091237 -0.02709394158 0.915 2.35097903269e-38
0.0423342837187 -0.02709394158 0.915 2.3509795932e-38
0.0440276550675 -0.02709394158 0.915 2.35097623009e-38
0.0457210264162 -0.02709394158 0.915 2.35098015372e-38
0.047414397765 -0.02709394158 0.915 2.35097749126e-38
0.0491077691137 -0.02709394158 0.915 2.35097693074e-38
0.0508011404625 -0.02709394158 0.915 2.35097665048e-38
0.0523797697089 -0.0270347198498 0.913 2.35097749126e-38
0.0540694396995 -0.0270347198498 0.913 2.35097931294e-38
0.0557591096901 -0.0270347198498 0.913 2.35098351684e-38
0.0574487796807 -0.0270347198498 0.913 2.35098365697e-38
0.058944128369 -0.0269458872544 0.91 6.25270585169e-39
0.0606282463224 -0.0269458872544 0.91 2.34817783705e-38
0.0623123642758 -0.0269458872544 0.91 2.35098856151e-38
0.0639964822292 -0.0269458872544 0.91 8.65728917493e-39
0.0655362472152 -0.0268866655242 0.908 2.35097973333e-38
0.0672166638105 -0.0268866655242 0.908 2.35098856151e-38
0.0690488360894 -0.0269458872544 0.91 1.8045876782e-38
0.0709661396056 -0.0270347198498 0.913 2.35098856151e-38
0.0726558095962 -0.0270347198498 0.913 1.576537003e-38
0.074508339345 -0.02709394158 0.915 2.34917584182e-38
0.0762017106937 -0.02709394158 0.915 2.35098309645e-38
0.0033867426975 -0.0254005702312 0.915 2.34979535587e-38
0.00508011404625 -0.0254005702312 0.915 1.64791522314e-38
0.006773485395 -0.0254005702312 0.915 2.34838004442e-38
0.00846685674374 -0.0254005702312 0.915 1.7949976119e-38
0.0101602280925 -0.0254005702312 0.915 2.3498198786e-38
0.0118535994412 -0.0254005702312 0.915 2.00775731826e-38
0.01354697079 -0.0254005702312 0.915 2.34902562263e-38
0.0152403421387 -0.0254005702312 0.915 1.81404658297e-38
0.0169337134875 -0.0254005702312 0.915 2.35011204933e-38
0.0186270848362 -0.0254005702312 0.915 2.35043687031e-38
0.020320456185 -0.0254005702312 0.915 2.11752565126e-38
0.0220138275337 -0.0254005702312 0.915 2.35097637022e-38
0.0237071988825 -0.0254005702312 0.915 2.35098463788e-38
0.0254005702312 -0.0254005702312 0.915 2.35098505827e-38
0.02709394158 -0.0254005702312 0.915 2.35098856151e-38
0.0287873129287 -0.0254005702312 0.915 2.35098687996e-38
0.0304806842775 -0.0254005702312 0.915 2.35098505827e-38
0.0321740556262 -0.0254005702312 0.915 2.35098435762e-38
0.033867426975 -0.0254005702312 0.915 2.35098617931e-38
0.0355607983237 -0.0254005702312 0.915 2.35098393723e-38
0.0372541696725 -0.0254005702312 0.915 2.35097763139e-38
0.0389475410212 -0.0254005702312 0.915 2.35098015372e-38
0.04064091237 -0.0254005702312 0.915 2.35098183528e-38
0.0423342837187 -0.0254005702312 0.915 2.35098001359e-38
0.0440276550675 -0.0254005702312 0.915 2.35097931294e-38
0.0457210264162 -0.0254005702312 0.915 2.35098267606e-38
0.047414397765 -0.0254005702312 0.915 2.35097188606e-38
0.0491077691137 -0.0254005702312 0.915 2.35097819191e-38
0.0506900997183 -0.0253450498591 0.913 2.35097833204e-38
0.0523797697089 -0.0253450498591 0.913 2.3509795932e-38
0.0540694396995 -0.0253450498591 0.913 2.35098197541e-38
0.0557591096901 -0.0253450498591 0.913 2.3509865997e-38
0.0574487796807 -0.0253450498591 0.913 2.21275817515e-38
0.058944128369 -0.025261769301 0.91 4.77544580022e-39
0.0606282463224 -0.025261769301 0.91 2.35098716022e-38
0.0621754140247 -0.0252062489289 0.908 1.51200832976e-38
0.0638558306199 -0.0252062489289 0.908 2.3490790121e-38
0.0655362472152 -0.0252062489289 0.908 2.35098856151e-38
0.0672166638105 -0.0252062489289 0.908 1.05985499765e-38
0.0690488360894 -0.025261769301 0.91 2.35091401244e-38
0.0707329540428 -0.025261769301 0.91 2.35098856151e-38
0.0726558095962 -0.0253450498591 0.913 1.9523397475e-38
0.0743454795868 -0.0253450498591 0.913 2.34971576212e-38
0.00337933998122 -0.0236553798685 0.913 2.34993618637e-38
0.00506900997183 -0.0236553798685 0.913 1.9800009588e-38
0.006773485395 -0.0237071988825 0.915 1.37850101987e-38
0.00844834995305 -0.0236553798685 0.913 2.32068744404e-38
0.0101380199437 -0.0236553798685 0.913 2.3505297764e-38
0.0118535994412 -0.0237071988825 0.915 1.96162601229e-38
0.0135173599249 -0.0236553798685 0.913 1.54585459222e-38
0.0152070299155 -0.0236553798685 0.913 2.34999840402e-38
0.0169337134875 -0.0237071988825 0.915 2.34822842393e-38
0.0185863698967 -0.0236553798685 0.913 2.35098071424e-38
0.0202760398873 -0.0236553798685 0.913 1.9623504836e-38
0.0220138275337 -0.0237071988825 0.915 2.34840891117e-38
0.0237071988825 -0.0237071988825 0.915 2.35098337671e-38
0.0254005702312 -0.0237071988825 0.915 2.35098449775e-38
0.02709394158 -0.0237071988825 0.915 2.35098631944e-38
0.0287873129287 -0.0237071988825 0.915 2.35098631944e-38
0.0304806842775 -0.0237071988825 0.915 2.35098463788e-38
0.0321740556262 -0.0237071988825 0.915 2.35098323658e-38
0.033867426975 -0.0237071988825 0.915 2.35098127476e-38
0.0355607983237 -0.0237071988825 0.915 2.35098169515e-38
0.0372541696725 -0.0237071988825 0.915 2.35097931294e-38
0.0389475410212 -0.0237071988825 0.915 2.3509786123e-38
0.04064091237 -0.0237071988825 0.915 2.35097833204e-38
0.0423342837187 -0.0237071988825 0.915 2.35097665048e-38
0.0439314197559 -0.0236553798685 0.913 2.35097538931e-38
0.0456210897465 -0.0236553798685 0.913 2.35097693074e-38
0.0473107597371 -0.0236553798685 0.913 2.35097679061e-38
0.0490004297277 -0.0236553798685 0.913 2.35097917282e-38
0.0506900997183 -0.0236553798685 0.913 2.35097931294e-38
0.0522076565554 -0.0235776513476 0.91 2.3509851984e-38
0.0538917745088 -0.0235776513476 0.91 2.35098337671e-38
0.0554537476436 -0.0235258323337 0.908 2.35098435762e-38
0.0571341642389 -0.0235258323337 0.908 9.21224820835e-40
0.0588145808341 -0.0235258323337 0.908 2.35098323658e-38
0.0604949974294 -0.0235258323337 0.908 2.35098856151e-38
0.0621754140247 -0.0235258323337 0.908 5.89002738835e-39
0.0638558306199 -0.0235258323337 0.908 2.35098856151e-38
0.0655362472152 -0.0235258323337 0.908 2.35098856151e-38
0.0672166638105 -0.0235258323337 0.908 2.27448144887e-38
0.0690488360894 -0.0235776513476 0.91 2.35098856151e-38
0.0707329540428 -0.0235776513476 0.91 2.10206036088e-38
0.0724170719962 -0.0235776513476 0.91 2.30970616863e-38
0.00337933998122 -0.0219657098779 0.913 2.35022247164e-38
0.00506900997183 -0.0219657098779 0.913 2.04457321242e-38
0.00675867996244 -0.0219657098779 0.913 1.80320627818e-38
0.00844834995305 -0.0219657098779 0.913 2.34820404134e-38
0.0101380199437 -0.0219657098779 0.913 1.97034629264e-38
0.0118276899343 -0.0219657098779 0.913 2.34907424768e-38
0.0135173599249 -0.0219657098779 0.913 2.2655826431e-38
0.0152070299155 -0.0219657098779 0.913 1.79502521748e-38
0.0168966999061 -0.0219657098779 0.913 2.34806433188e-38
0.0185863698967 -0.0219657098779 0.913 2.34967792706e-38
0.0202760398873 -0.0219657098779 0.913 2.35098197541e-38
0.0219657098779 -0.0219657098779 0.913 1.80529014912e-38
0.0236553798685 -0.0219657098779 0.913 2.34869631749e-38
0.0253450498591 -0.0219657098779 0.913 2.35097805178e-38
0.0270347198498 -0.0219657098779 0.913 2.35098617931e-38
0.0287243898404 -0.0219657098779 0.913 2.35098702009e-38
0.030414059831 -0.0219657098779 0.913 2.3509851984e-38
0.0321037298216 -0.0219657098779 0.913 2.35098435762e-38
0.033867426975 -0.0220138275337 0.915 2.35098309645e-38
0.0355607983237 -0.0220138275337 0.915 2.35098253593e-38
0.0371727397934 -0.0219657098779 0.913 2.35098057411e-38
0.038862409784 -0.0219657098779 0.913 2.35097987346e-38
0.0405520797746 -0.0219657098779 0.913 2.35097847217e-38
0.0422417497652 -0.0219657098779 0.913 2.35097805178e-38
0.0439314197559 -0.0219657098779 0.913 2.35097833204e-38
0.0456210897465 -0.0219657098779 0.913 2.35097777152e-38
0.0473107597371 -0.0219657098779 0.913 2.35097819191e-38
0.0490004297277 -0.0219657098779 0.913 2.35098057411e-38
0.050523538602 -0.0218935333942 0.91 2.35098351684e-38
0.0522076565554 -0.0218935333942 0.91 2.35098856151e-38
0.0538917745088 -0.0218935333942 0.91 2.35098351684e-38
0.0554537476436 -0.0218454157384 0.908 3.86677661362e-39
0.0571341642389 -0.0218454157384 0.908 2.3509702045e-38
0.0588145808341 -0.0218454157384 0.908 2.35098856151e-38
0.0604949974294 -0.0218454157384 0.908 3.85818945663e-39
0.0621754140247 -0.0218454157384 0.908 2.35097637022e-38
0.0638558306199 -0.0218454157384 0.908 2.35098856151e-38
0.0655362472152 -0.0218454157384 0.908 1.077686941e-38
0.0672166638105 -0.0218454157384 0.908 2.35098856151e-38
0.0688970804057 -0.0218454157384 0.908 2.35098856151e-38
0.0707329540428 -0.0218935333942 0.91 1.68618916835e-38
0.0724170719962 -0.0218935333942 0.91 2.34741412939e-38
0.0033867426975 -0.020320456185 0.915 2.35007785764e-38
0.00506900997183 -0.0202760398873 0.913 2.04489495055e-38
0.00675867996244 -0.0202760398873 0.913 2.15279605334e-38
0.008420589767 -0.0202094154408 0.91 1.46223294714e-38
0.0101047077204 -0.0202094154408 0.91 2.34952322371e-38
0.0118276899343 -0.0202760398873 0.913 2.34923693843e-38
0.0135173599249 -0.0202760398873 0.913 2.18268462855e-38
0.0151570615806 -0.0202094154408 0.91 2.07193650767e-38
0.016841179534 -0.0202094154408 0.91 2.3489823225e-38
0.0185252974874 -0.0202094154408 0.91 2.05347033663e-38
0.0202760398873 -0.0202760398873 0.913 2.35028174657e-38
0.0219657098779 -0.0202760398873 0.913 2.350977211e-38
0.0236553798685 -0.0202760398873 0.913 1.69602235994e-38
0.0253450498591 -0.0202760398873 0.913 1.8407994726e-38
0.0270347198498 -0.0202760398873 0.913 2.35097735113e-38
0.0287243898404 -0.0202760398873 0.913 2.35098015372e-38
0.030414059831 -0.0202760398873 0.913 2.35098702009e-38
0.0321037298216 -0.0202760398873 0.913 2.35098547866e-38
0.0337933998122 -0.0202760398873 0.913 2.35098435762e-38
0.0354830698028 -0.0202760398873 0.913 2.35098407736e-38
0.0371727397934 -0.0202760398873 0.913 2.35098281619e-38
0.038862409784 -0.0202760398873 0.913 2.35098057411e-38
0.0405520797746 -0.0202760398873 0.913 2.35097945307e-38
0.0422417497652 -0.0202760398873 0.913 2.35097931294e-38
0.0439314197559 -0.0202760398873 0.913 2.35098141489e-38
0.0456210897465 -0.0202760398873 0.913 2.35098309645e-38
0.0473107597371 -0.0202760398873 0.913 2.3509851984e-38
0.0488394206486 -0.0202094154408 0.91 2.35098856151e-38
0.050523538602 -0.0202094154408 0.91 2.35098744048e-38
0.0520929144531 -0.0201649991431 0.908 1.99041344717e-38
0.0537733310484 -0.0201649991431 0.908 6.98021517282e-39
0.0554537476436 -0.0201649991431 0.908 2.35097076502e-38
0.0571341642389 -0.0201649991431 0.908 2.35098856151e-38
0.0588145808341 -0.0201649991431 0.908 5.05566345413e-39
0.0604949974294 -0.0201649991431 0.908 2.35097244658e-38
0.0621754140247 -0.0201649991431 0.908 2.35098856151e-38
0.0638558306199 -0.0201649991431 0.908 1.15147721618e-38
0.0655362472152 -0.0201649991431 0.908 2.35097216632e-38
0.0672166638105 -0.0201649991431 0.908 2.35098856151e-38
0.0688970804057 -0.0201649991431 0.908 2.21247959702e-38
0.070577497001 -0.0201649991431 0.908 2.11570060014e-38
0.0722579135962 -0.0201649991431 0.908 2.34748993964e-38
0.00506900997183 -0.0185863698967 0.913 2.28467743662e-38
0.00675867996244 -0.0185863698967 0.913 1.96844585166e-38
0.008420589767 -0.0185252974874 0.91 1.89483157956e-38
0.0101047077204 -0.0185252974874 0.91 1.93156535764e-38
0.0118276899343 -0.0185863698967 0.913 2.00647849328e-38
0.0134729436272 -0.0185252974874 0.91 2.35035853773e-38
0.0151570615806 -0.0185252974874 0.91 2.02608476074e-38
0.016841179534 -0.0185252974874 0.91 1.96075958945e-38
0.0185252974874 -0.0185252974874 0.91 2.32143153353e-38
0.0202094154408 -0.0185252974874 0.91 2.09931577771e-38
0.0218935333942 -0.0185252974874 0.91 2.34873022891e-38
0.0235776513476 -0.0185252974874 0.91 2.35098421749e-38
0.025261769301 -0.0185252974874 0.91 2.23119337749e-38
0.0269458872544 -0.0185252974874 0.91 1.55607356127e-38
0.0286300052078 -0.0185252974874 0.91 2.3020315372e-38
0.0303141231612 -0.0185252974874 0.91 2.35096768217e-38
0.0321037298216 -0.0185863698967 0.913 2.3509809945e-38
0.0337933998122 -0.0185863698967 0.913 2.35098603918e-38
0.0354830698028 -0.0185863698967 0.913 2.35098744048e-38
0.0370505949748 -0.0185252974874 0.91 2.35098631944e-38
0.0387347129282 -0.0185252974874 0.91 2.35098744048e-38
0.0404188308816 -0.0185252974874 0.91 2.35098716022e-38
0.042102948835 -0.0185252974874 0.91 2.35098716022e-38
0.0437870667884 -0.0185252974874 0.91 2.35098631944e-38
0.0454711847418 -0.0185252974874 0.91 2.35098631944e-38
0.0471553026952 -0.0185252974874 0.91 2.35098057411e-38
0.0488394206486 -0.0185252974874 0.91 2.23111840802e-38
0.0504124978578 -0.0184845825479 0.908 1.63000831032e-38
0.0520929144531 -0.0184845825479 0.908 1.9417853076e-38
0.0537733310484 -0.0184845825479 0.908 2.35098211554e-38
0.055331602825 -0.0184438676083 0.906 2.35098856151e-38
0.0570083180621 -0.0184438676083 0.906 6.07298091585e-39
0.0586850332993 -0.0184438676083 0.906 2.35096628087e-38
0.0603617485364 -0.0184438676083 0.906 2.35098856151e-38
0.0620384637735 -0.0184438676083 0.906 1.5943748318e-38
0.0637151790106 -0.0184438676083 0.906 2.35050076952e-38
0.0653918942478 -0.0184438676083 0.906 2.35098856151e-38
0.0672166638105 -0.0184845825479 0.908 2.35098856151e-38
0.0688970804057 -0.0184845825479 0.908 1.56353869858e-38
0.070577497001 -0.0184845825479 0.908 2.34665070199e-38
0.00675867996244 -0.0168966999061 0.913 1.80277860188e-38
0.008420589767 -0.016841179534 0.91 1.90397631321e-38
0.0101047077204 -0.016841179534 0.91 1.72888000633e-38
0.0118276899343 -0.0168966999061 0.913 2.32824997159e-38
0.0134729436272 -0.016841179534 0.91 1.80353698461e-38
0.0151570615806 -0.016841179534 0.91 2.35075160194e-38
0.016841179534 -0.016841179534 0.91 2.03501719768e-38
0.0185252974874 -0.016841179534 0.91 1.97960439133e-38
0.0202094154408 -0.016841179534 0.91 2.23834798706e-38
0.0218935333942 -0.016841179534 0.91 2.34824411847e-38
0.0235776513476 -0.016841179534 0.91 1.97008663203e-38
0.025261769301 -0.016841179534 0.91 2.35097412814e-38
0.0269458872544 -0.016841179534 0.91 2.35097608996e-38
0.0286300052078 -0.016841179534 0.91 2.0926144882e-38
0.0303141231612 -0.016841179534 0.91 1.60174874458e-38
0.0319982411146 -0.016841179534 0.91 1.74806714542e-38
0.033682359068 -0.016841179534 0.91 2.08133655789e-38
0.0353664770214 -0.016841179534 0.91 2.35065603339e-38
0.0369691650957 -0.0168041659526 0.908 2.35097216632e-38
0.038649581691 -0.0168041659526 0.908 2.3509744084e-38
0.0404188308816 -0.016841179534 0.91 2.35097272684e-38
0.042102948835 -0.016841179534 0.91 2.35097244658e-38
0.0436908314768 -0.0168041659526 0.908 2.01835001361e-38
0.0453712480721 -0.0168041659526 0.908 1.20610641642e-38
0.0470516646673 -0.0168041659526 0.908 1.49892748885e-38
0.0487320812626 -0.0168041659526 0.908 2.13532158123e-38
0.0504124978578 -0.0168041659526 0.908 2.35097819191e-38
0.0520929144531 -0.0168041659526 0.908 2.35098449775e-38
0.0536548875879 -0.0167671523712 0.906 1.91723778149e-38
0.055331602825 -0.0167671523712 0.906 1.17725213962e-38
0.0570083180621 -0.0167671523712 0.906 2.35097749126e-38
0.0586850332993 -0.0167671523712 0.906 2.35098856151e-38
0.0603617485364 -0.0167671523712 0.906 1.40984162054e-38
0.0620384637735 -0.0167671523712 0.906 2.35064160001e-38
0.0637151790106 -0.0167671523712 0.906 2.35098856151e-38
0.0653918942478 -0.0167671523712 0.906 2.35098856151e-38
0.0670686094849 -0.0167671523712 0.906 1.5744406605e-38
0.0688970804057 -0.0168041659526 0.908 2.34561051814e-38
0.070577497001 -0.0168041659526 0.908 2.34874480241e-38
0.008420589767 -0.0151570615806 0.91 2.08822407998e-38
0.0101047077204 -0.0151570615806 0.91 1.94986155117e-38
0.0118276899343 -0.0152070299155 0.913 1.68292456332e-38
0.0134729436272 -0.0151570615806 0.91 2.2734688706e-38
0.0151570615806 -0.0151570615806 0.91 1.87725593371e-38
0.016841179534 -0.0151570615806 0.91 2.35089649621e-38
0.0185252974874 -0.0151570615806 0.91 1.9706681709e-38
0.0202094154408 -0.0151570615806 0.91 2.05349556001e-38
0.0218935333942 -0.0151570615806 0.91 1.90516041042e-38
0.0235258323337 -0.0151237493574 0.908 2.34986149716e-38
0.0252062489289 -0.0151237493574 0.908 1.93393425269e-38
0.0268866655242 -0.0151237493574 0.908 1.97948542109e-38
0.0285670821194 -0.0151237493574 0.908 2.35097623009e-38
0.0302474987147 -0.0151237493574 0.908 2.35098253593e-38
0.03192791531 -0.0151237493574 0.908 2.35098197541e-38
0.033682359068 -0.0151570615806 0.91 2.35097328736e-38
0.0352887485005 -0.0151237493574 0.908 1.96289769065e-38
0.0369691650957 -0.0151237493574 0.908 1.68593973723e-38
0.038649581691 -0.0151237493574 0.908 1.68562136222e-38
0.0403299982863 -0.0151237493574 0.908 1.83309513364e-38
0.0420104148815 -0.0151237493574 0.908 2.0086223398e-38
0.0436908314768 -0.0151237493574 0.908 2.25803314762e-38
0.0453712480721 -0.0151237493574 0.908 2.35097707087e-38
0.0470516646673 -0.0151237493574 0.908 2.35098744048e-38
0.0487320812626 -0.0151237493574 0.908 2.35098758061e-38
0.0504124978578 -0.0151237493574 0.908 1.96372767973e-38
0.0520929144531 -0.0151237493574 0.908 2.10034236897e-38
0.0536548875879 -0.0150904371341 0.906 2.33104486138e-38
0.055331602825 -0.0150904371341 0.906 2.35098814113e-38
0.0570083180621 -0.0150904371341 0.906 2.35098856151e-38
0.0586850332993 -0.0150904371341 0.906 1.17901777568e-38
0.0603617485364 -0.0150904371341 0.906 2.35096600061e-38
0.0620384637735 -0.0150904371341 0.906 2.35098856151e-38
0.0637151790106 -0.0150904371341 0.906 2.35098856151e-38
0.0653918942478 -0.0150904371341 0.906 1.53734772963e-38
0.0670686094849 -0.0150904371341 0.906 2.1881602023e-38
0.0688970804057 -0.0151237493574 0.908 2.34734784797e-38
0.008420589767 -0.0134729436272 0.91 1.93127570925e-38
0.0101047077204 -0.0134729436272 0.91 1.92202559795e-38
0.0118276899343 -0.0135173599249 0.913 1.94013976281e-38
0.0134729436272 -0.0134729436272 0.91 1.57160961721e-38
0.0151570615806 -0.0134729436272 0.91 2.19846002627e-38
0.016841179534 -0.0134729436272 0.91 1.84106291671e-38
0.0185252974874 -0.0134729436272 0.91 2.34959931422e-38
0.0202094154408 -0.0134729436272 0.91 2.34828237392e-38
0.0218935333942 -0.0134729436272 0.91 2.07128630518e-38
0.0235258323337 -0.0134433327621 0.908 1.9793873302e-38
0.0252062489289 -0.0134433327621 0.908 2.1824562169e-38
0.0268866655242 -0.0134433327621 0.908 2.35007967933e-38
0.0285670821194 -0.0134433327621 0.908 1.8782245112e-38
0.0302474987147 -0.0134433327621 0.908 2.07950225821e-38
0.03192791531 -0.0134433327621 0.908 2.22856173897e-38
0.0336083319052 -0.0134433327621 0.908 2.35097707087e-38
0.0352887485005 -0.0134433327621 0.908 2.35098001359e-38
0.0369691650957 -0.0134433327621 0.908 2.35098772074e-38
0.038649581691 -0.0134433327621 0.908 2.35098856151e-38
0.0403299982863 -0.0134433327621 0.908 2.35098856151e-38
0.0420104148815 -0.0134433327621 0.908 2.35098856151e-38
0.0436908314768 -0.0134433327621 0.908 2.35098856151e-38
0.0453712480721 -0.0134433327621 0.908 2.01914286828e-38
0.0470516646673 -0.0134433327621 0.908 1.49202006833e-38
0.0487320812626 -0.0134433327621 0.908 1.49108344044e-38
0.0504124978578 -0.0134433327621 0.908 2.349795496e-38
0.0520929144531 -0.0134433327621 0.908 2.35098589905e-38
0.0536548875879 -0.013413721897 0.906 2.35098183528e-38
0.055331602825 -0.013413721897 0.906 1.9169481331e-38
0.0570083180621 -0.013413721897 0.906 1.50072115089e-38
0.0586850332993 -0.013413721897 0.906 2.35098295632e-38
0.0603617485364 -0.013413721897 0.906 2.35098856151e-38
0.0620384637735 -0.013413721897 0.906 2.10173385834e-38
0.0637151790106 -0.013413721897 0.906 1.5087567568e-38
0.0653918942478 -0.013413721897 0.906 2.20659960853e-38
0.0670686094849 -0.013413721897 0.906 2.14239631679e-38
0.068745324722 -0.013413721897 0.906 2.34795867398e-38
0.008420589767 -0.0117888256738 0.91 1.839585808e-38
0.0101047077204 -0.0117888256738 0.91 1.83025778451e-38
0.0118276899343 -0.0118276899343 0.913 1.95839938245e-38
0.0134729436272 -0.0117888256738 0.91 1.83865044127e-38
0.0151570615806 -0.0117888256738 0.91 1.73701818729e-38
0.016841179534 -0.0117888256738 0.91 2.01471518552e-38
0.0185252974874 -0.0117888256738 0.91 1.78634879778e-38
0.0201649991431 -0.0117629161668 0.908 2.16334124468e-38
0.0218454157384 -0.0117629161668 0.908 2.34839391728e-38
0.0235258323337 -0.0117629161668 0.908 2.11862034562e-38
0.0252062489289 -0.0117629161668 0.908 1.89705375867e-38
0.0268866655242 -0.0117629161668 0.908 2.13648213662e-38
0.0285670821194 -0.0117629161668 0.908 2.09876899105e-38
0.0302474987147 -0.0117629161668 0.908 2.34970188926e-38
0.03192791531 -0.0117629161668 0.908 2.35029225631e-38
0.0336083319052 -0.0117629161668 0.908 2.31208122939e-38
0.0352887485005 -0.0117629161668 0.908 2.19110713297e-38
0.0369691650957 -0.0117629161668 0.908 2.03394492409e-38
0.038649581691 -0.0117629161668 0.908 2.17198277205e-38
0.0403299982863 -0.0117629161668 0.908 1.97844509711e-38
0.0420104148815 -0.0117629161668 0.908 2.1354327042e-38
0.0436908314768 -0.0117629161668 0.908 2.11817879647e-38
0.0453712480721 -0.0117629161668 0.908 2.3509650197e-38
0.0470516646673 -0.0117629161668 0.908 2.35098071424e-38
0.0487320812626 -0.0117629161668 0.908 2.35098057411e-38
0.0504124978578 -0.0117629161668 0.908 2.35097566957e-38
0.0519781723508 -0.0117370066599 0.906 1.6683308806e-38
0.0536548875879 -0.0117370066599 0.906 1.99893810624e-38
0.055331602825 -0.0117370066599 0.906 2.35095941451e-38
0.0570083180621 -0.0117370066599 0.906 2.35098856151e-38
0.0586850332993 -0.0117370066599 0.906 2.35098856151e-38
0.0603617485364 -0.0117370066599 0.906 1.87962244655e-38
0.0620384637735 -0.0117370066599 0.906 1.44328809255e-38
0.0637151790106 -0.0117370066599 0.906 2.29868733841e-38
0.0655362472152 -0.0117629161668 0.908 2.34558375334e-38
0.0672166638105 -0.0117629161668 0.908 2.34799104397e-38
0.0688970804057 -0.0117629161668 0.908 2.34816956939e-38
0.0101380199437 -0.0101380199437 0.913 1.65573082519e-38
0.0118276899343 -0.0101380199437 0.913 1.98598646506e-38
0.0135173599249 -0.0101380199437 0.913 1.81113496502e-38
0.0151570615806 -0.0101047077204 0.91 1.87570525683e-38
0.016841179534 -0.0101047077204 0.91 1.69081345329e-38
0.0185252974874 -0.0101047077204 0.91 1.78372514667e-38
0.0201649991431 -0.0100824995716 0.908 1.93253043189e-38
0.0218454157384 -0.0100824995716 0.908 1.93360648898e-38
0.0235258323337 -0.0100824995716 0.908 1.99851042995e-38
0.0252062489289 -0.0100824995716 0.908 2.34924926986e-38
0.026827443794 -0.0100602914227 0.906 2.34892711134e-38
0.0285041590311 -0.0100602914227 0.906 2.34722453371e-38
0.0301808742682 -0.0100602914227 0.906 2.02461395788e-38
0.0318575895053 -0.0100602914227 0.906 2.21955545361e-38
0.0335343047424 -0.0100602914227 0.906 2.31221715534e-38
0.0352110199796 -0.0100602914227 0.906 2.34881206474e-38
0.0368877352167 -0.0100602914227 0.906 2.34903024691e-38
0.0385644504538 -0.0100602914227 0.906 2.34960618058e-38
0.0402411656909 -0.0100602914227 0.906 2.34964709849e-38
0.041917880928 -0.0100602914227 0.906 2.34975261627e-38
0.0435945961652 -0.0100602914227 0.906 2.35096572035e-38
0.0452713114023 -0.0100602914227 0.906 2.35093096815e-38
0.0469480266394 -0.0100602914227 0.906 1.7409737726e-38
0.0486247418765 -0.0100602914227 0.906 1.99839061893e-38
0.0503014571137 -0.0100602914227 0.906 1.82329333114e-38
0.0519781723508 -0.0100602914227 0.906 2.35097496892e-38
0.0536548875879 -0.0100602914227 0.906 2.35098085437e-38
0.055331602825 -0.0100602914227 0.906 2.35098057411e-38
0.0570083180621 -0.0100602914227 0.906 1.96331751967e-38
0.0586850332993 -0.0100602914227 0.906 1.75753810135e-38
0.0603617485364 -0.0100602914227 0.906 1.88262767124e-38
0.0620384637735 -0.0100602914227 0.906 2.27096250816e-38
0.0638558306199 -0.0100824995716 0.908 2.34597471561e-38
0.0655362472152 -0.0100824995716 0.908 2.3468446417e-38
0.0672166638105 -0.0100824995716 0.908 2.21859626481e-38
0.0696558588243 -0.0101935403157 0.918 2.34841970117e-38
0.00846685674374 -0.00846685674374 0.915 1.77591458929e-38
0.0101602280925 -0.00846685674374 0.915 1.72977571631e-38
0.0118535994412 -0.00846685674374 0.915 1.72819799437e-38
0.01354697079 -0.00846685674374 0.915 1.95832329194e-38
0.0152070299155 -0.00844834995305 0.913 1.79240647091e-38
0.0168966999061 -0.00844834995305 0.913 1.85654782526e-38
0.0185863698967 -0.00844834995305 0.913 1.93884103939e-38
0.0202094154408 -0.008420589767 0.91 1.46936793853e-38
0.0218454157384 -0.00840208297631 0.908 1.82149966911e-38
0.0235258323337 -0.00840208297631 0.908 1.96955722147e-38
0.0252062489289 -0.00840208297631 0.908 1.85946112477e-38
0.026827443794 -0.00838357618561 0.906 2.16320461808e-38
0.0285041590311 -0.00838357618561 0.906 2.34852788141e-38
0.0301808742682 -0.00838357618561 0.906 2.34997163922e-38
0.0318575895053 -0.00838357618561 0.906 2.35003778051e-38
0.0335343047424 -0.00838357618561 0.906 2.33022496165e-38
0.0352110199796 -0.00838357618561 0.906 2.34802439487e-38
0.0367655903981 -0.00835581599956 0.903 2.31049846278e-38
0.038436753598 -0.00835581599956 0.903 2.30137839198e-38
0.0401079167979 -0.00835581599956 0.903 2.30120715331e-38
0.041917880928 -0.00838357618561 0.906 2.31971858628e-38
0.0435945961652 -0.00838357618561 0.906 2.24657346891e-38
0.0452713114023 -0.00838357618561 0.906 2.34978694808e-38
0.0469480266394 -0.00838357618561 0.906 2.35096894334e-38
0.0486247418765 -0.00838357618561 0.906 2.35097693074e-38
0.0503014571137 -0.00838357618561 0.906 2.35097847217e-38
0.0519781723508 -0.00838357618561 0.906 2.20277588541e-38
0.0536548875879 -0.00838357618561 0.906 2.12661517374e-38
0.055331602825 -0.00838357618561 0.906 2.14324956742e-38
0.0570083180621 -0.00838357618561 0.906 1.73576262387e-38
0.0586850332993 -0.00838357618561 0.906 1.92854541932e-38
0.0604949974294 -0.00840208297631 0.908 2.34557926918e-38
0.0621754140247 -0.00840208297631 0.908 1.55245036396e-38
0.0638558306199 -0.00840208297631 0.908 2.34857132166e-38
0.0656806001826 -0.008420589767 0.91 2.1357942392e-38
0.0679569354383 -0.00849461692979 0.918 2.34796077592e-38
0.0696558588243 -0.00849461692979 0.918 2.24437763422e-38
0.00849461692979 -0.00679569354383 0.918 1.70168921093e-38
0.0101935403157 -0.00679569354383 0.918 1.67442526775e-38
0.0118924637017 -0.00679569354383 0.918 1.85798639826e-38
0.0135913870877 -0.00679569354383 0.918 1.79208599395e-38
0.0152403421387 -0.006773485395 0.915 1.88431497472e-38
0.0169337134875 -0.006773485395 0.915 1.85626168011e-38
0.0186270848362 -0.006773485395 0.915 1.91139801027e-38
0.0202094154408 -0.0067364718136 0.91 1.90225061415e-38
0.0218454157384 -0.00672166638105 0.908 1.71811298945e-38
0.0235258323337 -0.00672166638105 0.908 1.625488282e-38
0.0251507285568 -0.00670686094849 0.906 2.031181003e-38
0.026827443794 -0.00670686094849 0.906 2.18985507279e-38
0.0285041590311 -0.00670686094849 0.906 2.10787574951e-38
0.0301808742682 -0.00670686094849 0.906 1.97927620723e-38
0.0318575895053 -0.00670686094849 0.906 2.22830810395e-38
0.0335343047424 -0.00670686094849 0.906 2.34820109861e-38
0.0350944271982 -0.00668465279965 0.903 2.34831642547e-38
0.0367655903981 -0.00668465279965 0.903 2.34914108962e-38
0.038436753598 -0.00668465279965 0.903 2.35021952892e-38
0.0401079167979 -0.00668465279965 0.903 2.34989554871e-38
0.0417790799978 -0.00668465279965 0.903 2.34975289653e-38
0.0434502431977 -0.00668465279965 0.903 2.34943213931e-38
0.0451214063976 -0.00668465279965 0.903 2.34903599223e-38
0.0467925695976 -0.00668465279965 0.903 2.34914151001e-38
0.0484637327975 -0.00668465279965 0.903 2.31088381986e-38
0.0503014571137 -0.00670686094849 0.906 2.07003200292e-38
0.0519781723508 -0.00670686094849 0.906 2.02310728177e-38
0.0536548875879 -0.00670686094849 0.906 1.89310265752e-38
0.055331602825 -0.00670686094849 0.906 1.93815944782e-38
0.0571341642389 -0.00672166638105 0.908 2.34392377518e-38
0.0588145808341 -0.00672166638105 0.908 2.28986602445e-38
0.0604949974294 -0.00672166638105 0.908 2.349018476e-38
0.0621754140247 -0.00672166638105 0.908 9.00670014441e-39
0.0639964822292 -0.0067364718136 0.91 2.34922012285e-38
0.0656806001826 -0.0067364718136 0.91 1.6379005634e-38
0.0679569354383 -0.00679569354383 0.918 2.25533606847e-38
0.0700352480336 -0.00683270712523 0.923 2.34640645567e-38
0.0718988818567 -0.00684751255778 0.925 2.34787964074e-38
0.0736107599962 -0.00684751255778 0.925 2.34918046611e-38
0.0102157484646 -0.00510787423229 0.92 1.76662089761e-38
0.0119183732087 -0.00510787423229 0.92 1.95125696418e-38
0.0135913870877 -0.00509677015787 0.918 1.52594003909e-38
0.0152903104736 -0.00509677015787 0.918 1.84697457454e-38
0.0169892338596 -0.00509677015787 0.918 1.87437934822e-38
0.0186270848362 -0.00508011404625 0.915 1.88377561494e-38
0.0202094154408 -0.0050523538602 0.91 1.86530089599e-38
0.0218454157384 -0.00504124978578 0.908 1.83749913445e-38
0.0235258323337 -0.00504124978578 0.908 1.86497803682e-38
0.0251507285568 -0.00503014571137 0.906 1.89206233354e-38
0.026827443794 -0.00503014571137 0.906 1.89181122085e-38
0.0285041590311 -0.00503014571137 0.906 1.82752637354e-38
0.0301808742682 -0.00503014571137 0.906 1.85586623369e-38
0.0318575895053 -0.00503014571137 0.906 1.95804219147e-38
0.0335343047424 -0.00503014571137 0.906 2.16190799661e-38
0.0350944271982 -0.00501348959974 0.903 2.08865147601e-38
0.0367655903981 -0.00501348959974 0.903 2.27321971973e-38
0.038436753598 -0.00501348959974 0.903 2.31012978115e-38
0.0401079167979 -0.00501348959974 0.903 2.19935251326e-38
0.0417790799978 -0.00501348959974 0.903 1.9871622946e-38
0.0434502431977 -0.00501348959974 0.903 2.12524232164e-38
0.0451214063976 -0.00501348959974 0.903 2.18013062197e-38
0.0467925695976 -0.00501348959974 0.903 1.74563140843e-38
0.0484637327975 -0.00501348959974 0.903 1.80008334442e-38
0.0503014571137 -0.00503014571137 0.906 1.96527961778e-38
0.0519781723508 -0.00503014571137 0.906 2.16760469525e-38
0.0536548875879 -0.00503014571137 0.906 2.34349820083e-38
0.055331602825 -0.00503014571137 0.906 2.34586135056e-38
0.0571341642389 -0.00504124978578 0.908 2.34597205314e-38
0.0588145808341 -0.00504124978578 0.908 2.01576447781e-38
0.0606282463224 -0.0050523538602 0.91 2.34916351039e-38
0.0623123642758 -0.0050523538602 0.91 1.02098830318e-38
0.0642074596432 -0.00506900997183 0.913 2.34896396549e-38
0.0660414826012 -0.00508011404625 0.915 1.51743808105e-38
0.0681049897639 -0.00510787423229 0.92 2.34655078941e-38
0.0700352480336 -0.00512453034392 0.923 2.34672342938e-38
0.0718988818567 -0.00513563441834 0.925 2.34784867205e-38
0.0736107599962 -0.00513563441834 0.925 2.34892991394e-38
0.0102490606878 -0.00341635356261 0.923 1.57254470368e-38
0.0119572374691 -0.00341635356261 0.923 2.0615399941e-38
0.0135913870877 -0.00339784677192 0.918 1.96004646867e-38
0.0152903104736 -0.00339784677192 0.918 1.76496344179e-38
0.0169892338596 -0.00339784677192 0.918 1.8192037817e-38
0.0186270848362 -0.0033867426975 0.915 1.90156874232e-38
0.0202760398873 -0.00337933998122 0.913 1.83739347655e-38
0.0218935333942 -0.0033682359068 0.91 1.93862622034e-38
0.0235258323337 -0.00336083319052 0.908 1.88388323466e-38
0.0252062489289 -0.00336083319052 0.908 1.92029499435e-38
0.026827443794 -0.00335343047424 0.906 2.04919105138e-38
0.0285041590311 -0.00335343047424 0.906 1.89249281243e-38
0.0301808742682 -0.00335343047424 0.906 1.9473071242e-38
0.0318575895053 -0.00335343047424 0.906 1.90099477047e-38
0.0335343047424 -0.00335343047424 0.906 1.89181122085e-38
0.0352110199796 -0.00335343047424 0.906 1.94691251855e-38
0.0367655903981 -0.00334232639983 0.903 1.94691251855e-38
0.038436753598 -0.00334232639983 0.903 2.07566157937e-38
0.0401079167979 -0.00334232639983 0.903 1.99283026663e-38
0.041917880928 -0.00335343047424 0.906 1.93772896893e-38
0.0435945961652 -0.00335343047424 0.906 2.02956446509e-38
0.0452713114023 -0.00335343047424 0.906 2.07548221317e-38
0.0469480266394 -0.00335343047424 0.906 2.2507951608e-38
0.0486247418765 -0.00335343047424 0.906 2.10418094585e-38
0.0503014571137 -0.00335343047424 0.906 2.15924749134e-38
0.0520929144531 -0.00336083319052 0.908 2.19623154132e-38
0.0537733310484 -0.00336083319052 0.908 2.3455436762e-38
0.0554537476436 -0.00336083319052 0.908 1.57239588578e-38
0.0571341642389 -0.00336083319052 0.908 2.34800015241e-38
0.0588145808341 -0.00336083319052 0.908 8.5514631149e-39
0.0606282463224 -0.0033682359068 0.91 2.34857076114e-38
0.0625177896526 -0.00337933998122 0.913 1.22381560603e-38
0.0643481112525 -0.0033867426975 0.915 2.34749498431e-38
0.0660414826012 -0.0033867426975 0.915 2.07928715889e-38
0.0681049897639 -0.00340524948819 0.92 2.30816319889e-38
0.0700352480336 -0.00341635356261 0.923 2.34792518294e-38
0.0718988818567 -0.00342375627889 0.925 2.34683623391e-38
0.0103267892088 -0.00172113153479 0.93 2.01518602181e-38
0.0120479207436 -0.00172113153479 0.93 1.41563304697e-38
0.0137394414132 -0.00171743017665 0.928 2.08887554363e-38
0.0153735910318 -0.00170817678131 0.923 1.76528924368e-38
0.017026247441 -0.0017026247441 0.92 1.85665670615e-38
0.0186881572455 -0.00169892338596 0.918 1.85586623369e-38
0.020320456185 -0.00169337134875 0.915 1.65303893084e-38
0.0219657098779 -0.00168966999061 0.913 1.96625029723e-38
0.0235776513476 -0.0016841179534 0.91 1.79147376665e-38
0.0252062489289 -0.00168041659526 0.908 1.9751448991e-38
0.026827443794 -0.00167671523712 0.906 1.94781369359e-38
0.0285041590311 -0.00167671523712 0.906 1.92883240524e-38
0.0301808742682 -0.00167671523712 0.906 2.11318723121e-38
0.0318575895053 -0.00167671523712 0.906 1.93812357458e-38
0.0335343047424 -0.00167671523712 0.906 2.00265953458e-38
0.0352110199796 -0.00167671523712 0.906 2.11300576306e-38
0.0368877352167 -0.00167671523712 0.906 2.03021018342e-38
0.0385644504538 -0.00167671523712 0.906 2.05750971959e-38
0.0402411656909 -0.00167671523712 0.906 2.07602031178e-38
0.041917880928 -0.00167671523712 0.906 2.16800042194e-38
0.0435945961652 -0.00167671523712 0.906 2.18636696065e-38
0.0452713114023 -0.00167671523712 0.906 2.06684054567e-38
0.0469480266394 -0.00167671523712 0.906 2.27881314268e-38
0.0486247418765 -0.00167671523712 0.906 2.14102262391e-38
0.0504124978578 -0.00168041659526 0.908 2.17761403005e-38
0.0520929144531 -0.00168041659526 0.908 2.11300730449e-38
0.0537733310484 -0.00168041659526 0.908 2.34547501258e-38
0.0554537476436 -0.00168041659526 0.908 1.57243203928e-38
0.0571341642389 -0.00168041659526 0.908 2.34792812567e-38
0.0588145808341 -0.00168041659526 0.908 1.13169312394e-38
0.0606282463224 -0.0016841179534 0.91 2.34849761336e-38
0.0625177896526 -0.00168966999061 0.913 1.40719961242e-38
0.0643481112525 -0.00169337134875 0.915 2.34561570294e-38
0.0662580120524 -0.00169892338596 0.918 2.18870923104e-38
0.0683270712523 -0.00170817678131 0.923 2.34812865148e-38
0.0700352480336 -0.00170817678131 0.923 2.3473803581e-38
0.0718988818567 -0.00171187813945 0.925 2.34756070521e-38
0.0104378299529 0.0 0.94 1.87567022436e-38
0.012112694511 0.0 0.935 1.8857196363e-38
0.0137690522784 0.0 0.93 2.20900900111e-38
0.015406903255 0.0 0.925 1.72851819107e-38
0.0171187813945 0.0 0.925 1.79294456952e-38
0.0188306595339 0.0 0.925 1.92058155989e-38
0.0204981213757 0.0 0.923 1.82792181997e-38
0.0221341216733 0.0 0.92 1.83671076394e-38
0.0237849274034 0.0 0.918 1.85532813508e-38
0.0253450498591 0.0 0.913 1.92890415172e-38
0.0268866655242 0.0 0.908 1.97550349138e-38
0.0285670821194 0.0 0.908 1.89249281243e-38
0.0302474987147 0.0 0.908 2.02149578853e-38
0.03192791531 0.0 0.908 1.92911939117e-38
0.0336083319052 0.0 0.908 2.02117012677e-38
0.0352887485005 0.0 0.908 2.04846966293e-38
0.0369691650957 0.0 0.908 2.0299231975e-38
0.038649581691 0.0 0.908 2.08506036843e-38
0.0403299982863 0.0 0.908 2.06712374809e-38
0.0420104148815 0.0 0.908 2.12218917254e-38
0.0437870667884 0.0 0.91 2.14966807491e-38
0.0454711847418 0.0 0.91 2.03903500063e-38
0.0470516646673 0.0 0.908 2.14920172278e-38
0.0487320812626 0.0 0.908 2.19551491729e-38
0.0504124978578 0.0 0.908 2.16825055372e-38
0.0520929144531 0.0 0.908 2.26026990023e-38
0.0538917745088 0.0 0.91 2.34558389347e-38
0.0555758924622 0.0 0.91 1.73802263803e-38
0.0572600104156 0.0 0.91 2.3478170027e-38
0.058944128369 0.0 0.91 2.00733790963e-38
0.0608281196619 0.0 0.913 1.82993590625e-38
0.0626547399037 0.0 0.915 2.34575625318e-38
0.0645590886664 0.0 0.918 2.25370888069e-38
0.0666188944709 0.0 0.923 2.34673548055e-38
0.0684751255778 0.0 0.925 2.3468765913e-38
0.0701870037173 0.0 0.925 2.34695015947e-38
0.0721320674195 0.0 0.928 2.34813453693e-38
0.0104378299529 0.00173963832549 0.94 1.83936776596e-38
0.0121515587715 0.00173593696735 0.938 1.77458069328e-38
0.0138430794411 0.00173038493014 0.935 2.07038821299e-38
0.0154901838131 0.00172113153479 0.93 1.56296122348e-38
0.0172113153479 0.00172113153479 0.93 2.06073915203e-38
0.0188917319432 0.00171743017665 0.928 1.76442562344e-38
0.0206091621199 0.00171743017665 0.928 1.8644417599e-38
0.0222544158128 0.00171187813945 0.925 1.90174838878e-38
0.0239144749383 0.00170817678131 0.923 1.92915526441e-38
0.0254838507894 0.00169892338596 0.918 1.89228121636e-38
0.02709394158 0.00169337134875 0.915 1.9476658566e-38
0.0287243898404 0.00168966999061 0.913 1.92043806692e-38
0.0303141231612 0.0016841179534 0.91 1.93855405347e-38
0.0319982411146 0.0016841179534 0.91 1.90185979201e-38
0.033682359068 0.0016841179534 0.91 1.97492951953e-38
0.0353664770214 0.0016841179534 0.91 2.04821855025e-38
0.0370505949748 0.0016841179534 0.91 2.02999494398e-38
0.0387347129282 0.0016841179534 0.91 2.1867991211e-38
0.0404188308816 0.0016841179534 0.91 1.98443592831e-38
0.042102948835 0.0016841179534 0.91 2.02077552112e-38
0.0437870667884 0.0016841179534 0.91 2.11225228487e-38
0.0456210897465 0.00168966999061 0.913 2.26916324094e-38
0.0473107597371 0.00168966999061 0.913 2.31597655886e-38
0.0490004297277 0.00168966999061 0.913 2.10357096063e-38
0.0506900997183 0.00168966999061 0.913 2.21431277567e-38
0.0524945118112 0.00169337134875 0.915 2.0849184169e-38
0.05418788316 0.00169337134875 0.915 2.34551326803e-38
0.0558812545087 0.00169337134875 0.915 1.6734879392e-38
0.0577633951226 0.00169892338596 0.918 2.30561073373e-38
0.0594623185085 0.00169892338596 0.918 2.18877327038e-38
0.0612944907875 0.0017026247441 0.92 2.23476430636e-38
0.0632025409083 0.00170817678131 0.923 2.34676995249e-38
0.0650513692989 0.00171187813945 0.925 2.34723041916e-38
0.0669797768895 0.00171743017665 0.928 2.33726172202e-38
0.0688452613918 0.00172113153479 0.93 2.34780789426e-38
0.0705663929266 0.00172113153479 0.93 2.3475235708e-38
0.072676167066 0.00173038493014 0.935 2.34766594273e-38
0.0104156218041 0.0034718739347 0.938 1.65541034824e-38
0.0121515587715 0.0034718739347 0.938 1.80252650829e-38
0.0138430794411 0.00346076986028 0.935 1.62674496646e-38
0.015540152148 0.00345336714401 0.933 1.59033250612e-38
0.01726683572 0.00345336714401 0.933 1.92234187102e-38
0.0189324468827 0.00344226306959 0.93 1.78264894944e-38
0.0206091621199 0.00343486035331 0.928 1.91136213703e-38
0.0222544158128 0.00342375627889 0.925 1.86526502275e-38
0.0239662939522 0.00342375627889 0.925 1.92011520776e-38
0.0256226517196 0.00341635356261 0.923 1.93844643375e-38
0.0271827741753 0.00339784677192 0.918 1.91979234859e-38
0.0287873129287 0.0033867426975 0.915 1.89238519271e-38
0.0304806842775 0.0033867426975 0.915 1.98432844872e-38
0.0321037298216 0.00337933998122 0.913 1.93841056051e-38
0.033682359068 0.0033682359068 0.91 2.05790516601e-38
0.0353664770214 0.0033682359068 0.91 1.79079315599e-38
0.0371727397934 0.00337933998122 0.913 2.10360809504e-38
0.038862409784 0.00337933998122 0.913 2.08534875566e-38
0.0405520797746 0.00337933998122 0.913 2.04850553617e-38
0.0422417497652 0.00337933998122 0.913 2.03921436684e-38
0.0439314197559 0.00337933998122 0.913 2.13108573624e-38
0.0457210264162 0.0033867426975 0.915 2.14905822982e-38
0.047414397765 0.0033867426975 0.915 2.18597263526e-38
0.0491077691137 0.0033867426975 0.915 2.15856533925e-38
0.0508011404625 0.0033867426975 0.915 2.22331779986e-38
0.0526666249647 0.00339784677192 0.918 2.13116098596e-38
0.0543655483507 0.00339784677192 0.918 2.34533208013e-38
0.0560644717366 0.00339784677192 0.918 2.28148037418e-38
0.0578892412993 0.00340524948819 0.92 2.2053548351e-38
0.0597861873457 0.00341635356261 0.923 2.34668797653e-38
0.06162761302 0.00342375627889 0.925 2.34835173819e-38
0.0633394911595 0.00342375627889 0.925 2.34816200238e-38
0.0652623467129 0.00343486035331 0.928 2.32818439083e-38
0.067124129857 0.00344226306959 0.93 2.34687869325e-38
0.0688452613918 0.00344226306959 0.93 2.3480606885e-38
0.0705663929266 0.00344226306959 0.93 2.34842558662e-38
0.0105044543995 0.00525222719973 0.946 1.77537130587e-38
0.0122551967994 0.00525222719973 0.946 1.82089332726e-38
0.0138874957388 0.00520781090205 0.938 1.86677632314e-38
0.0155734643713 0.00519115479043 0.935 1.49881986913e-38
0.01726683572 0.00518005071601 0.933 1.80162799572e-38
0.018993519292 0.00518005071601 0.933 1.82871243256e-38
0.0206535784175 0.00516339460438 0.93 1.85622496609e-38
0.0223265922965 0.00515229052996 0.928 1.90189160149e-38
0.0240440224732 0.00515229052996 0.928 1.86479867062e-38
0.0256781720917 0.00513563441834 0.925 1.97471428008e-38
0.0273900502311 0.00513563441834 0.925 1.95638305409e-38
0.0290390052822 0.00512453034392 0.923 1.97485777304e-38
0.0306472453938 0.00510787423229 0.92 1.97528825193e-38
0.0321740556262 0.00508011404625 0.915 2.067663248e-38
0.033867426975 0.00508011404625 0.915 1.97514475897e-38
0.0355607983237 0.00508011404625 0.915 1.99351241872e-38
0.0371727397934 0.00506900997183 0.913 2.03921436684e-38
0.038862409784 0.00506900997183 0.913 2.04850777825e-38
0.04064091237 0.00508011404625 0.915 2.05743797311e-38
0.0423342837187 0.00508011404625 0.915 2.0853832276e-38
0.0440276550675 0.00508011404625 0.915 2.12183044014e-38
0.0458709314209 0.00509677015787 0.918 2.25998123275e-38
0.0475698548068 0.00509677015787 0.918 2.23296573979e-38
0.0492687781928 0.00509677015787 0.918 2.13148034188e-38
0.0509677015787 0.00509677015787 0.918 2.28727782618e-38
0.0526666249647 0.00509677015787 0.918 2.31537287949e-38
0.0544839918111 0.00510787423229 0.92 2.13140985657e-38
0.0561866165552 0.00510787423229 0.92 2.1591421137e-38
0.0580780105644 0.00512453034392 0.923 2.34669456263e-38
0.0601100561829 0.00515229052996 0.928 2.34745462692e-38
0.0618274863596 0.00515229052996 0.928 1.70110907336e-38
0.0636818667874 0.00516339460438 0.93 2.34609172403e-38
0.0656139757361 0.00518005071601 0.933 2.34759307521e-38
0.0674850122756 0.00519115479043 0.935 2.19100623948e-38
0.0694374786941 0.00520781090205 0.938 2.07990877489e-38
0.0717804383963 0.00525222719973 0.946 2.34712812438e-38
0.0105044543995 0.00700296959964 0.946 1.79423684697e-38
0.0122551967994 0.00700296959964 0.946 1.86692023649e-38
0.0139615229016 0.0069807614508 0.943 1.65472819614e-38
0.0156234327062 0.00694374786941 0.938 1.78548531767e-38
0.0173593696735 0.00694374786941 0.938 1.55395732033e-38
0.018993519292 0.00690673428801 0.933 1.75484872934e-38
0.020720202864 0.00690673428801 0.933 1.83749913445e-38
0.0223747099523 0.00688452613918 0.93 1.92922701089e-38
0.0240440224732 0.00686972070662 0.928 1.86480175347e-38
0.0257614526498 0.00686972070662 0.928 1.96556660371e-38
0.0274788828265 0.00686972070662 0.928 1.93830420195e-38
0.0291019283706 0.00684751255778 0.925 1.82752637354e-38
0.0307471820635 0.00683270712523 0.923 2.12204652036e-38
0.0323498701378 0.00681049897639 0.92 1.91043251563e-38
0.0339784677192 0.00679569354383 0.918 2.03914262035e-38
0.0355607983237 0.006773485395 0.915 1.97532412517e-38
0.0372541696725 0.006773485395 0.915 2.14102346468e-38
0.0389475410212 0.006773485395 0.915 1.98526101284e-38
0.04064091237 0.006773485395 0.915 2.02170822538e-38
0.0423342837187 0.006773485395 0.915 1.98400544942e-38
0.0441720080349 0.00679569354383 0.918 2.1221199484e-38
0.0458709314209 0.00679569354383 0.918 2.3249813028e-38
0.0475698548068 0.00679569354383 0.918 2.02041678872e-38
0.0493761175788 0.00681049897639 0.92 2.11232599317e-38
0.0510787423229 0.00681049897639 0.92 2.3152973495e-38
0.052781367067 0.00681049897639 0.92 2.33413206203e-38
0.0546616570018 0.00683270712523 0.923 2.26008815182e-38
0.0564919786017 0.00684751255778 0.925 2.18572278375e-38
0.0583926260063 0.00686972070662 0.928 2.34349890148e-38
0.0604339250201 0.00690673428801 0.933 2.34780803439e-38
0.0622938574851 0.00692153972057 0.935 2.34658582187e-38
0.0640242424153 0.00692153972057 0.935 2.29059483978e-38
0.0657546273454 0.00692153972057 0.935 2.26371022809e-38
0.0677015417267 0.00694374786941 0.938 2.16299806668e-38
0.069807614508 0.0069807614508 0.943 2.19983470006e-38
0.0717804383963 0.00700296959964 0.946 2.29213626809e-38
0.0105266625483 0.00877221879024 0.948 1.89583154615e-38
0.0122551967994 0.00875371199954 0.946 1.8301497444e-38
0.0139615229016 0.0087259518135 0.943 1.7559636024e-38
0.0156567449294 0.00869819162745 0.94 1.57329327732e-38
0.0173963832549 0.00869819162745 0.94 2.18153430264e-38
0.0190953066409 0.00867968483676 0.938 1.56303296996e-38
0.0207646191617 0.00865192465071 0.935 1.82752637354e-38
0.022446886436 0.00863341786002 0.933 1.94698496568e-38
0.0240958414871 0.00860565767397 0.93 1.95638305409e-38
0.0257614526498 0.00858715088327 0.928 1.94745061716e-38
0.0274788828265 0.00858715088327 0.928 1.94737887068e-38
0.0291963130031 0.00858715088327 0.928 1.99394233709e-38
0.03081380651 0.00855939069723 0.925 2.03074828203e-38
0.0325256846495 0.00855939069723 0.925 2.02231807047e-38
0.0341635356261 0.00854088390653 0.923 2.14267321337e-38
0.0356773911051 0.00849461692979 0.918 1.86695106506e-38
0.0373763144911 0.00849461692979 0.918 1.88542844648e-38
0.039075237877 0.00849461692979 0.918 1.98727537939e-38
0.040774161263 0.00849461692979 0.918 1.73830962396e-38
0.042473084649 0.00849461692979 0.918 2.23516101396e-38
0.0442682433465 0.00851312372049 0.92 2.30883820436e-38
0.0459708680906 0.00851312372049 0.92 2.34618673207e-38
0.0478289498766 0.00854088390653 0.923 2.19785270352e-38
0.0495371266579 0.00854088390653 0.923 2.34568044293e-38
