# .PCD v0.7 - Point Cloud Data file format
VERSION 0.7
FIELDS x y z rgb
SIZE 4 4 4 4
TYPE F F F F
COUNT 1 1 1 1
WIDTH 840
HEIGHT 1
VIEWPOINT 0 0 0 1 0 0 0
POINTS 840
DATA ascii
0.0323128565565 -0.0678569987686 0.873 2.22907937862e-38
0.0339284993843 -0.0678569987686 0.873 1.24218606838e-38
0.0356255720912 -0.0680124558104 0.875 1.5179505359e-38
0.0372449162771 -0.0680124558104 0.875 1.29495224231e-38
0.0389975093561 -0.0682456413732 0.878 1.59793763315e-38
0.0407149395328 -0.068401098415 0.88 2.34702947296e-38
0.0423435371141 -0.068401098415 0.88 1.4629553165e-38
0.0440720713651 -0.0685565554569 0.882 2.34644204865e-38
0.0459634653743 -0.0689451980615 0.887 1.15795794132e-38
-0.0213882980082 -0.0674554014104 0.889 2.33031058099e-38
-0.0197430443153 -0.0674554014104 0.889 1.66675694216e-38
-0.0180570756828 -0.0673036457267 0.887 1.11214304855e-38
-0.016415523348 -0.0673036457267 0.887 1.3422691869e-38
-0.0147739710132 -0.0673036457267 0.887 1.54524544777e-38
-0.0131028078133 -0.067151890043 0.885 1.20329611235e-38
-0.0114260925761 -0.0669242565174 0.882 1.32257463764e-38
-0.00974937733903 -0.06662074515 0.878 1.34998179352e-38
-0.00812448111586 -0.06662074515 0.878 1.31324759506e-38
-0.00647737674385 -0.0663931116244 0.875 1.32243114468e-38
-0.00484692848347 -0.0662413559407 0.873 1.37753244237e-38
-0.00322388293937 -0.066089600257 0.871 1.42345019045e-38
-0.00161194146968 -0.066089600257 0.871 1.4510008393e-38
0.0 -0.0659378445733 0.869 1.46018438891e-38
0.00160824011154 -0.0659378445733 0.869 1.44181883111e-38
0.00321648022309 -0.0659378445733 0.869 1.46936849905e-38
0.00482472033463 -0.0659378445733 0.869 1.46018635073e-38
0.00643296044618 -0.0659378445733 0.869 1.46936849905e-38
0.00805970734842 -0.066089600257 0.871 1.48773503776e-38
0.00964944066926 -0.0659378445733 0.869 1.55201988507e-38
0.0112576807808 -0.0659378445733 0.869 1.52446923622e-38
0.0128659208924 -0.0659378445733 0.869 1.97597558883e-38
0.0144741610039 -0.0659378445733 0.869 9.28040736565e-39
0.016045387534 -0.0657860888896 0.867 2.33863611555e-38
0.0176499262875 -0.0657860888896 0.867 1.48142330922e-38
0.0192544650409 -0.0657860888896 0.867 1.40897183459e-38
0.0209071214501 -0.0659378445733 0.869 2.11711703262e-38
0.0225153615616 -0.0659378445733 0.869 3.58194308257e-39
0.0241236016732 -0.0659378445733 0.869 2.29193293968e-38
0.0257318417847 -0.0659378445733 0.869 1.20304892331e-38
0.0274030049846 -0.066089600257 0.871 1.3040671283e-38
0.0290149464543 -0.066089600257 0.871 1.58961588209e-38
0.0306972137286 -0.0662413559407 0.873 2.34851176648e-38
0.0323868837192 -0.0663931116244 0.875 1.48164443411e-38
0.0340062279052 -0.0663931116244 0.875 1.30420753841e-38
0.0356255720912 -0.0663931116244 0.875 1.88316675076e-38
0.0373726131329 -0.06662074515 0.878 2.19774270159e-38
0.0390863419515 -0.0667725008337 0.88 2.16282220373e-38
0.0408074734862 -0.0669242565174 0.882 1.85922262377e-38
0.0424397724257 -0.0669242565174 0.882 1.95158865152e-38
0.0442219763698 -0.067151890043 0.885 1.14795393145e-38
0.0459634653743 -0.0673036457267 0.887 2.04396406798e-38
-0.0213882980082 -0.0658101477175 0.889 2.3394941306e-38
-0.0197430443153 -0.0658101477175 0.889 1.80505052709e-38
-0.0180977906223 -0.0658101477175 0.889 1.07537451827e-38
-0.0164525369294 -0.0658101477175 0.889 1.31479014441e-38
-0.0147739710132 -0.0656620933919 0.887 1.34259330724e-38
-0.0131324186784 -0.0656620933919 0.887 1.24042491647e-38
-0.0114649568366 -0.0655140390664 0.885 1.30406404544e-38
-0.0097937936367 -0.065291957578 0.882 1.26732984698e-38
-0.00812448111586 -0.0649958489268 0.878 1.26732984698e-38
-0.00649958489268 -0.0649958489268 0.878 1.24896274775e-38
-0.00485803255789 -0.0647737674385 0.875 1.29488049583e-38
-0.00323128565565 -0.0646257131129 0.873 1.3958995416e-38
-0.00161564282782 -0.0646257131129 0.873 1.46018438891e-38
0.0 -0.0644776587873 0.871 1.4510008393e-38
0.00161194146968 -0.0644776587873 0.871 1.46018438891e-38
0.00322388293937 -0.0644776587873 0.871 1.46018438891e-38
0.00483582440905 -0.0644776587873 0.871 1.44181728968e-38
0.00644776587873 -0.0644776587873 0.871 1.48773503776e-38
0.00805970734842 -0.0644776587873 0.871 1.45100294124e-38
0.0096716488181 -0.0644776587873 0.871 1.55201988507e-38
0.0112576807808 -0.0643296044618 0.869 1.49691858738e-38
0.0128659208924 -0.0643296044618 0.869 1.96686392582e-38
0.0144741610039 -0.0643296044618 0.869 9.83321400464e-39
0.0160824011154 -0.0643296044618 0.869 1.48784293774e-38
0.017690641227 -0.0643296044618 0.869 1.44246987438e-38
0.0192988813385 -0.0643296044618 0.869 1.07447530505e-38
0.0209071214501 -0.0643296044618 0.869 1.23059564852e-38
0.0225153615616 -0.0643296044618 0.869 1.3048173835e-38
0.0241236016732 -0.0643296044618 0.869 1.45132369846e-38
0.0257910635149 -0.0644776587873 0.871 2.16105278415e-38
0.0274030049846 -0.0644776587873 0.871 1.96858962488e-38
0.0290815709008 -0.0646257131129 0.873 1.50610648102e-38
0.0307675395333 -0.0647737674385 0.875 1.51528568661e-38
0.0323868837192 -0.0647737674385 0.875 1.40508309122e-38
0.0341228206866 -0.0649958489268 0.878 2.00341791731e-38
0.0357477169098 -0.0649958489268 0.878 2.12648331156e-38
0.0374577443701 -0.0651439032524 0.88 1.98825740935e-38
0.0390863419515 -0.0651439032524 0.88 1.68232144446e-38
0.0408074734862 -0.065291957578 0.882 2.03462889787e-38
0.0425841253931 -0.0655140390664 0.885 1.00101615669e-38
0.0443219130396 -0.0656620933919 0.887 2.09845678175e-38
0.0459634653743 -0.0656620933919 0.887 1.83216803458e-38
-0.0213882980082 -0.0641648940246 0.889 2.28424877942e-38
-0.0197430443153 -0.0641648940246 0.889 1.95249052722e-38
-0.0180977906223 -0.0641648940246 0.889 1.01123232315e-38
-0.0164525369294 -0.0641648940246 0.889 1.17668026971e-38
-0.0148072832364 -0.0641648940246 0.889 1.36081943585e-38
-0.0131324186784 -0.0640205410571 0.887 1.28605722005e-38
-0.0114649568366 -0.0638761880897 0.885 1.23059564852e-38
-0.0097937936367 -0.0636596586385 0.882 2.0150779817e-38
-0.00814298790655 -0.0635153056711 0.88 1.70320303366e-38
-0.00649958489268 -0.0633709527037 0.878 1.67547147718e-38
-0.00487468866951 -0.0633709527037 0.878 1.74872477479e-38
-0.00324979244634 -0.0633709527037 0.878 1.13058105348e-38
-0.00161934418596 -0.0631544232525 0.875 1.30406404544e-38
0.0 -0.0630100702851 0.873 1.41426664083e-38
0.00161564282782 -0.0630100702851 0.873 1.44181728968e-38
0.00322388293937 -0.0628657173177 0.871 1.48773503776e-38
0.00483582440905 -0.0628657173177 0.871 1.41426958356e-38
0.00644776587873 -0.0628657173177 0.871 1.51528568661e-38
0.00805970734842 -0.0628657173177 0.871 1.51528568661e-38
0.0096716488181 -0.0628657173177 0.871 1.52446923622e-38
0.0112835902878 -0.0628657173177 0.871 1.51528568661e-38
0.0128955317575 -0.0628657173177 0.871 1.57038824547e-38
0.0145074732272 -0.0628657173177 0.871 1.7466374006e-38
0.0160824011154 -0.0627213643502 0.869 1.77408099024e-38
0.017690641227 -0.0627213643502 0.869 1.74556414611e-38
0.0193432976362 -0.0628657173177 0.871 1.51528624713e-38
0.0209552391059 -0.0628657173177 0.871 1.62613484111e-38
0.0225671805756 -0.0628657173177 0.871 1.51528708791e-38
0.0241791220453 -0.0628657173177 0.871 1.60712160315e-38
0.0257910635149 -0.0628657173177 0.871 1.53365278584e-38
0.0274030049846 -0.0628657173177 0.871 1.42345019045e-38
0.0290815709008 -0.0630100702851 0.873 1.61630473238e-38
0.0307675395333 -0.0631544232525 0.875 1.78186057893e-38
0.0323868837192 -0.0631544232525 0.875 2.3462817401e-38
0.0341228206866 -0.0633709527037 0.878 1.90563937423e-38
0.0357477169098 -0.0633709527037 0.878 1.79508239046e-38
0.0374577443701 -0.0635153056711 0.88 1.60963623325e-38
0.0391751745468 -0.0636596586385 0.882 2.28281230837e-38
0.0409462744165 -0.0638761880897 0.885 6.61215572338e-39
0.0425841253931 -0.0638761880897 0.885 2.14520283735e-38
0.0443219130396 -0.0640205410571 0.887 1.44484269306e-38
0.0460671034023 -0.0641648940246 0.889 2.10778382433e-38
-0.0233962847988 -0.0635042015967 0.903 2.1092212763e-38
-0.0217251215989 -0.0635042015967 0.903 2.23807837723e-38
-0.0198985013571 -0.0630119209642 0.896 1.93401454709e-38
-0.0181385055618 -0.0626602919409 0.891 1.03878311212e-38
-0.0164895505108 -0.0626602919409 0.891 1.38912426353e-38
-0.0148072832364 -0.0625196403316 0.889 1.31493489854e-38
-0.0131324186784 -0.0623789887223 0.887 1.06547112164e-38
-0.0114908663436 -0.0623789887223 0.887 1.30406404544e-38
-0.00982710585995 -0.062238337113 0.885 1.78563427569e-38
-0.00816149469725 -0.0620273596991 0.882 1.5091976053e-38
-0.0065291957578 -0.0620273596991 0.882 1.52842930568e-38
-0.00488579274393 -0.0618867080898 0.88 1.44570365084e-38
-0.00324979244634 -0.0617460564805 0.878 1.62047359531e-38
-0.00162489622317 -0.0617460564805 0.878 1.81344290359e-38
0.0 -0.0615350790666 0.875 9.83070287779e-39
0.00161934418596 -0.0615350790666 0.875 1.36834889275e-38
0.00323868837192 -0.0615350790666 0.875 1.47855148814e-38
0.00484692848347 -0.0613944274573 0.873 1.47855148814e-38
0.00646257131129 -0.0613944274573 0.873 1.49691858738e-38
0.00807821413911 -0.0613944274573 0.873 1.49691858738e-38
0.0096716488181 -0.061253775848 0.871 1.53365278584e-38
0.0112835902878 -0.061253775848 0.871 1.53365278584e-38
0.0128955317575 -0.061253775848 0.871 1.55201988507e-38
0.0145074732272 -0.061253775848 0.871 1.52446923622e-38
0.0161194146968 -0.061253775848 0.871 1.85787513516e-38
0.0177313561665 -0.061253775848 0.871 2.34696136986e-38
0.0193877139339 -0.0613944274573 0.873 2.06273235896e-38
0.0210033567617 -0.0613944274573 0.873 1.50834295337e-38
0.0226189995895 -0.0613944274573 0.873 1.43263542162e-38
0.0242346424173 -0.0613944274573 0.873 1.74555840078e-38
0.0258502852452 -0.0613944274573 0.873 1.82090762051e-38
0.0275288511614 -0.0615350790666 0.875 2.05319063746e-38
0.0292481320171 -0.0617460564805 0.878 2.01645489757e-38
0.0308730282403 -0.0617460564805 0.878 2.34752805496e-38
0.0324979244634 -0.0617460564805 0.878 2.1908607847e-38
0.0341228206866 -0.0617460564805 0.878 1.16753049139e-38
0.0358291467888 -0.0618867080898 0.88 2.08973341855e-38
0.0374577443701 -0.0618867080898 0.88 1.35175485647e-38
0.0393084234398 -0.062238337113 0.885 1.18528774553e-38
0.0409462744165 -0.062238337113 0.885 1.94258600954e-38
0.0426803607048 -0.0623789887223 0.887 1.44516919561e-38
0.0443219130396 -0.0623789887223 0.887 2.13651716908e-38
0.0459634653743 -0.0623789887223 0.887 1.80385493924e-38
-0.0233962847988 -0.0618330383968 0.903 2.05379669905e-38
-0.0217251215989 -0.0618330383968 0.903 2.25658938982e-38
-0.0198985013571 -0.0613537125177 0.896 1.99873155485e-38
-0.0181995779711 -0.0612167622666 0.894 1.1588188991e-38
-0.0164895505108 -0.0610113368898 0.891 1.27827342747e-38
-0.0148405954597 -0.0610113368898 0.891 1.31479392791e-38
-0.0131620295435 -0.0608743866387 0.889 1.29660465346e-38
-0.0114908663436 -0.0607374363875 0.887 1.25821804385e-38
-0.00984931400879 -0.0607374363875 0.887 1.5645853284e-38
-0.00818925488329 -0.0606004861364 0.885 1.70341785271e-38
-0.00655140390664 -0.0606004861364 0.885 8.55540917137e-39
-0.00488579274393 -0.0602581105085 0.88 1.17728801286e-38
-0.00325719516262 -0.0602581105085 0.88 1.64831151034e-38
-0.00162489622317 -0.0601211602573 0.878 1.56541559774e-38
0.0 -0.0601211602573 0.878 1.80464947546e-38
0.00161934418596 -0.0599157348806 0.875 1.06626229475e-38
0.00323868837192 -0.0599157348806 0.875 1.37753244237e-38
0.00484692848347 -0.0597787846294 0.873 1.4785517684e-38
0.00646257131129 -0.0597787846294 0.873 1.51528568661e-38
0.00807821413911 -0.0597787846294 0.873 1.49691858738e-38
0.00969385696694 -0.0597787846294 0.873 1.53365278584e-38
0.0113094997948 -0.0597787846294 0.873 1.54283633545e-38
0.0129251426226 -0.0597787846294 0.873 1.56120343469e-38
0.0145407854504 -0.0597787846294 0.873 1.72661522775e-38
0.0161564282782 -0.0597787846294 0.873 1.69119082296e-38
0.0177720711061 -0.0597787846294 0.873 2.2284294564e-38
0.0194321302315 -0.0599157348806 0.875 8.90912633104e-39
0.0210514744175 -0.0599157348806 0.875 1.78525382316e-38
0.0226708186035 -0.0599157348806 0.875 2.26566447893e-38
0.0242901627894 -0.0599157348806 0.875 2.34827354574e-38
0.0259983395707 -0.0601211602573 0.878 2.00690364724e-38
0.0276232357939 -0.0601211602573 0.878 1.19505535635e-38
0.0293147564636 -0.0602581105085 0.88 1.60936480174e-38
0.0309433540449 -0.0602581105085 0.88 1.72934257495e-38
0.0324979244634 -0.0601211602573 0.878 2.11711675236e-38
0.0341228206866 -0.0601211602573 0.878 1.48136599611e-38
0.0358291467888 -0.0602581105085 0.88 8.63720016014e-39
0.0375428756073 -0.0603950607596 0.882 1.42558745087e-38
0.0393084234398 -0.0606004861364 0.885 2.13638194378e-38
0.04103880837 -0.0607374363875 0.887 1.05690652555e-38
0.0426803607048 -0.0607374363875 0.887 2.04356105454e-38
0.0443219130396 -0.0607374363875 0.887 1.4523375379e-38
0.0459634653743 -0.0607374363875 0.887 2.26236456118e-38
-0.0217251215989 -0.0601618751969 0.903 2.14584785504e-38
-0.0199429176548 -0.0598287529643 0.898 2.07245288615e-38
-0.0182402929107 -0.0596955040713 0.896 1.03006703568e-38
-0.0165450708829 -0.0595622551783 0.894 1.49014541125e-38
-0.0148905637946 -0.0595622551783 0.894 1.30597093239e-38
-0.0131916404086 -0.0593623818388 0.891 1.17757499878e-38
-0.0115167758506 -0.0592291329458 0.889 1.20537676031e-38
-0.00984931400879 -0.0590958840527 0.887 1.53742872468e-38
-0.00820776167399 -0.0590958840527 0.887 1.56508881494e-38
-0.00656620933919 -0.0590958840527 0.887 1.11246702875e-38
-0.00489689681835 -0.0587627618202 0.882 1.43435565562e-38
-0.0032645978789 -0.0587627618202 0.882 6.61215572338e-39
-0.00162859758131 -0.0586295129272 0.88 1.45384267258e-38
0.0 -0.0584962640342 0.878 1.63877973806e-38
0.00162489622317 -0.0584962640342 0.878 1.83241704531e-38
0.00323868837192 -0.0582963906946 0.875 9.18499295322e-39
0.00484692848347 -0.0581631418016 0.873 1.28569694621e-38
0.00646257131129 -0.0581631418016 0.873 1.41426664083e-38
0.00807821413911 -0.0581631418016 0.873 1.47855148814e-38
0.00969385696694 -0.0581631418016 0.873 1.49691858738e-38
0.0113094997948 -0.0581631418016 0.873 1.51528568661e-38
0.0129251426226 -0.0581631418016 0.873 1.51528568661e-38
0.0145407854504 -0.0581631418016 0.873 1.53365278584e-38
0.0161934418596 -0.0582963906946 0.875 1.82871467464e-38
0.0178127860456 -0.0582963906946 0.875 1.65720611222e-38
0.0194321302315 -0.0582963906946 0.875 1.98609520582e-38
0.0211236509012 -0.0584962640342 0.878 1.78596259992e-38
0.0227485471244 -0.0584962640342 0.878 9.55095185627e-39
0.0243734433476 -0.0584962640342 0.878 1.55202366858e-38
0.0259983395707 -0.0584962640342 0.878 1.99523881843e-38
0.0276861588823 -0.0586295129272 0.88 2.01587560078e-38
0.0293147564636 -0.0586295129272 0.88 2.04385995151e-38
0.0309433540449 -0.0586295129272 0.88 9.83608386389e-39
0.0325719516262 -0.0586295129272 0.88 1.08365885466e-38
0.0342005492075 -0.0586295129272 0.88 1.79421302489e-38
0.0359105766679 -0.0587627618202 0.882 1.51006907281e-38
0.0375428756073 -0.0587627618202 0.882 1.59296932944e-38
0.0393084234398 -0.0589626351597 0.885 1.03775147619e-38
0.04103880837 -0.0590958840527 0.887 2.27419306164e-38
0.0426803607048 -0.0590958840527 0.887 1.46159605699e-38
0.0444218497093 -0.0592291329458 0.889 2.24431597709e-38
0.046326198472 -0.0595622551783 0.894 1.9587606372e-38
-0.0217251215989 -0.058490711997 0.903 2.18276127957e-38
-0.0200095421013 -0.0583611644621 0.901 2.08156412877e-38
-0.0182810078502 -0.0581668431598 0.898 1.13144523425e-38
-0.0165820844643 -0.0580372956249 0.896 1.89640776008e-38
-0.0149238760178 -0.0580372956249 0.896 1.20516152087e-38
-0.0132360567063 -0.05790774809 0.894 1.20548886419e-38
-0.0115167758506 -0.0575838792528 0.889 3.58840026589e-39
-0.00987152215763 -0.0575838792528 0.889 1.5564446251e-38
-0.00820776167399 -0.0574543317179 0.887 1.71292328059e-38
-0.00656620933919 -0.0574543317179 0.887 6.43386571716e-39
-0.00492465700439 -0.0574543317179 0.887 1.21273203582e-38
-0.00327570195332 -0.0573247841831 0.885 1.01044157042e-38
-0.00163229893945 -0.0571304628807 0.882 1.19519352437e-38
0.0 -0.0570009153459 0.88 1.51877071589e-38
0.00162859758131 -0.0570009153459 0.88 1.39982093522e-38
0.00324979244634 -0.056871367811 0.878 2.0352534566e-38
0.00485803255789 -0.0566770465087 0.875 1.79529300562e-38
0.00647737674385 -0.0566770465087 0.875 1.69351697841e-38
0.00809672092981 -0.0566770465087 0.875 1.64716510807e-38
0.00971606511577 -0.0566770465087 0.875 1.63718968469e-38
0.0113354093017 -0.0566770465087 0.875 1.64629966614e-38
0.0129547534877 -0.0566770465087 0.875 1.64604799294e-38
0.0145740976737 -0.0566770465087 0.875 1.72884469361e-38
0.0162489622317 -0.056871367811 0.878 1.88546922426e-38
0.0178738584549 -0.056871367811 0.878 1.65710129509e-38
0.0194987546781 -0.056871367811 0.878 1.82248099842e-38
0.0211236509012 -0.056871367811 0.878 1.97028295395e-38
0.0227485471244 -0.056871367811 0.878 2.02574102223e-38
0.0243734433476 -0.056871367811 0.878 1.57355532013e-38
0.026057561301 -0.0570009153459 0.88 1.08366249804e-38
0.0276861588823 -0.0570009153459 0.88 9.64274110957e-39
0.0293147564636 -0.0570009153459 0.88 8.0815236619e-39
0.0309433540449 -0.0570009153459 0.88 1.96023928733e-38
0.0325719516262 -0.0570009153459 0.88 1.38988656989e-38
0.0342005492075 -0.0570009153459 0.88 2.09910348099e-38
0.0360327214865 -0.0573247841831 0.885 1.93415523746e-38
0.0376705724632 -0.0573247841831 0.885 8.17802267935e-39
0.0393972560352 -0.0574543317179 0.887 2.3477113448e-38
0.04103880837 -0.0574543317179 0.887 1.25043355062e-38
0.0427765960164 -0.0575838792528 0.889 2.31739060914e-38
0.0445217863791 -0.0577134267877 0.891 1.97755597324e-38
0.0461707414302 -0.0577134267877 0.891 1.70082965445e-38
-0.0219657098779 -0.0574487796807 0.913 2.13670045892e-38
-0.0201649991431 -0.0571341642389 0.908 2.03550204694e-38
-0.018382795199 -0.056819548797 0.903 1.08513077857e-38
-0.0166746184177 -0.0566937026203 0.901 1.43414307864e-38
-0.015007156576 -0.0566937026203 0.901 1.36975257343e-38
-0.0132952784365 -0.0565049333552 0.898 1.33312543417e-38
-0.011607459125 -0.0563790871785 0.896 9.0174719257e-39
-0.00992704252972 -0.0562532410017 0.894 1.05944637902e-38
-0.00822626846469 -0.0559386255599 0.889 1.63952957287e-38
-0.00658101477175 -0.0559386255599 0.889 1.32567206776e-38
-0.00492465700439 -0.0558127793831 0.887 7.53051068496e-39
-0.0032831046696 -0.0558127793831 0.887 9.09171411964e-39
-0.00163785097666 -0.0556869332064 0.885 1.4245654839e-38
0.0 -0.0556869332064 0.885 6.42848473106e-39
0.00163229893945 -0.0554981639413 0.882 1.71371767669e-38
0.00325719516262 -0.0553723177646 0.88 1.79532425457e-38
0.00488579274393 -0.0553723177646 0.88 5.6938007618e-39
0.00651439032524 -0.0553723177646 0.88 8.54070114269e-39
0.00812448111586 -0.0552464715878 0.878 1.03774559074e-38
0.00974937733903 -0.0552464715878 0.878 1.16631878861e-38
0.0113742735622 -0.0552464715878 0.878 1.15713495873e-38
0.0129991697854 -0.0552464715878 0.878 1.30457650029e-38
0.0146240660085 -0.0552464715878 0.878 1.35985660367e-38
0.0162489622317 -0.0552464715878 0.878 1.03774559074e-38
0.0178738584549 -0.0552464715878 0.878 1.01937400735e-38
0.0195431709757 -0.0553723177646 0.88 8.90804312733e-39
0.021171768557 -0.0553723177646 0.88 9.64272709659e-39
0.0228003661383 -0.0553723177646 0.88 8.72437213501e-39
0.0244289637197 -0.0553723177646 0.88 1.01019199917e-38
0.026057561301 -0.0553723177646 0.88 1.76494172166e-38
0.0278434666032 -0.0556869332064 0.885 2.16396258042e-38
0.0294813175799 -0.0556869332064 0.885 1.89703414049e-38
0.0310136798495 -0.0554981639413 0.882 1.72179279922e-38
0.032645978789 -0.0554981639413 0.882 6.5203356415e-39
0.0344725990308 -0.0558127793831 0.887 1.23977919813e-38
0.0361141513656 -0.0558127793831 0.887 2.3453441313e-38
0.0377557037004 -0.0558127793831 0.887 1.86783108049e-38
0.0394860886305 -0.0559386255599 0.889 1.34130046928e-38
0.0411313423234 -0.0559386255599 0.889 2.29877239723e-38
0.0427765960164 -0.0559386255599 0.889 2.02362015701e-38
0.0445217863791 -0.0560644717366 0.891 2.00521270038e-38
0.0461707414302 -0.0560644717366 0.891 1.62717432431e-38
-0.0219657098779 -0.0557591096901 0.913 1.99851435359e-38
-0.0201649991431 -0.0554537476436 0.908 2.13691653915e-38
-0.0184438676083 -0.055331602825 0.906 1.1686460651e-38
-0.0167671523712 -0.055331602825 0.906 1.27841593952e-38
-0.0150404687992 -0.0551483855971 0.903 1.19433074491e-38
-0.0133396947342 -0.0550262407785 0.901 1.54484775927e-38
-0.011607459125 -0.054720878732 0.896 8.72652452945e-39
-0.00992704252972 -0.0545987339134 0.894 9.28148356287e-39
-0.00827253544143 -0.0545987339134 0.894 1.56465146969e-38
-0.00659582020431 -0.0544155166855 0.891 1.67547470017e-38
-0.00494686515323 -0.0544155166855 0.891 1.34371644796e-38
-0.00329050738588 -0.0542933718669 0.889 6.06114274643e-39
-0.0016415523348 -0.0541712270483 0.887 7.80601717343e-39
0.0 -0.0541712270483 0.887 1.35217790848e-38
0.0016415523348 -0.0541712270483 0.887 1.53822199974e-38
0.0032831046696 -0.0541712270483 0.887 1.7025585765e-38
0.00491355292998 -0.0540490822297 0.885 7.44226251287e-39
0.00655140390664 -0.0540490822297 0.885 8.72437213501e-39
0.00816149469725 -0.0538658650018 0.882 1.87697875687e-38
0.0097937936367 -0.0538658650018 0.882 1.35318628285e-38
0.0114260925761 -0.0538658650018 0.882 1.63030790793e-38
0.0130287806505 -0.0537437201832 0.88 1.42726102162e-38
0.0146573782318 -0.0537437201832 0.88 1.39902625886e-38
0.0162859758131 -0.0537437201832 0.88 1.407921141e-38
0.0179145733944 -0.0537437201832 0.88 1.92458787219e-38
0.0195431709757 -0.0537437201832 0.88 1.4648615028e-38
0.021171768557 -0.0537437201832 0.88 1.76856632027e-38
0.0228003661383 -0.0537437201832 0.88 1.89735055368e-38
0.0244289637197 -0.0537437201832 0.88 1.21525143033e-38
0.0261167830312 -0.0538658650018 0.882 2.03374257659e-38
0.0278434666032 -0.0540490822297 0.885 9.2829184925e-39
0.0295479420264 -0.0541712270483 0.887 9.64272709659e-39
0.0311894943612 -0.0541712270483 0.887 1.14794552366e-38
0.032831046696 -0.0541712270483 0.887 2.19894025125e-38
0.0344725990308 -0.0541712270483 0.887 2.11715206508e-38
0.0361141513656 -0.0541712270483 0.887 1.32250387207e-38
0.0378408349376 -0.0542933718669 0.889 2.11409176937e-38
0.0395749212258 -0.0544155166855 0.891 1.90355466251e-38
0.0412238762769 -0.0544155166855 0.891 2.05981709764e-38
0.0431134196071 -0.054720878732 0.896 1.9032602497e-38
0.0447716280535 -0.054720878732 0.896 1.63539279967e-38
0.0464298364999 -0.054720878732 0.896 2.03190407301e-38
-0.0201649991431 -0.0537733310484 0.908 2.09096445925e-38
-0.0184438676083 -0.0536548875879 0.906 8.09407929614e-39
-0.0167671523712 -0.0536548875879 0.906 1.45416160811e-38
-0.0150404687992 -0.0534772223972 0.903 1.03849444464e-38
-0.0133396947342 -0.0533587789368 0.901 1.13876043262e-38
-0.011607459125 -0.0530626702856 0.896 1.76619378184e-38
-0.00994925067855 -0.0530626702856 0.896 1.12157687007e-38
-0.00827253544143 -0.0529442268251 0.894 1.35099198959e-38
-0.00659582020431 -0.0527665616345 0.891 1.79513549967e-38
-0.00494686515323 -0.0527665616345 0.891 1.76788416818e-38
-0.00329050738588 -0.052648118174 0.889 1.63942419522e-38
-0.00164525369294 -0.052648118174 0.889 1.55691321931e-38
0.0 -0.052648118174 0.889 1.73165499768e-38
0.0016415523348 -0.0525296747135 0.887 1.34371070263e-38
0.0032831046696 -0.0525296747135 0.887 1.99801240848e-38
0.00491355292998 -0.0524112312531 0.885 6.8905320711e-39
0.00655140390664 -0.0524112312531 0.885 8.72437213501e-39
0.00818925488329 -0.0524112312531 0.885 1.30504117086e-38
0.00982710585995 -0.0524112312531 0.885 1.11247557667e-38
0.0114260925761 -0.0522335660624 0.882 1.27021427974e-38
0.0130583915156 -0.0522335660624 0.882 1.39942829139e-38
0.014690690455 -0.0522335660624 0.882 1.51885227146e-38
0.0163229893945 -0.0522335660624 0.882 1.37144295976e-38
0.0179552883339 -0.0522335660624 0.882 1.34350359072e-38
0.0195875872734 -0.0522335660624 0.882 8.36822512381e-39
0.0212198862128 -0.0522335660624 0.882 9.92615932918e-39
0.0228521851523 -0.0522335660624 0.882 1.37065991418e-38
0.0244844840917 -0.0522335660624 0.882 7.34683969264e-39
0.0262648373568 -0.0525296747135 0.887 1.25814924009e-38
0.0279063896916 -0.0525296747135 0.887 1.93239576711e-38
0.0296145664729 -0.052648118174 0.889 1.83184909905e-38
0.0312598201658 -0.052648118174 0.889 1.9051368686e-38
0.0329050738588 -0.052648118174 0.889 1.34998221391e-38
0.0345503275517 -0.052648118174 0.889 1.83757088094e-38
0.0361955812446 -0.052648118174 0.889 2.04138119465e-38
0.0379259661748 -0.0527665616345 0.891 2.0055710124e-38
0.0397081701189 -0.0529442268251 0.894 1.89415335111e-38
0.0414552111606 -0.0530626702856 0.896 2.03233791501e-38
0.0431134196071 -0.0530626702856 0.896 1.53411913797e-38
0.0447716280535 -0.0530626702856 0.896 1.63528742203e-38
0.0464298364999 -0.0530626702856 0.896 1.93077600621e-38
-0.0201649991431 -0.0520929144531 0.908 1.97107230537e-38
-0.0184438676083 -0.0519781723508 0.906 8.83128840524e-39
-0.0167671523712 -0.0519781723508 0.906 1.48149785829e-38
-0.0150904371341 -0.0519781723508 0.906 1.2415730003e-38
-0.0133693055993 -0.0518060591973 0.903 1.13876015236e-38
-0.011633368632 -0.0515192039415 0.898 1.23109857454e-38
-0.00994925067855 -0.0514044618392 0.896 1.60073714722e-38
-0.00829104223213 -0.0514044618392 0.896 1.20361897152e-38
-0.00661802835314 -0.0512897197369 0.894 1.26786794559e-38
-0.00496352126486 -0.0512897197369 0.894 1.6547632286e-38
-0.00329050738588 -0.0510028644811 0.889 1.83209740913e-38
-0.00164525369294 -0.0510028644811 0.889 1.67572216948e-38
0.0 -0.0510028644811 0.889 1.76766752743e-38
0.0016415523348 -0.0508881223787 0.887 1.9243611421e-38
0.0032831046696 -0.0508881223787 0.887 1.38930573168e-38
0.00492465700439 -0.0508881223787 0.887 1.84030873788e-38
0.00656620933919 -0.0508881223787 0.887 2.06208257687e-38
0.00820776167399 -0.0508881223787 0.887 1.86900915211e-38
0.00984931400879 -0.0508881223787 0.887 1.62901535023e-38
0.0114649568366 -0.0507733802764 0.885 1.3615366204e-38
0.0131028078133 -0.0507733802764 0.885 1.36982838367e-38
0.014690690455 -0.0506012671229 0.882 1.415605021e-38
0.0163229893945 -0.0506012671229 0.882 1.46191667407e-38
0.0179552883339 -0.0506012671229 0.882 1.60042521818e-38
0.0196542117199 -0.0507733802764 0.885 1.76712340324e-38
0.0212920626966 -0.0507733802764 0.885 1.91503760277e-38
0.0229299136732 -0.0507733802764 0.885 2.02585046364e-38
0.0245677646499 -0.0507733802764 0.885 1.93347602809e-38
0.026324059087 -0.0510028644811 0.889 1.75764922432e-38
0.0279693127799 -0.0510028644811 0.889 1.36009944869e-38
0.0296145664729 -0.0510028644811 0.889 1.67259096806e-38
0.0312598201658 -0.0510028644811 0.889 1.91276848017e-38
0.0329791010215 -0.0511176065834 0.891 1.98642128797e-38
0.0346280560726 -0.0511176065834 0.891 1.86706400971e-38
0.0362770111237 -0.0511176065834 0.891 1.88515337159e-38
0.0380536630306 -0.0512897197369 0.894 2.17148026642e-38
0.0397970027142 -0.0514044618392 0.896 1.46984073663e-38
0.0415477451141 -0.0515192039415 0.898 1.77242507585e-38
0.0432096549187 -0.0515192039415 0.898 1.61630473238e-38
0.0448715647232 -0.0515192039415 0.898 2.0493390285e-38
0.0465334745278 -0.0515192039415 0.898 2.05978178492e-38
-0.0167671523712 -0.0503014571137 0.906 1.57372627854e-38
-0.0150904371341 -0.0503014571137 0.906 1.3607102747e-38
-0.013413721897 -0.0503014571137 0.906 1.07447530505e-38
-0.0116722328924 -0.0500238552532 0.901 1.15748682478e-38
-0.00997145882739 -0.0498572941369 0.898 1.20322436587e-38
-0.00829104223213 -0.0497462533928 0.896 1.23977975865e-38
-0.0066328337857 -0.0497462533928 0.896 1.33161469429e-38
-0.00497462533928 -0.0497462533928 0.896 1.32243114468e-38
-0.00329791010215 -0.0494686515323 0.891 1.26732984698e-38
-0.00164525369294 -0.0493576107881 0.889 1.32243114468e-38
0.0 -0.0493576107881 0.889 1.36834889275e-38
0.00164525369294 -0.0493576107881 0.889 1.32243114468e-38
0.00329050738588 -0.0493576107881 0.889 1.30406404544e-38
0.00493576107881 -0.0493576107881 0.889 1.39590262446e-38
0.00658101477175 -0.0493576107881 0.889 1.42345019045e-38
0.00822626846469 -0.0493576107881 0.889 1.3958995416e-38
0.00984931400879 -0.0492465700439 0.887 1.42345019045e-38
0.0114908663436 -0.0492465700439 0.887 1.62606225385e-38
0.0131324186784 -0.0492465700439 0.887 1.55242065643e-38
0.0147739710132 -0.0492465700439 0.887 1.65390773589e-38
0.0163785097666 -0.0491355292998 0.885 1.66326995106e-38
0.0180163607432 -0.0491355292998 0.885 1.52447133817e-38
0.0196986280176 -0.0492465700439 0.887 1.52447386051e-38
0.0213401803524 -0.0492465700439 0.887 1.44181728968e-38
0.0229817326872 -0.0492465700439 0.887 1.62627805381e-38
0.024623285022 -0.0492465700439 0.887 1.84776911077e-38
0.026324059087 -0.0493576107881 0.889 1.65416010975e-38
0.0279693127799 -0.0493576107881 0.889 1.96737315769e-38
0.0296811909194 -0.0494686515323 0.891 1.62703237277e-38
0.0313301459705 -0.0494686515323 0.891 2.07925619019e-38
0.0329791010215 -0.0494686515323 0.891 1.83905695796e-38
0.034744648854 -0.0496352126486 0.894 1.93124291886e-38
0.0363991559423 -0.0496352126486 0.894 2.04163132643e-38
0.0381387942678 -0.0497462533928 0.896 1.48773503776e-38
0.0398858353096 -0.0498572941369 0.898 1.68977312931e-38
0.0415477451141 -0.0498572941369 0.898 1.66222346137e-38
0.0432096549187 -0.0498572941369 0.898 1.92051569886e-38
0.0448715647232 -0.0498572941369 0.898 1.92133489794e-38
0.0465334745278 -0.0498572941369 0.898 2.14329510962e-38
-0.0168041659526 -0.0487320812626 0.908 1.23203141892e-38
-0.0151237493574 -0.0487320812626 0.908 1.40673522211e-38
-0.013413721897 -0.0486247418765 0.906 1.41588317874e-38
-0.0116981423994 -0.0484637327975 0.903 9.1835496158e-39
-0.00997145882739 -0.0481953843324 0.898 1.16631080121e-38
-0.00830954902282 -0.0481953843324 0.898 1.18467790044e-38
-0.0066328337857 -0.0480880449463 0.896 1.31324759506e-38
-0.00497462533928 -0.0480880449463 0.896 1.38671599199e-38
-0.00329791010215 -0.0478196964812 0.891 1.42345075097e-38
-0.00164895505108 -0.0478196964812 0.891 1.47855148814e-38
0.0 -0.0477123570952 0.889 1.46936976022e-38
0.00164525369294 -0.0477123570952 0.889 1.91249158359e-38
0.00329050738588 -0.0477123570952 0.889 1.66441313035e-38
0.00493576107881 -0.0477123570952 0.889 1.24085539535e-38
0.00658101477175 -0.0477123570952 0.889 1.71075897511e-38
0.00822626846469 -0.0477123570952 0.889 1.8578457079e-38
0.00987152215763 -0.0477123570952 0.889 1.86699366453e-38
0.0114908663436 -0.0476050177091 0.887 1.75704610546e-38
0.0131324186784 -0.0476050177091 0.887 1.79352778994e-38
0.0147739710132 -0.0476050177091 0.887 1.88583075927e-38
0.016415523348 -0.0476050177091 0.887 1.86728457409e-38
0.0180570756828 -0.0476050177091 0.887 1.65455093189e-38
0.0196986280176 -0.0476050177091 0.887 1.93121138965e-38
0.0213401803524 -0.0476050177091 0.887 1.60827487179e-38
0.0229817326872 -0.0476050177091 0.887 1.69128218762e-38
0.0246788053941 -0.0477123570952 0.889 1.33190168022e-38
0.0263832808172 -0.0478196964812 0.891 2.27061526641e-38
0.0280322358683 -0.0478196964812 0.891 1.57147313074e-38
0.0296811909194 -0.0478196964812 0.891 1.64443229581e-38
0.0314356346774 -0.0479807055603 0.894 1.99541482152e-38
0.0330901417657 -0.0479807055603 0.894 2.08751264075e-38
0.0348223773749 -0.0480880449463 0.896 1.34086999039e-38
0.0364805858214 -0.0480880449463 0.896 1.68058957969e-38
0.038223925505 -0.0481953843324 0.898 1.64385636214e-38
0.0398858353096 -0.0481953843324 0.898 1.61630515277e-38
0.0416865460443 -0.0483563934114 0.901 1.93845063764e-38
0.0433540078861 -0.0483563934114 0.901 1.83804311852e-38
0.0450214697279 -0.0483563934114 0.901 1.89457514195e-38
-0.016841179534 -0.0471553026952 0.91 9.8314203426e-39
-0.0151237493574 -0.0470516646673 0.908 1.39726832994e-38
-0.0134433327621 -0.0470516646673 0.908 1.66527226644e-38
-0.0117370066599 -0.0469480266394 0.906 8.72508959982e-39
-0.0100269791995 -0.0467925695976 0.903 1.18478636094e-38
-0.00830954902282 -0.0465334745278 0.898 1.14801572872e-38
-0.00664763921826 -0.0465334745278 0.898 1.23977919813e-38
-0.00497462533928 -0.0464298364999 0.896 1.40508309122e-38
-0.00331641689285 -0.0464298364999 0.896 1.44181981202e-38
-0.00164895505108 -0.0461707414302 0.891 1.46018438891e-38
0.0 -0.0461707414302 0.891 1.41426664083e-38
0.00164525369294 -0.0460671034023 0.889 1.40508309122e-38
0.00329050738588 -0.0460671034023 0.889 1.4785517684e-38
0.00493576107881 -0.0460671034023 0.889 1.5894023242e-38
0.00658101477175 -0.0460671034023 0.889 1.65529894501e-38
0.00822626846469 -0.0460671034023 0.889 1.6548730904e-38
0.00987152215763 -0.0460671034023 0.889 1.60788250822e-38
0.0115167758506 -0.0460671034023 0.889 1.7749108392e-38
0.0131620295435 -0.0460671034023 0.889 1.68264346285e-38
0.0148072832364 -0.0460671034023 0.889 1.69193659401e-38
0.0164525369294 -0.0460671034023 0.889 1.67220294851e-38
0.0180977906223 -0.0460671034023 0.889 1.89444327976e-38
0.0197430443153 -0.0460671034023 0.889 1.82111585346e-38
0.0213882980082 -0.0460671034023 0.889 1.76601385512e-38
0.0230335517011 -0.0460671034023 0.889 1.6270676855e-38
0.0246788053941 -0.0460671034023 0.889 1.56256661783e-38
0.0263832808172 -0.0461707414302 0.891 2.25278500462e-38
0.0280322358683 -0.0461707414302 0.891 2.01479099577e-38
0.0297811275891 -0.046326198472 0.894 1.5440201524e-38
0.0314356346774 -0.046326198472 0.894 1.54283885779e-38
0.0331641689285 -0.0464298364999 0.896 1.56120343469e-38
0.0348223773749 -0.0464298364999 0.896 1.50610423894e-38
0.0365620157004 -0.0465334745278 0.898 1.64400293796e-38
0.038223925505 -0.0465334745278 0.898 1.57067439062e-38
0.0400190842026 -0.0466889315697 0.901 1.76396263442e-38
0.0417790799978 -0.0467925695976 0.903 2.02261262341e-38
0.0434502431977 -0.0467925695976 0.903 1.72834022616e-38
0.0451214063976 -0.0467925695976 0.903 2.17220726006e-38
-0.016841179534 -0.0454711847418 0.91 1.15852756915e-38
-0.0151237493574 -0.0453712480721 0.908 1.14816216441e-38
-0.0134433327621 -0.0453712480721 0.908 1.75721986647e-38
-0.0117370066599 -0.0452713114023 0.906 1.35217398484e-38
-0.0100602914227 -0.0452713114023 0.906 1.07447530505e-38
-0.00833730920887 -0.0450214697279 0.901 1.093094638e-38
-0.00666984736709 -0.0450214697279 0.901 1.18474964692e-38
-0.00498572941369 -0.0448715647232 0.898 1.32243114468e-38
-0.00332381960913 -0.0448715647232 0.898 1.52446979674e-38
-0.00165820844643 -0.0447716280535 0.896 1.40508309122e-38
0.0 -0.0447716280535 0.896 1.34998179352e-38
0.00165450708829 -0.0446716913837 0.894 1.35916590366e-38
0.00330901417657 -0.0446716913837 0.894 1.32243114468e-38
0.00496352126486 -0.0446716913837 0.894 1.41426720135e-38
0.00659582020431 -0.0445217863791 0.891 1.73813053801e-38
0.00824477525538 -0.0445217863791 0.891 1.48849510205e-38
0.00989373030646 -0.0445217863791 0.891 2.03245156032e-38
0.0115426853575 -0.0445217863791 0.891 1.6738161233e-38
0.0131620295435 -0.0444218497093 0.889 1.94071233336e-38
0.0148072832364 -0.0444218497093 0.889 1.77551606e-38
0.0164525369294 -0.0444218497093 0.889 1.9136339221e-38
0.0180977906223 -0.0444218497093 0.889 1.80307133313e-38
0.0197430443153 -0.0444218497093 0.889 1.80246246895e-38
0.0213882980082 -0.0444218497093 0.889 1.77487314427e-38
0.0230335517011 -0.0444218497093 0.889 1.53455213919e-38
0.0246788053941 -0.0444218497093 0.889 1.44181869098e-38
0.0264721134126 -0.0446716913837 0.894 1.46936793853e-38
0.0281266205009 -0.0446716913837 0.894 1.56120343469e-38
0.0297811275891 -0.0446716913837 0.894 1.56120343469e-38
0.0314356346774 -0.0446716913837 0.894 1.43263402032e-38
0.0331641689285 -0.0447716280535 0.896 1.5703869843e-38
0.0349001058959 -0.0448715647232 0.898 1.48773531802e-38
0.0365620157004 -0.0448715647232 0.898 1.809555001e-38
0.0383516223608 -0.0450214697279 0.901 1.69016773495e-38
0.0401079167979 -0.0451214063976 0.903 1.76478855974e-38
0.041917880928 -0.0452713114023 0.906 1.70021336339e-38
0.0435945961652 -0.0452713114023 0.906 2.28255643127e-38
0.0452713114023 -0.0452713114023 0.906 1.82179632399e-38
-0.016841179534 -0.0437870667884 0.91 1.33366073018e-38
-0.0151237493574 -0.0436908314768 0.908 1.09334645134e-38
-0.0134433327621 -0.0436908314768 0.908 1.5725452642e-38
-0.0117370066599 -0.0435945961652 0.906 1.58262396327e-38
-0.0100602914227 -0.0435945961652 0.906 1.06557874136e-38
-0.00835581599956 -0.0434502431977 0.903 1.13876085301e-38
-0.00668465279965 -0.0434502431977 0.903 1.1848213934e-38
-0.00500238552532 -0.0433540078861 0.901 1.34998179352e-38
-0.00332381960913 -0.0432096549187 0.898 1.46936933983e-38
-0.00166190980456 -0.0432096549187 0.898 1.37753244237e-38
0.0 -0.0431134196071 0.896 1.33161469429e-38
0.00165820844643 -0.0431134196071 0.896 1.29488049583e-38
0.00331641689285 -0.0431134196071 0.896 1.25814629736e-38
0.00496352126486 -0.0430171842954 0.894 1.21222854929e-38
0.00661802835314 -0.0430171842954 0.894 1.25814629736e-38
0.00827253544143 -0.0430171842954 0.894 1.32243114468e-38
0.00992704252972 -0.0430171842954 0.894 1.31324759506e-38
0.011581549618 -0.0430171842954 0.894 1.35916534314e-38
0.0131916404086 -0.042872831328 0.891 1.35916534314e-38
0.0148405954597 -0.042872831328 0.891 1.35916534314e-38
0.0164895505108 -0.042872831328 0.891 1.46018438891e-38
0.0181385055618 -0.042872831328 0.891 1.35916534314e-38
0.0197874606129 -0.042872831328 0.891 1.43263374006e-38
0.021436415664 -0.042872831328 0.891 1.47855148814e-38
0.0230853707151 -0.042872831328 0.891 1.51528568661e-38
0.0247343257662 -0.042872831328 0.891 1.49691956828e-38
0.0264721134126 -0.0430171842954 0.894 1.38671599199e-38
0.0281266205009 -0.0430171842954 0.894 1.50610213699e-38
0.0298477520357 -0.0431134196071 0.896 1.56120343469e-38
0.0315059604821 -0.0431134196071 0.896 1.46936793853e-38
0.0332381960913 -0.0432096549187 0.898 1.73572815193e-38
0.0349001058959 -0.0432096549187 0.898 1.76342089244e-38
0.036684160519 -0.0433540078861 0.901 1.87516603718e-38
0.038436753598 -0.0434502431977 0.903 1.54416364536e-38
0.0402411656909 -0.0435945961652 0.906 1.58039561845e-38
0.0420104148815 -0.0436908314768 0.908 2.34676855119e-38
0.0436908314768 -0.0436908314768 0.908 1.81207033174e-38
0.0453712480721 -0.0436908314768 0.908 2.1805298519e-38
-0.016841179534 -0.042102948835 0.91 1.37057401459e-38
-0.0151237493574 -0.0420104148815 0.908 1.13040294845e-38
-0.0134433327621 -0.0420104148815 0.908 1.27697974873e-38
-0.0117629161668 -0.0420104148815 0.908 1.57282874688e-38
-0.0100602914227 -0.041917880928 0.906 1.35134497667e-38
-0.00838357618561 -0.041917880928 0.906 1.05610820582e-38
-0.00670686094849 -0.041917880928 0.906 1.12042892637e-38
-0.00501348959974 -0.0417790799978 0.903 1.44231951505e-38
-0.00333492368355 -0.0416865460443 0.901 1.32243114468e-38
-0.00166746184177 -0.0416865460443 0.901 1.35916534314e-38
0.0 -0.0415477451141 0.898 1.46018438891e-38
0.00166190980456 -0.0415477451141 0.898 1.39590192381e-38
0.00331641689285 -0.0414552111606 0.896 1.29488049583e-38
0.00497462533928 -0.0414552111606 0.896 1.28569694621e-38
0.0066328337857 -0.0414552111606 0.896 1.24896274775e-38
0.00829104223213 -0.0414552111606 0.896 1.32243114468e-38
0.00992704252972 -0.0413626772071 0.894 1.31324759506e-38
0.011581549618 -0.0413626772071 0.894 1.32243114468e-38
0.0132360567063 -0.0413626772071 0.894 1.30406404544e-38
0.0148905637946 -0.0413626772071 0.894 1.29488049583e-38
0.0164895505108 -0.0412238762769 0.891 1.4510008393e-38
0.0181385055618 -0.0412238762769 0.891 1.38671599199e-38
0.0197874606129 -0.0412238762769 0.891 1.40508309122e-38
0.021436415664 -0.0412238762769 0.891 1.51528568661e-38
0.0230853707151 -0.0412238762769 0.891 1.48773503776e-38
0.0247343257662 -0.0412238762769 0.891 1.48773503776e-38
0.0265313351428 -0.0414552111606 0.896 1.38671599199e-38
0.0281895435892 -0.0414552111606 0.896 1.64399901432e-38
0.0298477520357 -0.0414552111606 0.896 1.65303893084e-38
0.0315059604821 -0.0414552111606 0.896 1.48777105113e-38
0.0332381960913 -0.0415477451141 0.898 1.91212178093e-38
0.0350166986772 -0.0416865460443 0.901 1.65429449427e-38
0.036684160519 -0.0416865460443 0.901 1.57139255608e-38
0.0385644504538 -0.041917880928 0.906 1.7381713158e-38
0.0402411656909 -0.041917880928 0.906 2.16220339032e-38
0.042102948835 -0.042102948835 0.91 1.88593067185e-38
0.0437870667884 -0.042102948835 0.91 2.09773231045e-38
0.0456210897465 -0.0422417497652 0.913 2.1263971317e-38
-0.0169337134875 -0.04064091237 0.915 1.16756636463e-38
-0.0152070299155 -0.0405520797746 0.913 9.92325583876e-39
-0.0135173599249 -0.0405520797746 0.913 1.21262497662e-38
-0.0117888256738 -0.0404188308816 0.91 1.59980584426e-38
-0.0100824995716 -0.0403299982863 0.908 1.37878800579e-38
-0.00840208297631 -0.0403299982863 0.908 9.73456259275e-39
-0.00670686094849 -0.0402411656909 0.906 8.99987862348e-39
-0.00503014571137 -0.0402411656909 0.906 1.33204587383e-38
-0.00334232639983 -0.0401079167979 0.903 1.13876015236e-38
-0.00167116319991 -0.0401079167979 0.903 1.18467790044e-38
0.0 -0.0400190842026 0.901 1.29488049583e-38
0.00166190980456 -0.0398858353096 0.898 1.39593597536e-38
0.00332381960913 -0.0398858353096 0.898 1.23977919813e-38
0.00497462533928 -0.0397970027142 0.896 1.33161469429e-38
0.0066328337857 -0.0397970027142 0.896 1.3775325825e-38
0.00829104223213 -0.0397970027142 0.896 1.49724396888e-38
0.00994925067855 -0.0397970027142 0.896 1.41426664083e-38
0.011607459125 -0.0397970027142 0.896 1.44181728968e-38
0.0132656675714 -0.0397970027142 0.896 1.3958995416e-38
0.0149238760178 -0.0397970027142 0.896 1.44181728968e-38
0.0165450708829 -0.0397081701189 0.894 1.51528568661e-38
0.0181995779711 -0.0397081701189 0.894 1.44181841072e-38
0.0198540850594 -0.0397081701189 0.894 1.55201988507e-38
0.0215085921477 -0.0397081701189 0.894 1.61630473238e-38
0.023163099236 -0.0397081701189 0.894 1.52446923622e-38
0.0248731266964 -0.0397970027142 0.896 1.52446923622e-38
0.0265313351428 -0.0397970027142 0.896 1.48773503776e-38
0.0281895435892 -0.0397970027142 0.896 1.72650830868e-38
0.0299143764822 -0.0398858353096 0.898 1.8378951414e-38
0.0315762862867 -0.0398858353096 0.898 1.50757336025e-38
0.0333492368355 -0.0400190842026 0.901 1.51708159072e-38
0.0350944271982 -0.0401079167979 0.903 1.55410053303e-38
0.0367655903981 -0.0401079167979 0.903 1.97841707114e-38
0.0385644504538 -0.0402411656909 0.906 1.86767413507e-38
0.0403299982863 -0.0403299982863 0.908 1.89443473184e-38
0.042102948835 -0.0404188308816 0.91 2.09805446896e-38
0.0439314197559 -0.0405520797746 0.913 2.00675721155e-38
0.0456210897465 -0.0405520797746 0.913 1.71109024207e-38
-0.0169337134875 -0.0389475410212 0.915 1.00179611942e-38
-0.0152403421387 -0.0389475410212 0.915 1.03838682492e-38
-0.01354697079 -0.0389475410212 0.915 1.17574644442e-38
-0.0117888256738 -0.0387347129282 0.91 1.2765133966e-38
-0.0100824995716 -0.038649581691 0.908 1.4419263107e-38
-0.00840208297631 -0.038649581691 0.908 1.2861274251e-38
-0.00672166638105 -0.038649581691 0.908 7.07133320417e-39
-0.00503014571137 -0.0385644504538 0.906 1.27733988243e-38
-0.00335343047424 -0.0385644504538 0.906 1.25814629736e-38
-0.00167116319991 -0.038436753598 0.903 1.18467790044e-38
0.0 -0.0383516223608 0.901 1.19386145005e-38
0.00166190980456 -0.038223925505 0.898 1.31325039766e-38
0.00332381960913 -0.038223925505 0.898 1.24896274775e-38
0.00498572941369 -0.038223925505 0.898 1.30406404544e-38
0.00664763921826 -0.038223925505 0.898 1.37753244237e-38
0.00829104223213 -0.0381387942678 0.896 1.2856973666e-38
0.00994925067855 -0.0381387942678 0.896 1.37760502963e-38
0.011607459125 -0.0381387942678 0.896 1.32243114468e-38
0.0132656675714 -0.0381387942678 0.896 1.35923708962e-38
0.0149238760178 -0.0381387942678 0.896 1.31324759506e-38
0.0165820844643 -0.0381387942678 0.896 1.49731319302e-38
0.0182402929107 -0.0381387942678 0.896 1.44181728968e-38
0.0198985013571 -0.0381387942678 0.896 1.4510008393e-38
0.0215567098035 -0.0381387942678 0.896 1.55201988507e-38
0.02321491825 -0.0381387942678 0.896 1.51528568661e-38
0.0248731266964 -0.0381387942678 0.896 1.47855148814e-38
0.026590556873 -0.038223925505 0.898 1.54283633545e-38
0.0282524666776 -0.038223925505 0.898 1.80011991831e-38
0.0299143764822 -0.038223925505 0.898 1.69931583172e-38
0.0316817749937 -0.0383516223608 0.901 1.65487435157e-38
0.0334232639983 -0.038436753598 0.903 1.78516918473e-38
0.0352110199796 -0.0385644504538 0.906 1.97906937558e-38
0.0368877352167 -0.0385644504538 0.906 1.50825453143e-38
0.0385644504538 -0.0385644504538 0.906 1.79363092551e-38
0.0404188308816 -0.0387347129282 0.91 2.14354692296e-38
0.0422417497652 -0.038862409784 0.913 1.94204468794e-38
0.0439314197559 -0.038862409784 0.913 1.55417872548e-38
0.0457210264162 -0.0389475410212 0.915 2.05220902789e-38
-0.0169337134875 -0.0372541696725 0.915 1.15856218122e-38
-0.0152403421387 -0.0372541696725 0.915 1.13958747897e-38
-0.01354697079 -0.0372541696725 0.915 1.13890406571e-38
-0.0118276899343 -0.0371727397934 0.913 1.22151971862e-38
-0.0101047077204 -0.0370505949748 0.91 1.47923602244e-38
-0.008420589767 -0.0370505949748 0.91 1.51657740353e-38
-0.00672166638105 -0.0369691650957 0.908 6.88766221185e-39
-0.00504124978578 -0.0369691650957 0.908 1.33258621452e-38
-0.00335343047424 -0.0368877352167 0.906 1.26732984698e-38
-0.00167671523712 -0.0368877352167 0.906 1.17549435082e-38
0.0 -0.0367655903981 0.903 1.23977919813e-38
0.00166746184177 -0.036684160519 0.901 1.40508337148e-38
0.00332381960913 -0.0365620157004 0.898 1.2214120989e-38
0.00498572941369 -0.0365620157004 0.898 1.24903477449e-38
0.00664763921826 -0.0365620157004 0.898 1.28569694621e-38
0.00830954902282 -0.0365620157004 0.898 1.25814629736e-38
0.00997145882739 -0.0365620157004 0.898 1.2399226911e-38
0.011607459125 -0.0364805858214 0.896 1.18467790044e-38
0.0132656675714 -0.0364805858214 0.896 1.27654926984e-38
0.0149238760178 -0.0364805858214 0.896 1.23059564852e-38
0.0165820844643 -0.0364805858214 0.896 1.33161469429e-38
0.0182402929107 -0.0364805858214 0.896 1.31324759506e-38
0.0198985013571 -0.0364805858214 0.896 1.40508309122e-38
0.0215567098035 -0.0364805858214 0.896 1.4510008393e-38
0.02321491825 -0.0364805858214 0.896 1.37753244237e-38
0.0249286470685 -0.0365620157004 0.898 1.2856973666e-38
0.026590556873 -0.0365620157004 0.898 1.57038740469e-38
0.0282524666776 -0.0365620157004 0.898 1.99351438054e-38
0.0300143131519 -0.036684160519 0.901 2.02397370461e-38
0.0316817749937 -0.036684160519 0.901 1.84944856698e-38
0.0334232639983 -0.0367655903981 0.903 1.30510731215e-38
0.0352110199796 -0.0368877352167 0.906 1.62649273274e-38
0.0368877352167 -0.0368877352167 0.906 1.93196220536e-38
0.038649581691 -0.0369691650957 0.908 1.82200834045e-38
0.0405520797746 -0.0371727397934 0.913 2.04288366687e-38
0.0422417497652 -0.0371727397934 0.913 1.48971353106e-38
0.0440276550675 -0.0372541696725 0.915 1.99695723074e-38
-0.0186881572455 -0.0356773911051 0.918 1.19666586867e-38
-0.0169337134875 -0.0355607983237 0.915 1.18604108358e-38
-0.0152403421387 -0.0355607983237 0.915 1.15748710504e-38
-0.0135913870877 -0.0356773911051 0.918 1.12989946191e-38
-0.0118535994412 -0.0355607983237 0.915 1.24939322664e-38
-0.0101380199437 -0.0354830698028 0.913 1.52572858315e-38
-0.008420589767 -0.0353664770214 0.91 1.50760993414e-38
-0.0067364718136 -0.0353664770214 0.91 8.17766394694e-39
-0.00504124978578 -0.0352887485005 0.908 1.2687314257e-38
-0.00336083319052 -0.0352887485005 0.908 1.20304499967e-38
-0.00167671523712 -0.0352110199796 0.906 1.13876015236e-38
0.0 -0.0352110199796 0.906 1.23977919813e-38
0.00167671523712 -0.0352110199796 0.906 1.34079824391e-38
0.00333492368355 -0.0350166986772 0.901 1.26732984698e-38
0.00500238552532 -0.0350166986772 0.901 1.21222854929e-38
0.00666984736709 -0.0350166986772 0.901 1.35916534314e-38
0.00833730920887 -0.0350166986772 0.901 1.32243114468e-38
0.0100047710506 -0.0350166986772 0.901 1.30406404544e-38
0.011633368632 -0.0349001058959 0.898 1.34079824391e-38
0.0132952784365 -0.0349001058959 0.898 1.34079824391e-38
0.0149571882411 -0.0349001058959 0.898 1.4510008393e-38
0.0166190980456 -0.0349001058959 0.898 1.3958995416e-38
0.0183420802595 -0.0350166986772 0.901 1.46018550995e-38
0.0200095421013 -0.0350166986772 0.901 1.42345019045e-38
0.0216048274593 -0.0349001058959 0.898 1.46018438891e-38
0.0232667372639 -0.0349001058959 0.898 1.46018438891e-38
0.0250119276266 -0.0350166986772 0.901 1.2765133966e-38
