# .PCD v0.7 - Point Cloud Data file format
VERSION 0.7
FIELDS x y z rgb
SIZE 4 4 4 4
TYPE F F F F
COUNT 1 1 1 1
WIDTH 839
HEIGHT 1
VIEWPOINT 0 0 0 1 0 0 0
POINTS 839
DATA ascii
0.0306972137286 -0.0646257131129 0.873 1.69946072598e-38
0.0323128565565 -0.0646257131129 0.873 1.82767000664e-38
0.0339284993843 -0.0646257131129 0.873 2.34720085177e-38
0.0356255720912 -0.0647737674385 0.875 1.80393495338e-38
0.0375428756073 -0.065291957578 0.882 2.34860943698e-38
-0.0308730282403 -0.0633709527037 0.878 1.05787089916e-38
-0.0291481953473 -0.0631544232525 0.875 1.62846940435e-38
-0.0275288511614 -0.0631544232525 0.875 1.43486881112e-38
-0.0257318417847 -0.0627213643502 0.869 6.8005631045e-39
-0.0241236016732 -0.0627213643502 0.869 1.52857279865e-38
-0.0224635425477 -0.0625770113828 0.867 1.68573472726e-38
-0.0208590037943 -0.0625770113828 0.867 3.31253504501e-39
-0.0191878405943 -0.0623604819316 0.864 4.42855296407e-39
-0.0175888538782 -0.0623604819316 0.864 1.30668923799e-38
-0.0159528535806 -0.0622161289642 0.862 1.17654112078e-38
-0.0143242559993 -0.0620717759968 0.86 1.03781425437e-38
-0.0127326719993 -0.0620717759968 0.86 1.24932302158e-38
-0.0111151784924 -0.0619274230293 0.858 1.12042892637e-38
-0.00952729585067 -0.0619274230293 0.858 1.21301776058e-38
-0.00793941320889 -0.0619274230293 0.858 8.44886564654e-39
-0.00635153056711 -0.0619274230293 0.858 1.04061502961e-38
-0.00476364792533 -0.0619274230293 0.858 1.05855263086e-38
-0.00317576528356 -0.0619274230293 0.858 1.48773503776e-38
-0.00158788264178 -0.0619274230293 0.858 1.50610213699e-38
0.0 -0.0619274230293 0.858 1.50610213699e-38
0.00158788264178 -0.0619274230293 0.858 1.51528568661e-38
0.00317576528356 -0.0619274230293 0.858 1.58875408353e-38
0.00476364792533 -0.0619274230293 0.858 1.52447175856e-38
0.00635153056711 -0.0619274230293 0.858 1.56120343469e-38
0.00793941320889 -0.0619274230293 0.858 1.57957053392e-38
0.00952729585067 -0.0619274230293 0.858 1.61630473238e-38
0.0111151784924 -0.0619274230293 0.858 1.625488282e-38
0.0127030611342 -0.0619274230293 0.858 1.66222248046e-38
0.014290943776 -0.0619274230293 0.858 1.65304131305e-38
0.0158788264178 -0.0619274230293 0.858 1.67140603008e-38
0.0174667090596 -0.0619274230293 0.858 1.68977312931e-38
0.019099007999 -0.0620717759968 0.86 1.73569087739e-38
0.0207387096547 -0.0622161289642 0.862 1.73569087739e-38
0.0223339950128 -0.0622161289642 0.862 1.7724271778e-38
0.0239848007429 -0.0623604819316 0.864 1.74555840078e-38
0.0256726200545 -0.0625770113828 0.867 2.34951313436e-38
0.0273400818963 -0.0627213643502 0.869 1.42751409613e-38
0.0289483220078 -0.0627213643502 0.869 1.23977919813e-38
0.0306972137286 -0.0630100702851 0.873 1.59793959497e-38
0.0323128565565 -0.0630100702851 0.873 2.34507900563e-38
0.0339284993843 -0.0630100702851 0.873 2.11757721904e-38
0.0356255720912 -0.0631544232525 0.875 1.6839259312e-38
0.0375428756073 -0.0636596586385 0.882 2.34889698343e-38
-0.0309433540449 -0.0618867080898 0.88 1.35303732482e-38
-0.0292481320171 -0.0617460564805 0.878 1.2776613403e-38
-0.0276232357939 -0.0617460564805 0.878 1.34220402653e-38
-0.0257910635149 -0.061253775848 0.871 8.44886564654e-39
-0.0241236016732 -0.0611131242387 0.869 1.62055122725e-38
-0.0225153615616 -0.0611131242387 0.869 1.15143377593e-38
-0.0208590037943 -0.0609724726294 0.867 1.17923932097e-38
-0.0191878405943 -0.0607614952154 0.864 3.40759913283e-39
-0.0175888538782 -0.0607614952154 0.864 7.1778781303e-39
-0.0159528535806 -0.0606208436061 0.862 1.07533920555e-38
-0.0143575682225 -0.0606208436061 0.862 1.18467874122e-38
-0.0127326719993 -0.0604801919968 0.86 1.13876015236e-38
-0.0111410879994 -0.0604801919968 0.86 1.01937400735e-38
-0.0095495039995 -0.0604801919968 0.86 9.46084976631e-39
-0.00793941320889 -0.0603395403876 0.858 5.87747175411e-39
-0.00635153056711 -0.0603395403876 0.858 1.03186237927e-38
-0.00476364792533 -0.0603395403876 0.858 1.04947726148e-38
-0.00317576528356 -0.0603395403876 0.858 1.48773503776e-38
-0.00158788264178 -0.0603395403876 0.858 1.46018565008e-38
0.0 -0.0603395403876 0.858 1.54283633545e-38
0.00158788264178 -0.0603395403876 0.858 1.53365278584e-38
0.00318316799983 -0.0604801919968 0.86 1.59793763315e-38
0.00477475199975 -0.0604801919968 0.86 1.59793763315e-38
0.00635153056711 -0.0603395403876 0.858 1.60712118276e-38
0.00793941320889 -0.0603395403876 0.858 1.59793763315e-38
0.00952729585067 -0.0603395403876 0.858 1.63467183161e-38
0.0111151784924 -0.0603395403876 0.858 1.66222248046e-38
0.0127030611342 -0.0603395403876 0.858 1.63467183161e-38
0.0143242559993 -0.0604801919968 0.86 1.64385538123e-38
0.0159158399992 -0.0604801919968 0.86 1.68058957969e-38
0.0175074239991 -0.0604801919968 0.86 1.69895709931e-38
0.019099007999 -0.0604801919968 0.86 1.71732377815e-38
0.0207387096547 -0.0606208436061 0.862 1.72650732777e-38
0.0223858140267 -0.0607614952154 0.864 1.46936793853e-38
0.0239848007429 -0.0607614952154 0.864 2.34832189054e-38
0.0257318417847 -0.0611131242387 0.869 2.33078393961e-38
0.0273400818963 -0.0611131242387 0.869 5.60232399804e-39
0.0290149464543 -0.061253775848 0.871 1.88403205256e-38
0.0307675395333 -0.0615350790666 0.875 1.99412226381e-38
0.0324979244634 -0.0617460564805 0.878 2.34781952504e-38
0.0341228206866 -0.0617460564805 0.878 1.41714280593e-38
0.0358291467888 -0.0618867080898 0.88 1.65548223485e-38
0.0374577443701 -0.0618867080898 0.88 2.348750828e-38
-0.0309433540449 -0.0602581105085 0.88 1.65757058995e-38
-0.0293147564636 -0.0602581105085 0.88 1.22278354971e-38
-0.0276232357939 -0.0601211602573 0.878 1.33212196433e-38
-0.0258502852452 -0.0597787846294 0.873 2.07066146619e-38
-0.0241791220453 -0.0596418343783 0.871 1.6761927255e-38
-0.0225671805756 -0.0596418343783 0.871 1.28961777932e-38
-0.0209071214501 -0.0595048841271 0.869 1.34479264518e-38
-0.0192544650409 -0.059367933876 0.867 9.94668134519e-39
-0.0176499262875 -0.059367933876 0.867 1.32732588021e-38
-0.0159528535806 -0.0590255582481 0.862 3.22141701367e-39
-0.0143575682225 -0.0590255582481 0.862 6.52534248091e-39
-0.0127622828645 -0.0590255582481 0.862 5.51012976948e-39
-0.0111410879994 -0.0588886079969 0.86 8.46865898734e-39
-0.0095495039995 -0.0588886079969 0.86 6.17521965181e-39
-0.00795791999959 -0.0588886079969 0.86 6.63945021486e-39
-0.00636633599967 -0.0588886079969 0.86 5.72430843066e-39
-0.00476364792533 -0.0587516577458 0.858 1.06812924469e-38
-0.00317576528356 -0.0587516577458 0.858 1.42345019045e-38
-0.00159158399992 -0.0588886079969 0.86 1.50610213699e-38
0.0 -0.0588886079969 0.86 1.56120343469e-38
0.00159158399992 -0.0588886079969 0.86 1.54283633545e-38
0.00318316799983 -0.0588886079969 0.86 1.5703869843e-38
0.00477475199975 -0.0588886079969 0.86 1.58875408353e-38
0.00636633599967 -0.0588886079969 0.86 1.625488282e-38
0.00795791999959 -0.0588886079969 0.86 1.63467183161e-38
0.0095495039995 -0.0588886079969 0.86 1.63467267239e-38
0.0111410879994 -0.0588886079969 0.86 1.67140603008e-38
0.0127326719993 -0.0588886079969 0.86 1.71732602023e-38
0.0143242559993 -0.0588886079969 0.86 1.66222248046e-38
0.0159158399992 -0.0588886079969 0.86 1.7356928392e-38
0.0175074239991 -0.0588886079969 0.86 1.62603100489e-38
0.0191434242967 -0.0590255582481 0.862 1.74487512765e-38
0.0207387096547 -0.0590255582481 0.862 1.60712118276e-38
0.0224635425477 -0.059367933876 0.867 2.34558991905e-38
0.0241236016732 -0.0595048841271 0.869 2.34947207632e-38
0.0257318417847 -0.0595048841271 0.869 1.21518108515e-38
0.0274030049846 -0.0596418343783 0.871 1.30406404544e-38
0.0291481953473 -0.0599157348806 0.875 1.85626546362e-38
0.0308730282403 -0.0601211602573 0.878 2.16879383713e-38
0.0325719516262 -0.0602581105085 0.88 2.24621992131e-38
0.0342005492075 -0.0602581105085 0.88 1.42524553404e-38
0.0359105766679 -0.0603950607596 0.882 2.07025887314e-38
-0.0329791010215 -0.0593623818388 0.891 2.23818781864e-38
-0.0311894943612 -0.0590958840527 0.887 1.37172854439e-38
-0.0293813809101 -0.0587627618202 0.882 1.62930359733e-38
-0.0276861588823 -0.0586295129272 0.88 9.37439525625e-39
-0.0259983395707 -0.0584962640342 0.878 1.38693319325e-38
-0.0242346424173 -0.0581631418016 0.873 2.07166535641e-38
-0.0226189995895 -0.0581631418016 0.873 1.15139692178e-38
-0.0209552391059 -0.0580298929086 0.871 7.36192607191e-39
-0.0192988813385 -0.0578966440156 0.869 8.01566683798e-39
-0.017690641227 -0.0578966440156 0.869 1.54881245302e-38
-0.016045387534 -0.0577633951226 0.867 5.71712537473e-39
-0.0143908804458 -0.057563521783 0.864 1.53923135502e-38
-0.0127622828645 -0.05743027289 0.862 1.30754921485e-38
-0.0111410879994 -0.057297023997 0.86 3.12635292585e-39
-0.0095495039995 -0.057297023997 0.86 5.35303440254e-39
-0.00795791999959 -0.057297023997 0.86 4.52110452375e-39
-0.00636633599967 -0.057297023997 0.86 3.97874456482e-39
-0.00477475199975 -0.057297023997 0.86 1.2063875169e-38
-0.00318316799983 -0.057297023997 0.86 1.42345019045e-38
-0.00159158399992 -0.057297023997 0.86 1.53365278584e-38
0.0 -0.057297023997 0.86 1.55201988507e-38
0.00159158399992 -0.057297023997 0.86 1.5703869843e-38
0.00318316799983 -0.057297023997 0.86 1.59793763315e-38
0.00477475199975 -0.057297023997 0.86 1.59793763315e-38
0.00636633599967 -0.057297023997 0.86 1.59793763315e-38
0.00795791999959 -0.057297023997 0.86 1.57957053392e-38
0.0095495039995 -0.057297023997 0.86 1.65303893084e-38
0.0111410879994 -0.057297023997 0.86 1.625488282e-38
0.0127326719993 -0.057297023997 0.86 1.65303907097e-38
0.0143575682225 -0.05743027289 0.862 1.64385538123e-38
0.0159528535806 -0.05743027289 0.862 1.80058851252e-38
0.0175481389386 -0.05743027289 0.862 1.55374180062e-38
0.0191878405943 -0.057563521783 0.864 1.52461272919e-38
0.0208590037943 -0.0577633951226 0.867 1.33161469429e-38
0.0225153615616 -0.0578966440156 0.869 2.34933264712e-38
0.0241236016732 -0.0578966440156 0.869 1.88831498119e-38
0.0257910635149 -0.0580298929086 0.871 7.16460362995e-39
0.027465928073 -0.0581631418016 0.873 1.71804264427e-38
0.0291481953473 -0.0582963906946 0.875 1.68058957969e-38
0.0309433540449 -0.0586295129272 0.88 2.34616024753e-38
0.0325719516262 -0.0586295129272 0.88 2.07176891237e-38
0.0342782777284 -0.0587627618202 0.882 1.08380234763e-38
0.0359105766679 -0.0587627618202 0.882 2.22710130571e-38
-0.0329791010215 -0.0577134267877 0.891 2.30272475955e-38
-0.0312598201658 -0.0575838792528 0.889 1.35325368531e-38
-0.0294813175799 -0.0573247841831 0.885 1.5000855219e-38
-0.0277490819706 -0.0571304628807 0.882 1.36226095158e-38
-0.0259983395707 -0.056871367811 0.878 1.11120950351e-38
-0.0243734433476 -0.056871367811 0.878 1.26732984698e-38
-0.0226708186035 -0.0566770465087 0.875 1.51867136383e-38
-0.0210033567617 -0.0565474989738 0.873 7.18114175443e-39
-0.0193432976362 -0.0564179514389 0.871 4.14622915857e-39
-0.0177313561665 -0.0564179514389 0.871 6.18033439121e-39
-0.0160824011154 -0.056288403904 0.869 5.16586717055e-39
-0.0144408487806 -0.0561588563692 0.867 1.16151822033e-38
-0.0127622828645 -0.055834987532 0.862 1.61259129145e-38
-0.0111669975064 -0.055834987532 0.862 5.06497928632e-39
-0.00959392029717 -0.0559645350669 0.864 1.74101258856e-38
-0.00799493358098 -0.0559645350669 0.864 1.12338622665e-38
-0.00639594686478 -0.0559645350669 0.864 4.41205127336e-39
-0.00477475199975 -0.0557054399971 0.86 1.22468202887e-38
-0.00318316799983 -0.0557054399971 0.86 1.41426664083e-38
-0.00159528535806 -0.055834987532 0.862 1.5703869843e-38
0.0 -0.055834987532 0.862 1.55201988507e-38
0.00159528535806 -0.055834987532 0.862 1.56120343469e-38
0.00319057071611 -0.055834987532 0.862 1.55201988507e-38
0.00478585607417 -0.055834987532 0.862 1.59793763315e-38
0.00638114143223 -0.055834987532 0.862 1.64385538123e-38
0.00797642679028 -0.055834987532 0.862 1.625488282e-38
0.00957171214834 -0.055834987532 0.862 1.58875408353e-38
0.0111669975064 -0.055834987532 0.862 1.6622583537e-38
0.0127622828645 -0.055834987532 0.862 1.59822461907e-38
0.0143575682225 -0.055834987532 0.862 1.70928817224e-38
0.015989867162 -0.0559645350669 0.864 1.51715109512e-38
0.0175888538782 -0.0559645350669 0.864 1.41692126064e-38
0.0192544650409 -0.0561588563692 0.867 1.18507250609e-38
0.0209071214501 -0.056288403904 0.869 2.348284616e-38
0.0225153615616 -0.056288403904 0.869 2.34000154078e-38
0.0241236016732 -0.056288403904 0.869 6.8955543248e-39
0.0258502852452 -0.0565474989738 0.873 1.87631986633e-38
0.0275288511614 -0.0566770465087 0.875 1.8670258944e-38
0.0291481953473 -0.0566770465087 0.875 1.66222248046e-38
0.0310136798495 -0.0571304628807 0.882 2.34662828121e-38
0.032645978789 -0.0571304628807 0.882 2.20991774316e-38
0.0343948705098 -0.0573247841831 0.885 1.4350034759e-38
0.0360327214865 -0.0573247841831 0.885 2.10865276951e-38
-0.0329791010215 -0.0560644717366 0.891 2.27502893618e-38
-0.0313301459705 -0.0560644717366 0.891 1.39938905504e-38
-0.0295479420264 -0.0558127793831 0.887 1.31529769471e-38
-0.0278434666032 -0.0556869332064 0.885 1.49047765911e-38
-0.0261167830312 -0.0554981639413 0.882 1.31569818581e-38
-0.0244289637197 -0.0553723177646 0.88 1.2765133966e-38
-0.0227485471244 -0.0552464715878 0.878 1.35916534314e-38
-0.0210514744175 -0.0550577023227 0.875 1.57293622647e-38
-0.0194321302315 -0.0550577023227 0.875 1.40807360227e-38
-0.0177720711061 -0.054931856146 0.873 8.74055713227e-39
-0.0161194146968 -0.0548060099692 0.871 5.24789638006e-39
-0.0145074732272 -0.0548060099692 0.871 3.41873945562e-39
-0.0128955317575 -0.0548060099692 0.871 2.86854904087e-39
-0.0112576807808 -0.0546801637925 0.869 6.17930723943e-39
-0.00962723252043 -0.0545543176158 0.867 1.59433405402e-38
-0.00802269376702 -0.0545543176158 0.867 1.94370130299e-38
-0.00641815501362 -0.0545543176158 0.867 5.88572259947e-39
-0.00481361626021 -0.0545543176158 0.867 1.2616344095e-38
-0.00320907750681 -0.0545543176158 0.867 1.44181728968e-38
-0.0016045387534 -0.0545543176158 0.867 1.55201988507e-38
0.0 -0.0545543176158 0.867 1.54283633545e-38
0.0016045387534 -0.0545543176158 0.867 1.59793763315e-38
0.00319797343239 -0.0543655483507 0.864 1.52446923622e-38
0.00479696014859 -0.0543655483507 0.864 1.61630473238e-38
0.00638114143223 -0.0542397021739 0.862 1.59793763315e-38
0.00797642679028 -0.0542397021739 0.862 1.60712118276e-38
0.00957171214834 -0.0542397021739 0.862 1.57957053392e-38
0.0111669975064 -0.0542397021739 0.862 1.69956792531e-38
0.0127918937296 -0.0543655483507 0.864 1.71904653449e-38
0.0143908804458 -0.0543655483507 0.864 1.57279133221e-38
0.016045387534 -0.0545543176158 0.867 1.35317605337e-38
0.0176499262875 -0.0545543176158 0.867 1.19683892903e-38
0.0192988813385 -0.0546801637925 0.869 2.07122352701e-38
0.0209552391059 -0.0548060099692 0.871 2.34936361582e-38
0.0225671805756 -0.0548060099692 0.871 1.38102601957e-38
0.0241791220453 -0.0548060099692 0.871 1.3225387644e-38
0.0259095069754 -0.0550577023227 0.875 2.06950301275e-38
0.0276232357939 -0.0552464715878 0.878 1.88554139114e-38
0.0292481320171 -0.0552464715878 0.878 1.68977312931e-38
0.0310136798495 -0.0554981639413 0.882 2.34688303727e-38
0.0327570195332 -0.0556869332064 0.885 2.3479174758e-38
0.0344725990308 -0.0558127793831 0.887 2.23786734168e-38
0.0361141513656 -0.0558127793831 0.887 1.52784552474e-38
-0.0330901417657 -0.0545987339134 0.894 2.25666421915e-38
-0.0312598201658 -0.0542933718669 0.889 1.38116474812e-38
-0.0296145664729 -0.0542933718669 0.889 1.638658806e-38
-0.0279063896916 -0.0541712270483 0.887 1.19558827015e-38
-0.0262056156265 -0.0540490822297 0.885 1.07645477926e-38
-0.0244844840917 -0.0538658650018 0.882 1.73020353273e-38
-0.0228003661383 -0.0537437201832 0.88 9.64523822344e-39
-0.0211236509012 -0.0536215753646 0.878 1.26732984698e-38
-0.0194987546781 -0.0536215753646 0.878 1.37753244237e-38
-0.0178127860456 -0.0534383581368 0.875 1.72849044536e-38
-0.0161564282782 -0.0533162133182 0.873 1.61093874017e-38
-0.0145407854504 -0.0533162133182 0.873 1.1784718298e-38
-0.0128955317575 -0.0531940684996 0.871 7.2736933141e-39
-0.0112835902878 -0.0531940684996 0.871 3.41333885134e-39
-0.0096716488181 -0.0531940684996 0.871 2.86124967717e-39
-0.00805970734842 -0.0531940684996 0.871 1.04984075831e-38
-0.00644776587873 -0.0531940684996 0.871 4.05264203933e-39
-0.00482472033463 -0.053071923681 0.869 1.28010926859e-38
-0.00321648022309 -0.053071923681 0.869 1.41426664083e-38
-0.00160824011154 -0.053071923681 0.869 1.55201988507e-38
0.0 -0.053071923681 0.869 1.53365278584e-38
0.00160824011154 -0.053071923681 0.869 1.57957053392e-38
0.00321648022309 -0.053071923681 0.869 1.58875828743e-38
0.00482472033463 -0.053071923681 0.869 1.60712118276e-38
0.00641815501362 -0.0529497788624 0.867 1.59793763315e-38
0.00802269376702 -0.0529497788624 0.867 1.67158539628e-38
0.00962723252043 -0.0529497788624 0.867 1.67273418076e-38
0.0112317712738 -0.0529497788624 0.867 1.69253789118e-38
0.0128363100272 -0.0529497788624 0.867 1.55503758131e-38
0.0144741610039 -0.053071923681 0.869 1.24272080387e-38
0.0160824011154 -0.053071923681 0.869 9.39340807382e-39
0.017690641227 -0.053071923681 0.869 1.17793653379e-38
0.0193432976362 -0.0531940684996 0.871 2.34919083571e-38
0.0209552391059 -0.0531940684996 0.871 1.8884953283e-38
0.0225671805756 -0.0531940684996 0.871 8.4574752243e-39
0.0242346424173 -0.0533162133182 0.873 1.70986354539e-38
0.0259095069754 -0.0534383581368 0.875 2.00456838334e-38
0.0276232357939 -0.0536215753646 0.878 1.88521376755e-38
0.0293813809101 -0.0538658650018 0.882 1.67140603008e-38
0.0311191685565 -0.0540490822297 0.885 2.34734840849e-38
0.032831046696 -0.0541712270483 0.887 2.14577807037e-38
0.0344725990308 -0.0541712270483 0.887 2.2191380068e-38
0.0361141513656 -0.0541712270483 0.887 1.6000576576e-38
-0.0330901417657 -0.0529442268251 0.894 2.25673400382e-38
-0.0312598201658 -0.052648118174 0.889 1.64856738744e-38
-0.0296145664729 -0.052648118174 0.889 1.10421604327e-38
-0.0279063896916 -0.0525296747135 0.887 1.38062945211e-38
-0.0262056156265 -0.0524112312531 0.885 1.41706657529e-38
-0.0244844840917 -0.0522335660624 0.882 1.71264189986e-38
-0.0228003661383 -0.0521151226019 0.88 1.76758779355e-38
-0.0211236509012 -0.0519966791415 0.878 7.62491896509e-39
-0.0194987546781 -0.0519966791415 0.878 1.42370200378e-38
-0.0178738584549 -0.0519966791415 0.878 1.23977919813e-38
-0.0161934418596 -0.0518190139508 0.875 1.45110887941e-38
-0.0145740976737 -0.0518190139508 0.875 1.34115809735e-38
-0.0129251426226 -0.0517005704903 0.873 1.60992560138e-38
-0.0112835902878 -0.0515821270299 0.871 1.73097130416e-38
-0.0096716488181 -0.0515821270299 0.871 1.39971275498e-38
-0.00805970734842 -0.0515821270299 0.871 1.21531631045e-38
-0.00644776587873 -0.0515821270299 0.871 1.27974633228e-38
-0.00482472033463 -0.0514636835694 0.869 1.41775587401e-38
-0.00321648022309 -0.0514636835694 0.869 1.42345019045e-38
-0.00160824011154 -0.0514636835694 0.869 1.50610213699e-38
0.0 -0.0514636835694 0.869 1.56120343469e-38
0.00160824011154 -0.0514636835694 0.869 1.56120343469e-38
0.00321648022309 -0.0514636835694 0.869 1.59793777328e-38
0.00482472033463 -0.0514636835694 0.869 1.60712118276e-38
0.00643296044618 -0.0514636835694 0.869 1.78232623041e-38
0.00804120055772 -0.0514636835694 0.869 1.73730517322e-38
0.00964944066926 -0.0514636835694 0.869 1.64651252338e-38
0.0112576807808 -0.0514636835694 0.869 1.55521386466e-38
0.0128659208924 -0.0514636835694 0.869 1.33466532105e-38
0.0144741610039 -0.0514636835694 0.869 1.16006899746e-38
0.0160824011154 -0.0514636835694 0.869 4.13259732711e-39
0.0177313561665 -0.0515821270299 0.871 2.25742344266e-38
0.0193877139339 -0.0517005704903 0.873 2.0822873389e-38
0.0210033567617 -0.0517005704903 0.873 1.04954788693e-38
0.0226708186035 -0.0518190139508 0.875 1.13018644783e-38
0.0243734433476 -0.0519966791415 0.878 1.69928346172e-38
0.026057561301 -0.0521151226019 0.88 2.04115740729e-38
0.0278434666032 -0.0524112312531 0.885 1.66362153685e-38
0.0295479420264 -0.0525296747135 0.887 1.99481128227e-38
0.0311894943612 -0.0525296747135 0.887 1.93217422182e-38
0.032831046696 -0.0525296747135 0.887 2.00751699557e-38
0.0344725990308 -0.0525296747135 0.887 1.30535548211e-38
0.0361141513656 -0.0525296747135 0.887 2.12355740037e-38
-0.0313301459705 -0.0511176065834 0.891 1.82373908418e-38
-0.0296145664729 -0.0510028644811 0.889 1.38055560368e-38
-0.0279063896916 -0.0508881223787 0.887 1.13152398722e-38
-0.0262056156265 -0.0507733802764 0.885 1.37058228225e-38
-0.0245677646499 -0.0507733802764 0.885 1.54560277888e-38
-0.0228521851523 -0.0506012671229 0.882 1.97007037697e-38
-0.021171768557 -0.0504865250206 0.88 5.97325330674e-39
-0.0195431709757 -0.0504865250206 0.88 2.19162533314e-38
-0.0178738584549 -0.0503717829183 0.878 7.44297997768e-39
-0.0162489622317 -0.0503717829183 0.878 1.2214120989e-38
-0.0145740976737 -0.0501996697648 0.875 1.38671599199e-38
-0.0129547534877 -0.0501996697648 0.875 1.34079880443e-38
-0.0112835902878 -0.0499701855602 0.871 1.35916534314e-38
-0.0096716488181 -0.0499701855602 0.871 1.37753244237e-38
-0.00805970734842 -0.0499701855602 0.871 1.37753412393e-38
-0.00644776587873 -0.0499701855602 0.871 1.46937130164e-38
-0.00483582440905 -0.0499701855602 0.871 1.44224776857e-38
-0.00322388293937 -0.0499701855602 0.871 1.44246300801e-38
-0.00160824011154 -0.0498554434579 0.869 1.43263374006e-38
0.0 -0.0498554434579 0.869 1.61630473238e-38
0.00160824011154 -0.0498554434579 0.869 1.56120343469e-38
0.00321648022309 -0.0498554434579 0.869 1.57957053392e-38
0.00482472033463 -0.0498554434579 0.869 1.69895667892e-38
0.00643296044618 -0.0498554434579 0.869 1.6903829744e-38
0.00804120055772 -0.0498554434579 0.869 1.78297433095e-38
0.00964944066926 -0.0498554434579 0.869 1.5812216839e-38
0.0112576807808 -0.0498554434579 0.869 1.55392116683e-38
0.0128955317575 -0.0499701855602 0.871 1.49003092516e-38
0.0145074732272 -0.0499701855602 0.871 9.37224286181e-39
0.0161194146968 -0.0499701855602 0.871 2.14631630911e-38
0.0177313561665 -0.0499701855602 0.871 2.22050791618e-38
0.0194321302315 -0.0501996697648 0.875 1.26152777069e-38
0.0210514744175 -0.0501996697648 0.875 9.36722060812e-39
0.0227485471244 -0.0503717829183 0.878 1.58014997083e-38
0.0244289637197 -0.0504865250206 0.88 1.8564456706e-38
0.0262056156265 -0.0507733802764 0.885 1.7556020674e-38
0.0279063896916 -0.0508881223787 0.887 2.01443198311e-38
0.0296145664729 -0.0510028644811 0.889 1.83111706073e-38
0.0312598201658 -0.0510028644811 0.889 1.26037043829e-38
0.0329050738588 -0.0510028644811 0.889 1.96926729282e-38
0.0345503275517 -0.0510028644811 0.889 1.91286965392e-38
0.0361955812446 -0.0510028644811 0.889 2.05977575933e-38
-0.0314356346774 -0.0496352126486 0.894 2.03575400041e-38
-0.0296811909194 -0.0494686515323 0.891 9.56420673844e-39
-0.0279693127799 -0.0493576107881 0.889 1.44559196735e-38
-0.0262648373568 -0.0492465700439 0.887 1.17787193393e-38
-0.024623285022 -0.0492465700439 0.887 1.37983883951e-38
-0.0228521851523 -0.0489689681835 0.882 1.31400093311e-38
-0.021171768557 -0.0488579274393 0.88 1.84053532784e-38
-0.0195431709757 -0.0488579274393 0.88 1.71329056091e-38
-0.0179145733944 -0.0488579274393 0.88 8.90804312733e-39
-0.0162489622317 -0.0487468866951 0.878 1.93289743196e-38
-0.0146240660085 -0.0487468866951 0.878 1.58173764199e-38
-0.0129991697854 -0.0487468866951 0.878 1.06529175543e-38
-0.0112835902878 -0.0483582440905 0.871 1.28569694621e-38
-0.0096716488181 -0.0483582440905 0.871 1.32243114468e-38
-0.00805970734842 -0.0483582440905 0.871 1.38671599199e-38
-0.00644776587873 -0.0483582440905 0.871 1.43263388019e-38
-0.00483582440905 -0.0483582440905 0.871 1.64417894104e-38
-0.00322388293937 -0.0483582440905 0.871 1.51747395429e-38
-0.00161194146968 -0.0483582440905 0.871 1.37078827312e-38
0.0 -0.0483582440905 0.871 1.57318509708e-38
0.00161194146968 -0.0483582440905 0.871 1.54516963753e-38
0.00322388293937 -0.0483582440905 0.871 1.66444662138e-38
0.00483582440905 -0.0483582440905 0.871 1.53480072954e-38
0.00644776587873 -0.0483582440905 0.871 1.55237861748e-38
0.00805970734842 -0.0483582440905 0.871 1.81034715502e-38
0.0096716488181 -0.0483582440905 0.871 1.59894264441e-38
0.0112835902878 -0.0483582440905 0.871 1.736984416e-38
0.0128955317575 -0.0483582440905 0.871 1.42398828906e-38
0.0145074732272 -0.0483582440905 0.871 2.22834888173e-38
0.0161194146968 -0.0483582440905 0.871 2.34936501711e-38
0.0177720711061 -0.0484692848347 0.873 1.25198969256e-38
0.0194987546781 -0.0487468866951 0.878 9.91825180194e-39
0.0211236509012 -0.0487468866951 0.878 1.42355781017e-38
0.0227485471244 -0.0487468866951 0.878 1.48773713971e-38
0.0244289637197 -0.0488579274393 0.88 1.75513781721e-38
0.0262648373568 -0.0492465700439 0.887 1.81149201587e-38
0.0279063896916 -0.0492465700439 0.887 1.87667733757e-38
0.0296145664729 -0.0493576107881 0.889 1.703483994e-38
0.0312598201658 -0.0493576107881 0.889 1.11351071585e-38
0.0329050738588 -0.0493576107881 0.889 1.71969645671e-38
0.0345503275517 -0.0493576107881 0.889 2.17854967704e-38
0.0361955812446 -0.0493576107881 0.889 2.06871240016e-38
-0.0315059604821 -0.0480880449463 0.896 1.94359312275e-38
-0.0297811275891 -0.0479807055603 0.894 1.24229901303e-38
-0.0280322358683 -0.0478196964812 0.891 1.39023857607e-38
-0.0262648373568 -0.0476050177091 0.887 6.25272687117e-39
-0.024623285022 -0.0476050177091 0.887 1.18568501364e-38
-0.0228521851523 -0.047336669244 0.882 1.66565159793e-38
-0.0212198862128 -0.047336669244 0.882 8.44886564654e-39
-0.0195431709757 -0.047229329858 0.88 1.85967244058e-38
-0.0179145733944 -0.047229329858 0.88 1.87791258217e-38
-0.0162859758131 -0.047229329858 0.88 1.74069463394e-38
-0.0146240660085 -0.047121990472 0.878 1.99801451043e-38
-0.0129991697854 -0.047121990472 0.878 8.6400700194e-39
-0.0113354093017 -0.0469609813929 0.875 2.20076432146e-38
-0.00969385696694 -0.0468536420069 0.873 7.89787929426e-39
-0.00807821413911 -0.0468536420069 0.873 1.54442008298e-38
-0.00646257131129 -0.0468536420069 0.873 1.47015714982e-38
-0.00484692848347 -0.0468536420069 0.873 1.59083809461e-38
-0.00323128565565 -0.0468536420069 0.873 1.35217090198e-38
-0.00161194146968 -0.0467463026208 0.871 1.00312356945e-38
0.0 -0.0467463026208 0.871 1.22474831029e-38
0.00161194146968 -0.0467463026208 0.871 1.24264905739e-38
0.00322388293937 -0.0467463026208 0.871 1.40741485186e-38
0.00483582440905 -0.0467463026208 0.871 1.61777553525e-38
0.00644776587873 -0.0467463026208 0.871 1.58057498466e-38
0.00805970734842 -0.0467463026208 0.871 1.87606398923e-38
0.0096716488181 -0.0467463026208 0.871 1.76582439956e-38
0.0112835902878 -0.0467463026208 0.871 1.3958995416e-38
0.0129251426226 -0.0468536420069 0.873 2.26221392159e-38
0.0145407854504 -0.0468536420069 0.873 2.34914977767e-38
0.0161564282782 -0.0468536420069 0.873 1.48233625517e-38
0.0178127860456 -0.0469609813929 0.875 7.89786528127e-39
0.0194987546781 -0.047121990472 0.878 1.34108593048e-38
0.0211236509012 -0.047121990472 0.878 1.39629414725e-38
0.0228003661383 -0.047229329858 0.88 1.49749564208e-38
0.0244289637197 -0.047229329858 0.88 1.71861619573e-38
0.0262648373568 -0.0476050177091 0.887 1.83958328566e-38
0.0279063896916 -0.0476050177091 0.887 1.75797390518e-38
0.0296145664729 -0.0477123570952 0.889 1.46301837493e-38
0.0312598201658 -0.0477123570952 0.889 1.96043701055e-38
0.0329050738588 -0.0477123570952 0.889 1.66466186083e-38
0.0348223773749 -0.0480880449463 0.896 2.04062141062e-38
0.0365620157004 -0.0481953843324 0.898 1.94878157044e-38
-0.0315059604821 -0.0464298364999 0.896 2.00809503119e-38
-0.0297811275891 -0.046326198472 0.894 1.06716276914e-38
-0.0280322358683 -0.0461707414302 0.891 1.17754403009e-38
-0.026324059087 -0.0460671034023 0.889 1.42690901545e-38
-0.0246788053941 -0.0460671034023 0.889 9.2894919836e-39
-0.0229299136732 -0.0458598273464 0.885 1.44431146082e-38
-0.0212920626966 -0.0458598273464 0.885 1.82338301424e-38
-0.0195875872734 -0.0457043703046 0.882 9.7492986474e-39
-0.0179552883339 -0.0457043703046 0.882 1.09284240428e-38
-0.0162859758131 -0.0456007322767 0.88 1.74843330471e-38
-0.0146573782318 -0.0456007322767 0.88 1.49011584385e-38
-0.0130287806505 -0.0456007322767 0.88 1.66388736317e-38
-0.0113742735622 -0.0454970942488 0.878 2.14603142514e-38
-0.00971606511577 -0.0453416372069 0.875 1.10204038727e-38
-0.00809672092981 -0.0453416372069 0.875 2.31190914994e-38
-0.00646257131129 -0.045237999179 0.873 1.03893108924e-38
-0.00484692848347 -0.045237999179 0.873 1.44407842488e-38
-0.00323128565565 -0.045237999179 0.873 1.18704623497e-38
-0.00161564282782 -0.045237999179 0.873 8.64903832957e-39
0.0 -0.045237999179 0.873 1.02217632402e-38
0.00161564282782 -0.045237999179 0.873 6.62291769558e-39
0.00323128565565 -0.045237999179 0.873 1.45251087852e-38
0.00484692848347 -0.045237999179 0.873 1.57146318152e-38
0.00644776587873 -0.0451343611511 0.871 1.8940772606e-38
0.00805970734842 -0.0451343611511 0.871 1.82110814632e-38
0.00969385696694 -0.045237999179 0.873 1.53548232111e-38
0.0113094997948 -0.045237999179 0.873 1.94874625772e-38
0.0129251426226 -0.045237999179 0.873 2.34897307393e-38
0.0145407854504 -0.045237999179 0.873 1.54705046033e-38
0.0161934418596 -0.0453416372069 0.875 9.00780857149e-39
0.0178738584549 -0.0454970942488 0.878 1.03774110659e-38
0.0195431709757 -0.0456007322767 0.88 1.52544341892e-38
0.021171768557 -0.0456007322767 0.88 1.26783207235e-38
0.0228003661383 -0.0456007322767 0.88 1.77336002218e-38
0.0244844840917 -0.0457043703046 0.882 1.93138529079e-38
0.0262648373568 -0.0459634653743 0.887 1.95000196127e-38
0.0279063896916 -0.0459634653743 0.887 1.59094375251e-38
0.0296145664729 -0.0460671034023 0.889 2.22701526599e-38
0.0312598201658 -0.0460671034023 0.889 2.05192582547e-38
0.0329050738588 -0.0460671034023 0.889 1.54448650453e-38
0.0348223773749 -0.0464298364999 0.896 2.05960031677e-38
0.0365620157004 -0.0465334745278 0.898 1.91233688024e-38
0.038436753598 -0.0467925695976 0.903 2.3486823045e-38
-0.0315059604821 -0.0447716280535 0.896 1.98969163833e-38
-0.0297811275891 -0.0446716913837 0.894 1.25209114657e-38
-0.0280322358683 -0.0445217863791 0.891 1.51899128027e-38
-0.0263832808172 -0.0445217863791 0.891 1.18708322925e-38
-0.0247343257662 -0.0445217863791 0.891 1.04736606522e-38
-0.0229817326872 -0.0443219130396 0.887 1.50044677665e-38
-0.0213401803524 -0.0443219130396 0.887 6.61215572338e-39
-0.0196542117199 -0.0442219763698 0.885 1.59266762988e-38
-0.0179552883339 -0.0440720713651 0.882 1.80440733109e-38
-0.0162859758131 -0.0439721346954 0.88 1.1400162763e-38
-0.0146573782318 -0.0439721346954 0.88 1.23059564852e-38
-0.0130287806505 -0.0439721346954 0.88 1.29488049583e-38
-0.0113742735622 -0.0438721980256 0.878 1.46206086769e-38
-0.00974937733903 -0.0438721980256 0.878 1.82943494205e-38
-0.00812448111586 -0.0438721980256 0.878 1.99848268424e-38
-0.00649958489268 -0.0438721980256 0.878 1.64805535299e-38
-0.00485803255789 -0.043722293021 0.875 1.25069040863e-38
-0.00323868837192 -0.043722293021 0.875 1.34277659708e-38
-0.00161934418596 -0.043722293021 0.875 1.24128587424e-38
0.0 -0.043722293021 0.875 1.59180667211e-38
0.00161934418596 -0.043722293021 0.875 9.38085243958e-39
0.00323868837192 -0.043722293021 0.875 1.65537951967e-38
0.00485803255789 -0.043722293021 0.875 1.64575890506e-38
0.00647737674385 -0.043722293021 0.875 1.7196245701e-38
0.00809672092981 -0.043722293021 0.875 1.59047782077e-38
0.00971606511577 -0.043722293021 0.875 1.68134389865e-38
0.0113354093017 -0.043722293021 0.875 2.34889768408e-38
0.0129547534877 -0.043722293021 0.875 1.62105919794e-38
0.0146240660085 -0.0438721980256 0.878 1.09532116113e-38
0.0162489622317 -0.0438721980256 0.878 7.98968816575e-39
0.0178738584549 -0.0438721980256 0.878 1.23109787389e-38
0.0195431709757 -0.0439721346954 0.88 1.3689256672e-38
0.021171768557 -0.0439721346954 0.88 1.20304499967e-38
0.0228521851523 -0.0440720713651 0.882 2.22705828585e-38
0.0245677646499 -0.0442219763698 0.885 1.46039962836e-38
0.0262648373568 -0.0443219130396 0.887 1.81055847083e-38
0.0279693127799 -0.0444218497093 0.889 2.21603623265e-38
0.0296811909194 -0.0445217863791 0.891 1.89403536178e-38
0.0313301459705 -0.0445217863791 0.891 1.67244635406e-38
0.0329791010215 -0.0445217863791 0.891 1.58003828734e-38
0.0348223773749 -0.0447716280535 0.896 1.9860894605e-38
0.036684160519 -0.0450214697279 0.901 1.90326235165e-38
0.038436753598 -0.0451214063976 0.903 2.34864362866e-38
-0.0315059604821 -0.0431134196071 0.896 1.94363067755e-38
-0.0298477520357 -0.0431134196071 0.896 1.39967646135e-38
-0.0281266205009 -0.0430171842954 0.894 8.18059125944e-39
-0.0263832808172 -0.042872831328 0.891 1.45406351722e-38
-0.0247343257662 -0.042872831328 0.891 8.44886985043e-39
-0.0230335517011 -0.0427765960164 0.889 1.64806684363e-38
-0.0213401803524 -0.0426803607048 0.887 9.84899823054e-39
-0.0196986280176 -0.0426803607048 0.887 1.02164060762e-38
-0.0180163607432 -0.0425841253931 0.885 7.71418167727e-39
-0.0163229893945 -0.0424397724257 0.882 1.76691376899e-38
-0.014690690455 -0.0424397724257 0.882 1.64763958773e-38
-0.0130287806505 -0.0423435371141 0.88 1.6657171787e-38
-0.0114001830692 -0.0423435371141 0.88 1.11121076468e-38
-0.00974937733903 -0.0422473018025 0.878 1.65397401731e-38
-0.00812448111586 -0.0422473018025 0.878 1.35069925834e-38
-0.00649958489268 -0.0422473018025 0.878 1.11156823592e-38
-0.00487468866951 -0.0422473018025 0.878 1.73885500932e-38
-0.00324979244634 -0.0422473018025 0.878 1.63729562286e-38
-0.00161934418596 -0.042102948835 0.875 1.42406003554e-38
0.0 -0.042102948835 0.875 1.81063287978e-38
0.00162489622317 -0.0422473018025 0.878 1.36207107563e-38
0.00324979244634 -0.0422473018025 0.878 1.25122276191e-38
0.00487468866951 -0.0422473018025 0.878 1.6747781147e-38
0.00649958489268 -0.0422473018025 0.878 1.41631141555e-38
0.00812448111586 -0.0422473018025 0.878 1.5809348381e-38
0.00974937733903 -0.0422473018025 0.878 2.30269140864e-38
0.0113742735622 -0.0422473018025 0.878 1.6859180171e-38
0.0129991697854 -0.0422473018025 0.878 1.12341130989e-38
0.0146240660085 -0.0422473018025 0.878 7.99112309537e-39
0.0162859758131 -0.0423435371141 0.88 1.22145175565e-38
0.0179145733944 -0.0423435371141 0.88 1.43339058137e-38
0.0195431709757 -0.0423435371141 0.88 1.14801544846e-38
0.0212198862128 -0.0424397724257 0.882 1.95814728886e-38
0.0228521851523 -0.0424397724257 0.882 1.85774551506e-38
0.024623285022 -0.0426803607048 0.887 2.34759559754e-38
0.026324059087 -0.0427765960164 0.889 1.65624047745e-38
0.0279693127799 -0.0427765960164 0.889 1.79079217508e-38
0.0296811909194 -0.042872831328 0.891 1.75448971667e-38
0.0313301459705 -0.042872831328 0.891 1.6541538039e-38
0.0330901417657 -0.0430171842954 0.894 1.66377049487e-38
0.0348223773749 -0.0431134196071 0.896 2.05087849499e-38
0.0367655903981 -0.0434502431977 0.903 1.84801643995e-38
0.038436753598 -0.0434502431977 0.903 2.34875180891e-38
0.0402411656909 -0.0435945961652 0.906 2.34857062101e-38
-0.0315059604821 -0.0414552111606 0.896 1.90675186508e-38
-0.0298477520357 -0.0414552111606 0.896 1.31655816268e-38
-0.0281895435892 -0.0414552111606 0.896 1.35379094314e-38
-0.0264721134126 -0.0413626772071 0.894 1.28914890485e-38
-0.0248176063243 -0.0413626772071 0.894 1.36279989097e-38
-0.0230853707151 -0.0412238762769 0.891 5.51192343151e-39
-0.0213882980082 -0.0411313423234 0.889 1.48108209304e-38
-0.0196986280176 -0.04103880837 0.887 9.4774607583e-39
-0.0180570756828 -0.04103880837 0.887 1.63016357419e-38
-0.0163785097666 -0.0409462744165 0.885 9.18753771123e-39
-0.014690690455 -0.0408074734862 0.882 1.00100690812e-38
-0.0130583915156 -0.0408074734862 0.882 1.47055637976e-38
-0.0114001830692 -0.0407149395328 0.88 1.96138414818e-38
-0.00977158548786 -0.0407149395328 0.88 1.92479904787e-38
-0.00814298790655 -0.0407149395328 0.88 1.80447375264e-38
-0.00651439032524 -0.0407149395328 0.88 1.57379970658e-38
-0.00488579274393 -0.0407149395328 0.88 1.16835557593e-38
-0.00325719516262 -0.0407149395328 0.88 1.36124753253e-38
-0.00162859758131 -0.0407149395328 0.88 1.70125396763e-38
0.0 -0.0407149395328 0.88 1.95933166632e-38
0.00162859758131 -0.0407149395328 0.88 9.84254104721e-39
0.00324979244634 -0.0406224055793 0.878 1.27088368002e-38
0.00487468866951 -0.0406224055793 0.878 1.37190034358e-38
0.00651439032524 -0.0407149395328 0.88 1.34377684392e-38
0.00812448111586 -0.0406224055793 0.878 2.14613259889e-38
0.00974937733903 -0.0406224055793 0.878 1.89796992761e-38
0.0113742735622 -0.0406224055793 0.878 1.10536216528e-38
0.0129991697854 -0.0406224055793 0.878 7.71920393097e-39
0.0146240660085 -0.0406224055793 0.878 1.56231970904e-38
0.0162859758131 -0.0407149395328 0.88 1.60798214054e-38
0.0179145733944 -0.0407149395328 0.88 1.49724144654e-38
0.0195431709757 -0.0407149395328 0.88 1.19386145005e-38
0.0212198862128 -0.0408074734862 0.882 1.95778603411e-38
0.0229299136732 -0.0409462744165 0.885 2.34645031631e-38
0.024623285022 -0.04103880837 0.887 2.16346469907e-38
0.026324059087 -0.0411313423234 0.889 1.26811905828e-38
0.0280322358683 -0.0412238762769 0.891 1.77253381661e-38
0.0296811909194 -0.0412238762769 0.891 1.5251170565e-38
0.0313301459705 -0.0412238762769 0.891 1.67298781578e-38
0.0330901417657 -0.0413626772071 0.894 1.54463518229e-38
0.0348223773749 -0.0414552111606 0.896 1.97726912744e-38
0.0367655903981 -0.0417790799978 0.903 1.82961514903e-38
0.0385644504538 -0.041917880928 0.906 2.34911180248e-38
0.0402411656909 -0.041917880928 0.906 2.33935035738e-38
-0.0315059604821 -0.0397970027142 0.896 1.82370251029e-38
-0.0298477520357 -0.0397970027142 0.896 1.30715629076e-38
-0.0281895435892 -0.0397970027142 0.896 8.28456620419e-39
-0.0265313351428 -0.0397970027142 0.896 1.1793798712e-38
-0.0248176063243 -0.0397081701189 0.894 5.33293417737e-39
-0.023163099236 -0.0397081701189 0.894 1.70363715592e-38
-0.021436415664 -0.0395749212258 0.891 6.15800750277e-39
-0.0197430443153 -0.0394860886305 0.889 1.25143814149e-38
-0.0180570756828 -0.0393972560352 0.887 1.24277040983e-38
-0.016415523348 -0.0393972560352 0.887 2.01724270756e-38
-0.0147406587899 -0.0393084234398 0.885 8.35703015038e-39
-0.0131028078133 -0.0393084234398 0.885 9.82644713435e-39
-0.0114260925761 -0.0391751745468 0.882 8.54070114269e-39
-0.0097937936367 -0.0391751745468 0.882 8.63253663885e-39
-0.00814298790655 -0.0390863419515 0.88 1.01937414748e-38
-0.00651439032524 -0.0390863419515 0.88 1.91339387967e-38
-0.00488579274393 -0.0390863419515 0.88 1.48138673533e-38
-0.00325719516262 -0.0390863419515 0.88 1.45401517242e-38
-0.00162859758131 -0.0390863419515 0.88 1.40752261171e-38
0.0 -0.0390863419515 0.88 1.45401573294e-38
0.00162859758131 -0.0390863419515 0.88 8.37068580391e-39
0.00325719516262 -0.0390863419515 0.88 4.87732580377e-39
0.00488579274393 -0.0390863419515 0.88 8.18843993213e-39
0.00651439032524 -0.0390863419515 0.88 1.81422510839e-38
0.00814298790655 -0.0390863419515 0.88 2.12823871815e-38
0.00977158548786 -0.0390863419515 0.88 1.08631669746e-38
0.0114001830692 -0.0390863419515 0.88 1.16886466766e-38
0.0130287806505 -0.0390863419515 0.88 1.77587325098e-38
0.0146573782318 -0.0390863419515 0.88 1.92321249775e-38
0.0162859758131 -0.0390863419515 0.88 1.83951294048e-38
0.0179552883339 -0.0391751745468 0.882 1.67140771163e-38
0.0195875872734 -0.0391751745468 0.882 1.53365278584e-38
0.0213401803524 -0.0393972560352 0.887 1.80048019214e-38
0.0229817326872 -0.0393972560352 0.887 1.82867431725e-38
0.024623285022 -0.0393972560352 0.887 1.69895667892e-38
0.0263832808172 -0.0395749212258 0.891 1.8091624973e-38
0.0280322358683 -0.0395749212258 0.891 1.73569269907e-38
0.0297811275891 -0.0397081701189 0.894 1.73634332195e-38
0.0314356346774 -0.0397081701189 0.894 1.63632606445e-38
0.0333492368355 -0.0400190842026 0.901 1.4063764897e-38
0.0350166986772 -0.0400190842026 0.901 1.98630890384e-38
0.0368877352167 -0.0402411656909 0.906 1.91259121591e-38
0.0385644504538 -0.0402411656909 0.906 2.34893355732e-38
0.0402411656909 -0.0402411656909 0.906 2.34857132166e-38
-0.0299143764822 -0.038223925505 0.898 1.20595549658e-38
-0.0281895435892 -0.0381387942678 0.896 1.19717229794e-38
-0.0265313351428 -0.0381387942678 0.896 7.45630212218e-39
-0.0248731266964 -0.0381387942678 0.896 1.37252195958e-38
-0.02321491825 -0.0381387942678 0.896 5.87998288096e-39
-0.021436415664 -0.0379259661748 0.891 1.52750010467e-38
-0.0197430443153 -0.0378408349376 0.889 1.16919341228e-38
-0.0180977906223 -0.0378408349376 0.889 1.46378754765e-38
-0.016415523348 -0.0377557037004 0.887 8.73776014054e-39
-0.0147739710132 -0.0377557037004 0.887 8.63253663885e-39
-0.0131324186784 -0.0377557037004 0.887 1.07448034972e-38
-0.0114649568366 -0.0376705724632 0.885 1.04692521672e-38
-0.00982710585995 -0.0376705724632 0.885 9.91824059156e-39
-0.00816149469725 -0.0375428756073 0.882 1.2307063511e-38
-0.0065291957578 -0.0375428756073 0.882 1.68210746619e-38
-0.00489689681835 -0.0375428756073 0.882 1.51693585568e-38
-0.0032645978789 -0.0375428756073 0.882 1.44181728968e-38
-0.00162859758131 -0.0374577443701 0.88 1.49874812265e-38
0.0 -0.0374577443701 0.88 1.04886419341e-38
0.00162859758131 -0.0374577443701 0.88 1.35332403049e-38
0.00325719516262 -0.0374577443701 0.88 1.06704954423e-38
0.00488579274393 -0.0374577443701 0.88 1.38833547262e-38
0.0065291957578 -0.0375428756073 0.882 2.23859209325e-38
0.00816149469725 -0.0375428756073 0.882 7.26583763491e-39
0.0097937936367 -0.0375428756073 0.882 1.32484376024e-38
0.0114260925761 -0.0375428756073 0.882 1.48992330544e-38
0.0130583915156 -0.0375428756073 0.882 1.60895281999e-38
0.014690690455 -0.0375428756073 0.882 1.82099898517e-38
0.0163229893945 -0.0375428756073 0.882 1.49795891136e-38
0.0180163607432 -0.0376705724632 0.885 1.57957123457e-38
0.0196542117199 -0.0376705724632 0.885 1.60712118276e-38
0.0213401803524 -0.0377557037004 0.887 1.79998104963e-38
0.0229817326872 -0.0377557037004 0.887 1.70814275088e-38
0.0246788053941 -0.0378408349376 0.889 2.09611871527e-38
0.0263832808172 -0.0379259661748 0.891 1.87541714986e-38
0.0281266205009 -0.0380536630306 0.894 2.05844788891e-38
0.0297811275891 -0.0380536630306 0.894 1.85712487997e-38
0.0315059604821 -0.0381387942678 0.896 1.9218027915e-38
0.0335343047424 -0.0385644504538 0.906 1.24896274775e-38
0.0352110199796 -0.0385644504538 0.906 1.98637924902e-38
0.0368877352167 -0.0385644504538 0.906 1.84823364121e-38
0.0385644504538 -0.0385644504538 0.906 2.34900614458e-38
0.0403299982863 -0.038649581691 0.908 2.34875026748e-38
-0.0299143764822 -0.0365620157004 0.898 1.05876871108e-38
-0.0282524666776 -0.0365620157004 0.898 1.54733590482e-38
-0.0265313351428 -0.0364805858214 0.896 9.66354478658e-39
-0.0248731266964 -0.0364805858214 0.896 1.0123434127e-38
-0.02321491825 -0.0364805858214 0.896 1.62098324756e-38
-0.0215567098035 -0.0364805858214 0.896 7.07135562494e-39
-0.0197874606129 -0.0362770111237 0.891 1.33309236352e-38
-0.0180977906223 -0.0361955812446 0.889 1.36187040969e-38
-0.0164525369294 -0.0361955812446 0.889 1.35376487899e-38
-0.0148072832364 -0.0361955812446 0.889 8.92418608563e-39
-0.0131324186784 -0.0361141513656 0.887 9.82641070059e-39
-0.0114908663436 -0.0361141513656 0.887 9.64276353035e-39
-0.00984931400879 -0.0361141513656 0.887 1.2768064081e-38
-0.00818925488329 -0.0360327214865 0.885 2.05145625035e-38
-0.00655140390664 -0.0360327214865 0.885 1.98810074418e-38
-0.00489689681835 -0.0359105766679 0.882 1.27762546706e-38
-0.0032645978789 -0.0359105766679 0.882 1.75592478643e-38
-0.00163229893945 -0.0359105766679 0.882 1.69171252638e-38
0.0 -0.0359105766679 0.882 1.46212546754e-38
0.00163229893945 -0.0359105766679 0.882 1.35991910158e-38
0.0032645978789 -0.0359105766679 0.882 1.33161469429e-38
0.00489689681835 -0.0359105766679 0.882 2.22876170426e-38
0.0065291957578 -0.0359105766679 0.882 1.6765542605e-38
0.00816149469725 -0.0359105766679 0.882 1.36279414564e-38
0.0097937936367 -0.0359105766679 0.882 1.14087849525e-38
0.0114260925761 -0.0359105766679 0.882 1.59115997287e-38
0.0130583915156 -0.0359105766679 0.882 1.61770420916e-38
0.0147406587899 -0.0360327214865 0.885 1.48787853072e-38
0.0163785097666 -0.0360327214865 0.885 1.63467183161e-38
0.0180570756828 -0.0361141513656 0.887 1.88374268443e-38
0.0196986280176 -0.0361141513656 0.887 1.93113796161e-38
0.0213401803524 -0.0361141513656 0.887 1.79183446088e-38
0.0230335517011 -0.0361955812446 0.889 2.22597998668e-38
0.0246788053941 -0.0361955812446 0.889 2.06096546173e-38
0.0264721134126 -0.0363991559423 0.894 1.60830499971e-38
0.0281266205009 -0.0363991559423 0.894 2.17883498141e-38
0.0297811275891 -0.0363991559423 0.894 2.34712630269e-38
0.0315059604821 -0.0364805858214 0.896 1.87642720579e-38
0.0335343047424 -0.0368877352167 0.906 1.41426664083e-38
0.0352110199796 -0.0368877352167 0.906 1.86685395508e-38
0.0368877352167 -0.0368877352167 0.906 2.00470851319e-38
0.0385644504538 -0.0368877352167 0.906 2.34886223122e-38
-0.0300809375984 -0.0350944271982 0.903 1.42747738211e-38
-0.0282524666776 -0.0349001058959 0.898 1.42708501854e-38
-0.026590556873 -0.0349001058959 0.898 1.23260497039e-38
-0.0249286470685 -0.0349001058959 0.898 1.57337357172e-38
-0.0232667372639 -0.0349001058959 0.898 1.14934570109e-38
-0.0215567098035 -0.0348223773749 0.896 1.48935479865e-38
-0.0198540850594 -0.034744648854 0.894 1.48070850687e-38
-0.0181385055618 -0.0346280560726 0.891 7.43870741866e-39
-0.0164895505108 -0.0346280560726 0.891 7.07133320417e-39
-0.0148072832364 -0.0345503275517 0.889 1.38071381027e-38
-0.0131620295435 -0.0345503275517 0.889 9.29162055596e-39
-0.0115167758506 -0.0345503275517 0.889 9.1835496158e-39
-0.00984931400879 -0.0344725990308 0.887 1.66334253832e-38
-0.00820776167399 -0.0344725990308 0.887 1.36849238572e-38
-0.00656620933919 -0.0344725990308 0.887 1.4510008393e-38
-0.00491355292998 -0.0343948705098 0.885 1.56120413534e-38
-0.00327570195332 -0.0343948705098 0.885 1.95036798043e-38
-0.00163785097666 -0.0343948705098 0.885 1.99707465955e-38
0.0 -0.0343948705098 0.885 1.12957660274e-38
0.00163785097666 -0.0343948705098 0.885 1.35916534314e-38
0.00327570195332 -0.0343948705098 0.885 2.13638222404e-38
0.00491355292998 -0.0343948705098 0.885 2.04526517361e-38
0.00655140390664 -0.0343948705098 0.885 8.83457304884e-39
0.00818925488329 -0.0343948705098 0.885 1.02975076261e-38
0.00982710585995 -0.0343948705098 0.885 1.42535791818e-38
0.0114649568366 -0.0343948705098 0.885 1.72912705525e-38
0.0131028078133 -0.0343948705098 0.885 1.45107258578e-38
0.0147406587899 -0.0343948705098 0.885 1.91150703129e-38
0.016415523348 -0.0344725990308 0.887 2.34702793154e-38
0.0180570756828 -0.0344725990308 0.887 1.86786232945e-38
0.0197430443153 -0.0345503275517 0.889 1.68256260793e-38
0.0213882980082 -0.0345503275517 0.889 1.73594199007e-38
0.0230335517011 -0.0345503275517 0.889 2.00349176573e-38
0.0247343257662 -0.0346280560726 0.891 1.91297643286e-38
0.0264721134126 -0.034744648854 0.894 2.11340233052e-38
0.0281266205009 -0.034744648854 0.894 2.28169421232e-38
0.0298477520357 -0.0348223773749 0.896 2.17167056275e-38
0.0315059604821 -0.0348223773749 0.896 1.83914930353e-38
0.0335343047424 -0.0352110199796 0.906 1.62699986265e-38
0.0352110199796 -0.0352110199796 0.906 1.85806192825e-38
0.0368877352167 -0.0352110199796 0.906 1.94006241114e-38
0.038649581691 -0.0352887485005 0.908 2.34940187126e-38
-0.0300809375984 -0.0334232639983 0.903 1.3535057789e-38
-0.0283468513102 -0.0333492368355 0.901 1.43616010765e-38
-0.0266793894684 -0.0333492368355 0.901 1.16803327728e-38
-0.0250674479987 -0.0334232639983 0.903 1.41545185907e-38
-0.0233444657848 -0.0333492368355 0.901 1.34162332844e-38
-0.0216048274593 -0.0332381960913 0.898 1.40515553835e-38
-0.0198985013571 -0.0331641689285 0.896 1.8296112254e-38
-0.0182402929107 -0.0331641689285 0.896 1.96095801332e-38
-0.0164895505108 -0.0329791010215 0.891 1.66672134918e-38
-0.0148405954597 -0.0329791010215 0.891 1.28842457367e-38
-0.0131916404086 -0.0329791010215 0.891 9.47232920333e-39
-0.0115426853575 -0.0329791010215 0.891 1.06529203569e-38
-0.00987152215763 -0.0329050738588 0.889 1.2214120989e-38
-0.00822626846469 -0.0329050738588 0.889 1.34079824391e-38
-0.00658101477175 -0.0329050738588 0.889 1.29488049583e-38
-0.00492465700439 -0.032831046696 0.887 1.34079824391e-38
-0.0032831046696 -0.032831046696 0.887 1.27665688956e-38
-0.0016415523348 -0.032831046696 0.887 1.76562247245e-38
0.0 -0.032831046696 0.887 1.98918969322e-38
0.0016415523348 -0.032831046696 0.887 1.86051209862e-38
