# .PCD v0.7 - Point Cloud Data file format
VERSION 0.7
FIELDS x y z rgb
SIZE 4 4 4 4
TYPE F F F F
COUNT 1 1 1 1
WIDTH 847
HEIGHT 1
VIEWPOINT 0 0 0 1 0 0 0
POINTS 847
DATA ascii
0.00331641689285 -0.112758174357 0.896 2.35098856151e-38
0.00497462533928 -0.112758174357 0.896 5.52089174169e-39
0.0066328337857 -0.112758174357 0.896 2.34740936498e-38
0.00829104223213 -0.112758174357 0.896 2.35098309645e-38
0.00994925067855 -0.112758174357 0.896 2.35097272684e-38
0.011607459125 -0.112758174357 0.896 1.70557431092e-38
0.0132656675714 -0.112758174357 0.896 1.31594033019e-38
0.0149571882411 -0.11300986671 0.898 1.81217262653e-38
0.0165820844643 -0.112758174357 0.896 2.34806839564e-38
0.0182402929107 -0.112758174357 0.896 2.35011092829e-38
0.0198985013571 -0.112758174357 0.896 2.3502203697e-38
0.0215567098035 -0.112758174357 0.896 2.28442884628e-38
0.023163099236 -0.112506482003 0.894 2.00791174135e-38
0.0248176063243 -0.112506482003 0.894 1.68518948203e-38
0.0265313351428 -0.112758174357 0.896 1.60224900813e-38
0.0281895435892 -0.112758174357 0.896 1.39945533645e-38
0.0298477520357 -0.112758174357 0.896 1.46399213723e-38
0.0315059604821 -0.112758174357 0.896 1.41786125165e-38
0.0331641689285 -0.112758174357 0.896 1.58356227272e-38
0.034744648854 -0.112506482003 0.894 1.87879834293e-38
0.0362770111237 -0.112128943473 0.891 1.81491132425e-38
0.0378408349376 -0.11187725112 0.889 1.40027607697e-38
0.0394860886305 -0.11187725112 0.889 1.29825874617e-38
0.0411313423234 -0.11187725112 0.889 1.27953067245e-38
0.0427765960164 -0.11187725112 0.889 1.5471869468e-38
0.0444218497093 -0.11187725112 0.889 1.46449057909e-38
0.0460671034023 -0.11187725112 0.889 1.26123181645e-38
-0.00330901417657 -0.110851974915 0.894 1.65752728983e-38
-0.00164895505108 -0.110479988422 0.891 2.35096417892e-38
0.0 -0.110479988422 0.891 2.35098758061e-38
0.00164895505108 -0.110479988422 0.891 1.53862403227e-38
0.00331641689285 -0.11109996591 0.896 1.36088725869e-38
0.00497462533928 -0.11109996591 0.896 2.35096712165e-38
0.00661802835314 -0.110851974915 0.894 2.35098421749e-38
0.00827253544143 -0.110851974915 0.894 1.15065016983e-38
0.00992704252972 -0.110851974915 0.894 1.56378630802e-38
0.011607459125 -0.11109996591 0.896 2.34985140781e-38
0.0132656675714 -0.11109996591 0.896 2.35097468866e-38
0.0149238760178 -0.11109996591 0.896 2.35097805178e-38
0.0165820844643 -0.11109996591 0.896 2.16570663648e-38
0.0182402929107 -0.11109996591 0.896 1.92396667659e-38
0.0198540850594 -0.110851974915 0.894 1.73067492953e-38
0.0215085921477 -0.110851974915 0.894 1.65731625428e-38
0.023163099236 -0.110851974915 0.894 1.59299413243e-38
0.0248176063243 -0.110851974915 0.894 1.64845612435e-38
0.0264721134126 -0.110851974915 0.894 1.68529738201e-38
0.0280322358683 -0.110479988422 0.891 1.6577478542e-38
0.0296811909194 -0.110479988422 0.891 1.67625760562e-38
0.0314356346774 -0.110851974915 0.894 1.5656571816e-38
0.0330901417657 -0.110851974915 0.894 1.40860665621e-38
0.034744648854 -0.110851974915 0.894 1.34360126122e-38
0.0363991559423 -0.110851974915 0.894 1.25179673376e-38
0.0379259661748 -0.110479988422 0.891 1.47368449832e-38
0.0394860886305 -0.110231997427 0.889 1.96242475242e-38
0.0411313423234 -0.110231997427 0.889 1.59349803935e-38
0.0427765960164 -0.110231997427 0.889 1.11354126416e-38
0.0444218497093 -0.110231997427 0.889 1.41785942997e-38
0.0459634653743 -0.109984006431 0.887 1.7221030467e-38
0.0476050177091 -0.109984006431 0.887 1.29790127493e-38
0.0492465700439 -0.109984006431 0.887 1.00312342932e-38
0.0508881223787 -0.109984006431 0.887 1.28064652642e-38
-0.0066328337857 -0.109441757464 0.896 2.34906948327e-38
-0.00497462533928 -0.109441757464 0.896 1.70348063089e-38
-0.00330901417657 -0.109197467827 0.894 2.35046994095e-38
-0.00165450708829 -0.109197467827 0.894 2.35098351684e-38
0.0 -0.108831033371 0.891 7.35257941115e-39
0.00164895505108 -0.108831033371 0.891 2.34583276407e-38
0.00331641689285 -0.109441757464 0.896 2.35097777152e-38
0.00497462533928 -0.109441757464 0.896 1.99901994208e-38
0.00661802835314 -0.109197467827 0.894 8.36205240407e-39
0.00827253544143 -0.109197467827 0.894 2.34999377973e-38
0.00992704252972 -0.109197467827 0.894 2.35079770466e-38
0.011607459125 -0.109441757464 0.896 2.34954017942e-38
0.0132656675714 -0.109441757464 0.896 1.48200442769e-38
0.0149238760178 -0.109441757464 0.896 1.35224180769e-38
0.0165820844643 -0.109441757464 0.896 1.42671465535e-38
0.0182402929107 -0.109441757464 0.896 1.55593259064e-38
0.0198540850594 -0.109197467827 0.894 1.55607734477e-38
0.0215085921477 -0.109197467827 0.894 1.64813004219e-38
0.0230853707151 -0.108831033371 0.891 1.60217880308e-38
0.0247343257662 -0.108831033371 0.891 1.57455500645e-38
0.0263832808172 -0.108831033371 0.891 1.62987238437e-38
0.0280322358683 -0.108831033371 0.891 1.55615497671e-38
0.0296811909194 -0.108831033371 0.891 1.54693541372e-38
0.0314356346774 -0.109197467827 0.894 1.6390569149e-38
0.0330901417657 -0.109197467827 0.894 1.72199794931e-38
0.034744648854 -0.109197467827 0.894 1.76805624763e-38
0.0363991559423 -0.109197467827 0.894 1.62068729333e-38
0.0379259661748 -0.108831033371 0.891 1.20573941636e-38
0.0394860886305 -0.108586743734 0.889 1.15963837844e-38
0.0411313423234 -0.108586743734 0.889 1.76852316028e-38
0.0427765960164 -0.108586743734 0.889 2.27556997752e-38
0.0443219130396 -0.108342454097 0.887 1.33498677892e-38
0.0459634653743 -0.108342454097 0.887 1.36113837138e-38
0.0476050177091 -0.108342454097 0.887 1.83316968272e-38
0.0492465700439 -0.108342454097 0.887 1.48275244081e-38
0.0508881223787 -0.108342454097 0.887 8.08941577485e-39
-0.00829104223213 -0.107783549018 0.896 2.12722459845e-38
-0.00661802835314 -0.107542960739 0.894 1.72188640595e-38
-0.00496352126486 -0.107542960739 0.894 2.34874704449e-38
-0.00330901417657 -0.107542960739 0.894 2.350221771e-38
-0.00165450708829 -0.107542960739 0.894 1.10320977084e-38
0.0 -0.107542960739 0.894 2.34723196059e-38
0.00165820844643 -0.107783549018 0.896 2.35094217854e-38
0.00331641689285 -0.107783549018 0.896 1.39848605831e-38
0.00497462533928 -0.107783549018 0.896 1.86781356426e-38
0.00661802835314 -0.107542960739 0.894 2.35029393787e-38
0.00827253544143 -0.107542960739 0.894 2.3500030283e-38
0.00992704252972 -0.107542960739 0.894 1.39913191677e-38
0.011581549618 -0.107542960739 0.894 1.46301837493e-38
0.0132360567063 -0.107542960739 0.894 1.56529830906e-38
0.0148905637946 -0.107542960739 0.894 1.61157717175e-38
0.0164895505108 -0.10718207832 0.891 1.58384491462e-38
0.0181385055618 -0.10718207832 0.891 1.58384673631e-38
0.0197874606129 -0.10718207832 0.891 1.59310161202e-38
0.021436415664 -0.10718207832 0.891 1.63909012567e-38
0.0230853707151 -0.10718207832 0.891 1.58384645605e-38
0.0247343257662 -0.10718207832 0.891 1.57473479305e-38
0.0263832808172 -0.10718207832 0.891 1.59317139668e-38
0.0280322358683 -0.10718207832 0.891 1.5469686245e-38
0.0296811909194 -0.10718207832 0.891 1.54693513346e-38
0.0314356346774 -0.107542960739 0.894 1.52856467111e-38
0.0330901417657 -0.107542960739 0.894 1.51927420243e-38
0.034744648854 -0.107542960739 0.894 1.62987238437e-38
0.0362770111237 -0.10718207832 0.891 1.62987182385e-38
0.0379259661748 -0.10718207832 0.891 1.82362361719e-38
0.0394860886305 -0.106941490041 0.889 1.46410199903e-38
0.0411313423234 -0.106941490041 0.889 7.72853097355e-39
0.0426803607048 -0.106700901762 0.887 1.40795645372e-38
0.0443219130396 -0.106700901762 0.887 2.35022191112e-38
0.0458598273464 -0.106460313483 0.885 1.29807321425e-38
0.0474976783231 -0.106460313483 0.885 1.13040168728e-38
0.0491355292998 -0.106460313483 0.885 2.03585531429e-38
0.0507733802764 -0.106460313483 0.885 1.3347021752e-38
-0.00829104223213 -0.106125340571 0.896 2.00769061645e-38
-0.0066328337857 -0.106125340571 0.896 2.01675855895e-38
-0.00496352126486 -0.10588845365 0.894 2.15513566126e-38
-0.00330901417657 -0.10588845365 0.894 1.71217078331e-38
-0.00165450708829 -0.10588845365 0.894 1.92366763949e-38
0.0 -0.10588845365 0.894 2.34975625965e-38
0.00165820844643 -0.106125340571 0.896 1.18661855868e-38
0.00331641689285 -0.106125340571 0.896 2.09848438733e-38
0.00496352126486 -0.10588845365 0.894 2.34961458837e-38
0.00661802835314 -0.10588845365 0.894 2.09024265041e-38
0.00827253544143 -0.10588845365 0.894 1.2423979447e-38
0.00992704252972 -0.10588845365 0.894 1.6297654653e-38
0.0115426853575 -0.105533123269 0.891 1.64831305177e-38
0.0131916404086 -0.105533123269 0.891 1.6667862293e-38
0.0148405954597 -0.105533123269 0.891 1.58391918344e-38
0.0164525369294 -0.105296236348 0.889 1.68515248775e-38
0.0180977906223 -0.105296236348 0.889 1.60225096995e-38
0.0197430443153 -0.105296236348 0.889 1.61154059786e-38
0.0213882980082 -0.105296236348 0.889 1.66667804906e-38
0.0230335517011 -0.105296236348 0.889 1.55622378046e-38
0.0246788053941 -0.105296236348 0.889 1.55629566707e-38
0.026324059087 -0.105296236348 0.889 1.60228600241e-38
0.0279693127799 -0.105296236348 0.889 1.57455500645e-38
0.0296811909194 -0.105533123269 0.891 1.53767675451e-38
0.0313301459705 -0.105533123269 0.891 1.51937859916e-38
0.0330901417657 -0.10588845365 0.894 1.61157773227e-38
0.034744648854 -0.10588845365 0.894 1.52852907813e-38
0.0362770111237 -0.105533123269 0.891 1.56544460462e-38
0.0379259661748 -0.105533123269 0.891 1.58395449616e-38
0.0395749212258 -0.105533123269 0.891 1.69455407941e-38
0.0411313423234 -0.105296236348 0.889 1.70391573406e-38
0.0426803607048 -0.105059349427 0.887 9.02068510308e-39
0.0442219763698 -0.104822462506 0.885 9.93402341616e-39
0.0458598273464 -0.104822462506 0.885 2.35069148624e-38
0.0474976783231 -0.104822462506 0.885 9.47806892184e-39
0.0488579274393 -0.104230245204 0.88 1.04810861327e-38
0.0504865250206 -0.104230245204 0.88 2.32116556708e-38
0.0521151226019 -0.104230245204 0.88 8.3688683198e-39
-0.00827253544143 -0.104233946562 0.894 1.42700164128e-38
-0.00661802835314 -0.104233946562 0.894 2.34917682273e-38
-0.00496352126486 -0.104233946562 0.894 1.97085426333e-38
-0.00330901417657 -0.104233946562 0.894 1.40806057019e-38
-0.00164895505108 -0.103884168218 0.891 2.3493269018e-38
0.0 -0.103884168218 0.891 1.7313579224e-38
0.00165450708829 -0.104233946562 0.894 1.45419355772e-38
0.00329791010215 -0.103884168218 0.891 2.34925431454e-38
0.00494686515323 -0.103884168218 0.891 1.859934063e-38
0.00659582020431 -0.103884168218 0.891 1.40816818992e-38
0.00824477525538 -0.103884168218 0.891 1.66671154009e-38
0.00989373030646 -0.103884168218 0.891 1.63898600919e-38
0.0115426853575 -0.103884168218 0.891 1.64838577916e-38
0.0131620295435 -0.103650982655 0.889 1.63012377732e-38
0.0148072832364 -0.103650982655 0.889 1.63920124864e-38
0.0164525369294 -0.103650982655 0.889 1.46381487297e-38
0.0180977906223 -0.103650982655 0.889 1.52820705975e-38
0.0197430443153 -0.103650982655 0.889 1.42682914144e-38
0.0213882980082 -0.103650982655 0.889 1.70344713985e-38
0.0230335517011 -0.103650982655 0.889 1.65753303515e-38
0.0246788053941 -0.103650982655 0.889 1.59310133176e-38
0.026324059087 -0.103650982655 0.889 1.66678566878e-38
0.0279693127799 -0.103650982655 0.889 1.58377428918e-38
0.0296145664729 -0.103650982655 0.889 1.59306601904e-38
0.0312598201658 -0.103650982655 0.889 1.55611560022e-38
0.0329791010215 -0.103884168218 0.891 1.5654801976e-38
0.0346280560726 -0.103884168218 0.891 1.53774878125e-38
0.0362770111237 -0.103884168218 0.891 1.61172038445e-38
0.0378408349376 -0.103650982655 0.889 1.54689855957e-38
0.0393972560352 -0.103417797092 0.887 1.56540803073e-38
0.04103880837 -0.103417797092 0.887 1.71292061812e-38
0.0426803607048 -0.103417797092 0.887 1.72235906393e-38
0.0442219763698 -0.10318461153 0.885 7.17500686975e-39
0.0457043703046 -0.102834833185 0.882 1.53753676479e-38
0.047336669244 -0.102834833185 0.882 2.35050917731e-38
0.0488579274393 -0.102601647623 0.88 3.21424236553e-39
0.0503717829183 -0.10236846206 0.878 1.89616771765e-38
0.0519966791415 -0.10236846206 0.878 2.26616866612e-38
0.0536215753646 -0.10236846206 0.878 5.05095228869e-39
-0.00827253544143 -0.102579439474 0.894 1.8502341349e-38
-0.00661802835314 -0.102579439474 0.894 2.20155787678e-38
-0.00494686515323 -0.102235213167 0.891 1.21531364798e-38
-0.00329791010215 -0.102235213167 0.891 2.32040031799e-38
-0.00164895505108 -0.102235213167 0.891 2.34946268762e-38
0.0 -0.102235213167 0.891 8.09120943689e-39
0.00164895505108 -0.102235213167 0.891 2.34964345512e-38
0.00329791010215 -0.102235213167 0.891 2.34870808839e-38
0.00493576107881 -0.102005728962 0.889 1.28849898262e-38
0.00658101477175 -0.102005728962 0.889 1.74039952049e-38
0.00822626846469 -0.102005728962 0.889 1.6390916671e-38
0.00987152215763 -0.102005728962 0.889 1.72206829449e-38
0.0115167758506 -0.102005728962 0.889 1.61157717175e-38
0.0131620295435 -0.102005728962 0.889 1.63934404095e-38
0.0148072832364 -0.102005728962 0.889 1.66685769552e-38
0.016415523348 -0.101776244757 0.887 1.44566231254e-38
0.0180570756828 -0.101776244757 0.887 1.66661008608e-38
0.0197430443153 -0.102005728962 0.889 1.45463188388e-38
0.0213882980082 -0.102005728962 0.889 1.57433304078e-38
0.0229817326872 -0.101776244757 0.887 1.62086609901e-38
0.024623285022 -0.101776244757 0.887 1.58380988216e-38
0.0262648373568 -0.101776244757 0.887 1.59291804192e-38
0.0279063896916 -0.101776244757 0.887 1.66664147517e-38
0.0296145664729 -0.102005728962 0.889 1.55604749712e-38
0.0312598201658 -0.102005728962 0.889 1.70359357554e-38
0.0329791010215 -0.102235213167 0.891 1.50101752551e-38
0.0344725990308 -0.101776244757 0.887 1.55622378046e-38
0.0361141513656 -0.101776244757 0.887 1.49179375863e-38
0.0377557037004 -0.101776244757 0.887 1.58399008914e-38
0.0393972560352 -0.101776244757 0.887 1.54718372381e-38
0.04103880837 -0.101776244757 0.887 1.55633041928e-38
0.0425841253931 -0.101546760553 0.885 1.83291786939e-38
0.0442219763698 -0.101546760553 0.885 1.3813773251e-38
0.0457043703046 -0.101202534246 0.882 3.12240686937e-39
0.047336669244 -0.101202534246 0.882 2.34021257632e-38
0.0488579274393 -0.100973050041 0.88 1.16947199041e-38
0.0503717829183 -0.100743565837 0.878 3.58158435016e-39
0.0519966791415 -0.100743565837 0.878 2.35043168551e-38
0.0536215753646 -0.100743565837 0.878 4.04076183095e-39
-0.0114260925761 -0.0995702353064 0.882 1.20444840008e-38
-0.0097937936367 -0.0995702353064 0.882 1.65767568733e-38
-0.00822626846469 -0.100360475269 0.889 2.34903459094e-38
-0.00658101477175 -0.100360475269 0.889 2.21034583984e-38
-0.00492465700439 -0.100134692423 0.887 3.94892633479e-39
-0.0032831046696 -0.100134692423 0.887 2.35034004059e-38
-0.00164525369294 -0.100360475269 0.889 1.91711783034e-38
0.0 -0.100360475269 0.889 1.48045543237e-38
0.00164525369294 -0.100360475269 0.889 2.3505363625e-38
0.00329050738588 -0.100360475269 0.889 1.54646247549e-38
0.00493576107881 -0.100360475269 0.889 1.66638503755e-38
0.00658101477175 -0.100360475269 0.889 1.70380895512e-38
0.00822626846469 -0.100360475269 0.889 1.70369895319e-38
0.00987152215763 -0.100360475269 0.889 1.79585955059e-38
0.0115167758506 -0.100360475269 0.889 1.64834836449e-38
0.0131324186784 -0.100134692423 0.887 1.72213990085e-38
0.0147739710132 -0.100134692423 0.887 1.70384370732e-38
0.016415523348 -0.100134692423 0.887 1.71320998625e-38
0.0180570756828 -0.100134692423 0.887 1.25176464403e-38
0.0196986280176 -0.100134692423 0.887 1.49107895628e-38
0.0213401803524 -0.100134692423 0.887 1.1314083801e-38
0.0229817326872 -0.100134692423 0.887 1.76780975923e-38
0.024623285022 -0.100134692423 0.887 1.65764247656e-38
0.0262648373568 -0.100134692423 0.887 1.70366364046e-38
0.0279063896916 -0.100134692423 0.887 1.57455500645e-38
0.0296145664729 -0.100360475269 0.889 1.75901661136e-38
0.0312598201658 -0.100360475269 0.889 1.5931010515e-38
0.032831046696 -0.100134692423 0.887 1.55622378046e-38
0.0343948705098 -0.0999089095762 0.885 1.58395449616e-38
0.0360327214865 -0.0999089095762 0.885 1.54711534044e-38
0.0376705724632 -0.0999089095762 0.885 1.54711309837e-38
0.0393084234398 -0.0999089095762 0.885 1.51027015914e-38
0.0409462744165 -0.0999089095762 0.885 1.56540382683e-38
0.0425841253931 -0.0999089095762 0.885 1.65771128031e-38
0.0442219763698 -0.0999089095762 0.885 1.98039570458e-38
0.0457043703046 -0.0995702353064 0.882 5.23569947823e-39
0.047336669244 -0.0995702353064 0.882 1.37169323167e-38
0.0488579274393 -0.0993444524599 0.88 2.34943269983e-38
0.0503717829183 -0.0991186696134 0.878 5.32645877716e-39
0.0519966791415 -0.0991186696134 0.878 2.35000709207e-38
0.0534383581368 -0.0987799953437 0.875 1.39992379053e-38
0.0550577023227 -0.0987799953437 0.875 9.00599809388e-39
0.0566770465087 -0.0987799953437 0.875 1.84235575467e-38
-0.0114260925761 -0.097937936367 0.882 1.39729943877e-38
-0.0097937936367 -0.097937936367 0.882 1.39055653069e-38
-0.00816149469725 -0.097937936367 0.882 2.34940004958e-38
-0.00655140390664 -0.0982710585995 0.885 2.3491391278e-38
-0.00492465700439 -0.0984931400879 0.887 5.96930725027e-39
-0.0032831046696 -0.0984931400879 0.887 2.35097819191e-38
-0.0016415523348 -0.0984931400879 0.887 5.90007189574e-39
0.0 -0.0984931400879 0.887 2.34803518487e-38
0.00164525369294 -0.0987152215763 0.889 2.35098001359e-38
0.00329050738588 -0.0987152215763 0.889 1.07591023468e-38
0.00493576107881 -0.0987152215763 0.889 1.70344840102e-38
0.00658101477175 -0.0987152215763 0.889 1.65763673124e-38
0.00822626846469 -0.0987152215763 0.889 1.73121527022e-38
0.00987152215763 -0.0987152215763 0.889 1.74043483321e-38
0.0114908663436 -0.0984931400879 0.887 1.75901661136e-38
0.0131324186784 -0.0984931400879 0.887 1.4085305657e-38
0.0147739710132 -0.0984931400879 0.887 1.53742662273e-38
0.016415523348 -0.0984931400879 0.887 1.43618967505e-38
0.0180570756828 -0.0984931400879 0.887 1.40849497272e-38
0.0196986280176 -0.0984931400879 0.887 1.51863002552e-38
0.0213401803524 -0.0984931400879 0.887 1.27891942606e-38
0.0229299136732 -0.0982710585995 0.885 1.55607832568e-38
0.0245677646499 -0.0982710585995 0.885 1.56587662493e-38
0.0262056156265 -0.0982710585995 0.885 1.60224928839e-38
0.0278434666032 -0.0982710585995 0.885 1.60228572215e-38
0.0294813175799 -0.0982710585995 0.885 1.60235760877e-38
0.0311191685565 -0.0982710585995 0.885 1.63934235939e-38
0.0327570195332 -0.0982710585995 0.885 1.5655149498e-38
0.0343948705098 -0.0982710585995 0.885 1.6022840406e-38
0.0359105766679 -0.097937936367 0.882 1.51016295981e-38
0.0375428756073 -0.097937936367 0.882 1.52856439085e-38
0.0393084234398 -0.0982710585995 0.885 1.56540957216e-38
0.0408074734862 -0.097937936367 0.882 1.62076170228e-38
0.0424397724257 -0.097937936367 0.882 1.67607908019e-38
0.0440720713651 -0.097937936367 0.882 1.98957631146e-38
0.0456007322767 -0.0977158548786 0.88 9.01889144105e-39
0.047229329858 -0.0977158548786 0.88 8.17658774972e-39
0.0487468866951 -0.0974937733903 0.878 2.35018687866e-38
0.0503717829183 -0.0974937733903 0.878 4.13259732711e-39
0.0518190139508 -0.0971606511577 0.875 2.34839335676e-38
0.0534383581368 -0.0971606511577 0.875 2.02732196716e-38
0.0550577023227 -0.0971606511577 0.875 5.6938007618e-39
0.0566770465087 -0.0971606511577 0.875 2.34910703807e-38
-0.0130583915156 -0.0963056374275 0.882 2.34907382729e-38
-0.0114260925761 -0.0963056374275 0.882 1.07544682527e-38
-0.0097937936367 -0.0963056374275 0.882 1.43683385195e-38
-0.00816149469725 -0.0963056374275 0.882 2.34893173563e-38
-0.0065291957578 -0.0963056374275 0.882 2.34913366274e-38
-0.00491355292998 -0.0966332076229 0.885 9.55089160043e-39
-0.00327570195332 -0.0966332076229 0.885 2.35098113463e-38
-0.00163785097666 -0.0966332076229 0.885 1.5673018856e-39
0.0 -0.0966332076229 0.885 2.34976396679e-38
0.0016415523348 -0.0968515877531 0.887 2.35098015372e-38
0.0032831046696 -0.0968515877531 0.887 7.07599672545e-39
0.00492465700439 -0.0968515877531 0.887 1.78635033921e-38
0.00656620933919 -0.0968515877531 0.887 1.75898129864e-38
0.00820776167399 -0.0968515877531 0.887 1.75894598592e-38
0.00984931400879 -0.0968515877531 0.887 1.73128785748e-38
0.0114908663436 -0.0968515877531 0.887 1.75894598592e-38
0.0131324186784 -0.0968515877531 0.887 1.54671863285e-38
0.0147406587899 -0.0966332076229 0.885 1.53706088383e-38
0.0163785097666 -0.0966332076229 0.885 1.41763914585e-38
0.0180163607432 -0.0966332076229 0.885 1.79592639252e-38
0.0196542117199 -0.0966332076229 0.885 1.63894523141e-38
0.0212920626966 -0.0966332076229 0.885 1.46387975309e-38
0.0228521851523 -0.0963056374275 0.882 1.60239544382e-38
0.0244844840917 -0.0963056374275 0.882 1.63037432948e-38
0.0262056156265 -0.0966332076229 0.885 1.64838605942e-38
0.0278434666032 -0.0966332076229 0.885 1.65756764722e-38
0.0293813809101 -0.0963056374275 0.882 1.63005217096e-38
0.0310136798495 -0.0963056374275 0.882 1.63001657798e-38
0.032645978789 -0.0963056374275 0.882 1.56537425944e-38
0.0342782777284 -0.0963056374275 0.882 1.68511913685e-38
0.0358291467888 -0.0960872572973 0.88 1.60228600241e-38
0.0374577443701 -0.0960872572973 0.88 1.58388176877e-38
0.0393084234398 -0.0966332076229 0.885 1.61147207437e-38
0.0408074734862 -0.0963056374275 0.882 1.58384673631e-38
0.0424397724257 -0.0963056374275 0.882 1.74046804398e-38
0.0438721980256 -0.0958688771671 0.878 1.87880282708e-38
0.0454970942488 -0.0958688771671 0.878 1.1415595263e-38
0.047121990472 -0.0958688771671 0.878 8.08762211282e-39
0.0487468866951 -0.0958688771671 0.878 2.35004730934e-38
0.0503717829183 -0.0958688771671 0.878 4.22443282327e-39
0.0518190139508 -0.0955413069718 0.875 2.34810510966e-38
0.0534383581368 -0.0955413069718 0.875 2.11076214409e-38
0.0550577023227 -0.0955413069718 0.875 6.24481373874e-39
0.0566770465087 -0.0955413069718 0.875 2.34971113783e-38
-0.0130287806505 -0.094458659716 0.88 2.34918340883e-38
-0.0114001830692 -0.094458659716 0.88 4.13259732711e-39
-0.00977158548786 -0.094458659716 0.88 1.60293396282e-38
-0.00814298790655 -0.094458659716 0.88 2.34878389864e-38
-0.0065291957578 -0.0946733384881 0.882 2.34797829215e-38
-0.00489689681835 -0.0946733384881 0.882 8.72437213501e-39
-0.0032645978789 -0.0946733384881 0.882 2.35097594983e-38
-0.00163229893945 -0.0946733384881 0.882 2.95057404648e-39
0.0 -0.0946733384881 0.882 2.3491874726e-38
0.00163785097666 -0.0949953566462 0.885 2.35098057411e-38
0.0032831046696 -0.0952100354183 0.887 6.34238895341e-39
0.00492465700439 -0.0952100354183 0.887 1.77709238064e-38
0.00656620933919 -0.0952100354183 0.887 1.74965439619e-38
0.00820776167399 -0.0952100354183 0.887 1.76816582917e-38
0.00984931400879 -0.0952100354183 0.887 1.76813051645e-38
0.0114649568366 -0.0949953566462 0.885 1.80504155878e-38
0.0131028078133 -0.0949953566462 0.885 1.95237506022e-38
0.0147406587899 -0.0949953566462 0.885 1.47335687474e-38
0.0163229893945 -0.0946733384881 0.882 1.53807528379e-38
0.0179552883339 -0.0946733384881 0.882 1.46442219573e-38
0.0195875872734 -0.0946733384881 0.882 1.80519247862e-38
0.0212198862128 -0.0946733384881 0.882 1.39030331605e-38
0.0228521851523 -0.0946733384881 0.882 1.27031138972e-38
0.0244844840917 -0.0946733384881 0.882 1.55604203205e-38
0.0261167830312 -0.0946733384881 0.882 1.6577478542e-38
0.0277490819706 -0.0946733384881 0.882 1.68515248775e-38
0.0293147564636 -0.094458659716 0.88 1.64827647788e-38
0.0309433540449 -0.094458659716 0.88 1.71274279334e-38
0.0325719516262 -0.094458659716 0.88 1.69441338904e-38
0.0342005492075 -0.094458659716 0.88 1.68522703683e-38
0.0358291467888 -0.094458659716 0.88 1.63001503656e-38
0.0374577443701 -0.094458659716 0.88 1.65774659303e-38
0.0391751745468 -0.0946733384881 0.882 1.5839194637e-38
0.0408074734862 -0.0946733384881 0.882 1.64845640461e-38
0.0423435371141 -0.094458659716 0.88 1.74976369747e-38
0.0438721980256 -0.0942439809439 0.878 1.88801958747e-38
0.0454970942488 -0.0942439809439 0.878 9.66496850581e-39
0.047121990472 -0.0942439809439 0.878 9.38588169976e-39
0.0487468866951 -0.0942439809439 0.878 2.34967974875e-38
0.0503717829183 -0.0942439809439 0.878 4.22443282327e-39
0.0518190139508 -0.0939219627858 0.875 2.349329284e-38
0.0534383581368 -0.0939219627858 0.875 1.69541769965e-38
0.0550577023227 -0.0939219627858 0.875 1.07515689662e-38
0.0566770465087 -0.0939219627858 0.875 2.22971444709e-38
-0.0146573782318 -0.0928300621347 0.88 2.33953056436e-38
-0.0130287806505 -0.0928300621347 0.88 2.34911222287e-38
-0.0114001830692 -0.0928300621347 0.88 3.12240686937e-39
-0.00977158548786 -0.0928300621347 0.88 1.78628293675e-38
-0.00814298790655 -0.0928300621347 0.88 2.34817293251e-38
-0.00651439032524 -0.0928300621347 0.88 1.36221737119e-38
-0.00488579274393 -0.0928300621347 0.88 9.1835496158e-40
-0.00325719516262 -0.0928300621347 0.88 2.35097847217e-38
-0.00163229893945 -0.0930410395486 0.882 1.70563694896e-38
0.0 -0.0930410395486 0.882 1.83026324957e-38
0.00163229893945 -0.0930410395486 0.882 2.35097566957e-38
0.00327570195332 -0.0933575056696 0.885 1.0490453813e-38
0.00491355292998 -0.0933575056696 0.885 1.77684112783e-38
0.00655140390664 -0.0933575056696 0.885 1.83266717709e-38
0.00818925488329 -0.0933575056696 0.885 1.86039817305e-38
0.00982710585995 -0.0933575056696 0.885 1.79593620161e-38
0.0114649568366 -0.0933575056696 0.885 1.80500918878e-38
0.0131028078133 -0.0933575056696 0.885 1.93411572084e-38
0.014690690455 -0.0930410395486 0.882 1.54721903653e-38
0.0163229893945 -0.0930410395486 0.882 1.38129969316e-38
0.0179552883339 -0.0930410395486 0.882 1.19683892903e-38
0.0195875872734 -0.0930410395486 0.882 1.84202953239e-38
0.021171768557 -0.0928300621347 0.88 1.51955838575e-38
0.0228003661383 -0.0928300621347 0.88 1.38091335517e-38
0.0244289637197 -0.0928300621347 0.88 1.44573700174e-38
0.026057561301 -0.0928300621347 0.88 1.78685550731e-38
0.0276861588823 -0.0928300621347 0.88 1.73146960589e-38
0.0293147564636 -0.0928300621347 0.88 1.73135988422e-38
0.0309433540449 -0.0928300621347 0.88 1.74965411593e-38
0.0325719516262 -0.0928300621347 0.88 1.6759326445e-38
0.0342005492075 -0.0928300621347 0.88 1.63912726008e-38
0.0358291467888 -0.0928300621347 0.88 1.7037680372e-38
0.0374577443701 -0.0928300621347 0.88 1.620797015e-38
0.0390863419515 -0.0928300621347 0.88 1.62998000409e-38
0.0407149395328 -0.0928300621347 0.88 1.68522283293e-38
0.0422473018025 -0.0926190847208 0.878 1.68511941711e-38
0.043722293021 -0.0923026185998 0.875 2.08144922229e-38
0.0453416372069 -0.0923026185998 0.875 6.71439445933e-39
0.0469609813929 -0.0923026185998 0.875 1.7861793808e-38
0.0487468866951 -0.0926190847208 0.878 2.0909947273e-38
0.0501996697648 -0.0923026185998 0.875 4.68361030406e-39
0.0518190139508 -0.0923026185998 0.875 2.34965676745e-38
0.0534383581368 -0.0923026185998 0.875 1.15070594151e-38
0.0550577023227 -0.0923026185998 0.875 1.48254687033e-38
0.056871367811 -0.0926190847208 0.878 1.87022561931e-38
0.0584962640342 -0.0926190847208 0.878 1.35282208538e-38
-0.0146573782318 -0.0912014645534 0.88 2.26563168855e-38
-0.0130287806505 -0.0912014645534 0.88 2.34911152222e-38
-0.0114001830692 -0.0912014645534 0.88 1.50094718033e-38
-0.00977158548786 -0.0912014645534 0.88 1.93332692994e-38
-0.00814298790655 -0.0912014645534 0.88 1.48206874729e-38
-0.00651439032524 -0.0912014645534 0.88 1.14203246453e-38
-0.00488579274393 -0.0912014645534 0.88 6.15984040117e-39
-0.00325719516262 -0.0912014645534 0.88 2.34899927821e-38
-0.00162859758131 -0.0912014645534 0.88 2.35033275383e-38
0.0 -0.0912014645534 0.88 4.40810381558e-39
0.00162859758131 -0.0912014645534 0.88 2.35096053555e-38
0.0032645978789 -0.0914087406092 0.882 1.96288774143e-38
0.00489689681835 -0.0914087406092 0.882 1.60098685861e-38
0.0065291957578 -0.0914087406092 0.882 1.82362768096e-38
0.00816149469725 -0.0914087406092 0.882 1.72217549383e-38
0.0097937936367 -0.0914087406092 0.882 1.81437154408e-38
0.0114260925761 -0.0914087406092 0.882 1.90624221283e-38
0.0130583915156 -0.0914087406092 0.882 1.83252228283e-38
0.014690690455 -0.0914087406092 0.882 2.0076927184e-38
0.0162859758131 -0.0912014645534 0.88 1.11339777119e-38
0.0179145733944 -0.0912014645534 0.88 1.60153168345e-38
0.0195431709757 -0.0912014645534 0.88 1.62050456401e-38
0.021171768557 -0.0912014645534 0.88 1.93426467887e-38
0.0228003661383 -0.0912014645534 0.88 1.62043828259e-38
0.0244289637197 -0.0912014645534 0.88 1.76805596737e-38
0.026057561301 -0.0912014645534 0.88 1.31658716956e-38
0.0276861588823 -0.0912014645534 0.88 1.74086643313e-38
0.0293147564636 -0.0912014645534 0.88 1.69458911187e-38
0.0309433540449 -0.0912014645534 0.88 1.72213990085e-38
0.0325719516262 -0.0912014645534 0.88 1.74043455295e-38
0.0342005492075 -0.0912014645534 0.88 1.68504682985e-38
0.0358291467888 -0.0912014645534 0.88 1.68522479475e-38
0.0374577443701 -0.0912014645534 0.88 1.68529766227e-38
0.0390863419515 -0.0912014645534 0.88 1.65753107333e-38
0.0407149395328 -0.0912014645534 0.88 1.8234476141e-38
0.0422473018025 -0.0909941884976 0.878 1.79600626654e-38
0.043722293021 -0.0906832744139 0.875 1.62108414105e-38
0.0453416372069 -0.0906832744139 0.875 5.33291596049e-39
0.0469609813929 -0.0906832744139 0.875 2.32134311159e-38
0.0487468866951 -0.0909941884976 0.878 8.09981901465e-39
0.0501996697648 -0.0906832744139 0.875 1.58266319963e-38
0.0518190139508 -0.0906832744139 0.875 2.34939626607e-38
0.0534383581368 -0.0906832744139 0.875 1.3444997738e-38
0.0550577023227 -0.0906832744139 0.875 2.13719791988e-38
0.056871367811 -0.0909941884976 0.878 1.53778591566e-38
0.0584962640342 -0.0909941884976 0.878 1.56461139255e-38
-0.0146573782318 -0.0895728669721 0.88 2.1920904241e-38
-0.0130287806505 -0.0895728669721 0.88 2.26573874775e-38
-0.0114001830692 -0.0895728669721 0.88 2.00780762487e-38
-0.00977158548786 -0.0895728669721 0.88 6.70399121953e-39
-0.00814298790655 -0.0895728669721 0.88 1.15014065771e-38
-0.00649958489268 -0.0893692922744 0.878 2.13722300312e-38
-0.00487468866951 -0.0893692922744 0.878 1.86946219191e-38
-0.00324979244634 -0.0893692922744 0.878 5.60878118137e-39
-0.00162859758131 -0.0895728669721 0.88 2.34957423097e-38
0.0 -0.0893692922744 0.878 1.31611745431e-38
0.00162489622317 -0.0893692922744 0.878 2.13619080667e-38
0.00325719516262 -0.0895728669721 0.88 2.34971842459e-38
0.00488579274393 -0.0895728669721 0.88 1.499979864e-38
0.00651439032524 -0.0895728669721 0.88 1.68497115973e-38
0.00814298790655 -0.0895728669721 0.88 1.85107155086e-38
0.00977158548786 -0.0895728669721 0.88 1.76816582917e-38
0.0113742735622 -0.0893692922744 0.878 1.89713012944e-38
0.0129991697854 -0.0893692922744 0.878 1.84177757893e-38
0.0146573782318 -0.0895728669721 0.88 1.85114189604e-38
0.0162859758131 -0.0895728669721 0.88 1.79571956087e-38
0.0178738584549 -0.0893692922744 0.878 1.40824329951e-38
0.0194987546781 -0.0893692922744 0.878 1.87854666972e-38
0.0211236509012 -0.0893692922744 0.878 1.85128230615e-38
0.0227485471244 -0.0893692922744 0.878 1.26041387854e-38
0.0243734433476 -0.0893692922744 0.878 1.26051757463e-38
0.0259983395707 -0.0893692922744 0.878 1.52813545339e-38
0.0276861588823 -0.0895728669721 0.88 1.73139295487e-38
0.0293147564636 -0.0895728669721 0.88 1.73125254476e-38
0.0309433540449 -0.0895728669721 0.88 1.74043483321e-38
0.0325719516262 -0.0895728669721 0.88 1.74965439619e-38
0.0342005492075 -0.0895728669721 0.88 1.73125422632e-38
0.0357477169098 -0.0893692922744 0.878 1.71277362191e-38
0.0373726131329 -0.0893692922744 0.878 1.69440932528e-38
0.0389975093561 -0.0893692922744 0.878 1.7127059392e-38
0.0406224055793 -0.0893692922744 0.878 1.76805891009e-38
0.0422473018025 -0.0893692922744 0.878 1.84206694706e-38
0.0436223563512 -0.0888603555303 0.873 6.89950038128e-39
0.045237999179 -0.0888603555303 0.873 1.76798800439e-38
0.0468536420069 -0.0888603555303 0.873 1.87945148814e-38
0.0485803255789 -0.0890639302279 0.875 2.8469003809e-39
0.0501996697648 -0.0890639302279 0.875 2.34943031762e-38
0.0517005704903 -0.0888603555303 0.873 1.51916910504e-38
0.0533162133182 -0.0888603555303 0.873 1.19717383936e-38
0.0550577023227 -0.0890639302279 0.875 2.34921381701e-38
0.056871367811 -0.0893692922744 0.878 1.56544082111e-38
0.0584962640342 -0.0893692922744 0.878 1.97921160737e-38
-0.0130583915156 -0.0881441427303 0.882 2.34889488148e-38
-0.0114260925761 -0.0881441427303 0.882 2.02624717124e-38
-0.00977158548786 -0.0879442693908 0.88 1.25101228688e-38
-0.00814298790655 -0.0879442693908 0.88 9.75287195848e-39
-0.00649958489268 -0.0877443960512 0.878 1.61132437751e-38
-0.00487468866951 -0.0877443960512 0.878 1.1223728076e-38
-0.00324979244634 -0.0877443960512 0.878 1.2054227229e-38
-0.00162859758131 -0.0879442693908 0.88 2.04409999393e-38
0.0 -0.0877443960512 0.878 1.89670217288e-38
0.00162489622317 -0.0877443960512 0.878 1.07569863861e-38
0.00324979244634 -0.0877443960512 0.878 2.17378582278e-38
0.00487468866951 -0.0877443960512 0.878 1.91588412717e-38
0.00651439032524 -0.0879442693908 0.88 1.51909315466e-38
0.00812448111586 -0.0877443960512 0.878 1.76791569739e-38
0.00974937733903 -0.0877443960512 0.878 1.84195582409e-38
0.0113742735622 -0.0877443960512 0.878 1.79593157733e-38
0.0129991697854 -0.0877443960512 0.878 1.83256025802e-38
0.0146240660085 -0.0877443960512 0.878 1.9156457663e-38
0.0162489622317 -0.0877443960512 0.878 1.86018013101e-38
0.0178738584549 -0.0877443960512 0.878 1.94322612268e-38
0.0194987546781 -0.0877443960512 0.878 1.91556939554e-38
0.0211236509012 -0.0877443960512 0.878 1.97102704343e-38
0.0227485471244 -0.0877443960512 0.878 1.82369620445e-38
0.0243734433476 -0.0877443960512 0.878 1.74079482678e-38
0.0259983395707 -0.0877443960512 0.878 1.63937851289e-38
0.0276232357939 -0.0877443960512 0.878 1.60232075462e-38
0.0292481320171 -0.0877443960512 0.878 1.78667656149e-38
0.0308730282403 -0.0877443960512 0.878 1.74043427269e-38
0.0324979244634 -0.0877443960512 0.878 1.71284873151e-38
0.0341228206866 -0.0877443960512 0.878 1.703628608e-38
0.0357477169098 -0.0877443960512 0.878 1.71270341686e-38
0.0372449162771 -0.087444586042 0.875 1.73132260968e-38
0.0388642604631 -0.087444586042 0.875 1.84192261332e-38
0.0406224055793 -0.0877443960512 0.878 1.8420277107e-38
0.0420067135234 -0.0872447127024 0.873 1.04007468892e-38
0.0436223563512 -0.0872447127024 0.873 1.43604478079e-38
0.045237999179 -0.0872447127024 0.873 2.06340918612e-38
0.0468536420069 -0.0872447127024 0.873 4.22658521771e-39
0.0484692848347 -0.0872447127024 0.873 2.30232062507e-38
0.0501996697648 -0.087444586042 0.875 2.32116136318e-38
0.0517005704903 -0.0872447127024 0.873 9.57283873698e-39
0.0533162133182 -0.0872447127024 0.873 2.26641851763e-38
0.054931856146 -0.0872447127024 0.873 2.04442775764e-38
0.0565474989738 -0.0872447127024 0.873 1.49085811165e-38
0.0581631418016 -0.0872447127024 0.873 2.1995813453e-38
-0.0114260925761 -0.0865118437908 0.882 2.08149224215e-38
-0.00977158548786 -0.0863156718095 0.88 1.21363265035e-38
-0.00812448111586 -0.0861194998281 0.878 1.26941638039e-38
-0.00647737674385 -0.085825241856 0.875 8.28387256145e-39
-0.00484692848347 -0.0856290698746 0.873 1.79625233455e-38
-0.00323128565565 -0.0856290698746 0.873 1.35317451194e-38
-0.00161934418596 -0.085825241856 0.875 9.56490458507e-39
0.0 -0.0861194998281 0.878 1.9715292688e-38
0.00162489622317 -0.0861194998281 0.878 1.32573148282e-38
0.00324979244634 -0.0861194998281 0.878 1.39859465894e-38
0.00487468866951 -0.0861194998281 0.878 1.7681697528e-38
0.00649958489268 -0.0861194998281 0.878 1.41817682407e-38
0.00812448111586 -0.0861194998281 0.878 1.64799103339e-38
0.00971606511577 -0.085825241856 0.875 1.71309900341e-38
0.0113354093017 -0.085825241856 0.875 1.8052923912e-38
0.0129547534877 -0.085825241856 0.875 1.79582451813e-38
0.0145740976737 -0.085825241856 0.875 1.81422636956e-38
0.0162489622317 -0.0861194998281 0.878 1.92471735217e-38
0.0178127860456 -0.085825241856 0.875 1.84174254646e-38
0.0194321302315 -0.085825241856 0.875 1.78656992268e-38
0.0211236509012 -0.0861194998281 0.878 1.87851317869e-38
0.0227485471244 -0.0861194998281 0.878 1.86029111385e-38
0.0243734433476 -0.0861194998281 0.878 1.49165306827e-38
0.0259983395707 -0.0861194998281 0.878 1.45442098846e-38
0.0276232357939 -0.0861194998281 0.878 1.2888561736e-38
0.0292481320171 -0.0861194998281 0.878 1.80472584623e-38
0.0308730282403 -0.0861194998281 0.878 1.75890941203e-38
0.0324979244634 -0.0861194998281 0.878 1.76813051645e-38
0.0340062279052 -0.085825241856 0.875 1.74969082995e-38
0.0355441422121 -0.0856290698746 0.873 1.82344635294e-38
0.0370746538027 -0.0854328978932 0.871 1.79593045629e-38
0.0386865952724 -0.0854328978932 0.871 1.71309872315e-38
0.0402985367421 -0.0854328978932 0.871 1.10464638202e-38
0.0420067135234 -0.0856290698746 0.873 1.61114234884e-38
0.0435224196815 -0.0854328978932 0.871 1.90678143248e-38
0.0451343611511 -0.0854328978932 0.871 5.78994104684e-39
0.0467463026208 -0.0854328978932 0.871 2.25471445247e-38
0.0484692848347 -0.0856290698746 0.873 2.35097608996e-38
0.0500849276625 -0.0856290698746 0.873 3.39791335785e-39
0.0517005704903 -0.0856290698746 0.873 2.14566372442e-38
0.0533162133182 -0.0856290698746 0.873 2.34928948713e-38
0.054931856146 -0.0856290698746 0.873 1.4260735613e-38
0.0565474989738 -0.0856290698746 0.873 1.78448521095e-38
-0.00812448111586 -0.0844946036049 0.878 1.52673275363e-38
-0.00647737674385 -0.08420589767 0.875 1.14012599797e-38
-0.00483582440905 -0.0838209564235 0.871 9.38662999314e-39
-0.00322388293937 -0.0838209564235 0.871 1.68619169069e-38
-0.00161564282782 -0.0840134270468 0.873 1.2523725273e-38
0.0 -0.0840134270468 0.873 1.11315072227e-38
0.00161934418596 -0.08420589767 0.875 1.75015802286e-38
0.00323868837192 -0.08420589767 0.875 1.15967425168e-38
0.00485803255789 -0.08420589767 0.875 1.31616313664e-38
0.00647737674385 -0.08420589767 0.875 1.63073376254e-38
0.00809672092981 -0.08420589767 0.875 1.12261915587e-38
0.00969385696694 -0.0840134270468 0.873 1.45463216414e-38
0.0113094997948 -0.0840134270468 0.873 1.58413806626e-38
0.0129251426226 -0.0840134270468 0.873 1.74061630136e-38
0.0145407854504 -0.0840134270468 0.873 1.76838036796e-38
0.0161934418596 -0.08420589767 0.875 1.75915982407e-38
0.0177720711061 -0.0840134270468 0.873 1.82366117199e-38
0.0193877139339 -0.0840134270468 0.873 1.78664054812e-38
0.0210514744175 -0.08420589767 0.875 1.8141913371e-38
0.0227485471244 -0.0844946036049 0.878 1.75901857318e-38
0.0242901627894 -0.08420589767 0.875 1.7960023429e-38
0.0258502852452 -0.0840134270468 0.873 1.77745391565e-38
0.027465928073 -0.0840134270468 0.873 1.74057972747e-38
0.0290815709008 -0.0840134270468 0.873 1.8141913371e-38
0.0306972137286 -0.0840134270468 0.873 1.78656964242e-38
0.0323128565565 -0.0840134270468 0.873 1.72214284357e-38
0.0338507708634 -0.0838209564235 0.871 1.82344635294e-38
0.035462712333 -0.0838209564235 0.871 1.76830595901e-38
0.0370746538027 -0.0838209564235 0.871 1.4733543524e-38
0.0386865952724 -0.0838209564235 0.871 1.22414533156e-38
0.0402985367421 -0.0838209564235 0.871 1.70387902004e-38
0.0419104782118 -0.0838209564235 0.871 1.73171693507e-38
0.0435224196815 -0.0838209564235 0.871 4.77616326503e-39
0.0451343611511 -0.0838209564235 0.871 2.34799412683e-38
0.0467463026208 -0.0838209564235 0.871 2.35098561879e-38
0.0484692848347 -0.0840134270468 0.873 3.76597280729e-39
0.0500849276625 -0.0840134270468 0.873 2.22748820422e-38
0.0517005704903 -0.0840134270468 0.873 2.34975864185e-38
0.0531940684996 -0.0838209564235 0.871 1.37093498907e-38
0.0548060099692 -0.0838209564235 0.871 1.63520993022e-38
0.0564179514389 -0.0838209564235 0.871 1.94957610667e-38
-0.00483582440905 -0.0822090149539 0.871 1.23235764121e-38
-0.00322388293937 -0.0822090149539 0.871 9.8440152132e-39
-0.00161194146968 -0.0822090149539 0.871 1.59353461324e-38
0.0 -0.0822090149539 0.871 1.28889302775e-38
0.00161194146968 -0.0822090149539 0.871 1.27921033562e-38
0.00323128565565 -0.082397784219 0.873 1.48254140526e-38
0.00483582440905 -0.0822090149539 0.871 1.18740791011e-38
0.00644776587873 -0.0822090149539 0.871 1.20627359133e-38
0.00805970734842 -0.0822090149539 0.871 1.54689982074e-38
0.0096716488181 -0.0822090149539 0.871 1.39974204212e-38
0.0112835902878 -0.0822090149539 0.871 8.83163312466e-39
0.0128955317575 -0.0822090149539 0.871 1.29786063727e-38
0.0145074732272 -0.0822090149539 0.871 1.47382350713e-38
0.0161194146968 -0.0822090149539 0.871 1.58445980439e-38
0.0177313561665 -0.0822090149539 0.871 1.75937758585e-38
0.0193432976362 -0.0822090149539 0.871 1.65767568733e-38
0.0209071214501 -0.0820202456888 0.869 1.79582507865e-38
0.0224635425477 -0.0818314764236 0.867 1.74065105356e-38
0.0240680813011 -0.0818314764236 0.867 1.82355159045e-38
0.0257318417847 -0.0820202456888 0.869 1.79585758877e-38
0.0274030049846 -0.0822090149539 0.871 1.77738721384e-38
0.0289483220078 -0.0820202456888 0.869 1.79575038944e-38
0.0305565621193 -0.0820202456888 0.869 1.73135820266e-38
0.0321648022309 -0.0820202456888 0.869 1.65785505354e-38
0.0338507708634 -0.0822090149539 0.871 1.36283128005e-38
0.035462712333 -0.0822090149539 0.871 1.32548639572e-38
0.0369895225655 -0.0820202456888 0.869 1.69426078764e-38
0.0385977626771 -0.0820202456888 0.869 1.70406202962e-38
0.0402060027886 -0.0820202456888 0.869 7.44692603416e-39
0.0419104782118 -0.0822090149539 0.871 1.79294975433e-38
0.0435224196815 -0.0822090149539 0.871 2.35096656113e-38
0.0451343611511 -0.0822090149539 0.871 2.35097763139e-38
0.0467463026208 -0.0822090149539 0.871 4.50173297378e-39
0.0483582440905 -0.0822090149539 0.871 2.30278333382e-38
0.0499701855602 -0.0822090149539 0.871 2.34968507368e-38
0.0515821270299 -0.0822090149539 0.871 1.55568596211e-38
0.0531940684996 -0.0822090149539 0.871 1.21244378873e-38
0.0548060099692 -0.0822090149539 0.871 2.13227627941e-38
0.0564179514389 -0.0822090149539 0.871 1.91248149424e-38
-0.00323128565565 -0.0807821413911 0.873 1.50894607222e-38
-0.00160824011154 -0.0804120055772 0.869 8.09515549336e-39
0.0 -0.0804120055772 0.869 1.41765049636e-38
0.00160824011154 -0.0804120055772 0.869 1.34414230256e-38
0.00321648022309 -0.0804120055772 0.869 1.344389912e-38
0.00483582440905 -0.0805970734842 0.871 1.36257918646e-38
0.00644776587873 -0.0805970734842 0.871 1.55640650978e-38
0.00805970734842 -0.0805970734842 0.871 1.05837508634e-38
0.0096716488181 -0.0805970734842 0.871 1.23368074722e-38
0.0112835902878 -0.0805970734842 0.871 1.48297076311e-38
0.0128659208924 -0.0804120055772 0.869 1.42779561699e-38
0.0144741610039 -0.0804120055772 0.869 1.17879749156e-38
0.0160824011154 -0.0804120055772 0.869 1.04939990981e-38
0.0177313561665 -0.0805970734842 0.871 1.08541664346e-38
0.0192988813385 -0.0804120055772 0.869 1.39895199005e-38
0.0207868273105 -0.0799493358098 0.864 1.42693634077e-38
0.0223858140267 -0.0799493358098 0.864 1.51016295981e-38
0.0239848007429 -0.0799493358098 0.864 1.51037777887e-38
0.0255837874591 -0.0799493358098 0.864 1.43615842609e-38
0.0271827741753 -0.0799493358098 0.864 1.44523477638e-38
0.0287817608915 -0.0799493358098 0.864 1.5743735383e-38
0.0303807476077 -0.0799493358098 0.864 1.33463281092e-38
0.0319797343239 -0.0799493358098 0.864 1.52831397882e-38
0.0335787210401 -0.0799493358098 0.864 1.62125818232e-38
0.0352998525749 -0.0802269376702 0.867 1.37187105644e-38
0.0369043913283 -0.0802269376702 0.867 8.64078748421e-39
0.0385089300817 -0.0802269376702 0.867 1.67316746225e-38
0.0401134688351 -0.0802269376702 0.867 2.35047512576e-38
0.0417180075885 -0.0802269376702 0.867 2.35098155502e-38
0.0433225463419 -0.0802269376702 0.867 1.74970386203e-38
0.0449270850953 -0.0802269376702 0.867 8.82015368764e-39
0.0465316238487 -0.0802269376702 0.867 2.34953429397e-38
0.0483582440905 -0.0805970734842 0.871 2.15556894274e-38
0.0499701855602 -0.0805970734842 0.871 1.50047606379e-38
0.0515821270299 -0.0805970734842 0.871 1.17606832267e-38
0.0531940684996 -0.0805970734842 0.871 1.82788510595e-38
0.0548060099692 -0.0805970734842 0.871 2.03093549551e-38
0.0564179514389 -0.0805970734842 0.871 1.98584325236e-38
-0.00322388293937 -0.0789851320145 0.871 1.3138233886e-38
-0.00160824011154 -0.0788037654657 0.869 1.59216568477e-38
0.0 -0.0788037654657 0.869 1.17807876558e-38
0.00160824011154 -0.0788037654657 0.869 1.11361791518e-38
0.00321648022309 -0.0788037654657 0.869 1.45506222264e-38
0.00483582440905 -0.0789851320145 0.871 1.27052803047e-38
0.00644776587873 -0.0789851320145 0.871 1.31648179191e-38
0.00805970734842 -0.0789851320145 0.871 1.37197895643e-38
0.0096716488181 -0.0789851320145 0.871 1.39988875807e-38
0.0112835902878 -0.0789851320145 0.871 1.12333970354e-38
0.0128659208924 -0.0788037654657 0.869 1.0124504719e-38
0.0144741610039 -0.0788037654657 0.869 1.33481105609e-38
0.0160824011154 -0.0788037654657 0.869 1.47346197212e-38
0.017690641227 -0.0788037654657 0.869 1.47378595233e-38
0.0192544650409 -0.0786223989168 0.867 1.39084772051e-38
0.0207868273105 -0.0783503490936 0.864 1.46460548557e-38
0.0223858140267 -0.0783503490936 0.864 1.49215697519e-38
0.0239292803708 -0.0781689825448 0.862 1.4923349401e-38
0.0255245657289 -0.0781689825448 0.862 1.49212138221e-38
0.0271827741753 -0.0783503490936 0.864 1.49201306184e-38
0.0287817608915 -0.0783503490936 0.864 1.49158146191e-38
0.0303807476077 -0.0783503490936 0.864 1.20537676031e-38
0.0319797343239 -0.0783503490936 0.864 9.36901427015e-39
0.0335787210401 -0.0783503490936 0.864 1.82982590432e-38
0.0352998525749 -0.0786223989168 0.867 2.29254026244e-38
0.0369043913283 -0.0786223989168 0.867 2.3509716058e-38
0.0383756811887 -0.0783503490936 0.864 2.3509744084e-38
0.0399746679049 -0.0783503490936 0.864 1.70539690654e-38
0.0415736546211 -0.0783503490936 0.864 8.64329861106e-39
0.0431726413373 -0.0783503490936 0.864 2.03498861119e-38
0.0447716280535 -0.0783503490936 0.864 2.25690832535e-38
0.0465316238487 -0.0786223989168 0.867 1.79568186594e-38
0.0481361626021 -0.0786223989168 0.867 1.26066274915e-38
0.0499701855602 -0.0789851320145 0.871 1.3958995416e-38
0.0515821270299 -0.0789851320145 0.871 1.81874247425e-38
0.0531940684996 -0.0789851320145 0.871 1.91111592889e-38
0.0548060099692 -0.0789851320145 0.871 2.03158205462e-38
0.0564179514389 -0.0789851320145 0.871 2.02286401635e-38
-0.00482472033463 -0.0771955253541 0.869 1.35145764107e-38
-0.00321648022309 -0.0771955253541 0.869 1.11124537675e-38
-0.00160824011154 -0.0771955253541 0.869 1.25814629736e-38
0.0 -0.0771955253541 0.869 1.49900315897e-38
0.00160824011154 -0.0771955253541 0.869 1.59234743319e-38
0.00321648022309 -0.0771955253541 0.869 1.20624108121e-38
0.00482472033463 -0.0771955253541 0.869 1.13234234552e-38
0.00643296044618 -0.0771955253541 0.869 1.39974260264e-38
0.00804120055772 -0.0771955253541 0.869 1.29844329717e-38
0.00964944066926 -0.0771955253541 0.869 1.34424543813e-38
0.0112576807808 -0.0771955253541 0.869 1.37165427557e-38
0.0128659208924 -0.0771955253541 0.869 1.35350255591e-38
0.0144741610039 -0.0771955253541 0.869 1.39045241421e-38
0.0160824011154 -0.0771955253541 0.869 1.38141235756e-38
0.0176499262875 -0.0770178601634 0.867 1.28028499141e-38
0.0191878405943 -0.0767513623774 0.864 1.2893599404e-38
0.0207387096547 -0.0765736971867 0.862 1.27996437432e-38
0.0223339950128 -0.0765736971867 0.862 1.47299954363e-38
0.0239292803708 -0.0765736971867 0.862 1.53710446422e-38
0.0255245657289 -0.0765736971867 0.862 1.86864369347e-38
0.027119851087 -0.0765736971867 0.862 2.02477286512e-38
0.028715136445 -0.0765736971867 0.862 2.34809726239e-38
0.0303807476077 -0.0767513623774 0.864 2.35071670961e-38
0.0319797343239 -0.0767513623774 0.864 2.35097875243e-38
0.0335787210401 -0.0767513623774 0.864 2.35097258671e-38
0.0352998525749 -0.0770178601634 0.867 2.35097384788e-38
0.0369043913283 -0.0770178601634 0.867 1.46370991572e-38
0.0383756811887 -0.0767513623774 0.864 1.18636394275e-38
0.0399746679049 -0.0767513623774 0.864 1.70355433918e-38
0.0415736546211 -0.0767513623774 0.864 1.96196092263e-38
0.0430727046675 -0.0765736971867 0.862 1.77727847308e-38
0.0446679900256 -0.0765736971867 0.862 1.53714173875e-38
0.0462632753836 -0.0765736971867 0.862 1.66545583654e-38
0.0478585607417 -0.0765736971867 0.862 1.17578133675e-38
0.0494538460997 -0.0765736971867 0.862 1.77256884907e-38
0.0515821270299 -0.0773731905448 0.871 1.8005517985e-38
0.0531940684996 -0.0773731905448 0.871 1.92984274144e-38
0.0548060099692 -0.0773731905448 0.871 1.89300120351e-38
-0.00969385696694 -0.0759352129077 0.873 1.38945076607e-38
-0.00644776587873 -0.0757612490751 0.871 1.50116522237e-38
-0.00482472033463 -0.0755872852426 0.869 8.72580706464e-39
