# .PCD v0.7 - Point Cloud Data file format
VERSION 0.7
FIELDS x y z rgb
SIZE 4 4 4 4
TYPE F F F F
COUNT 1 1 1 1
WIDTH 844
HEIGHT 1
VIEWPOINT 0 0 0 1 0 0 0
POINTS 844
DATA ascii
0.0376705724632 -0.0474976783231 0.885 1.84833901886e-38
0.0393972560352 -0.0476050177091 0.887 1.90315515231e-38
0.0412238762769 -0.0478196964812 0.891 1.49691858738e-38
0.042872831328 -0.0478196964812 0.891 1.78160862547e-38
0.0446716913837 -0.0479807055603 0.894 1.99351564171e-38
0.0464298364999 -0.0480880449463 0.896 1.80051382331e-38
0.0481953843324 -0.0481953843324 0.898 2.04879630561e-38
0.0500238552532 -0.0483563934114 0.901 2.34583808901e-38
0.051691317095 -0.0483563934114 0.901 1.77497880217e-38
0.0533587789368 -0.0483563934114 0.901 2.05059501231e-38
-0.013413721897 -0.0469480266394 0.906 1.67597370255e-38
-0.0117370066599 -0.0469480266394 0.906 1.07591121558e-38
-0.0100602914227 -0.0469480266394 0.906 1.13011582239e-38
-0.00838357618561 -0.0469480266394 0.906 1.22220551409e-38
-0.00668465279965 -0.0467925695976 0.903 1.22173691989e-38
-0.00500238552532 -0.0466889315697 0.901 1.17574546351e-38
-0.00332381960913 -0.0465334745278 0.898 1.07447530505e-38
-0.00166190980456 -0.0465334745278 0.898 1.21222953019e-38
0.0 -0.0464298364999 0.896 1.23059817085e-38
0.00165450708829 -0.046326198472 0.894 1.81217542913e-38
0.00329791010215 -0.0461707414302 0.891 1.48002957776e-38
0.00493576107881 -0.0460671034023 0.889 1.49881986913e-38
0.00658101477175 -0.0460671034023 0.889 1.80256938802e-38
0.00822626846469 -0.0460671034023 0.889 1.63647698429e-38
0.00987152215763 -0.0460671034023 0.889 1.12957660274e-38
0.0114908663436 -0.0459634653743 0.887 1.74739115904e-38
0.0131324186784 -0.0459634653743 0.887 1.32358161071e-38
0.0147406587899 -0.0458598273464 0.885 1.70015072534e-38
0.0163785097666 -0.0458598273464 0.885 1.87585897927e-38
0.0180163607432 -0.0458598273464 0.885 1.82111389164e-38
0.0196542117199 -0.0458598273464 0.885 1.38704431622e-38
0.0212920626966 -0.0458598273464 0.885 1.87553499906e-38
0.0229817326872 -0.0459634653743 0.887 1.93167858255e-38
0.024623285022 -0.0459634653743 0.887 1.44239952919e-38
0.0262648373568 -0.0459634653743 0.887 2.01415662796e-38
0.0279063896916 -0.0459634653743 0.887 1.59877084522e-38
0.0295479420264 -0.0459634653743 0.887 1.67330941378e-38
0.0311894943612 -0.0459634653743 0.887 1.70982879319e-38
0.032831046696 -0.0459634653743 0.887 1.83032967112e-38
0.0344725990308 -0.0459634653743 0.887 1.857563066e-38
0.0361141513656 -0.0459634653743 0.887 1.55331314342e-38
0.0377557037004 -0.0459634653743 0.887 1.98666987832e-38
0.0395749212258 -0.0461707414302 0.891 1.75514566449e-38
0.0413626772071 -0.046326198472 0.894 1.68977312931e-38
0.0431134196071 -0.0464298364999 0.896 1.70814022854e-38
0.0448715647232 -0.0465334745278 0.898 1.65303893084e-38
0.0465334745278 -0.0465334745278 0.898 1.89231750999e-38
0.0484637327975 -0.0467925695976 0.903 2.00284506649e-38
0.0501348959974 -0.0467925695976 0.903 2.20724953076e-38
0.0518060591973 -0.0467925695976 0.903 1.67337905831e-38
0.0536548875879 -0.0469480266394 0.906 1.94103729448e-38
-0.013413721897 -0.0452713114023 0.906 1.73136534929e-38
-0.0117370066599 -0.0452713114023 0.906 1.03921499231e-38
-0.0100602914227 -0.0452713114023 0.906 1.15795233613e-38
-0.00838357618561 -0.0452713114023 0.906 1.17617804434e-38
-0.00670686094849 -0.0452713114023 0.906 1.12989946191e-38
-0.00501348959974 -0.0451214063976 0.903 1.14801572872e-38
-0.00333492368355 -0.0450214697279 0.901 1.12957660274e-38
-0.00166190980456 -0.0448715647232 0.898 1.17549463108e-38
0.0 -0.0448715647232 0.898 1.03774110659e-38
0.00165820844643 -0.0447716280535 0.896 1.19386173031e-38
0.00330901417657 -0.0446716913837 0.894 1.30406404544e-38
0.00494686515323 -0.0445217863791 0.891 1.47001940218e-38
0.00659582020431 -0.0445217863791 0.891 1.75668807371e-38
0.00824477525538 -0.0445217863791 0.891 1.68343253402e-38
0.00987152215763 -0.0444218497093 0.889 1.21251553521e-38
0.0115167758506 -0.0444218497093 0.889 1.71826334877e-38
0.0131620295435 -0.0444218497093 0.889 1.38682627417e-38
0.0148072832364 -0.0444218497093 0.889 1.95840736985e-38
0.0164525369294 -0.0444218497093 0.889 1.74739690437e-38
0.0180570756828 -0.0443219130396 0.887 1.70151166641e-38
0.0196986280176 -0.0443219130396 0.887 1.43328688528e-38
0.0213401803524 -0.0443219130396 0.887 1.92192372355e-38
0.0229817326872 -0.0443219130396 0.887 1.76608812393e-38
0.024623285022 -0.0443219130396 0.887 1.82129381836e-38
0.0262648373568 -0.0443219130396 0.887 1.7284202403e-38
0.0279693127799 -0.0444218497093 0.889 1.85788368309e-38
0.0296145664729 -0.0444218497093 0.889 1.626709934e-38
0.0312598201658 -0.0444218497093 0.889 1.48845250257e-38
0.0329050738588 -0.0444218497093 0.889 1.90343905538e-38
0.0345503275517 -0.0444218497093 0.889 2.04195222378e-38
0.0361955812446 -0.0444218497093 0.889 1.61792197094e-38
0.0378408349376 -0.0444218497093 0.889 1.55201988507e-38
0.0397970027142 -0.0447716280535 0.896 1.61630473238e-38
0.0414552111606 -0.0447716280535 0.896 1.53365278584e-38
0.0432096549187 -0.0448715647232 0.898 1.58893344974e-38
0.0448715647232 -0.0448715647232 0.898 1.80984240731e-38
0.0466889315697 -0.0450214697279 0.901 1.99416262121e-38
0.0486247418765 -0.0452713114023 0.906 2.0498371901e-38
0.0504124978578 -0.0453712480721 0.908 1.81031086139e-38
0.0520929144531 -0.0453712480721 0.908 1.79255739076e-38
0.0537733310484 -0.0453712480721 0.908 1.73842326926e-38
-0.0134433327621 -0.0436908314768 0.908 1.63934782446e-38
-0.0117629161668 -0.0436908314768 0.908 1.00240666516e-38
-0.0100824995716 -0.0436908314768 0.908 1.11160452955e-38
-0.00838357618561 -0.0435945961652 0.906 1.16713826795e-38
-0.00670686094849 -0.0435945961652 0.906 1.12100289822e-38
-0.00501348959974 -0.0434502431977 0.903 1.06568636108e-38
-0.00334232639983 -0.0434502431977 0.903 1.16656191389e-38
-0.00166746184177 -0.0433540078861 0.901 1.27651395712e-38
0.0 -0.0432096549187 0.898 1.12039305313e-38
0.00166190980456 -0.0432096549187 0.898 1.23978101982e-38
0.00331641689285 -0.0431134196071 0.896 1.17549435082e-38
0.00496352126486 -0.0430171842954 0.894 1.24896414905e-38
0.00661802835314 -0.0430171842954 0.894 1.26732984698e-38
0.00827253544143 -0.0430171842954 0.894 1.21222854929e-38
0.00989373030646 -0.042872831328 0.891 1.43263654266e-38
0.0115167758506 -0.0427765960164 0.889 1.75481748039e-38
0.0131620295435 -0.0427765960164 0.889 1.80231603326e-38
0.0148072832364 -0.0427765960164 0.889 1.79359813513e-38
0.0164525369294 -0.0427765960164 0.889 1.72869993948e-38
0.0180977906223 -0.0427765960164 0.889 1.81210984836e-38
0.0197430443153 -0.0427765960164 0.889 1.49836360635e-38
0.0213401803524 -0.0426803607048 0.887 1.92249769541e-38
0.0229817326872 -0.0426803607048 0.887 1.63657969947e-38
0.024623285022 -0.0426803607048 0.887 1.99592685597e-38
0.026324059087 -0.0427765960164 0.889 1.89498053759e-38
0.0279693127799 -0.0427765960164 0.889 1.83047834889e-38
0.0296145664729 -0.0427765960164 0.889 1.59922920994e-38
0.0312598201658 -0.0427765960164 0.889 1.5157161655e-38
0.0329050738588 -0.0427765960164 0.889 1.47855148814e-38
0.0345503275517 -0.0427765960164 0.889 1.51528568661e-38
0.0361955812446 -0.0427765960164 0.889 1.61630473238e-38
0.0379259661748 -0.042872831328 0.891 1.46018438891e-38
0.0397970027142 -0.0431134196071 0.896 1.57989381347e-38
0.0415477451141 -0.0432096549187 0.898 1.46936793853e-38
0.0432096549187 -0.0432096549187 0.898 1.82803266268e-38
0.0450214697279 -0.0433540078861 0.901 1.819992993e-38
0.0469480266394 -0.0435945961652 0.906 2.25331175271e-38
0.0487320812626 -0.0436908314768 0.908 1.72790638416e-38
0.0504124978578 -0.0436908314768 0.908 1.83771969883e-38
0.0522076565554 -0.0437870667884 0.91 1.8395186858e-38
0.0540694396995 -0.0439314197559 0.913 1.47213564312e-38
0.0557591096901 -0.0439314197559 0.913 2.25687679613e-38
-0.0152403421387 -0.0423342837187 0.915 1.69448541578e-38
-0.0134433327621 -0.0420104148815 0.908 1.62090841823e-38
-0.0117629161668 -0.0420104148815 0.908 1.04861209981e-38
-0.0100824995716 -0.0420104148815 0.908 1.11182117029e-38
-0.00840208297631 -0.0420104148815 0.908 1.09327484499e-38
-0.00672166638105 -0.0420104148815 0.908 1.14841075475e-38
-0.00503014571137 -0.041917880928 0.906 1.07469054449e-38
-0.00335343047424 -0.041917880928 0.906 1.1387960256e-38
-0.00167116319991 -0.0417790799978 0.903 1.2765133966e-38
0.0 -0.0416865460443 0.901 1.2214120989e-38
0.00166190980456 -0.0415477451141 0.898 1.33168644077e-38
0.00332381960913 -0.0415477451141 0.898 1.28569694621e-38
0.00497462533928 -0.0414552111606 0.896 1.26732984698e-38
0.0066328337857 -0.0414552111606 0.896 1.33161469429e-38
0.00827253544143 -0.0413626772071 0.894 1.23977919813e-38
0.00992704252972 -0.0413626772071 0.894 1.34998179352e-38
0.0115426853575 -0.0412238762769 0.891 1.32243114468e-38
0.0131916404086 -0.0412238762769 0.891 1.36834889275e-38
0.0148405954597 -0.0412238762769 0.891 1.36834889275e-38
0.0164525369294 -0.0411313423234 0.889 1.37753244237e-38
0.0180977906223 -0.0411313423234 0.889 1.34079824391e-38
0.0197430443153 -0.0411313423234 0.889 1.32243114468e-38
0.0213882980082 -0.0411313423234 0.889 1.33161469429e-38
0.0230335517011 -0.0411313423234 0.889 1.41426664083e-38
0.0246788053941 -0.0411313423234 0.889 1.4510008393e-38
0.026324059087 -0.0411313423234 0.889 1.4510008393e-38
0.0280322358683 -0.0412238762769 0.891 1.49691858738e-38
0.0296811909194 -0.0412238762769 0.891 1.52446923622e-38
0.0313301459705 -0.0412238762769 0.891 1.50610213699e-38
0.0329791010215 -0.0412238762769 0.891 1.44181728968e-38
0.0346280560726 -0.0412238762769 0.891 1.46018438891e-38
0.0362770111237 -0.0412238762769 0.891 1.4510008393e-38
0.0381387942678 -0.0414552111606 0.896 1.53383215204e-38
0.0398858353096 -0.0415477451141 0.898 1.60744460245e-38
0.0415477451141 -0.0415477451141 0.898 1.58889869753e-38
0.0433540078861 -0.0416865460443 0.901 1.89339777098e-38
0.0451214063976 -0.0417790799978 0.903 1.93109424109e-38
0.0469480266394 -0.041917880928 0.906 2.06034959105e-38
0.0487320812626 -0.0420104148815 0.908 1.89403536178e-38
0.050523538602 -0.042102948835 0.91 1.81967686007e-38
0.0522076565554 -0.042102948835 0.91 1.74786157494e-38
0.0540694396995 -0.0422417497652 0.913 1.3989912264e-38
0.0557591096901 -0.0422417497652 0.913 2.24783968221e-38
-0.0152403421387 -0.04064091237 0.915 1.52849796931e-38
-0.0135173599249 -0.0405520797746 0.913 1.59310735734e-38
-0.0117888256738 -0.0404188308816 0.91 1.00273274731e-38
-0.0101047077204 -0.0404188308816 0.91 1.15809891195e-38
-0.008420589767 -0.0404188308816 0.91 1.14826978413e-38
-0.00672166638105 -0.0403299982863 0.908 1.16645485469e-38
-0.00504124978578 -0.0403299982863 0.908 1.10216944686e-38
-0.00335343047424 -0.0402411656909 0.906 1.12964862948e-38
-0.00167671523712 -0.0402411656909 0.906 1.18467790044e-38
0.0 -0.0401079167979 0.903 1.07447530505e-38
0.00166746184177 -0.0400190842026 0.901 1.26758292148e-38
0.00332381960913 -0.0398858353096 0.898 1.23059564852e-38
0.00498572941369 -0.0398858353096 0.898 1.30406404544e-38
0.0066328337857 -0.0397970027142 0.896 1.3958995416e-38
0.00829104223213 -0.0397970027142 0.896 1.32243114468e-38
0.00992704252972 -0.0397081701189 0.894 1.29488049583e-38
0.011581549618 -0.0397081701189 0.894 1.34079824391e-38
0.0132360567063 -0.0397081701189 0.894 1.3958995416e-38
0.0148405954597 -0.0395749212258 0.891 1.40508309122e-38
0.0164895505108 -0.0395749212258 0.891 1.29488049583e-38
0.0180977906223 -0.0394860886305 0.889 1.29488049583e-38
0.0197430443153 -0.0394860886305 0.889 1.28569694621e-38
0.0213882980082 -0.0394860886305 0.889 1.33161469429e-38
0.0230335517011 -0.0394860886305 0.889 1.34998179352e-38
0.0246788053941 -0.0394860886305 0.889 1.41426776187e-38
0.0263832808172 -0.0395749212258 0.891 1.46018438891e-38
0.0281266205009 -0.0397081701189 0.894 1.4510008393e-38
0.0297811275891 -0.0397081701189 0.894 1.51528568661e-38
0.0314356346774 -0.0397081701189 0.894 1.52446923622e-38
0.0330901417657 -0.0397081701189 0.894 1.42345019045e-38
0.034744648854 -0.0397081701189 0.894 1.62573953481e-38
0.0363991559423 -0.0397081701189 0.894 1.68984487579e-38
0.038223925505 -0.0398858353096 0.898 1.58014450577e-38
0.0400190842026 -0.0400190842026 0.901 1.75571375088e-38
0.0417790799978 -0.0401079167979 0.903 1.71883171543e-38
0.0434502431977 -0.0401079167979 0.903 1.94017479527e-38
0.0452713114023 -0.0402411656909 0.906 1.96855122931e-38
0.0470516646673 -0.0403299982863 0.908 2.08873303158e-38
0.0488394206486 -0.0404188308816 0.91 1.73759299992e-38
0.050523538602 -0.0404188308816 0.91 1.77365065149e-38
0.0523797697089 -0.0405520797746 0.913 1.50826013663e-38
0.05418788316 -0.04064091237 0.915 1.39978366068e-38
0.0558812545087 -0.04064091237 0.915 2.27571417113e-38
-0.0152403421387 -0.0389475410212 0.915 1.51927868658e-38
-0.0135173599249 -0.038862409784 0.913 1.4919076842e-38
-0.0117888256738 -0.0387347129282 0.91 1.02120354263e-38
-0.0101047077204 -0.0387347129282 0.91 1.05700924073e-38
-0.008420589767 -0.0387347129282 0.91 1.13937237966e-38
-0.0067364718136 -0.0387347129282 0.91 1.14826656114e-38
-0.00504124978578 -0.038649581691 0.908 1.12039305313e-38
-0.00335343047424 -0.0385644504538 0.906 1.19386145005e-38
-0.00167671523712 -0.0385644504538 0.906 1.18467790044e-38
0.0 -0.038436753598 0.903 1.15712725159e-38
0.00166746184177 -0.0383516223608 0.901 1.20304570032e-38
0.00332381960913 -0.038223925505 0.898 1.11120950351e-38
0.00498572941369 -0.038223925505 0.898 1.35016115973e-38
0.0066328337857 -0.0381387942678 0.896 1.34079824391e-38
0.00829104223213 -0.0381387942678 0.896 1.27651423738e-38
0.00994925067855 -0.0381387942678 0.896 1.34079908469e-38
0.011581549618 -0.0380536630306 0.894 1.37753244237e-38
0.0132360567063 -0.0380536630306 0.894 1.4510008393e-38
0.0148905637946 -0.0380536630306 0.894 1.47855148814e-38
0.0164895505108 -0.0379259661748 0.891 1.4510008393e-38
0.0181385055618 -0.0379259661748 0.891 1.38671599199e-38
0.0197874606129 -0.0379259661748 0.891 1.3958995416e-38
0.021436415664 -0.0379259661748 0.891 1.37753244237e-38
0.023163099236 -0.0380536630306 0.894 1.40508435239e-38
0.0248176063243 -0.0380536630306 0.894 1.44182093306e-38
0.0264721134126 -0.0380536630306 0.894 1.52446923622e-38
0.0281266205009 -0.0380536630306 0.894 1.54283633545e-38
0.0297811275891 -0.0380536630306 0.894 1.65307480408e-38
0.0314356346774 -0.0380536630306 0.894 1.5703869843e-38
0.0331641689285 -0.0381387942678 0.896 1.48773503776e-38
0.0348223773749 -0.0381387942678 0.896 1.69989288643e-38
0.0364805858214 -0.0381387942678 0.896 1.7738253934e-38
0.038223925505 -0.038223925505 0.898 1.58100672471e-38
0.0401079167979 -0.038436753598 0.903 1.71061786435e-38
0.0417790799978 -0.038436753598 0.903 1.83011471194e-38
0.0435945961652 -0.0385644504538 0.906 2.1622323972e-38
0.0453712480721 -0.038649581691 0.908 1.73849333418e-38
0.0470516646673 -0.038649581691 0.908 1.92238082711e-38
0.0488394206486 -0.0387347129282 0.91 1.90308228479e-38
0.0506900997183 -0.038862409784 0.913 1.60798634444e-38
0.0524945118112 -0.0389475410212 0.915 1.27888411334e-38
0.05418788316 -0.0389475410212 0.915 1.28997483016e-38
-0.0152403421387 -0.0372541696725 0.915 1.49176447149e-38
-0.0135173599249 -0.0371727397934 0.913 1.47346953913e-38
-0.0118276899343 -0.0371727397934 0.913 9.56883102337e-39
-0.0101380199437 -0.0371727397934 0.913 9.92618455255e-39
-0.00844834995305 -0.0371727397934 0.913 1.13908553386e-38
-0.0067364718136 -0.0370505949748 0.91 1.09291415076e-38
-0.00504124978578 -0.0369691650957 0.908 1.12039305313e-38
-0.00336083319052 -0.0369691650957 0.908 1.13876015236e-38
-0.00167671523712 -0.0368877352167 0.906 1.13876015236e-38
0.0 -0.0368877352167 0.906 1.17549435082e-38
0.00167116319991 -0.0367655903981 0.903 1.25814629736e-38
0.00332381960913 -0.0365620157004 0.898 1.19386145005e-38
0.00498572941369 -0.0365620157004 0.898 1.2214120989e-38
0.00664763921826 -0.0365620157004 0.898 1.2214120989e-38
0.00829104223213 -0.0364805858214 0.896 1.12957660274e-38
0.00994925067855 -0.0364805858214 0.896 1.21222854929e-38
0.011607459125 -0.0364805858214 0.896 1.43263374006e-38
0.0132656675714 -0.0364805858214 0.896 1.69942443235e-38
0.0149238760178 -0.0364805858214 0.896 1.30413691296e-38
0.0165450708829 -0.0363991559423 0.894 1.50678372856e-38
0.0181995779711 -0.0363991559423 0.894 1.32243114468e-38
0.0198540850594 -0.0363991559423 0.894 1.46093772697e-38
0.0215085921477 -0.0363991559423 0.894 1.5617415333e-38
0.023163099236 -0.0363991559423 0.894 1.50642499616e-38
0.0248731266964 -0.0364805858214 0.896 1.41494823241e-38
0.0264721134126 -0.0363991559423 0.894 1.45207703652e-38
0.0281266205009 -0.0363991559423 0.894 1.61756099645e-38
0.0298477520357 -0.0364805858214 0.896 1.66372985722e-38
0.0315059604821 -0.0364805858214 0.896 1.66376502981e-38
0.0331641689285 -0.0364805858214 0.896 1.59912201061e-38
0.0349001058959 -0.0365620157004 0.898 1.40554944335e-38
0.0365620157004 -0.0365620157004 0.898 1.59854747824e-38
0.0383516223608 -0.036684160519 0.901 1.72819799437e-38
0.0401079167979 -0.0367655903981 0.903 2.05185127639e-38
0.041917880928 -0.0368877352167 0.906 1.95046761275e-38
0.0435945961652 -0.0368877352167 0.906 1.55349349054e-38
0.0453712480721 -0.0369691650957 0.908 2.02393895241e-38
0.0470516646673 -0.0369691650957 0.908 2.31971662447e-38
0.0490004297277 -0.0371727397934 0.913 1.68331664663e-38
0.0506900997183 -0.0371727397934 0.913 1.37839340015e-38
0.0524945118112 -0.0372541696725 0.915 1.27110634634e-38
0.05418788316 -0.0372541696725 0.915 1.23497989102e-38
-0.0152903104736 -0.0356773911051 0.918 1.46417780928e-38
-0.01354697079 -0.0355607983237 0.915 1.31680955563e-38
-0.0118535994412 -0.0355607983237 0.915 9.47592913908e-39
-0.0101602280925 -0.0355607983237 0.915 1.01156204867e-38
-0.00846685674374 -0.0355607983237 0.915 1.13011778421e-38
-0.00675867996244 -0.0354830698028 0.913 1.13915531853e-38
-0.0050523538602 -0.0353664770214 0.91 1.0653653236e-38
-0.00336083319052 -0.0352887485005 0.908 1.11120950351e-38
-0.00168041659526 -0.0352887485005 0.908 1.13876015236e-38
0.0 -0.0352110199796 0.906 1.17549435082e-38
0.00167671523712 -0.0352110199796 0.906 1.16631080121e-38
0.00333492368355 -0.0350166986772 0.901 1.2765133966e-38
0.00498572941369 -0.0349001058959 0.898 1.1754965929e-38
0.00664763921826 -0.0349001058959 0.898 1.29488049583e-38
0.00830954902282 -0.0349001058959 0.898 1.18467790044e-38
0.00997145882739 -0.0349001058959 0.898 1.14794370197e-38
0.011607459125 -0.0348223773749 0.896 1.41426664083e-38
0.0132656675714 -0.0348223773749 0.896 1.57957053392e-38
0.0149238760178 -0.0348223773749 0.896 1.23095438092e-38
0.0165820844643 -0.0348223773749 0.896 1.37861032115e-38
0.0182402929107 -0.0348223773749 0.896 1.31392918663e-38
0.0198985013571 -0.0348223773749 0.896 1.3602774136e-38
0.0215567098035 -0.0348223773749 0.896 1.63625221602e-38
0.02321491825 -0.0348223773749 0.896 1.40615928844e-38
0.0248731266964 -0.0348223773749 0.896 1.33265501827e-38
0.0265313351428 -0.0348223773749 0.896 1.20408630456e-38
0.0281895435892 -0.0348223773749 0.896 1.3508427513e-38
0.0298477520357 -0.0348223773749 0.896 1.34101348335e-38
0.0315059604821 -0.0348223773749 0.896 1.54319506786e-38
0.0332381960913 -0.0349001058959 0.898 1.93027602292e-38
0.0349001058959 -0.0349001058959 0.898 1.91384299583e-38
0.036684160519 -0.0350166986772 0.901 2.0988434e-38
0.038436753598 -0.0350944271982 0.903 2.17228194927e-38
0.0402411656909 -0.0352110199796 0.906 1.64582925024e-38
0.041917880928 -0.0352110199796 0.906 1.80209490836e-38
0.0436908314768 -0.0352887485005 0.908 2.24542678638e-38
0.0453712480721 -0.0352887485005 0.908 2.09888263636e-38
0.0471553026952 -0.0353664770214 0.91 1.83148153846e-38
0.0490004297277 -0.0354830698028 0.913 1.93177401098e-38
0.0506900997183 -0.0354830698028 0.913 1.2133061478e-38
0.0524945118112 -0.0355607983237 0.915 1.23490954584e-38
0.05418788316 -0.0355607983237 0.915 1.21654300713e-38
-0.0135913870877 -0.0339784677192 0.918 1.30758999264e-38
-0.0118924637017 -0.0339784677192 0.918 7.54271739588e-39
-0.0101935403157 -0.0339784677192 0.918 1.4271909567e-38
-0.00846685674374 -0.033867426975 0.915 9.1835496158e-39
-0.006773485395 -0.033867426975 0.915 1.09305806411e-38
-0.00506900997183 -0.0337933998122 0.913 1.12064416581e-38
-0.0033682359068 -0.033682359068 0.91 1.11120950351e-38
-0.00168041659526 -0.0336083319052 0.908 1.17549435082e-38
0.0 -0.0336083319052 0.908 1.23059564852e-38
0.00167671523712 -0.0335343047424 0.906 1.1020259539e-38
0.00334232639983 -0.0334232639983 0.903 1.29488049583e-38
0.00500238552532 -0.0333492368355 0.901 1.23977919813e-38
0.00666984736709 -0.0333492368355 0.901 1.25814629736e-38
0.00830954902282 -0.0332381960913 0.898 1.34079824391e-38
0.00997145882739 -0.0332381960913 0.898 1.2214120989e-38
0.011607459125 -0.0331641689285 0.896 1.47855274931e-38
0.0132656675714 -0.0331641689285 0.896 1.68991746305e-38
0.0149238760178 -0.0331641689285 0.896 1.5913728301e-38
0.0165820844643 -0.0331641689285 0.896 1.43536108727e-38
0.0182402929107 -0.0331641689285 0.896 1.29674590434e-38
0.0198985013571 -0.0331641689285 0.896 1.40659299031e-38
0.0215567098035 -0.0331641689285 0.896 1.39744405277e-38
0.02321491825 -0.0331641689285 0.896 1.48056389287e-38
0.0249286470685 -0.0332381960913 0.898 1.5178350689e-38
0.0265313351428 -0.0331641689285 0.896 1.46284195145e-38
0.0281895435892 -0.0331641689285 0.896 1.80392920805e-38
0.0299143764822 -0.0332381960913 0.898 2.05274628572e-38
0.0315762862867 -0.0332381960913 0.898 2.08934245628e-38
0.0332381960913 -0.0332381960913 0.898 2.06157432591e-38
0.0350166986772 -0.0333492368355 0.901 1.84933730388e-38
0.036684160519 -0.0333492368355 0.901 1.61788665822e-38
0.0385644504538 -0.0335343047424 0.906 1.79262171036e-38
0.0402411656909 -0.0335343047424 0.906 2.2266636802e-38
0.041917880928 -0.0335343047424 0.906 2.10770717331e-38
0.0436908314768 -0.0336083319052 0.908 2.25540094859e-38
0.0454711847418 -0.033682359068 0.91 1.72981523293e-38
0.0473107597371 -0.0337933998122 0.913 1.73788418974e-38
0.0491077691137 -0.033867426975 0.915 1.92195329095e-38
0.0508011404625 -0.033867426975 0.915 1.4536249108e-38
0.0524945118112 -0.033867426975 0.915 1.15247241835e-38
0.05418788316 -0.033867426975 0.915 1.19813681167e-38
-0.0119831469761 -0.0325256846495 0.925 5.05346341554e-39
-0.0101935403157 -0.0322795443332 0.918 1.78664573292e-38
-0.00849461692979 -0.0322795443332 0.918 7.53554414904e-39
-0.006773485395 -0.0321740556262 0.915 1.12965017091e-38
-0.00508011404625 -0.0321740556262 0.915 1.09291415076e-38
-0.00337933998122 -0.0321037298216 0.913 1.14797957522e-38
-0.0016841179534 -0.0319982411146 0.91 1.17549435082e-38
0.0 -0.03192791531 0.908 1.23063152176e-38
0.00168041659526 -0.03192791531 0.908 1.15712725159e-38
0.00334232639983 -0.0317521007983 0.903 1.30406418557e-38
0.00500238552532 -0.0316817749937 0.901 1.2765133966e-38
0.00666984736709 -0.0316817749937 0.901 1.24896274775e-38
0.00830954902282 -0.0315762862867 0.898 1.41426664083e-38
0.00997145882739 -0.0315762862867 0.898 1.42345019045e-38
0.011607459125 -0.0315059604821 0.896 1.57957221548e-38
0.0132656675714 -0.0315059604821 0.896 1.51528568661e-38
0.0149238760178 -0.0315059604821 0.896 1.63718295846e-38
0.0165820844643 -0.0315059604821 0.896 1.51815764781e-38
0.0182402929107 -0.0315059604821 0.896 1.58269402819e-38
0.0198985013571 -0.0315059604821 0.896 1.6837855211e-38
0.0216048274593 -0.0315762862867 0.898 1.73921051874e-38
0.0232667372639 -0.0315762862867 0.898 1.65623879589e-38
0.0249286470685 -0.0315762862867 0.898 1.74803379452e-38
0.026590556873 -0.0315762862867 0.898 1.58186642132e-38
0.0282524666776 -0.0315762862867 0.898 1.81196313241e-38
0.0299143764822 -0.0315762862867 0.898 1.59969766402e-38
0.0315762862867 -0.0315762862867 0.898 1.70032056272e-38
0.0333492368355 -0.0316817749937 0.901 1.68253177936e-38
0.0350166986772 -0.0316817749937 0.901 1.82100416997e-38
0.0367655903981 -0.0317521007983 0.903 1.84005692454e-38
0.0385644504538 -0.0318575895053 0.906 2.08929985681e-38
0.0402411656909 -0.0318575895053 0.906 2.11681617384e-38
0.0420104148815 -0.03192791531 0.908 2.09841404215e-38
0.0436908314768 -0.03192791531 0.908 1.76564503336e-38
0.0454711847418 -0.0319982411146 0.91 1.99602340544e-38
0.0473107597371 -0.0321037298216 0.913 2.08886853714e-38
0.0491077691137 -0.0321740556262 0.915 1.71040080322e-38
0.0508011404625 -0.0321740556262 0.915 1.46291187624e-38
0.0524945118112 -0.0321740556262 0.915 1.07871745589e-38
0.05418788316 -0.0321740556262 0.915 1.15210962218e-38
-0.0121774682784 -0.0313134898588 0.94 3.30607786169e-39
-0.0102157484646 -0.0306472453938 0.92 1.7038511342e-38
-0.00849461692979 -0.0305806209472 0.918 1.18759344202e-38
-0.00679569354383 -0.0305806209472 0.918 8.54683462607e-39
-0.00508011404625 -0.0304806842775 0.915 1.14794370197e-38
-0.0033867426975 -0.0304806842775 0.915 1.10202623416e-38
-0.00168966999061 -0.030414059831 0.913 1.14797957522e-38
0.0 -0.0303141231612 0.91 1.13876015236e-38
0.00168041659526 -0.0302474987147 0.908 1.26733138841e-38
0.00336083319052 -0.0302474987147 0.908 1.2765133966e-38
0.00501348959974 -0.0300809375984 0.903 1.28569694621e-38
0.00668465279965 -0.0300809375984 0.903 1.29488049583e-38
0.00833730920887 -0.0300143131519 0.901 1.31324759506e-38
0.00997145882739 -0.0299143764822 0.898 1.46018550995e-38
0.011633368632 -0.0299143764822 0.898 1.50610213699e-38
0.0132952784365 -0.0299143764822 0.898 1.55202254754e-38
0.0149571882411 -0.0299143764822 0.898 1.57279077169e-38
0.0166190980456 -0.0299143764822 0.898 1.27812881347e-38
0.0182810078502 -0.0299143764822 0.898 1.44368480014e-38
0.0199429176548 -0.0299143764822 0.898 1.36906635757e-38
0.0216048274593 -0.0299143764822 0.898 1.4520427047e-38
0.0232667372639 -0.0299143764822 0.898 1.39658113317e-38
0.0249286470685 -0.0299143764822 0.898 1.69182491052e-38
0.026590556873 -0.0299143764822 0.898 1.65569873546e-38
0.0282524666776 -0.0299143764822 0.898 1.74796653219e-38
0.0299143764822 -0.0299143764822 0.898 1.8309760901e-38
0.0316817749937 -0.0300143131519 0.901 1.72026874701e-38
0.0334232639983 -0.0300809375984 0.903 1.77569598672e-38
0.0350944271982 -0.0300809375984 0.903 1.93296511467e-38
0.0368877352167 -0.0301808742682 0.906 2.01594748739e-38
0.0385644504538 -0.0301808742682 0.906 2.05242384694e-38
0.0403299982863 -0.0302474987147 0.908 1.6828854671e-38
0.0420104148815 -0.0302474987147 0.908 1.90368526352e-38
0.0437870667884 -0.0303141231612 0.91 2.34690531792e-38
0.0454711847418 -0.0303141231612 0.91 1.95987593064e-38
0.047414397765 -0.0304806842775 0.915 1.8119955024e-38
0.0491077691137 -0.0304806842775 0.915 1.90358451016e-38
0.0508011404625 -0.0304806842775 0.915 1.37082863052e-38
0.0524945118112 -0.0304806842775 0.915 1.15254486548e-38
-0.0121515587715 -0.029510928445 0.938 4.32057310831e-39
-0.0103045810599 -0.0291963130031 0.928 1.55630337422e-38
-0.00854088390653 -0.0290390052822 0.923 1.12308901124e-38
-0.00681049897639 -0.0289446206497 0.92 1.03100254253e-38
-0.00509677015787 -0.0288816975613 0.918 1.10357621039e-38
-0.00339784677192 -0.0288816975613 0.918 1.01937400735e-38
-0.00169892338596 -0.0288816975613 0.918 1.1204290665e-38
0.0 -0.0287873129287 0.915 1.07447530505e-38
0.00168966999061 -0.0287243898404 0.913 1.23977919813e-38
0.00337933998122 -0.0287243898404 0.913 1.2765133966e-38
0.00506900997183 -0.0287243898404 0.913 1.28569694621e-38
0.0067364718136 -0.0286300052078 0.91 1.31324759506e-38
0.00840208297631 -0.0285670821194 0.908 1.20304499967e-38
0.0100602914227 -0.0285041590311 0.906 1.26732984698e-38
0.0116981423994 -0.0284097743985 0.903 1.48773503776e-38
0.0133396947342 -0.0283468513102 0.901 1.68992054591e-38
0.015007156576 -0.0283468513102 0.901 1.6008074924e-38
0.0166746184177 -0.0283468513102 0.901 1.65673667723e-38
0.0182810078502 -0.0282524666776 0.898 1.61035369806e-38
0.0199429176548 -0.0282524666776 0.898 1.76726381335e-38
0.0216048274593 -0.0282524666776 0.898 1.55503393794e-38
0.0232667372639 -0.0282524666776 0.898 1.72081203042e-38
0.0250119276266 -0.0283468513102 0.901 1.69357891581e-38
0.0266793894684 -0.0283468513102 0.901 1.51844827711e-38
0.0283468513102 -0.0283468513102 0.901 1.74875826583e-38
0.0300143131519 -0.0283468513102 0.901 1.758265095e-38
0.0317521007983 -0.0284097743985 0.903 1.73928240535e-38
0.0335343047424 -0.0285041590311 0.906 1.81260885074e-38
0.0352110199796 -0.0285041590311 0.906 1.78502120762e-38
0.0368877352167 -0.0285041590311 0.906 1.53516100338e-38
0.0385644504538 -0.0285041590311 0.906 1.80184113321e-38
0.0403299982863 -0.0285670821194 0.908 2.2546408843e-38
0.042102948835 -0.0286300052078 0.91 2.15366107488e-38
0.0437870667884 -0.0286300052078 0.91 1.78422807268e-38
0.0456210897465 -0.0287243898404 0.913 2.0422687771e-38
0.047414397765 -0.0287873129287 0.915 1.9779501585e-38
0.0492687781928 -0.0288816975613 0.918 1.76521455447e-38
0.0509677015787 -0.0288816975613 0.918 1.46276992471e-38
0.0526666249647 -0.0288816975613 0.918 1.09718839134e-38
-0.012086785004 -0.027626937152 0.933 7.54884807666e-39
-0.0103267892088 -0.0275381045567 0.93 1.32602309303e-38
-0.00858715088327 -0.0274788828265 0.928 1.16926095486e-38
-0.00683270712523 -0.0273308285009 0.923 5.33687883254e-39
-0.00510787423229 -0.0272419959056 0.92 1.51967497379e-38
-0.00339784677192 -0.0271827741753 0.918 1.15007031252e-38
-0.00169892338596 -0.0271827741753 0.918 7.99148182778e-39
0.0 -0.02709394158 0.915 1.13876015236e-38
0.00169337134875 -0.02709394158 0.915 1.16631108147e-38
0.00337933998122 -0.0270347198498 0.913 1.15712725159e-38
0.00506900997183 -0.0270347198498 0.913 1.23059564852e-38
0.00675867996244 -0.0270347198498 0.913 1.35916590366e-38
0.008420589767 -0.0269458872544 0.91 1.24896274775e-38
0.0100824995716 -0.0268866655242 0.908 1.32243114468e-38
0.0117629161668 -0.0268866655242 0.908 1.57957053392e-38
0.0134433327621 -0.0268866655242 0.908 1.57957053392e-38
0.0151237493574 -0.0268866655242 0.908 1.50818278495e-38
0.0167671523712 -0.026827443794 0.906 1.63811566272e-38
0.0184438676083 -0.026827443794 0.906 1.68374894721e-38
0.020053958399 -0.0267386111986 0.903 1.57312119787e-38
0.0217251215989 -0.0267386111986 0.903 1.60963623325e-38
0.0233962847988 -0.0267386111986 0.903 1.84022718231e-38
0.0250674479987 -0.0267386111986 0.903 1.43496550071e-38
0.026827443794 -0.026827443794 0.906 1.60081323773e-38
0.0285041590311 -0.026827443794 0.906 1.49932573788e-38
0.0301808742682 -0.026827443794 0.906 1.39733839486e-38
0.0318575895053 -0.026827443794 0.906 1.4885601223e-38
0.0335343047424 -0.026827443794 0.906 1.63610970397e-38
0.0352110199796 -0.026827443794 0.906 1.71976736242e-38
0.0369691650957 -0.0268866655242 0.908 1.91377461247e-38
0.038649581691 -0.0268866655242 0.908 2.03344690262e-38
0.0404188308816 -0.0269458872544 0.91 1.82075235664e-38
0.0422417497652 -0.0270347198498 0.913 1.82964625786e-38
0.0440276550675 -0.02709394158 0.915 2.34690601857e-38
0.0458709314209 -0.0271827741753 0.918 1.63650963455e-38
0.0476734928347 -0.0272419959056 0.92 1.5703869843e-38
0.0493761175788 -0.0272419959056 0.92 2.17787046767e-38
0.0510787423229 -0.0272419959056 0.92 1.45376307883e-38
0.052781367067 -0.0272419959056 0.92 9.31271990694e-39
-0.012086785004 -0.02590025358 0.933 1.03132722338e-38
-0.0103267892088 -0.0258169730219 0.93 4.96415586181e-39
-0.00858715088327 -0.0257614526498 0.928 1.39964114863e-38
-0.00683270712523 -0.0256226517196 0.923 8.28460123665e-39
-0.00510787423229 -0.0255393711615 0.92 1.23412313714e-38
-0.00340524948819 -0.0255393711615 0.92 1.26163286807e-38
-0.00169892338596 -0.0254838507894 0.918 1.36304778066e-38
0.0 -0.0254838507894 0.918 7.53769514218e-39
0.00169892338596 -0.0254838507894 0.918 1.03774110659e-38
0.0033867426975 -0.0254005702312 0.915 1.16631080121e-38
0.00508011404625 -0.0254005702312 0.915 1.15712725159e-38
0.006773485395 -0.0254005702312 0.915 1.46065284299e-38
0.00844834995305 -0.0253450498591 0.913 1.26732984698e-38
0.0101047077204 -0.025261769301 0.91 1.43284897951e-38
0.0117888256738 -0.025261769301 0.91 1.5703869843e-38
0.0134729436272 -0.025261769301 0.91 1.56120343469e-38
0.0151237493574 -0.0252062489289 0.908 1.54527571582e-38
0.0168041659526 -0.0252062489289 0.908 1.26851660665e-38
0.0184438676083 -0.0251507285568 0.906 1.33233454131e-38
0.0201205828455 -0.0251507285568 0.906 1.51564441901e-38
0.0217972980826 -0.0251507285568 0.906 1.51560882603e-38
0.0234740133197 -0.0251507285568 0.906 1.55302433581e-38
0.0251507285568 -0.0251507285568 0.906 1.4252472156e-38
0.026827443794 -0.0251507285568 0.906 1.62825864906e-38
0.0285041590311 -0.0251507285568 0.906 1.75725910283e-38
0.0301808742682 -0.0251507285568 0.906 1.84030481424e-38
0.0318575895053 -0.0251507285568 0.906 2.00625470592e-38
0.0336083319052 -0.0252062489289 0.908 1.85809555941e-38
0.0352887485005 -0.0252062489289 0.908 1.88614479025e-38
0.0369691650957 -0.0252062489289 0.908 1.69211063528e-38
0.0387347129282 -0.025261769301 0.91 1.71029528545e-38
0.0405520797746 -0.0253450498591 0.913 2.32818228888e-38
0.0423342837187 -0.0254005702312 0.915 2.16270239271e-38
0.0441720080349 -0.0254838507894 0.918 1.24910638084e-38
0.0459708680906 -0.0255393711615 0.92 1.73569087739e-38
0.0478289498766 -0.0256226517196 0.923 1.82806447215e-38
0.0496444660439 -0.0256781720917 0.925 2.15078995446e-38
0.0515229052996 -0.0257614526498 0.928 1.29731987619e-38
0.0532403354763 -0.0257614526498 0.928 8.6662574851e-39
-0.0103267892088 -0.0240958414871 0.93 6.44464590625e-39
-0.00858715088327 -0.0240440224732 0.928 5.41834051617e-39
-0.00684751255778 -0.0239662939522 0.925 1.50959221095e-38
-0.00512453034392 -0.0239144749383 0.923 1.35383074001e-38
-0.00340524948819 -0.0238367464174 0.92 1.06791834927e-38
-0.0017026247441 -0.0238367464174 0.92 1.09539725164e-38
0.0 -0.0237849274034 0.918 1.19706243614e-38
0.00169892338596 -0.0237849274034 0.918 1.64875067728e-38
0.0033867426975 -0.0237071988825 0.915 8.64114621662e-39
0.00508011404625 -0.0237071988825 0.915 1.11120950351e-38
0.006773485395 -0.0237071988825 0.915 1.18467790044e-38
0.00844834995305 -0.0236553798685 0.913 1.28569694621e-38
0.0101380199437 -0.0236553798685 0.913 1.36834889275e-38
0.0118276899343 -0.0236553798685 0.913 1.4785517684e-38
0.0135173599249 -0.0236553798685 0.913 1.56120343469e-38
0.0151570615806 -0.0235776513476 0.91 1.60973992933e-38
0.0168041659526 -0.0235258323337 0.908 1.69321990314e-38
0.0184845825479 -0.0235258323337 0.908 1.61003125929e-38
0.0201649991431 -0.0235258323337 0.908 1.84944702555e-38
0.0218454157384 -0.0235258323337 0.908 1.67420694545e-38
0.0234740133197 -0.0234740133197 0.906 1.64694860746e-38
0.0251507285568 -0.0234740133197 0.906 1.68392999497e-38
0.026827443794 -0.0234740133197 0.906 1.56429021494e-38
0.0285670821194 -0.0235258323337 0.908 1.70186941791e-38
0.0302474987147 -0.0235258323337 0.908 1.60923770397e-38
0.03192791531 -0.0235258323337 0.908 1.69145917162e-38
0.0336083319052 -0.0235258323337 0.908 1.8020922459e-38
0.0352887485005 -0.0235258323337 0.908 2.10670034036e-38
0.0369691650957 -0.0235258323337 0.908 2.22730967879e-38
0.0387347129282 -0.0235776513476 0.91 2.07068346658e-38
0.04064091237 -0.0237071988825 0.915 1.3048173835e-38
0.042473084649 -0.0237849274034 0.918 1.57957053392e-38
0.0442682433465 -0.0238367464174 0.92 1.8739487292e-38
0.0459708680906 -0.0238367464174 0.92 1.66286819879e-38
0.0478289498766 -0.0239144749383 0.923 1.85586889615e-38
0.0496444660439 -0.0239662939522 0.925 2.22439932201e-38
0.0515229052996 -0.0240440224732 0.928 1.2880645801e-38
0.0533550775786 -0.0240958414871 0.93 1.20728602947e-38
-0.00860565767397 -0.0223747099523 0.93 6.53040256967e-39
-0.00686972070662 -0.0223265922965 0.928 7.9035923881e-39
-0.00513563441834 -0.0222544158128 0.925 1.55612414814e-38
-0.00341635356261 -0.022206298157 0.923 1.39056227601e-38
-0.0017026247441 -0.0221341216733 0.92 1.05894919832e-38
0.0 -0.0220860040175 0.918 7.1804383026e-39
0.00169892338596 -0.0220860040175 0.918 1.61244695771e-38
0.00339784677192 -0.0220860040175 0.918 1.24308836446e-38
0.00509677015787 -0.0220860040175 0.918 1.78632525597e-38
0.006773485395 -0.0220138275337 0.915 1.4179318771e-38
0.00844834995305 -0.0219657098779 0.913 8.35703015038e-39
0.0101380199437 -0.0219657098779 0.913 1.18467790044e-38
0.0118535994412 -0.0220138275337 0.915 1.17549435082e-38
0.0135173599249 -0.0219657098779 0.913 1.55209401376e-38
0.0152070299155 -0.0219657098779 0.913 1.62803528209e-38
0.016841179534 -0.0218935333942 0.91 1.37918415287e-38
0.0185252974874 -0.0218935333942 0.91 1.39697573882e-38
0.0202094154408 -0.0218935333942 0.91 1.57139255608e-38
0.0218935333942 -0.0218935333942 0.91 1.52576067289e-38
0.0235258323337 -0.0218454157384 0.908 1.46147904856e-38
0.0252062489289 -0.0218454157384 0.908 1.71908212747e-38
0.0268866655242 -0.0218454157384 0.908 1.59995003787e-38
0.0285670821194 -0.0218454157384 0.908 2.04262989171e-38
0.0302474987147 -0.0218454157384 0.908 2.10774542875e-38
0.03192791531 -0.0218454157384 0.908 2.08019562069e-38
0.033682359068 -0.0218935333942 0.91 2.1168901624e-38
0.0353664770214 -0.0218935333942 0.91 1.63725470494e-38
0.0371727397934 -0.0219657098779 0.913 1.40508309122e-38
0.038862409784 -0.0219657098779 0.913 1.51528568661e-38
0.04064091237 -0.0220138275337 0.915 1.56120343469e-38
0.042473084649 -0.0220860040175 0.918 1.67180161663e-38
0.0442682433465 -0.0221341216733 0.92 1.49691858738e-38
0.0459708680906 -0.0221341216733 0.92 1.46936793853e-38
0.0478289498766 -0.022206298157 0.923 1.96643176538e-38
0.049805475123 -0.0223265922965 0.928 1.95760750869e-38
0.0515229052996 -0.0223265922965 0.928 1.13133439154e-38
0.0535271907321 -0.022446886436 0.933 2.21128484995e-38
-0.00863341786002 -0.020720202864 0.933 6.99210939419e-39
-0.00686972070662 -0.0206091621199 0.928 6.8065886879e-39
-0.00513563441834 -0.0205425376733 0.925 6.3366492349e-39
-0.00341635356261 -0.0204981213757 0.923 1.62915758203e-38
-0.0017026247441 -0.0204314969292 0.92 1.49187405303e-38
0.0 -0.0204314969292 0.92 1.01238867464e-38
0.0017026247441 -0.0204314969292 0.92 1.53833116089e-38
0.00339784677192 -0.0203870806315 0.918 1.14192680663e-38
0.00509677015787 -0.0203870806315 0.918 1.55590904883e-38
0.00679569354383 -0.0203870806315 0.918 1.56613250203e-38
0.00846685674374 -0.020320456185 0.915 1.37241630168e-38
0.0101602280925 -0.020320456185 0.915 2.09118067961e-38
0.0118535994412 -0.020320456185 0.915 1.74951566765e-38
0.01354697079 -0.020320456185 0.915 1.40508309122e-38
0.0152070299155 -0.0202760398873 0.913 1.69214076319e-38
0.0168966999061 -0.0202760398873 0.913 1.60063317088e-38
0.0185863698967 -0.0202760398873 0.913 1.84980421653e-38
0.0202760398873 -0.0202760398873 0.913 1.77551634026e-38
0.0218935333942 -0.0202094154408 0.91 1.73831382785e-38
0.0235776513476 -0.0202094154408 0.91 2.09848214526e-38
0.025261769301 -0.0202094154408 0.91 1.92331619384e-38
0.0269458872544 -0.0202094154408 0.91 1.8399769104e-38
0.0286300052078 -0.0202094154408 0.91 1.59065662646e-38
0.0303141231612 -0.0202094154408 0.91 1.30406404544e-38
0.0319982411146 -0.0202094154408 0.91 1.37753244237e-38
0.0337933998122 -0.0202760398873 0.913 1.46018438891e-38
0.0354830698028 -0.0202760398873 0.913 1.52446923622e-38
0.0371727397934 -0.0202760398873 0.913 1.51528568661e-38
0.0389475410212 -0.020320456185 0.915 1.67183692935e-38
0.040774161263 -0.0203870806315 0.918 1.47855148814e-38
0.0425656186024 -0.0204314969292 0.92 1.69992791889e-38
0.0442682433465 -0.0204314969292 0.92 1.40508309122e-38
0.0461207730953 -0.0204981213757 0.923 1.55274267482e-38
0.0479325879045 -0.0205425376733 0.925 1.69096395274e-38
0.049805475123 -0.0206091621199 0.928 1.60982218555e-38
0.0516339460438 -0.0206535784175 0.93 1.69422337297e-38
-0.00686972070662 -0.0188917319432 0.928 8.09838408503e-39
-0.00513563441834 -0.0188306595339 0.925 6.07190471863e-39
-0.00341635356261 -0.0187899445944 0.923 5.6938007618e-39
-0.00170817678131 -0.0187899445944 0.923 1.50829488883e-38
0.0 -0.0187288721851 0.92 1.7493393843e-38
0.0017026247441 -0.0187288721851 0.92 1.6761204185e-38
0.00339784677192 -0.0186881572455 0.918 1.28911177044e-38
0.00509677015787 -0.0186881572455 0.918 1.5470433137e-38
0.00679569354383 -0.0186881572455 0.918 1.50130899559e-38
0.00846685674374 -0.0186270848362 0.915 8.83994002196e-39
0.0101602280925 -0.0186270848362 0.915 1.96254049967e-38
0.0118535994412 -0.0186270848362 0.915 1.74984132941e-38
0.01354697079 -0.0186270848362 0.915 1.35916534314e-38
0.0152403421387 -0.0186270848362 0.915 1.30406404544e-38
0.0169337134875 -0.0186270848362 0.915 1.29488049583e-38
0.0186270848362 -0.0186270848362 0.915 1.33161469429e-38
0.020320456185 -0.0186270848362 0.915 1.42345019045e-38
0.0219657098779 -0.0185863698967 0.913 1.49691858738e-38
0.0236553798685 -0.0185863698967 0.913 1.4510008393e-38
0.025261769301 -0.0185252974874 0.91 1.3958995416e-38
0.0269458872544 -0.0185252974874 0.91 1.42345019045e-38
0.0287243898404 -0.0185863698967 0.913 1.4510008393e-38
0.030414059831 -0.0185863698967 0.913 1.3958995416e-38
0.0321037298216 -0.0185863698967 0.913 1.37753370354e-38
0.033867426975 -0.0186270848362 0.915 1.59793861406e-38
0.0355607983237 -0.0186270848362 0.915 1.69895779996e-38
0.0372541696725 -0.0186270848362 0.915 1.60715705601e-38
0.039075237877 -0.0186881572455 0.918 1.5888975765e-38
0.0408629938583 -0.0187288721851 0.92 1.48773503776e-38
0.0425656186024 -0.0187288721851 0.92 1.68102019871e-38
0.044412596314 -0.0187899445944 0.923 1.7175404189e-38
0.046220709765 -0.0188306595339 0.925 1.5264110155e-38
0.0479325879045 -0.0188306595339 0.925 1.44504952472e-38
0.049805475123 -0.0188917319432 0.928 1.47320637528e-38
-0.00516339460438 -0.0172113153479 0.93 7.64100026627e-39
-0.00342375627889 -0.0171187813945 0.925 5.70315583034e-39
-0.00171187813945 -0.0171187813945 0.925 7.08245390878e-39
0.0 -0.0170817678131 0.923 8.17335915806e-39
0.0017026247441 -0.017026247441 0.92 1.61024509743e-38
0.00340524948819 -0.017026247441 0.92 1.85024884853e-38
0.00509677015787 -0.0169892338596 0.918 1.85104100255e-38
0.00679569354383 -0.0169892338596 0.918 1.7407258829e-38
0.00849461692979 -0.0169892338596 0.918 9.47851453475e-39
0.0101935403157 -0.0169892338596 0.918 1.92555462801e-38
0.0118535994412 -0.0169337134875 0.915 1.77760623679e-38
0.01354697079 -0.0169337134875 0.915 1.34998179352e-38
0.0152403421387 -0.0169337134875 0.915 1.4510008393e-38
0.0169337134875 -0.0169337134875 0.915 1.46936793853e-38
0.0186270848362 -0.0169337134875 0.915 1.48773503776e-38
0.020320456185 -0.0169337134875 0.915 1.49691858738e-38
0.0220138275337 -0.0169337134875 0.915 1.57957053392e-38
0.0237071988825 -0.0169337134875 0.915 1.56120343469e-38
0.0254005702312 -0.0169337134875 0.915 1.57957053392e-38
0.02709394158 -0.0169337134875 0.915 1.5703869843e-38
0.0287873129287 -0.0169337134875 0.915 1.53365278584e-38
0.0304806842775 -0.0169337134875 0.915 1.57053047726e-38
0.0321740556262 -0.0169337134875 0.915 1.5245409827e-38
0.033867426975 -0.0169337134875 0.915 1.74498274737e-38
0.0356773911051 -0.0169892338596 0.918 1.51528568661e-38
0.0373763144911 -0.0169892338596 0.918 1.41426664083e-38
0.0391603691142 -0.017026247441 0.92 1.34998179352e-38
0.0409962427514 -0.0170817678131 0.923 1.76403129805e-38
0.0427044195327 -0.0170817678131 0.923 1.73680420902e-38
0.0445088316256 -0.0171187813945 0.925 1.52701959943e-38
0.046220709765 -0.0171187813945 0.925 1.27920388965e-38
0.0480880449463 -0.0171743017665 0.928 1.55618972891e-38
-0.00343486035331 -0.0154568715899 0.928 7.91865914919e-39
-0.00171743017665 -0.0154568715899 0.928 6.25629317576e-39
0.0 -0.015406903255 0.925 7.36441758058e-39
0.00170817678131 -0.0153735910318 0.923 6.34238895341e-39
0.00341635356261 -0.0153735910318 0.923 9.82639808891e-39
0.00510787423229 -0.0153236226969 0.92 1.35044954695e-38
0.00679569354383 -0.0152903104736 0.918 1.95152166946e-38
0.00849461692979 -0.0152903104736 0.918 1.81408609958e-38
0.0101935403157 -0.0152903104736 0.918 2.07260058301e-38
0.0118924637017 -0.0152903104736 0.918 1.86036944643e-38
0.0135913870877 -0.0152903104736 0.918 1.40508309122e-38
0.0152903104736 -0.0152903104736 0.918 1.51528652739e-38
0.0169892338596 -0.0152903104736 0.918 1.51528568661e-38
0.0186881572455 -0.0152903104736 0.918 1.49692265114e-38
0.0203870806315 -0.0152903104736 0.918 1.4510008393e-38
0.0220860040175 -0.0152903104736 0.918 1.64385538123e-38
0.0237849274034 -0.0152903104736 0.918 1.46936793853e-38
0.0254838507894 -0.0152903104736 0.918 1.47855148814e-38
0.0271827741753 -0.0152903104736 0.918 1.44181728968e-38
0.0288816975613 -0.0152903104736 0.918 1.40508309122e-38
0.0305806209472 -0.0152903104736 0.918 1.44181728968e-38
0.0322795443332 -0.0152903104736 0.918 1.44181728968e-38
0.0339784677192 -0.0152903104736 0.918 1.63474385835e-38
0.035755119626 -0.0153236226969 0.92 1.60722880249e-38
0.0374577443701 -0.0153236226969 0.92 1.46018438891e-38
0.03928806597 -0.0153735910318 0.923 1.58014997083e-38
0.0409962427514 -0.0153735910318 0.923 1.57272308897e-38
0.0427969534861 -0.015406903255 0.925 1.38951676723e-38
0.0445088316256 -0.015406903255 0.925 1.25237070561e-38
0.0463706147697 -0.0154568715899 0.928 1.6666106466e-38
0.0 -0.0137394414132 0.928 8.28133761253e-39
0.00171743017665 -0.0137394414132 0.928 5.88966865594e-39
0.00342375627889 -0.0136950251156 0.925 7.91578928993e-39
0.00512453034392 -0.0136654142505 0.923 9.10608303409e-39
0.00681049897639 -0.0136209979528 0.92 7.98968816575e-39
0.00851312372049 -0.0136209979528 0.92 9.36722060812e-39
0.0101935403157 -0.0135913870877 0.918 1.29509573527e-38
0.0118924637017 -0.0135913870877 0.918 1.76576890814e-38
0.0135913870877 -0.0135913870877 0.918 1.43263374006e-38
0.0152903104736 -0.0135913870877 0.918 1.44181728968e-38
0.0169892338596 -0.0135913870877 0.918 1.44181742981e-38
0.0186881572455 -0.0135913870877 0.918 1.36834973353e-38
0.0203870806315 -0.0135913870877 0.918 1.19386145005e-38
0.0220860040175 -0.0135913870877 0.918 1.83786137011e-38
0.0237849274034 -0.0135913870877 0.918 1.31324759506e-38
0.0254838507894 -0.0135913870877 0.918 1.42345019045e-38
0.0271827741753 -0.0135913870877 0.918 1.35916534314e-38
0.0289446206497 -0.0136209979528 0.92 1.34079824391e-38
0.0306472453938 -0.0136209979528 0.92 1.69978302463e-38
0.0323498701378 -0.0136209979528 0.92 1.23977919813e-38
0.0340524948819 -0.0136209979528 0.92 1.4790179804e-38
0.0358717124074 -0.0136654142505 0.923 1.56242536695e-38
0.0375798891887 -0.0136654142505 0.923 1.45362014639e-38
0.0393731972073 -0.0136950251156 0.925 1.27909626993e-38
0.0410850753467 -0.0136950251156 0.925 1.25215546617e-38
0.0427969534861 -0.0136950251156 0.925 1.4274735986e-38
0.00513563441834 -0.0119831469761 0.925 6.16553387683e-39
0.00684751255778 -0.0119831469761 0.925 6.90344643775e-39
0.00854088390653 -0.0119572374691 0.923 8.74413184465e-39
0.0102490606878 -0.0119572374691 0.923 9.29152807027e-39
0.0119183732087 -0.0119183732087 0.92 1.00219072506e-38
0.0135913870877 -0.0118924637017 0.918 1.1491992654e-38
0.0152903104736 -0.0118924637017 0.918 1.14866116679e-38
0.0169892338596 -0.0118924637017 0.918 1.08380234763e-38
0.0186881572455 -0.0118924637017 0.918 1.19386145005e-38
0.0203870806315 -0.0118924637017 0.918 1.25814629736e-38
0.0220860040175 -0.0118924637017 0.918 1.38700297791e-38
0.0237849274034 -0.0118924637017 0.918 1.4145895e-38
0.0254838507894 -0.0118924637017 0.918 1.39654525993e-38
0.0271827741753 -0.0118924637017 0.918 1.203690718e-38
0.0289446206497 -0.0119183732087 0.92 1.38825952224e-38
0.0306472453938 -0.0119183732087 0.92 1.3334443697e-38
0.0323498701378 -0.0119183732087 0.92 1.21430919725e-38
0.0341635356261 -0.0119572374691 0.923 1.27952674881e-38
0.0359494409284 -0.0119831469761 0.925 1.17843595656e-38
0.0376613190678 -0.0119831469761 0.925 1.20638205183e-38
0.0393731972073 -0.0119831469761 0.925 1.36336405373e-38
0.0410850753467 -0.0119831469761 0.925 1.65760562241e-38
0.00684751255778 -0.0102712688367 0.925 1.0220687043e-38
0.00855939069723 -0.0102712688367 0.925 1.02231561309e-38
0.0102712688367 -0.0102712688367 0.925 7.73606435409e-39
0.0119572374691 -0.0102490606878 0.923 7.45807476474e-39
0.0136654142505 -0.0102490606878 0.923 8.38002405688e-39
0.0153236226969 -0.0102157484646 0.92 9.11719252832e-39
