# .PCD v0.7 - Point Cloud Data file format
VERSION 0.7
FIELDS x y z rgb
SIZE 4 4 4 4
TYPE F F F F
COUNT 1 1 1 1
WIDTH 838
HEIGHT 1
VIEWPOINT 0 0 0 1 0 0 0
POINTS 838
DATA ascii
0.024225389022 -0.0622938574851 0.935 2.24566738933e-38
0.0260390545103 -0.0624937308247 0.938 1.60884688182e-38
0.0277749914776 -0.0624937308247 0.938 2.05203274454e-38
0.029510928445 -0.0624937308247 0.938 2.18189555738e-38
0.0312468654123 -0.0624937308247 0.938 2.34885676616e-38
-0.0400116814863 -0.0608873413922 0.94 2.31208697472e-38
-0.0382720431608 -0.0608873413922 0.94 1.38044644253e-38
-0.0364546763144 -0.0607577938573 0.938 9.65564146324e-39
-0.034718739347 -0.0607577938573 0.938 9.38229857959e-39
-0.0329828023797 -0.0607577938573 0.938 1.26015519884e-38
-0.0310803042961 -0.0604339250201 0.933 1.35062751185e-38
-0.0293536207241 -0.0604339250201 0.933 1.43360231756e-38
-0.0275381045567 -0.0602396037178 0.93 1.2872753688e-38
-0.0257614526498 -0.0601100561829 0.928 1.05822472702e-38
-0.0239662939522 -0.0599157348806 0.925 8.00905971572e-39
-0.0222544158128 -0.0599157348806 0.925 9.75608653716e-39
-0.0205425376733 -0.0599157348806 0.925 9.37224286181e-39
-0.0188306595339 -0.0599157348806 0.925 1.9706343996e-38
-0.0171187813945 -0.0599157348806 0.925 1.8328489255e-38
-0.015406903255 -0.0599157348806 0.925 1.95227262531e-38
-0.0136950251156 -0.0599157348806 0.925 1.78682593991e-38
-0.0119831469761 -0.0599157348806 0.925 9.94048760597e-39
-0.0102490606878 -0.0597861873457 0.923 6.79582671569e-39
-0.00854088390653 -0.0597861873457 0.923 1.1020259539e-38
-0.00684751255778 -0.0599157348806 0.925 1.4510008393e-38
-0.00512453034392 -0.0597861873457 0.923 1.52446923622e-38
-0.00341635356261 -0.0597861873457 0.923 1.55201988507e-38
-0.00170817678131 -0.0597861873457 0.923 1.61630473238e-38
0.0 -0.0597861873457 0.923 1.625488282e-38
0.00170817678131 -0.0597861873457 0.923 1.59793763315e-38
0.00341635356261 -0.0597861873457 0.923 1.625488282e-38
0.00512453034392 -0.0597861873457 0.923 1.66222248046e-38
0.00683270712523 -0.0597861873457 0.923 1.67140603008e-38
0.00855939069723 -0.0599157348806 0.925 1.64385538123e-38
0.0102712688367 -0.0599157348806 0.925 1.67140603008e-38
0.0119831469761 -0.0599157348806 0.925 1.73569087739e-38
0.0137394414132 -0.0601100561829 0.928 1.70814022854e-38
0.0154568715899 -0.0601100561829 0.928 1.72650732777e-38
0.0171743017665 -0.0601100561829 0.928 1.75405797662e-38
0.018993519292 -0.0604339250201 0.933 1.75405797662e-38
0.0207646191617 -0.060563472555 0.935 1.68977312931e-38
0.0224950040919 -0.060563472555 0.935 2.34641528385e-38
0.024225389022 -0.060563472555 0.935 1.82903683316e-38
0.0260390545103 -0.0607577938573 0.938 2.10688755383e-38
0.0277749914776 -0.0607577938573 0.938 1.13983634958e-38
0.029510928445 -0.0607577938573 0.938 2.29278619032e-38
0.0312468654123 -0.0607577938573 0.938 2.34878445916e-38
-0.0400116814863 -0.0591477030667 0.94 2.27492187698e-38
-0.0382720431608 -0.0591477030667 0.94 1.49075707803e-38
-0.0365324048353 -0.0591477030667 0.94 9.84039986316e-39
-0.034718739347 -0.0590218568899 0.938 8.27559789402e-39
-0.0329828023797 -0.0590218568899 0.938 1.11257268666e-38
-0.0311469287426 -0.0588330876248 0.935 1.38736171032e-38
-0.0293536207241 -0.0587072414481 0.933 1.48845250257e-38
-0.0275381045567 -0.058518472183 0.93 1.3602774136e-38
-0.0258169730219 -0.058518472183 0.93 1.23203057814e-38
-0.0240440224732 -0.0583926260063 0.928 5.60196526564e-39
-0.0223265922965 -0.0583926260063 0.928 1.04789477513e-38
-0.0206091621199 -0.0583926260063 0.928 1.88781135452e-38
-0.0188917319432 -0.0583926260063 0.928 1.85118295409e-38
-0.0171743017665 -0.0583926260063 0.928 1.90642550267e-38
-0.0154568715899 -0.0583926260063 0.928 1.43619668154e-38
-0.0136950251156 -0.0582038567412 0.925 7.53589167106e-39
-0.0119831469761 -0.0582038567412 0.925 8.26519465422e-39
-0.0102712688367 -0.0582038567412 0.925 1.19386145005e-38
-0.00855939069723 -0.0582038567412 0.925 1.47855148814e-38
-0.00684751255778 -0.0582038567412 0.925 1.55201988507e-38
-0.00513563441834 -0.0582038567412 0.925 1.56120343469e-38
-0.00342375627889 -0.0582038567412 0.925 1.60712118276e-38
-0.00171187813945 -0.0582038567412 0.925 1.61630473238e-38
0.0 -0.0582038567412 0.925 1.63467183161e-38
0.00171187813945 -0.0582038567412 0.925 1.58875408353e-38
0.00342375627889 -0.0582038567412 0.925 1.55201988507e-38
0.00513563441834 -0.0582038567412 0.925 1.55201988507e-38
0.00684751255778 -0.0582038567412 0.925 1.58875408353e-38
0.00855939069723 -0.0582038567412 0.925 1.625488282e-38
0.0103045810599 -0.0583926260063 0.928 1.64385538123e-38
0.0120220112366 -0.0583926260063 0.928 1.67140603008e-38
0.0137394414132 -0.0583926260063 0.928 1.72650732777e-38
0.0154568715899 -0.0583926260063 0.928 1.77242507585e-38
0.0172113153479 -0.058518472183 0.93 1.7999757247e-38
0.018993519292 -0.0587072414481 0.933 1.72650732777e-38
0.0207646191617 -0.0588330876248 0.935 1.69895667892e-38
0.0224950040919 -0.0588330876248 0.935 2.31839197703e-38
0.0243031175429 -0.0590218568899 0.938 1.8208287274e-38
0.0260390545103 -0.0590218568899 0.938 1.1020259539e-38
0.0277749914776 -0.0590218568899 0.938 2.05300524567e-38
0.029510928445 -0.0590218568899 0.938 2.2928565355e-38
-0.0401393783421 -0.0575912819691 0.943 2.32087437726e-38
-0.0382720431608 -0.0574080647412 0.94 1.14959611312e-38
-0.0365324048353 -0.0574080647412 0.94 1.29674590434e-38
-0.0347927665098 -0.0574080647412 0.94 1.07587436144e-38
-0.0329828023797 -0.0572859199226 0.938 1.13065279996e-38
-0.0311469287426 -0.0571027026947 0.935 1.4523281492e-38
-0.0293536207241 -0.0569805578761 0.933 1.39679637262e-38
-0.027626937152 -0.0569805578761 0.933 1.39658113317e-38
-0.0258169730219 -0.0567973406482 0.93 1.34176682141e-38
-0.0240958414871 -0.0567973406482 0.93 1.20444405606e-38
-0.0223747099523 -0.0567973406482 0.93 1.84164263388e-38
-0.0206535784175 -0.0567973406482 0.93 1.91571863382e-38
-0.0188917319432 -0.0566751958296 0.928 1.72243095054e-38
-0.0171743017665 -0.0566751958296 0.928 1.00316070386e-38
-0.0154568715899 -0.0566751958296 0.928 9.46802441444e-39
-0.0136950251156 -0.0564919786017 0.925 1.10270754547e-38
-0.0119831469761 -0.0564919786017 0.925 1.3968681191e-38
-0.0102712688367 -0.0564919786017 0.925 1.47855148814e-38
-0.00855939069723 -0.0564919786017 0.925 1.57957053392e-38
-0.00684751255778 -0.0564919786017 0.925 1.5703869843e-38
-0.00513563441834 -0.0564919786017 0.925 1.57957053392e-38
-0.00342375627889 -0.0564919786017 0.925 1.58875408353e-38
-0.00171187813945 -0.0564919786017 0.925 1.53365278584e-38
0.0 -0.0564919786017 0.925 1.58875408353e-38
0.00171187813945 -0.0564919786017 0.925 1.98630315851e-38
0.00343486035331 -0.0566751958296 0.928 2.12592419347e-38
0.00515229052996 -0.0566751958296 0.928 2.06171529654e-38
0.00686972070662 -0.0566751958296 0.928 2.04317079292e-38
0.00858715088327 -0.0566751958296 0.928 1.42474162711e-38
0.0103267892088 -0.0567973406482 0.93 1.58875408353e-38
0.0120479207436 -0.0567973406482 0.93 1.64385538123e-38
0.0137690522784 -0.0567973406482 0.93 1.69895667892e-38
0.0154901838131 -0.0567973406482 0.93 1.68058957969e-38
0.01726683572 -0.0569805578761 0.933 1.77242507585e-38
0.0190342342316 -0.0571027026947 0.935 2.25316559728e-38
0.0207646191617 -0.0571027026947 0.935 2.32869628515e-38
0.0224950040919 -0.0571027026947 0.935 1.09284464636e-38
0.0243031175429 -0.0572859199226 0.938 1.95807568251e-38
0.0260390545103 -0.0572859199226 0.938 1.66657084972e-38
0.0277749914776 -0.0572859199226 0.938 1.13115670689e-38
0.029510928445 -0.0572859199226 0.938 2.34821427082e-38
-0.0402670751979 -0.0560237567971 0.946 2.31161964168e-38
-0.0383941879794 -0.0558460916064 0.943 1.50898110469e-38
-0.0366489976167 -0.0558460916064 0.943 1.2597605932e-38
-0.0347927665098 -0.0556684264157 0.94 1.24142950733e-38
-0.0330531281843 -0.0556684264157 0.94 1.09384685502e-38
-0.0311469287426 -0.0553723177646 0.935 1.57225617632e-38
-0.0294165438124 -0.0553723177646 0.935 1.52684023322e-38
-0.027626937152 -0.0552538743041 0.933 9.64272709659e-39
-0.02590025358 -0.0552538743041 0.933 1.64547570264e-38
-0.024173570008 -0.0552538743041 0.933 1.96135331961e-38
-0.022446886436 -0.0552538743041 0.933 1.92468540257e-38
-0.020720202864 -0.0552538743041 0.933 1.43641178085e-38
-0.0189324468827 -0.0550762091134 0.93 1.03070995141e-38
-0.0171743017665 -0.054957765653 0.928 9.28435342213e-39
-0.0154568715899 -0.054957765653 0.928 1.08419695327e-38
-0.0137394414132 -0.054957765653 0.928 1.54362666779e-38
-0.0120220112366 -0.054957765653 0.928 1.74702682144e-38
-0.0103045810599 -0.054957765653 0.928 1.4510008393e-38
-0.00858715088327 -0.054957765653 0.928 1.625488282e-38
-0.00686972070662 -0.054957765653 0.928 1.61630473238e-38
-0.00515229052996 -0.054957765653 0.928 1.5703869843e-38
-0.00343486035331 -0.054957765653 0.928 1.55201988507e-38
-0.00171743017665 -0.054957765653 0.928 2.14393354121e-38
0.0 -0.054957765653 0.928 2.01591245493e-38
0.00171743017665 -0.054957765653 0.928 1.59187855872e-38
0.00343486035331 -0.054957765653 0.928 1.72956089725e-38
0.00515229052996 -0.054957765653 0.928 1.77576787334e-38
0.00688452613918 -0.0550762091134 0.93 1.61014266251e-38
0.00860565767397 -0.0550762091134 0.93 2.13490399429e-38
0.0103267892088 -0.0550762091134 0.93 1.9601964076e-38
0.0120479207436 -0.0550762091134 0.93 1.50610213699e-38
0.0137690522784 -0.0550762091134 0.93 1.99394626073e-38
0.015540152148 -0.0552538743041 0.933 2.24552431675e-38
0.01726683572 -0.0552538743041 0.933 2.14480472846e-38
0.0190342342316 -0.0553723177646 0.935 1.1020269348e-38
0.0207646191617 -0.0553723177646 0.935 9.82639808891e-39
0.0224950040919 -0.0553723177646 0.935 2.23581037567e-38
0.0243031175429 -0.0555499829552 0.938 1.95162550567e-38
0.0260945748824 -0.0556684264157 0.94 1.03928715918e-38
0.0279230458032 -0.0558460916064 0.943 2.15384828836e-38
-0.0423731479792 -0.0547319828065 0.954 2.31168844543e-38
-0.0402670751979 -0.0542730143972 0.946 2.33945881788e-38
-0.038516332798 -0.0542730143972 0.946 1.18615164603e-38
-0.0366489976167 -0.0541009012437 0.943 1.4630567705e-38
-0.034903807254 -0.0541009012437 0.943 1.14970457363e-38
-0.0330531281843 -0.0539287880902 0.94 1.28802870686e-38
-0.0312468654123 -0.0538140459879 0.938 1.34226904677e-38
-0.0294165438124 -0.0536419328344 0.935 1.25875614246e-38
-0.0276861588823 -0.0536419328344 0.935 1.53530589764e-38
-0.02590025358 -0.0535271907321 0.933 1.89681735962e-38
-0.024173570008 -0.0535271907321 0.933 1.83259683191e-38
-0.022446886436 -0.0535271907321 0.933 1.18705366185e-38
-0.020720202864 -0.0535271907321 0.933 1.21441681697e-38
-0.018993519292 -0.0535271907321 0.933 7.16316870032e-39
-0.0172113153479 -0.0533550775786 0.93 1.28573478127e-38
-0.0154901838131 -0.0533550775786 0.93 1.48816551665e-38
-0.0137690522784 -0.0533550775786 0.93 1.5983322388e-38
-0.0120220112366 -0.0532403354763 0.928 1.86655730019e-38
-0.0103045810599 -0.0532403354763 0.928 1.52611940529e-38
-0.00858715088327 -0.0532403354763 0.928 1.57957053392e-38
-0.00686972070662 -0.0532403354763 0.928 1.60712118276e-38
-0.00515229052996 -0.0532403354763 0.928 1.50610213699e-38
-0.00343486035331 -0.0532403354763 0.928 2.25489872322e-38
-0.00171743017665 -0.0532403354763 0.928 1.67456595811e-38
0.0 -0.0532403354763 0.928 1.9794929881e-38
0.00171743017665 -0.0532403354763 0.928 1.65753303515e-38
0.00344226306959 -0.0533550775786 0.93 1.63890991869e-38
0.00516339460438 -0.0533550775786 0.93 1.6935831197e-38
0.00688452613918 -0.0533550775786 0.93 1.86053900355e-38
0.00863341786002 -0.0535271907321 0.933 1.86000202597e-38
0.010360101432 -0.0535271907321 0.933 2.30149399911e-38
0.012086785004 -0.0535271907321 0.933 2.06240865902e-38
0.013813468576 -0.0535271907321 0.933 1.12079634683e-38
0.015540152148 -0.0535271907321 0.933 1.17549435082e-38
0.01726683572 -0.0535271907321 0.933 1.05610820582e-38
0.0190342342316 -0.0536419328344 0.935 1.80178424049e-38
0.0207646191617 -0.0536419328344 0.935 1.81347821631e-38
0.0224950040919 -0.0536419328344 0.935 1.9886464098e-38
0.0243031175429 -0.0538140459879 0.938 1.12146925035e-38
0.0260945748824 -0.0539287880902 0.94 1.8961576283e-38
0.0279230458032 -0.0541009012437 0.943 1.87667733757e-38
-0.0423731479792 -0.052966434974 0.954 2.28395913103e-38
-0.0402670751979 -0.0525222719973 0.946 2.22893168177e-38
-0.038516332798 -0.0525222719973 0.946 1.0016884997e-38
-0.0366489976167 -0.052355710881 0.943 1.36135361082e-38
-0.034903807254 -0.052355710881 0.943 9.56272976986e-39
-0.0330531281843 -0.0521891497647 0.94 1.29742763605e-38
-0.0312468654123 -0.0520781090205 0.938 1.27827118539e-38
-0.0294165438124 -0.0519115479043 0.935 1.24950084636e-38
-0.0276861588823 -0.0519115479043 0.935 1.98893914105e-38
-0.0259557739521 -0.0519115479043 0.935 1.63945474353e-38
-0.024173570008 -0.0518005071601 0.933 8.83414425151e-39
-0.022446886436 -0.0518005071601 0.933 1.05718440304e-38
-0.0207646191617 -0.0519115479043 0.935 8.90804312733e-39
-0.018993519292 -0.0518005071601 0.933 1.13876015236e-38
-0.01726683572 -0.0518005071601 0.933 1.30406404544e-38
-0.015540152148 -0.0518005071601 0.933 1.5703869843e-38
-0.0137690522784 -0.0516339460438 0.93 1.63495881754e-38
-0.0120220112366 -0.0515229052996 0.928 1.83875637944e-38
-0.0103045810599 -0.0515229052996 0.928 1.54448650453e-38
-0.00858715088327 -0.0515229052996 0.928 1.57957053392e-38
-0.00686972070662 -0.0515229052996 0.928 1.58875408353e-38
-0.00515229052996 -0.0515229052996 0.928 2.34493817514e-38
-0.00343486035331 -0.0515229052996 0.928 1.71173918338e-38
-0.00171743017665 -0.0515229052996 0.928 1.97888510483e-38
0.0 -0.0515229052996 0.928 1.23286112774e-38
0.00172113153479 -0.0516339460438 0.93 1.24146524045e-38
0.00344226306959 -0.0516339460438 0.93 1.12157687007e-38
0.00516339460438 -0.0516339460438 0.93 1.24164460665e-38
0.00690673428801 -0.0518005071601 0.933 9.55663131894e-39
0.00863341786002 -0.0518005071601 0.933 2.03525023361e-38
0.010360101432 -0.0518005071601 0.933 1.52734582171e-38
0.012086785004 -0.0518005071601 0.933 1.6475577519e-38
0.013813468576 -0.0518005071601 0.933 8.44886564654e-39
0.0155734643713 -0.0519115479043 0.935 2.12493585766e-38
0.0173038493014 -0.0519115479043 0.935 1.97070530531e-38
0.0190342342316 -0.0519115479043 0.935 1.87826402782e-38
0.0208312436082 -0.0520781090205 0.938 8.72688326186e-39
0.0225671805756 -0.0520781090205 0.938 1.31324759506e-38
0.0243549365569 -0.0521891497647 0.94 2.2274956311e-38
0.0261778554405 -0.052355710881 0.943 1.63690031656e-38
0.0279230458032 -0.052355710881 0.943 2.09658198454e-38
0.0296682361659 -0.052355710881 0.943 2.34817489433e-38
-0.0442312297651 -0.0513082265276 0.956 2.21938715767e-38
-0.0423731479792 -0.0512008871415 0.954 2.26541238534e-38
-0.0402670751979 -0.0507715295974 0.946 2.33949581216e-38
-0.038516332798 -0.0507715295974 0.946 1.46273881588e-38
-0.0367655903981 -0.0507715295974 0.946 1.30557072155e-38
-0.0350148479982 -0.0507715295974 0.946 1.02098830318e-38
-0.0331586168913 -0.0506105205183 0.943 8.73800396647e-39
-0.0313134898588 -0.0504495114392 0.94 1.0763765868e-38
-0.029510928445 -0.0503421720532 0.938 1.93382887505e-38
-0.0276861588823 -0.0501811629741 0.935 1.50131011663e-38
-0.0259557739521 -0.0501811629741 0.935 9.57349174206e-39
-0.024225389022 -0.0501811629741 0.935 7.62667339077e-39
-0.0224950040919 -0.0501811629741 0.935 9.18355381969e-39
-0.0207646191617 -0.0501811629741 0.935 1.13876015236e-38
-0.0190342342316 -0.0501811629741 0.935 1.18467790044e-38
-0.01726683572 -0.0500738235881 0.933 1.26732984698e-38
-0.015540152148 -0.0500738235881 0.933 1.3958995416e-38
-0.013813468576 -0.0500738235881 0.933 1.68109180506e-38
-0.0120479207436 -0.049912814509 0.93 1.67244635406e-38
-0.0103045810599 -0.049805475123 0.928 1.589616863e-38
-0.00858715088327 -0.049805475123 0.928 1.59793763315e-38
-0.00686972070662 -0.049805475123 0.928 1.54283633545e-38
-0.00515229052996 -0.049805475123 0.928 2.34598704704e-38
-0.00344226306959 -0.049912814509 0.93 1.68360559438e-38
-0.00172113153479 -0.049912814509 0.93 1.81383428625e-38
0.0 -0.049912814509 0.93 1.02956200771e-38
0.00172113153479 -0.049912814509 0.93 1.55331342368e-38
0.00345336714401 -0.0500738235881 0.933 1.24928560691e-38
0.00518005071601 -0.0500738235881 0.933 1.53587846819e-38
0.00690673428801 -0.0500738235881 0.933 1.22166321159e-38
0.00863341786002 -0.0500738235881 0.933 2.06182249587e-38
0.010360101432 -0.0500738235881 0.933 1.80472584623e-38
0.012112694511 -0.0501811629741 0.935 1.6380521839e-38
0.0138430794411 -0.0501811629741 0.935 1.01937400735e-38
0.0155734643713 -0.0501811629741 0.935 1.86689767559e-38
0.0173038493014 -0.0501811629741 0.935 8.35706097894e-39
0.0190953066409 -0.0503421720532 0.938 1.25814629736e-38
0.0208312436082 -0.0503421720532 0.938 2.2444226159e-38
0.0226152982314 -0.0504495114392 0.94 2.2365002349e-38
0.0243549365569 -0.0504495114392 0.94 1.48877536174e-38
0.0261778554405 -0.0506105205183 0.943 2.11512648815e-38
0.0279230458032 -0.0506105205183 0.943 2.01410758251e-38
0.0296682361659 -0.0506105205183 0.943 2.34857062101e-38
-0.0460004789557 -0.049538977337 0.956 2.16399943457e-38
-0.0442312297651 -0.049538977337 0.956 2.17325459053e-38
-0.0423731479792 -0.0494353393091 0.954 2.30236294428e-38
-0.0404799032909 -0.0492798822672 0.951 2.21052856916e-38
-0.0385977626771 -0.0491244252253 0.948 1.04782316878e-38
-0.0367655903981 -0.0490207871974 0.946 1.54495313691e-38
-0.0350148479982 -0.0490207871974 0.946 1.30600120044e-38
-0.0331586168913 -0.0488653301556 0.943 5.23462328101e-39
-0.0313134898588 -0.0487098731137 0.94 1.61157619084e-38
-0.029510928445 -0.0486062350858 0.938 1.61165382278e-38
-0.0276861588823 -0.048450778044 0.935 9.47950385146e-39
-0.0259557739521 -0.048450778044 0.935 5.87854935263e-39
-0.024225389022 -0.048450778044 0.935 8.63253663885e-39
-0.0224950040919 -0.048450778044 0.935 1.02859343021e-38
-0.0207646191617 -0.048450778044 0.935 1.13876015236e-38
-0.0190342342316 -0.048450778044 0.935 1.18467790044e-38
-0.01726683572 -0.0483471400161 0.933 1.26732984698e-38
-0.015540152148 -0.0483471400161 0.933 1.36834889275e-38
-0.013813468576 -0.0483471400161 0.933 1.5524862372e-38
-0.0120479207436 -0.0481916829742 0.93 1.55255798368e-38
-0.0103267892088 -0.0481916829742 0.93 1.57042285754e-38
-0.00860565767397 -0.0481916829742 0.93 1.55201988507e-38
-0.00688452613918 -0.0481916829742 0.93 1.47855148814e-38
-0.00516339460438 -0.0481916829742 0.93 2.26376109523e-38
-0.00344226306959 -0.0481916829742 0.93 1.76637076583e-38
-0.00172113153479 -0.0481916829742 0.93 1.666535537e-38
0.0 -0.0481916829742 0.93 1.03870968408e-38
0.001726683572 -0.0483471400161 0.933 1.34998179352e-38
0.00345336714401 -0.0483471400161 0.933 1.44181728968e-38
0.00518005071601 -0.0483471400161 0.933 1.37753244237e-38
0.00690673428801 -0.0483471400161 0.933 1.08365885466e-38
0.00865192465071 -0.048450778044 0.935 2.12686684695e-38
0.0103823095809 -0.048450778044 0.935 1.69344242934e-38
0.012112694511 -0.048450778044 0.935 1.01087260983e-38
0.0138430794411 -0.048450778044 0.935 1.11120950351e-38
0.0156234327062 -0.0486062350858 0.938 1.65415408416e-38
0.0173593696735 -0.0486062350858 0.938 2.15429992685e-38
0.0190953066409 -0.0486062350858 0.938 2.17241283054e-38
0.0208312436082 -0.0486062350858 0.938 1.60791039406e-38
0.0226874747151 -0.0488653301556 0.943 1.78160862547e-38
0.0244326650778 -0.0488653301556 0.943 2.17812620464e-38
0.0261778554405 -0.0488653301556 0.943 2.04190696184e-38
0.0280118783985 -0.0490207871974 0.946 1.97733470821e-38
0.0297626207984 -0.0490207871974 0.946 2.34860579361e-38
-0.0460004789557 -0.0477697281463 0.956 2.26537707262e-38
-0.0442312297651 -0.0477697281463 0.956 2.27459537443e-38
-0.0424619805745 -0.0477697281463 0.956 2.27463096741e-38
-0.0406076001467 -0.0476697914766 0.954 2.3302740071e-38
-0.0387199074957 -0.0475198864719 0.951 9.46300356205e-39
-0.036843318919 -0.0473699814673 0.948 1.86774742298e-38
-0.035088875161 -0.0473699814673 0.948 1.13098098406e-38
-0.0332641055983 -0.0472700447975 0.946 1.10227706658e-38
-0.0313134898588 -0.0469702347883 0.94 1.84206904901e-38
-0.0295738515333 -0.0469702347883 0.94 8.18484279898e-39
-0.0277749914776 -0.0468702981185 0.938 1.0852731505e-38
-0.0259557739521 -0.0467203931138 0.935 1.01937512839e-38
-0.024225389022 -0.0467203931138 0.935 1.05610820582e-38
-0.0224950040919 -0.0467203931138 0.935 1.05610820582e-38
-0.0207646191617 -0.0467203931138 0.935 1.12039305313e-38
-0.0190342342316 -0.0467203931138 0.935 1.18467790044e-38
-0.01726683572 -0.0466204564441 0.933 1.26732984698e-38
-0.015540152148 -0.0466204564441 0.933 1.34998179352e-38
-0.013813468576 -0.0466204564441 0.933 1.61731156533e-38
-0.0120479207436 -0.0464705514394 0.93 1.40565818411e-38
-0.0103267892088 -0.0464705514394 0.93 1.95836238817e-38
-0.00860565767397 -0.0464705514394 0.93 1.37814228746e-38
-0.00688452613918 -0.0464705514394 0.93 1.20304499967e-38
-0.00516339460438 -0.0464705514394 0.93 2.18131752177e-38
-0.00344226306959 -0.0464705514394 0.93 1.48139220039e-38
-0.00172113153479 -0.0464705514394 0.93 2.14555834677e-38
0.0 -0.0466204564441 0.933 7.44979589341e-39
0.001726683572 -0.0466204564441 0.933 8.44886564654e-39
0.00346076986028 -0.0467203931138 0.935 1.06529175543e-38
0.00519115479043 -0.0467203931138 0.935 7.89785266959e-39
0.00692153972057 -0.0467203931138 0.935 1.80375082276e-38
0.00865192465071 -0.0467203931138 0.935 1.84153024975e-38
0.0103823095809 -0.0467203931138 0.935 2.32050569563e-38
0.012112694511 -0.0467203931138 0.935 2.10843010318e-38
0.0138430794411 -0.0467203931138 0.935 1.97870784058e-38
0.0156234327062 -0.0468702981185 0.938 1.81210088005e-38
0.0173593696735 -0.0468702981185 0.938 1.46018438891e-38
0.0190953066409 -0.0468702981185 0.938 1.69895667892e-38
0.0208756599059 -0.0469702347883 0.94 2.2991915256e-38
0.0226874747151 -0.0471201397929 0.943 1.67172973002e-38
0.0245103935987 -0.0472700447975 0.946 2.12488106689e-38
0.0262611359986 -0.0472700447975 0.946 1.9315961862e-38
0.0280118783985 -0.0472700447975 0.946 1.66351391712e-38
0.0297626207984 -0.0472700447975 0.946 2.34910801898e-38
-0.0443700306954 -0.0461448319232 0.959 2.2285698665e-38
-0.0424619805745 -0.0460004789557 0.956 2.21935058378e-38
-0.0406076001467 -0.0459042436441 0.954 2.33016582685e-38
-0.0388420523143 -0.0459042436441 0.954 8.35882381241e-39
-0.0369599117004 -0.0457598906767 0.951 1.53516072312e-38
-0.035088875161 -0.0456155377093 0.948 8.35703015038e-39
-0.0332641055983 -0.0455193023976 0.946 1.86847315545e-38
-0.0314134265286 -0.0453749494302 0.943 1.11400971823e-38
-0.0295738515333 -0.0452305964628 0.94 1.24236333263e-38
-0.0278342132079 -0.0452305964628 0.94 1.09424146067e-38
-0.0260390545103 -0.0451343611511 0.938 1.64683314046e-38
-0.024225389022 -0.0449900081837 0.935 1.1671000125e-38
-0.0224950040919 -0.0449900081837 0.935 1.11120950351e-38
-0.0208312436082 -0.0451343611511 0.938 1.11120950351e-38
-0.0190342342316 -0.0449900081837 0.935 1.06529175543e-38
-0.0173038493014 -0.0449900081837 0.935 1.4145895e-38
-0.0155734643713 -0.0449900081837 0.935 1.7009655804e-38
-0.0138430794411 -0.0449900081837 0.935 1.53480072954e-38
-0.012086785004 -0.0448937728721 0.933 1.52586829261e-38
-0.010360101432 -0.0448937728721 0.933 1.51664886975e-38
-0.00863341786002 -0.0448937728721 0.933 1.50868571097e-38
-0.00690673428801 -0.0448937728721 0.933 8.5460821288e-39
-0.00518005071601 -0.0448937728721 0.933 1.56504677598e-38
-0.00345336714401 -0.0448937728721 0.933 1.96185106083e-38
-0.001726683572 -0.0448937728721 0.933 1.95165633424e-38
0.0 -0.0449900081837 0.935 1.84171003634e-38
0.00173038493014 -0.0449900081837 0.935 1.36264953164e-38
0.00346076986028 -0.0449900081837 0.935 1.38047755135e-38
0.00519115479043 -0.0449900081837 0.935 1.83290932146e-38
0.00692153972057 -0.0449900081837 0.935 1.82330566257e-38
0.00865192465071 -0.0449900081837 0.935 2.08054902816e-38
0.0103823095809 -0.0449900081837 0.935 1.35131470862e-38
0.012112694511 -0.0449900081837 0.935 1.50610213699e-38
0.0138874957388 -0.0451343611511 0.938 1.57957053392e-38
0.0156234327062 -0.0451343611511 0.938 2.03943899498e-38
0.0173593696735 -0.0451343611511 0.938 2.28065318769e-38
0.0191360215804 -0.0452305964628 0.94 1.75528439303e-38
0.0208756599059 -0.0452305964628 0.94 1.81134754199e-38
0.0227596511988 -0.0455193023976 0.946 2.05916675502e-38
0.0245103935987 -0.0455193023976 0.946 2.17145350162e-38
0.0262611359986 -0.0455193023976 0.946 1.48881123498e-38
0.0280118783985 -0.0455193023976 0.946 1.99419765367e-38
0.0298255438868 -0.0456155377093 0.948 2.34892837251e-38
-0.0424619805745 -0.0442312297651 0.956 2.28395885077e-38
-0.0406927313839 -0.0442312297651 0.956 2.22889608879e-38
-0.0388420523143 -0.0441386958117 0.954 1.63844777045e-38
-0.0369599117004 -0.0439998948814 0.951 1.6296556035e-38
-0.0351999159051 -0.0439998948814 0.951 1.4452700891e-38
-0.0333344314029 -0.0438610939512 0.948 1.74047827346e-38
-0.0314134265286 -0.0436297590675 0.943 8.92671122547e-39
-0.0296682361659 -0.0436297590675 0.943 8.7344166424e-39
-0.0278342132079 -0.0434909581373 0.94 1.25911487486e-38
-0.0260390545103 -0.0433984241838 0.938 1.68310154732e-38
-0.0243031175429 -0.0433984241838 0.938 1.52655268678e-38
-0.0225671805756 -0.0433984241838 0.938 1.30406404544e-38
-0.0208312436082 -0.0433984241838 0.938 1.03774110659e-38
-0.0190342342316 -0.0432596232536 0.935 1.53444493986e-38
-0.0173038493014 -0.0432596232536 0.935 1.98795458875e-38
-0.0155734643713 -0.0432596232536 0.935 1.4700495301e-38
-0.0138430794411 -0.0432596232536 0.935 1.91247757061e-38
-0.012086785004 -0.0431670893001 0.933 1.6006281262e-38
-0.010360101432 -0.0431670893001 0.933 1.4636290608e-38
-0.00863341786002 -0.0431670893001 0.933 1.28924839704e-38
-0.00690673428801 -0.0431670893001 0.933 6.07477457789e-39
-0.00519115479043 -0.0432596232536 0.935 1.05901772182e-38
-0.00346076986028 -0.0432596232536 0.935 1.5659745757e-38
-0.00173038493014 -0.0432596232536 0.935 1.9150349403e-38
0.0 -0.0432596232536 0.935 1.67431834867e-38
0.00173038493014 -0.0432596232536 0.935 1.9969988493e-38
0.00346076986028 -0.0432596232536 0.935 2.04407477056e-38
0.00519115479043 -0.0432596232536 0.935 1.68425663764e-38
0.00692153972057 -0.0432596232536 0.935 2.19990476499e-38
0.00867968483676 -0.0433984241838 0.938 1.42478226477e-38
0.0104156218041 -0.0433984241838 0.938 1.58875408353e-38
0.0121515587715 -0.0433984241838 0.938 2.06885337079e-38
0.0138874957388 -0.0433984241838 0.938 1.82950150373e-38
0.0156234327062 -0.0433984241838 0.938 1.52518670104e-38
0.0173593696735 -0.0433984241838 0.938 2.22518867344e-38
0.0191360215804 -0.0434909581373 0.94 1.81006002897e-38
0.0209422843524 -0.0436297590675 0.943 2.06041867507e-38
0.0227596511988 -0.0437685599977 0.946 2.04151641995e-38
0.0245103935987 -0.0437685599977 0.946 1.49691858738e-38
0.0262611359986 -0.0437685599977 0.946 1.76389102807e-38
0.0280711001288 -0.0438610939512 0.948 2.09632834952e-38
0.0298255438868 -0.0438610939512 0.948 2.34889095784e-38
-0.0406927313839 -0.0424619805745 0.956 2.25651904463e-38
-0.0389234821933 -0.0424619805745 0.956 1.20480362924e-38
-0.0370765044818 -0.0423731479792 0.954 1.60189475988e-38
-0.0351999159051 -0.0422398990862 0.951 1.50058718675e-38
-0.0333344314029 -0.0421066501932 0.948 1.72203494359e-38
-0.0314134265286 -0.0418845687048 0.943 8.45460956894e-39
-0.0296682361659 -0.0418845687048 0.943 1.12182980444e-38
-0.0278342132079 -0.0417513198118 0.94 1.37903911848e-38
-0.0260390545103 -0.0416624872164 0.938 1.41480473944e-38
-0.0243031175429 -0.0416624872164 0.938 1.39654525993e-38
-0.0225671805756 -0.0416624872164 0.938 1.47855148814e-38
-0.0208312436082 -0.0416624872164 0.938 1.21222854929e-38
-0.0190953066409 -0.0416624872164 0.938 2.00421105224e-38
-0.0173038493014 -0.0415292383234 0.935 1.31324759506e-38
-0.0155734643713 -0.0415292383234 0.935 1.46018438891e-38
-0.0138430794411 -0.0415292383234 0.935 1.83768018222e-38
-0.012112694511 -0.0415292383234 0.935 1.38732583708e-38
-0.010360101432 -0.0414404057281 0.933 1.42538734545e-38
-0.00863341786002 -0.0414404057281 0.933 1.44472302218e-38
-0.00690673428801 -0.0414404057281 0.933 9.94190992392e-39
-0.00519115479043 -0.0415292383234 0.935 1.05826102065e-38
-0.00346076986028 -0.0415292383234 0.935 8.44958311135e-39
-0.00173038493014 -0.0415292383234 0.935 1.76431996553e-38
0.0 -0.0415292383234 0.935 2.03351752806e-38
0.00173038493014 -0.0415292383234 0.935 2.1168554102e-38
0.00346076986028 -0.0415292383234 0.935 2.08015610407e-38
0.00520781090205 -0.0416624872164 0.938 1.84951667008e-38
0.00694374786941 -0.0416624872164 0.938 1.37753244237e-38
0.00867968483676 -0.0416624872164 0.938 1.69895667892e-38
0.0104156218041 -0.0416624872164 0.938 2.13280933335e-38
0.0121515587715 -0.0416624872164 0.938 1.90354317186e-38
0.0138874957388 -0.0416624872164 0.938 1.9773041599e-38
0.0156234327062 -0.0416624872164 0.938 1.61680695775e-38
0.0173963832549 -0.0417513198118 0.94 1.71818473593e-38
0.0191970939897 -0.0418845687048 0.943 2.34454286884e-38
0.0209422843524 -0.0418845687048 0.943 1.49774367191e-38
0.0227596511988 -0.0420178175978 0.946 1.79079217508e-38
0.0245103935987 -0.0420178175978 0.946 1.78204106617e-38
0.0263166563707 -0.0421066501932 0.948 1.5890769427e-38
0.0280711001288 -0.0421066501932 0.948 2.14267755739e-38
0.0298255438868 -0.0421066501932 0.948 2.34871313307e-38
-0.0406927313839 -0.0406927313839 0.956 2.29336044243e-38
-0.0389234821933 -0.0406927313839 0.956 9.00454214477e-39
-0.0370765044818 -0.0406076001467 0.954 1.70258814389e-38
-0.0353109566493 -0.0406076001467 0.954 1.42686445416e-38
-0.0334399201099 -0.0404799032909 0.951 1.50998723698e-38
-0.0315133631984 -0.0402670751979 0.946 7.07133320417e-39
-0.0296682361659 -0.0401393783421 0.943 1.33244566428e-38
-0.0279230458032 -0.0401393783421 0.943 1.38739758356e-38
-0.0260945748824 -0.0400116814863 0.94 1.40551357011e-38
-0.0243031175429 -0.0399265502491 0.938 1.37756831561e-38
-0.0225671805756 -0.0399265502491 0.938 1.30406404544e-38
-0.0208312436082 -0.0399265502491 0.938 1.34079824391e-38
-0.0190953066409 -0.0399265502491 0.938 1.46018438891e-38
-0.0173593696735 -0.0399265502491 0.938 2.28147883275e-38
-0.0155734643713 -0.0397988533933 0.935 1.93304372752e-38
-0.0138430794411 -0.0397988533933 0.935 1.59151730398e-38
-0.012112694511 -0.0397988533933 0.935 1.69002424199e-38
-0.0103823095809 -0.0397988533933 0.935 1.91273372797e-38
-0.00865192465071 -0.0397988533933 0.935 1.62746131023e-38
-0.00692153972057 -0.0397988533933 0.935 1.1020259539e-38
-0.00519115479043 -0.0397988533933 0.935 1.17549435082e-38
-0.00346076986028 -0.0397988533933 0.935 1.70010518314e-38
-0.00173038493014 -0.0397988533933 0.935 2.04122523013e-38
0.0 -0.0397988533933 0.935 1.38678773847e-38
0.00173038493014 -0.0397988533933 0.935 1.55201988507e-38
0.00346076986028 -0.0397988533933 0.935 1.5703869843e-38
0.00520781090205 -0.0399265502491 0.938 1.58875408353e-38
0.00694374786941 -0.0399265502491 0.938 1.65303893084e-38
0.00867968483676 -0.0399265502491 0.938 1.86451490768e-38
0.0104156218041 -0.0399265502491 0.938 1.69895667892e-38
0.0121515587715 -0.0399265502491 0.938 2.00266542003e-38
0.0138874957388 -0.0399265502491 0.938 2.21629785507e-38
0.0156567449294 -0.0400116814863 0.94 1.91201093822e-38
0.0173963832549 -0.0400116814863 0.94 1.55216337803e-38
0.0191970939897 -0.0401393783421 0.943 1.61630473238e-38
0.0210089087989 -0.0402670751979 0.946 1.73569087739e-38
0.0228077688546 -0.0403522064351 0.948 1.69895667892e-38
0.0245622126127 -0.0403522064351 0.948 1.50610213699e-38
0.0263999369289 -0.0404799032909 0.951 2.04033078132e-38
0.0281599327241 -0.0404799032909 0.951 2.19813954931e-38
0.0299199285194 -0.0404799032909 0.951 2.34903697314e-38
-0.0408204282397 -0.0390456270119 0.959 2.23815124475e-38
-0.0389234821933 -0.0389234821933 0.956 9.28041016825e-39
-0.0370765044818 -0.0388420523143 0.954 1.63740058011e-38
-0.0353109566493 -0.0388420523143 0.954 1.63869790223e-38
-0.0334399201099 -0.0387199074957 0.951 7.3604715241e-39
-0.0315133631984 -0.038516332798 0.946 7.80601717343e-39
-0.0297626207984 -0.038516332798 0.946 1.39708812296e-38
-0.0279230458032 -0.0383941879794 0.943 1.30406404544e-38
-0.0261778554405 -0.0383941879794 0.943 1.41426664083e-38
-0.0243549365569 -0.0382720431608 0.94 1.34998179352e-38
-0.0226152982314 -0.0382720431608 0.94 1.34079824391e-38
-0.0208756599059 -0.0382720431608 0.94 1.36834889275e-38
-0.0190953066409 -0.0381906132817 0.938 1.43263374006e-38
-0.0173593696735 -0.0381906132817 0.938 1.81106265802e-38
-0.0156234327062 -0.0381906132817 0.938 2.08051343518e-38
-0.0138430794411 -0.0380684684631 0.935 1.34269952566e-38
-0.012112694511 -0.0380684684631 0.935 1.54283633545e-38
-0.0103823095809 -0.0380684684631 0.935 1.80058556979e-38
-0.00865192465071 -0.0380684684631 0.935 1.85701417739e-38
-0.00692153972057 -0.0380684684631 0.935 1.92281242704e-38
-0.00519115479043 -0.0380684684631 0.935 1.90462497427e-38
-0.0034718739347 -0.0381906132817 0.938 1.38768456948e-38
-0.00173593696735 -0.0381906132817 0.938 1.68058957969e-38
0.0 -0.0381906132817 0.938 1.65303893084e-38
0.00173593696735 -0.0381906132817 0.938 1.69895667892e-38
0.0034718739347 -0.0381906132817 0.938 1.69895667892e-38
0.00520781090205 -0.0381906132817 0.938 1.70814022854e-38
0.00694374786941 -0.0381906132817 0.938 1.70814022854e-38
0.00867968483676 -0.0381906132817 0.938 1.72650732777e-38
0.0104156218041 -0.0381906132817 0.938 1.71732377815e-38
0.0121515587715 -0.0381906132817 0.938 1.60712118276e-38
0.0139171066039 -0.0382720431608 0.94 1.59793763315e-38
0.0156567449294 -0.0382720431608 0.94 1.57957053392e-38
0.017451903627 -0.0383941879794 0.943 1.77242521598e-38
0.019258166399 -0.038516332798 0.946 1.49691858738e-38
0.0210533250966 -0.0385977626771 0.948 1.63481532457e-38
0.0228077688546 -0.0385977626771 0.948 1.78178897258e-38
0.0246399411336 -0.0387199074957 0.951 1.71797201882e-38
0.0263999369289 -0.0387199074957 0.951 2.01266957003e-38
0.0282487653195 -0.0388420523143 0.954 2.25374363289e-38
-0.0408204282397 -0.0372708257841 0.959 2.21056416215e-38
-0.0390456270119 -0.0372708257841 0.959 1.02949026123e-38
-0.0371542330027 -0.0371542330027 0.956 1.58201089519e-38
-0.0353109566493 -0.0370765044818 0.954 1.62911652398e-38
-0.0335454088169 -0.0370765044818 0.954 5.51371709355e-39
-0.0316799243146 -0.0369599117004 0.951 1.46241441529e-38
-0.0297626207984 -0.0367655903981 0.946 1.73949526259e-38
-0.0279230458032 -0.0366489976167 0.943 1.46251979293e-38
-0.0261778554405 -0.0366489976167 0.943 1.79486014452e-38
-0.0243549365569 -0.0365324048353 0.94 1.96106156927e-38
-0.0226152982314 -0.0365324048353 0.94 1.77587577332e-38
-0.0208756599059 -0.0365324048353 0.94 1.48016578397e-38
-0.0190953066409 -0.0364546763144 0.938 1.46940381177e-38
-0.0173593696735 -0.0364546763144 0.938 1.52446923622e-38
-0.0156234327062 -0.0364546763144 0.938 1.48773503776e-38
-0.0138874957388 -0.0364546763144 0.938 1.4510008393e-38
-0.0121515587715 -0.0364546763144 0.938 1.53365278584e-38
-0.0104156218041 -0.0364546763144 0.938 1.48773503776e-38
-0.00867968483676 -0.0364546763144 0.938 1.64403474743e-38
-0.00694374786941 -0.0364546763144 0.938 1.61763204229e-38
-0.00520781090205 -0.0364546763144 0.938 1.77479270973e-38
-0.0034718739347 -0.0364546763144 0.938 1.5441995186e-38
-0.00173593696735 -0.0364546763144 0.938 1.57957053392e-38
0.0 -0.0364546763144 0.938 1.63467183161e-38
0.00173593696735 -0.0364546763144 0.938 1.68058957969e-38
0.0034718739347 -0.0364546763144 0.938 1.71732377815e-38
0.00520781090205 -0.0364546763144 0.938 1.744874427e-38
0.00694374786941 -0.0364546763144 0.938 1.625488282e-38
0.00867968483676 -0.0364546763144 0.938 1.56120343469e-38
0.0104156218041 -0.0364546763144 0.938 1.58875408353e-38
0.0121515587715 -0.0364546763144 0.938 1.55201988507e-38
0.0139171066039 -0.0365324048353 0.94 1.48773503776e-38
0.0156567449294 -0.0365324048353 0.94 1.54283633545e-38
0.0175074239991 -0.0367655903981 0.946 1.65303893084e-38
0.019258166399 -0.0367655903981 0.946 1.49691858738e-38
0.0210533250966 -0.036843318919 0.948 1.82824383836e-38
0.0228799453383 -0.0369599117004 0.951 1.69895667892e-38
0.0247176696545 -0.0370765044818 0.954 1.68112949999e-38
0.0265387378591 -0.0371542330027 0.956 2.02181780692e-38
0.0283079870497 -0.0371542330027 0.956 2.27261940347e-38
-0.0389234821933 -0.0353849838121 0.956 1.11246548733e-38
-0.0371542330027 -0.0353849838121 0.956 1.63682828982e-38
-0.0353849838121 -0.0353849838121 0.956 8.26555338663e-39
-0.0335454088169 -0.0353109566493 0.954 7.98968816575e-39
-0.0317798609844 -0.0353109566493 0.954 1.13919091151e-38
-0.0297626207984 -0.0350148479982 0.946 1.48934933359e-38
-0.0280118783985 -0.0350148479982 0.946 1.16631080121e-38
-0.0261778554405 -0.034903807254 0.943 8.81620763117e-39
-0.0244326650778 -0.034903807254 0.943 1.18618457655e-38
-0.0226874747151 -0.034903807254 0.943 1.59926606409e-38
-0.0209422843524 -0.034903807254 0.943 1.60819737999e-38
-0.0191360215804 -0.0347927665098 0.94 1.60762340813e-38
-0.0173963832549 -0.0347927665098 0.94 1.58896932298e-38
-0.0156567449294 -0.0347927665098 0.94 1.47855148814e-38
-0.0138874957388 -0.034718739347 0.938 1.53365278584e-38
-0.0121515587715 -0.034718739347 0.938 1.4510008393e-38
-0.0104156218041 -0.034718739347 0.938 1.41426664083e-38
-0.00867968483676 -0.034718739347 0.938 1.36834889275e-38
-0.00694374786941 -0.034718739347 0.938 1.47855148814e-38
-0.00520781090205 -0.034718739347 0.938 1.48773503776e-38
-0.00347927665098 -0.0347927665098 0.94 1.48773503776e-38
-0.00173963832549 -0.0347927665098 0.94 1.43263374006e-38
0.0 -0.0347927665098 0.94 1.625488282e-38
0.00173963832549 -0.0347927665098 0.94 1.68058957969e-38
0.00347927665098 -0.0347927665098 0.94 1.72650732777e-38
0.00521891497647 -0.0347927665098 0.94 1.65303893084e-38
0.00694374786941 -0.034718739347 0.938 1.4510008393e-38
0.00867968483676 -0.034718739347 0.938 1.4510008393e-38
0.0104156218041 -0.034718739347 0.938 1.5703869843e-38
0.0121515587715 -0.034718739347 0.938 1.625488282e-38
0.0139171066039 -0.0347927665098 0.94 1.43263374006e-38
0.0156567449294 -0.0347927665098 0.94 1.50610213699e-38
0.0175074239991 -0.0350148479982 0.946 1.69895667892e-38
0.0192988813385 -0.035088875161 0.948 1.71732377815e-38
0.0210533250966 -0.035088875161 0.948 1.71732377815e-38
0.0228799453383 -0.0351999159051 0.951 1.68062545293e-38
0.0247176696545 -0.0353109566493 0.954 1.4510008393e-38
0.0265387378591 -0.0353849838121 0.956 2.23404698168e-38
-0.0389234821933 -0.0336157346215 0.956 9.46228469593e-39
-0.0371542330027 -0.0336157346215 0.956 1.59926606409e-38
-0.0353849838121 -0.0336157346215 0.956 1.11207046129e-38
-0.0336157346215 -0.0336157346215 0.956 7.16603855958e-39
-0.0317798609844 -0.0335454088169 0.954 1.00136564053e-38
-0.0299199285194 -0.0334399201099 0.951 1.20315261939e-38
-0.0280118783985 -0.0332641055983 0.946 1.28616329834e-38
-0.0262611359986 -0.0332641055983 0.946 6.52032022722e-39
-0.0244326650778 -0.0331586168913 0.943 9.74678051406e-39
-0.0226874747151 -0.0331586168913 0.943 1.25886376218e-38
-0.0209422843524 -0.0331586168913 0.943 1.30406404544e-38
-0.0191970939897 -0.0331586168913 0.943 1.73623037729e-38
-0.017451903627 -0.0331586168913 0.943 1.94031408434e-38
-0.0156567449294 -0.0330531281843 0.94 1.9226694946e-38
-0.0139171066039 -0.0330531281843 0.94 1.64564904326e-38
-0.0121774682784 -0.0330531281843 0.94 1.56120343469e-38
-0.0104378299529 -0.0330531281843 0.94 1.34079824391e-38
-0.00869819162745 -0.0330531281843 0.94 1.28569694621e-38
-0.00695855330196 -0.0330531281843 0.94 1.33161469429e-38
-0.00521891497647 -0.0330531281843 0.94 1.36834889275e-38
-0.0034903807254 -0.0331586168913 0.943 1.37753244237e-38
-0.00173963832549 -0.0330531281843 0.94 1.31324759506e-38
0.0 -0.0330531281843 0.94 1.61630473238e-38
0.00173963832549 -0.0330531281843 0.94 1.68058957969e-38
0.00347927665098 -0.0330531281843 0.94 1.71732377815e-38
0.00521891497647 -0.0330531281843 0.94 1.63467183161e-38
0.00694374786941 -0.0329828023797 0.938 1.55201988507e-38
0.00867968483676 -0.0329828023797 0.938 1.60712118276e-38
0.0104156218041 -0.0329828023797 0.938 1.61630473238e-38
0.0121774682784 -0.0330531281843 0.94 1.71732377815e-38
0.0139615229016 -0.0331586168913 0.943 1.67140603008e-38
0.0157067132643 -0.0331586168913 0.943 1.56120469585e-38
0.0175074239991 -0.0332641055983 0.946 1.55201988507e-38
0.0192988813385 -0.0333344314029 0.948 1.63467183161e-38
0.0211199495431 -0.0334399201099 0.951 1.62548884252e-38
0.0229521218221 -0.0335454088169 0.954 1.57985878101e-38
0.0247694886685 -0.0336157346215 0.956 1.59855028084e-38
0.0265387378591 -0.0336157346215 0.956 2.01281348338e-38
0.0283079870497 -0.0336157346215 0.956 2.34666541562e-38
-0.0410332563327 -0.0321129832169 0.964 2.06308688747e-38
-0.0390456270119 -0.0319464221007 0.959 9.83213780741e-39
-0.0372708257841 -0.0319464221007 0.959 1.55309664281e-38
-0.0353849838121 -0.0318464854309 0.956 1.36103173256e-38
-0.0336157346215 -0.0318464854309 0.956 7.07635545786e-39
-0.0317798609844 -0.0317798609844 0.954 9.92253837395e-39
-0.0300143131519 -0.0317798609844 0.954 1.07537269659e-38
-0.0281599327241 -0.0316799243146 0.951 1.02059411793e-38
-0.0262611359986 -0.0315133631984 0.946 7.90466858532e-39
-0.0245103935987 -0.0315133631984 0.946 1.09532270256e-38
-0.0227596511988 -0.0315133631984 0.946 1.29836888822e-38
-0.0210089087989 -0.0315133631984 0.946 8.64939706197e-39
-0.019258166399 -0.0315133631984 0.946 1.25814629736e-38
-0.0175074239991 -0.0315133631984 0.946 1.65415100131e-38
-0.0157067132643 -0.0314134265286 0.943 1.62624176018e-38
-0.0139615229016 -0.0314134265286 0.943 1.48773503776e-38
-0.0122163325389 -0.0314134265286 0.943 1.71732377815e-38
-0.0104711421762 -0.0314134265286 0.943 1.72668669397e-38
-0.00869819162745 -0.0313134898588 0.94 1.25814629736e-38
-0.00695855330196 -0.0313134898588 0.94 1.23977919813e-38
-0.00521891497647 -0.0313134898588 0.94 1.31324759506e-38
-0.0034903807254 -0.0314134265286 0.943 1.35023290621e-38
-0.0017451903627 -0.0314134265286 0.943 1.28569694621e-38
0.0 -0.0313134898588 0.94 1.60719292925e-38
0.00173963832549 -0.0313134898588 0.94 1.69895667892e-38
0.00347927665098 -0.0313134898588 0.94 1.73569087739e-38
0.00521891497647 -0.0313134898588 0.94 1.69895667892e-38
0.00695855330196 -0.0313134898588 0.94 1.70814022854e-38
0.00869819162745 -0.0313134898588 0.94 1.68059028034e-38
0.0104378299529 -0.0313134898588 0.94 1.54283633545e-38
0.0122163325389 -0.0314134265286 0.943 1.52446923622e-38
0.0139615229016 -0.0314134265286 0.943 1.63467183161e-38
0.0157566815992 -0.0315133631984 0.946 1.55201988507e-38
0.0175444375805 -0.0315799876449 0.948 1.53368865908e-38
0.0192988813385 -0.0315799876449 0.948 1.57957053392e-38
0.0211199495431 -0.0316799243146 0.951 1.65332591677e-38
0.0229521218221 -0.0317798609844 0.954 1.47869498111e-38
0.0247694886685 -0.0318464854309 0.956 1.74505463398e-38
0.0265387378591 -0.0318464854309 0.956 2.1414245163e-38
0.0283079870497 -0.0318464854309 0.956 2.34730707019e-38
-0.0410332563327 -0.0303289285938 0.964 2.06312191994e-38
-0.0392492017096 -0.0303289285938 0.964 1.14030382275e-38
-0.0372708257841 -0.0301716208728 0.959 1.36949683646e-38
-0.0353849838121 -0.0300772362403 0.956 1.41746118094e-38
-0.0336157346215 -0.0300772362403 0.956 6.88766221185e-39
-0.0318464854309 -0.0300772362403 0.956 1.33319381753e-38
-0.0300143131519 -0.0300143131519 0.954 1.04760624777e-38
-0.0282487653195 -0.0300143131519 0.954 1.00272882368e-38
-0.0262611359986 -0.0297626207984 0.946 1.1322680767e-38
-0.0245103935987 -0.0297626207984 0.946 1.10493168639e-38
-0.0227596511988 -0.0297626207984 0.946 5.89217978279e-39
-0.0210533250966 -0.0298255438868 0.948 6.34812867192e-39
-0.019258166399 -0.0297626207984 0.946 1.69229084226e-38
-0.0175074239991 -0.0297626207984 0.946 1.67446408371e-38
-0.0157566815992 -0.0297626207984 0.946 1.73795607635e-38
-0.0140059391993 -0.0297626207984 0.946 1.57957053392e-38
-0.0122551967994 -0.0297626207984 0.946 1.5703869843e-38
-0.0105044543995 -0.0297626207984 0.946 1.93880642732e-38
-0.00875371199954 -0.0297626207984 0.946 1.51528568661e-38
-0.00700296959964 -0.0297626207984 0.946 1.29488049583e-38
-0.00525222719973 -0.0297626207984 0.946 1.33168644077e-38
-0.00350148479982 -0.0297626207984 0.946 1.3225387644e-38
-0.00175074239991 -0.0297626207984 0.946 1.24896274775e-38
0.0 -0.0297626207984 0.946 1.65314655057e-38
0.00175074239991 -0.0297626207984 0.946 1.59793763315e-38
0.00350148479982 -0.0297626207984 0.946 1.55201988507e-38
0.00525222719973 -0.0297626207984 0.946 1.58875408353e-38
0.00700296959964 -0.0297626207984 0.946 1.53365278584e-38
0.00875371199954 -0.0297626207984 0.946 1.5703869843e-38
0.0105044543995 -0.0297626207984 0.946 1.3958995416e-38
0.0122551967994 -0.0297626207984 0.946 1.37753244237e-38
0.0140355500644 -0.0298255438868 0.948 1.50610213699e-38
0.0157899938224 -0.0298255438868 0.948 1.53365278584e-38
0.0175999579526 -0.0299199285194 0.951 1.5703869843e-38
0.0194210261571 -0.0300143131519 0.954 1.58875408353e-38
0.0212309902873 -0.0300772362403 0.956 1.67162126952e-38
0.0230002394779 -0.0300772362403 0.956 1.49691858738e-38
0.0247694886685 -0.0300772362403 0.956 1.88406316139e-38
0.0265387378591 -0.0300772362403 0.956 2.30712007231e-38
-0.0392492017096 -0.0285448739706 0.964 1.04796498018e-38
-0.0373874185655 -0.0284856522404 0.962 1.59169751096e-38
-0.0356070653005 -0.0284856522404 0.962 6.88802094426e-39
-0.0337212233285 -0.028396819645 0.959 9.82747428613e-39
-0.0318464854309 -0.0283079870497 0.956 1.25940186079e-38
-0.0300772362403 -0.0283079870497 0.956 1.60956168417e-38
-0.0282487653195 -0.0282487653195 0.954 1.03045883873e-38
-0.026483217487 -0.0282487653195 0.954 6.89734798683e-39
-0.0245103935987 -0.0280118783985 0.946 6.06652373253e-39
-0.0227596511988 -0.0280118783985 0.946 7.64028840665e-39
-0.0210533250966 -0.0280711001288 0.948 9.66532723822e-39
-0.0192988813385 -0.0280711001288 0.948 1.11135299647e-38
-0.0175074239991 -0.0280118783985 0.946 1.83911371055e-38
-0.0157566815992 -0.0280118783985 0.946 1.54387665943e-38
-0.0140059391993 -0.0280118783985 0.946 1.62645685949e-38
-0.0122551967994 -0.0280118783985 0.946 1.94971133197e-38
-0.0105044543995 -0.0280118783985 0.946 1.96872877382e-38
-0.00875371199954 -0.0280118783985 0.946 1.84869158555e-38
-0.00700296959964 -0.0280118783985 0.946 1.41487648592e-38
-0.00525222719973 -0.0280118783985 0.946 1.33161469429e-38
-0.00350148479982 -0.0280118783985 0.946 1.34998179352e-38
-0.00175074239991 -0.0280118783985 0.946 1.23977919813e-38
0.0 -0.0280118783985 0.946 1.67169343639e-38
0.00175074239991 -0.0280118783985 0.946 1.49691858738e-38
0.00350148479982 -0.0280118783985 0.946 1.36834889275e-38
0.00525222719973 -0.0280118783985 0.946 1.4510008393e-38
0.00700296959964 -0.0280118783985 0.946 1.55201988507e-38
0.00875371199954 -0.0280118783985 0.946 1.56120343469e-38
0.0105266625483 -0.0280711001288 0.948 1.37753244237e-38
0.0122811063063 -0.0280711001288 0.948 1.43263374006e-38
0.0140355500644 -0.0280711001288 0.948 1.58875408353e-38
0.0158399621573 -0.0281599327241 0.951 1.49691858738e-38
0.0175999579526 -0.0281599327241 0.951 1.73623037729e-38
0.0194210261571 -0.0282487653195 0.954 1.49691858738e-38
0.0212309902873 -0.0283079870497 0.956 1.75441670902e-38
0.0230002394779 -0.0283079870497 0.956 1.57957053392e-38
0.0248472171894 -0.028396819645 0.959 1.85662349538e-38
0.0266220184172 -0.028396819645 0.959 2.08656942675e-38
-0.0392492017096 -0.0267608193474 0.964 1.36189549294e-38
-0.0374651470864 -0.0267608193474 0.964 1.13166439733e-38
-0.0356070653005 -0.0267052989754 0.962 7.16316870032e-39
-0.0338267120354 -0.0267052989754 0.962 1.02909565558e-38
-0.0319464221007 -0.0266220184172 0.959 1.12039305313e-38
-0.0300772362403 -0.0265387378591 0.956 1.64633497886e-38
-0.0283079870497 -0.0265387378591 0.956 1.27049243748e-38
-0.026483217487 -0.026483217487 0.954 1.06823462234e-38
-0.0246399411336 -0.0263999369289 0.951 6.98846741948e-39
-0.0228077688546 -0.0263166563707 0.948 1.21481646729e-38
-0.0210533250966 -0.0263166563707 0.948 9.75536907235e-39
-0.0192988813385 -0.0263166563707 0.948 1.0290239091e-38
-0.0175444375805 -0.0263166563707 0.948 1.38671599199e-38
-0.0157566815992 -0.0262611359986 0.946 1.53365278584e-38
