# .PCD v0.7 - Point Cloud Data file format
VERSION 0.7
FIELDS x y z rgb
SIZE 4 4 4 4
TYPE F F F F
COUNT 1 1 1 1
WIDTH 841
HEIGHT 1
VIEWPOINT 0 0 0 1 0 0 0
POINTS 841
DATA ascii
-0.00797642679028 -0.0510491314578 0.862 1.38671627225e-38
-0.00638114143223 -0.0510491314578 0.862 1.34998179352e-38
-0.00478585607417 -0.0510491314578 0.862 1.34998375534e-38
-0.00319057071611 -0.0510491314578 0.862 1.37753244237e-38
-0.00159158399992 -0.0509306879973 0.86 1.40508309122e-38
0.0 -0.0509306879973 0.86 1.42345019045e-38
0.00159158399992 -0.0509306879973 0.86 1.44181728968e-38
0.00317576528356 -0.0508122445369 0.858 1.44181728968e-38
0.00476364792533 -0.0508122445369 0.858 1.4510008393e-38
0.00633672513455 -0.0506938010764 0.856 1.47855148814e-38
0.0079023996275 -0.050575357616 0.854 1.51528568661e-38
0.00948287955299 -0.050575357616 0.854 1.48773545815e-38
0.0110633594785 -0.050575357616 0.854 2.34497685097e-38
0.012643839404 -0.050575357616 0.854 8.72724199426e-39
0.0142243193295 -0.050575357616 0.854 1.7292442038e-38
0.015804799255 -0.050575357616 0.854 1.9808366932e-38
0.0173852791805 -0.050575357616 0.854 7.89785266959e-39
0.018965759106 -0.050575357616 0.854 2.34868566762e-38
0.0205462390315 -0.050575357616 0.854 3.21424236553e-39
0.022126718957 -0.050575357616 0.854 1.20516936814e-38
0.0237071988825 -0.050575357616 0.854 2.34011042167e-38
0.025287678808 -0.050575357616 0.854 7.25500419648e-39
0.0269310818219 -0.0506938010764 0.856 2.34961304694e-38
0.0285152631055 -0.0506938010764 0.856 1.46936793853e-39
0.0301697701938 -0.0508122445369 0.858 1.93430727834e-38
0.0317576528356 -0.0508122445369 0.858 1.1696212287e-38
0.0333455354773 -0.0508122445369 0.858 1.69182547104e-38
0.0350148479982 -0.0509306879973 0.86 1.58432303766e-38
0.0366915632353 -0.0510491314578 0.862 1.76597826213e-38
0.0383756811887 -0.0511675749183 0.864 2.33070588728e-38
0.0401134688351 -0.051345240109 0.867 1.32570289633e-38
0.0417180075885 -0.051345240109 0.867 1.48017601345e-38
0.0434224830117 -0.0514636835694 0.869 1.73569325959e-38
0.0451343611511 -0.0515821270299 0.871 2.3474512638e-38
0.0468536420069 -0.0517005704903 0.873 2.03459905021e-38
0.0484692848347 -0.0517005704903 0.873 2.20955620816e-38
-0.021171768557 -0.0504865250206 0.88 2.30261756021e-38
-0.0195431709757 -0.0504865250206 0.88 1.69441310878e-38
-0.0179145733944 -0.0504865250206 0.88 1.24128601437e-38
-0.0162489622317 -0.0503717829183 0.878 1.51708313215e-38
-0.0146240660085 -0.0503717829183 0.878 1.24042491647e-38
-0.0129547534877 -0.0501996697648 0.875 1.35009053428e-38
-0.0112576807808 -0.0498554434579 0.869 1.28569694621e-38
-0.00962723252043 -0.0497407013555 0.867 1.36842176027e-38
-0.00799493358098 -0.0495685882021 0.864 1.35916534314e-38
-0.00638114143223 -0.0494538460997 0.862 1.34079824391e-38
-0.00478585607417 -0.0494538460997 0.862 1.38671599199e-38
-0.00319057071611 -0.0494538460997 0.862 1.40508309122e-38
-0.00159528535806 -0.0494538460997 0.862 1.405083932e-38
0.0 -0.0493391039974 0.86 1.40508309122e-38
0.00159158399992 -0.0493391039974 0.86 1.46018438891e-38
0.00318316799983 -0.0493391039974 0.86 1.4510008393e-38
0.00476364792533 -0.0492243618951 0.858 1.4510008393e-38
0.00633672513455 -0.0491096197928 0.856 1.50610213699e-38
0.00792090641819 -0.0491096197928 0.856 1.51528568661e-38
0.00948287955299 -0.0489948776905 0.854 1.46936877931e-38
0.0110633594785 -0.0489948776905 0.854 2.34504873758e-38
0.012643839404 -0.0489948776905 0.854 8.4520942382e-39
0.0142243193295 -0.0489948776905 0.854 1.70176530143e-38
0.015804799255 -0.0489948776905 0.854 2.02697024124e-38
0.0173852791805 -0.0489948776905 0.854 8.54070114269e-39
0.018965759106 -0.0489948776905 0.854 2.34840078364e-38
0.0205462390315 -0.0489948776905 0.854 3.30607786169e-39
0.022126718957 -0.0489948776905 0.854 1.11275793831e-38
0.0237071988825 -0.0489948776905 0.854 2.23873110206e-38
0.0253469005382 -0.0491096197928 0.856 8.99987862348e-39
0.0269310818219 -0.0491096197928 0.856 2.34894028355e-38
0.028581887552 -0.0492243618951 0.858 3.39791335785e-39
0.0302400959984 -0.0493391039974 0.86 2.16378811876e-38
0.0318316799983 -0.0493391039974 0.86 1.92544911023e-38
0.0334232639983 -0.0493391039974 0.86 1.87849243947e-38
0.0350962778772 -0.0494538460997 0.862 8.90983678936e-39
0.0366915632353 -0.0494538460997 0.862 2.34943718398e-38
0.0385089300817 -0.0497407013555 0.867 2.10936420874e-38
0.0401134688351 -0.0497407013555 0.867 1.17564134703e-38
0.0418142429001 -0.0498554434579 0.869 1.97518315455e-38
0.0435224196815 -0.0499701855602 0.871 2.11532196929e-38
0.0451343611511 -0.0499701855602 0.871 2.0526128821e-38
0.0468536420069 -0.0500849276625 0.873 1.93246555177e-38
0.0484692848347 -0.0500849276625 0.873 2.3480301402e-38
-0.0229817326872 -0.0492465700439 0.887 2.20120180685e-38
-0.0212198862128 -0.0489689681835 0.882 2.2842134667e-38
-0.0195431709757 -0.0488579274393 0.88 1.85111106748e-38
-0.0179145733944 -0.0488579274393 0.88 1.3059695311e-38
-0.0162859758131 -0.0488579274393 0.88 1.37878814592e-38
-0.0146573782318 -0.0488579274393 0.88 1.45254464981e-38
-0.0129991697854 -0.0487468866951 0.878 1.26736628074e-38
-0.0112835902878 -0.0483582440905 0.871 1.34079908469e-38
-0.00964944066926 -0.0482472033463 0.869 1.32243142493e-38
-0.00802269376702 -0.0481361626021 0.867 1.34998179352e-38
-0.00641815501362 -0.0481361626021 0.867 1.36834917301e-38
-0.00479696014859 -0.0479696014859 0.864 1.38671599199e-38
-0.00319797343239 -0.0479696014859 0.864 1.36834889275e-38
-0.00159528535806 -0.0478585607417 0.862 1.40508309122e-38
0.0 -0.0478585607417 0.862 1.43263374006e-38
0.00159158399992 -0.0477475199975 0.86 1.44181728968e-38
0.00318316799983 -0.0477475199975 0.86 1.4510008393e-38
0.00477475199975 -0.0477475199975 0.86 1.4510008393e-38
0.00635153056711 -0.0476364792533 0.858 1.49691858738e-38
0.00792090641819 -0.0475254385092 0.856 1.53365278584e-38
0.00950508770183 -0.0475254385092 0.856 1.4785517684e-38
0.0110892689855 -0.0475254385092 0.856 2.34529914962e-38
0.012643839404 -0.047414397765 0.854 8.45390891971e-39
0.0142243193295 -0.047414397765 0.854 1.60957009196e-38
0.015804799255 -0.047414397765 0.854 1.99016401604e-38
0.0173852791805 -0.047414397765 0.854 7.71418167727e-39
0.018965759106 -0.047414397765 0.854 2.3480770837e-38
0.0205462390315 -0.047414397765 0.854 3.12240686937e-39
0.022126718957 -0.047414397765 0.854 1.25108725635e-38
0.0237627192546 -0.0475254385092 0.856 2.30330433659e-38
0.0253469005382 -0.0475254385092 0.856 9.73459342131e-39
0.0269940049102 -0.0476364792533 0.858 2.34850616129e-38
0.028581887552 -0.0476364792533 0.858 4.04147929577e-39
0.0302400959984 -0.0477475199975 0.86 1.28623700664e-38
0.0318316799983 -0.0477475199975 0.86 1.2765133966e-38
0.0335009925192 -0.0478585607417 0.862 1.2214120989e-38
0.0350962778772 -0.0478585607417 0.862 2.34860789555e-38
0.0367766944725 -0.0479696014859 0.864 1.7948248318e-38
0.0385089300817 -0.0481361626021 0.867 1.30406404544e-38
0.0401134688351 -0.0481361626021 0.867 1.56120343469e-38
0.0418142429001 -0.0482472033463 0.869 2.34771036389e-38
0.0435224196815 -0.0483582440905 0.871 2.34813649875e-38
0.045237999179 -0.0484692848347 0.873 1.5545356362e-38
0.0468536420069 -0.0484692848347 0.873 2.34717324619e-38
0.0484692848347 -0.0484692848347 0.873 2.33881029695e-38
-0.0229817326872 -0.0476050177091 0.887 2.14588625062e-38
-0.0212920626966 -0.0474976783231 0.885 2.22893266268e-38
-0.0195875872734 -0.047336669244 0.882 1.91564828864e-38
-0.0179552883339 -0.047336669244 0.882 1.12154464021e-38
-0.0163229893945 -0.047336669244 0.882 1.31385870132e-38
-0.0146573782318 -0.047229329858 0.88 1.36928538052e-38
-0.0129991697854 -0.047121990472 0.878 1.37814523019e-38
-0.0113094997948 -0.0468536420069 0.873 1.29488133661e-38
-0.0096716488181 -0.0467463026208 0.871 1.39590066264e-38
-0.00804120055772 -0.0466389632348 0.869 1.3501971731e-38
-0.00641815501362 -0.0465316238487 0.867 1.36885209903e-38
-0.00481361626021 -0.0465316238487 0.867 1.3506633851e-38
-0.00320907750681 -0.0465316238487 0.867 1.29545446768e-38
-0.0015989867162 -0.0463706147697 0.864 1.38671599199e-38
0.0 -0.0462632753836 0.862 1.41426664083e-38
0.00159528535806 -0.0462632753836 0.862 1.47855148814e-38
0.00318316799983 -0.0461559359976 0.86 1.49691858738e-38
0.00477475199975 -0.0461559359976 0.86 1.49691858738e-38
0.00636633599967 -0.0461559359976 0.86 1.51528568661e-38
0.00793941320889 -0.0460485966116 0.858 1.56120343469e-38
0.00950508770183 -0.0459412572255 0.856 1.47855148814e-38
0.0110892689855 -0.0459412572255 0.856 2.34493803501e-38
0.0126734502691 -0.0459412572255 0.856 9.00669453921e-39
0.0142576315527 -0.0459412572255 0.856 1.728595823e-38
0.0158418128364 -0.0459412572255 0.856 2.20213745383e-38
0.01742599412 -0.0459412572255 0.856 1.72250704104e-38
0.0190101754037 -0.0459412572255 0.856 2.17423087517e-38
0.0205943566873 -0.0459412572255 0.856 4.22909634456e-39
0.0221785379709 -0.0459412572255 0.856 1.34310281936e-38
0.0237627192546 -0.0459412572255 0.856 1.81420156658e-38
0.0254061222684 -0.0460485966116 0.858 1.27651367686e-38
0.0270569279986 -0.0461559359976 0.86 1.3958995416e-38
0.0286485119985 -0.0461559359976 0.86 1.30406404544e-38
0.0303104218031 -0.0462632753836 0.862 1.64392712771e-38
0.0319057071611 -0.0462632753836 0.862 2.08689354708e-38
0.0335787210401 -0.0463706147697 0.864 2.34659941446e-38
0.0351777077563 -0.0463706147697 0.864 1.17574546351e-38
0.0369043913283 -0.0465316238487 0.867 1.61630473238e-38
0.0385089300817 -0.0465316238487 0.867 1.71732377815e-38
0.0402060027886 -0.0466389632348 0.869 1.96769209322e-38
0.0419104782118 -0.0467463026208 0.871 2.21871145155e-38
0.0436223563512 -0.0468536420069 0.873 2.29253003296e-38
0.0453416372069 -0.0469609813929 0.875 1.96938121839e-38
0.0469609813929 -0.0469609813929 0.875 1.62822810075e-38
0.0488579274393 -0.047229329858 0.88 2.34846314142e-38
0.0504865250206 -0.047229329858 0.88 2.3485348879e-38
-0.0229817326872 -0.0459634653743 0.887 2.15513986515e-38
-0.0212920626966 -0.0458598273464 0.885 2.27499362346e-38
-0.0196542117199 -0.0458598273464 0.885 1.96153030361e-38
-0.0180163607432 -0.0458598273464 0.885 1.32473628065e-38
-0.0163785097666 -0.0458598273464 0.885 1.26844191744e-38
-0.014690690455 -0.0457043703046 0.882 1.3507742278e-38
-0.0130287806505 -0.0456007322767 0.88 1.38718360528e-38
-0.0113354093017 -0.0453416372069 0.875 1.47970335548e-38
-0.0096716488181 -0.0451343611511 0.871 1.48013047125e-38
-0.00804120055772 -0.0450307231232 0.869 1.40680612781e-38
-0.00643296044618 -0.0450307231232 0.869 1.26890826957e-38
-0.00481361626021 -0.0449270850953 0.867 1.17714451989e-38
-0.00320907750681 -0.0449270850953 0.867 1.22316988769e-38
-0.0015989867162 -0.0447716280535 0.864 1.23988681785e-38
0.0 -0.0447716280535 0.864 1.3958995416e-38
0.00159528535806 -0.0446679900256 0.862 1.50610213699e-38
0.00319057071611 -0.0446679900256 0.862 1.52447021713e-38
0.00478585607417 -0.0446679900256 0.862 1.47855148814e-38
0.00636633599967 -0.0445643519977 0.86 1.54283633545e-38
0.00795791999959 -0.0445643519977 0.86 1.56120343469e-38
0.0095495039995 -0.0445643519977 0.86 1.42345019045e-38
0.0111151784924 -0.0444607139698 0.858 2.16976619814e-38
0.0126734502691 -0.0443570759419 0.856 9.65097794195e-39
0.0142576315527 -0.0443570759419 0.856 1.23977919813e-38
0.0158418128364 -0.0443570759419 0.856 1.23059564852e-38
0.01742599412 -0.0443570759419 0.856 1.16631080121e-38
0.0190101754037 -0.0443570759419 0.856 1.12039305313e-38
0.0205943566873 -0.0443570759419 0.856 1.02855755697e-38
0.0221785379709 -0.0443570759419 0.856 1.26732984698e-38
0.0238182396267 -0.0444607139698 0.858 1.23059564852e-38
0.0254653439987 -0.0445643519977 0.86 1.78222603757e-38
0.027119851087 -0.0446679900256 0.862 1.9115831218e-38
0.028715136445 -0.0446679900256 0.862 2.30035194086e-38
0.0303807476077 -0.0447716280535 0.864 1.89498376058e-38
0.0319797343239 -0.0447716280535 0.864 1.50631737644e-38
0.0335787210401 -0.0447716280535 0.864 1.68058957969e-38
0.0351777077563 -0.0447716280535 0.864 1.73569087739e-38
0.0369043913283 -0.0449270850953 0.867 1.625488282e-38
0.0385089300817 -0.0449270850953 0.867 2.34764352195e-38
0.0402985367421 -0.0451343611511 0.871 1.51870611603e-38
0.0420067135234 -0.045237999179 0.873 2.28389256935e-38
0.043722293021 -0.0453416372069 0.875 1.57154347592e-38
0.0453416372069 -0.0453416372069 0.875 2.12654356739e-38
0.0469609813929 -0.0453416372069 0.875 1.67449393137e-38
0.0488579274393 -0.0456007322767 0.88 2.34853698985e-38
0.0504865250206 -0.0456007322767 0.88 2.34882327513e-38
-0.0229817326872 -0.0443219130396 0.887 2.13666318438e-38
-0.0213401803524 -0.0443219130396 0.887 2.12737327621e-38
-0.0196542117199 -0.0442219763698 0.885 2.01702620695e-38
-0.0180163607432 -0.0442219763698 0.885 1.62930233616e-38
-0.0163785097666 -0.0442219763698 0.885 1.13098098406e-38
-0.014690690455 -0.0440720713651 0.882 1.3597041424e-38
-0.0130287806505 -0.0439721346954 0.88 1.35948904308e-38
-0.0113354093017 -0.043722293021 0.875 1.49803430121e-38
-0.00969385696694 -0.0436223563512 0.873 1.40641152216e-38
-0.00805970734842 -0.0435224196815 0.871 1.41602695196e-38
-0.00643296044618 -0.0434224830117 0.869 1.15924377279e-38
-0.00482472033463 -0.0434224830117 0.869 9.20292536967e-39
-0.00321648022309 -0.0434224830117 0.869 1.11400845706e-38
-0.0016045387534 -0.0433225463419 0.867 1.34327349751e-38
0.0 -0.0433225463419 0.867 1.52644226446e-38
0.0015989867162 -0.0431726413373 0.864 1.34119284955e-38
0.00319057071611 -0.0430727046675 0.862 1.47855302957e-38
0.00478585607417 -0.0430727046675 0.862 1.50610213699e-38
0.00638114143223 -0.0430727046675 0.862 1.52446923622e-38
0.00795791999959 -0.0429727679978 0.86 1.50610213699e-38
0.0095495039995 -0.0429727679978 0.86 1.47855148814e-38
0.0111410879994 -0.0429727679978 0.86 2.08646769248e-38
0.0127326719993 -0.0429727679978 0.86 1.91435446977e-38
0.0143242559993 -0.0429727679978 0.86 1.87690014403e-38
0.0159158399992 -0.0429727679978 0.86 1.82139919601e-38
0.0175074239991 -0.0429727679978 0.86 1.88586214835e-38
0.019099007999 -0.0429727679978 0.86 1.98728112471e-38
0.0206905919989 -0.0429727679978 0.86 2.08880547871e-38
0.0222821759988 -0.0429727679978 0.86 2.13511755218e-38
0.0238737599988 -0.0429727679978 0.86 1.96876955161e-38
0.0255245657289 -0.0430727046675 0.862 1.35981106147e-38
0.027119851087 -0.0430727046675 0.862 1.70814373178e-38
0.028715136445 -0.0430727046675 0.862 1.60712118276e-38
0.0303807476077 -0.0431726413373 0.864 1.57957053392e-38
0.0319797343239 -0.0431726413373 0.864 1.60712118276e-38
0.0336953138215 -0.0433225463419 0.867 1.77242507585e-38
0.0352998525749 -0.0433225463419 0.867 1.49691858738e-38
0.0369895225655 -0.0434224830117 0.869 2.34742632069e-38
0.0385977626771 -0.0434224830117 0.869 2.34863059659e-38
0.0403910706956 -0.0436223563512 0.873 1.56462036086e-38
0.042102948835 -0.043722293021 0.875 1.69102883286e-38
0.0438721980256 -0.0438721980256 0.878 2.34859696543e-38
0.0454970942488 -0.0438721980256 0.878 7.90215745847e-39
0.047121990472 -0.0438721980256 0.878 2.06968476116e-38
0.0488579274393 -0.0439721346954 0.88 2.34871537515e-38
0.0504865250206 -0.0439721346954 0.88 2.25648247074e-38
-0.0229817326872 -0.0426803607048 0.887 2.1091489693e-38
-0.0213401803524 -0.0426803607048 0.887 2.14595687606e-38
-0.0196542117199 -0.0425841253931 0.885 1.98025557473e-38
-0.0180163607432 -0.0425841253931 0.885 1.42629020205e-38
-0.0163785097666 -0.0425841253931 0.885 1.297292691e-38
-0.014690690455 -0.0424397724257 0.882 1.25814629736e-38
-0.0130287806505 -0.0423435371141 0.88 1.33179728348e-38
-0.0113742735622 -0.0422473018025 0.878 1.27651423738e-38
-0.00971606511577 -0.042102948835 0.875 1.78473604338e-38
-0.00805970734842 -0.0419104782118 0.871 1.24146524045e-38
-0.00644776587873 -0.0419104782118 0.871 1.35163336389e-38
-0.00483582440905 -0.0419104782118 0.871 9.74891188902e-39
-0.00321648022309 -0.0418142429001 0.869 9.1993338417e-39
-0.00160824011154 -0.0418142429001 0.869 1.10303040464e-38
0.0 -0.0417180075885 0.867 1.64600875658e-38
0.0016045387534 -0.0417180075885 0.867 1.77584368358e-38
0.00319797343239 -0.0415736546211 0.864 1.56342757561e-38
0.00478585607417 -0.0414774193095 0.862 1.40562118983e-38
0.00638114143223 -0.0414774193095 0.862 1.46018438891e-38
0.00797642679028 -0.0414774193095 0.862 1.53365278584e-38
0.00957171214834 -0.0414774193095 0.862 1.56120343469e-38
0.0111669975064 -0.0414774193095 0.862 1.52446923622e-38
0.0127326719993 -0.0413811839978 0.86 1.46936793853e-38
0.0143242559993 -0.0413811839978 0.86 1.48773503776e-38
0.0159158399992 -0.0413811839978 0.86 1.38671599199e-38
0.0175074239991 -0.0413811839978 0.86 1.32243114468e-38
0.019099007999 -0.0413811839978 0.86 1.32243114468e-38
0.0207387096547 -0.0414774193095 0.862 1.32243114468e-38
0.0223339950128 -0.0414774193095 0.862 1.82838999379e-38
0.0239292803708 -0.0414774193095 0.862 1.55202492974e-38
0.0255837874591 -0.0415736546211 0.864 1.57957053392e-38
0.0271827741753 -0.0415736546211 0.864 1.625488282e-38
0.0287817608915 -0.0415736546211 0.864 1.49691858738e-38
0.0304862363147 -0.0417180075885 0.867 1.62556002848e-38
0.0320907750681 -0.0417180075885 0.867 1.74711103948e-38
0.0336953138215 -0.0417180075885 0.867 2.34844100091e-38
0.035381282454 -0.0418142429001 0.869 1.60114114157e-38
0.0369895225655 -0.0418142429001 0.869 2.06216006867e-38
0.0386865952724 -0.0419104782118 0.871 1.88553956945e-38
0.0404836046491 -0.042102948835 0.875 1.64557729678e-38
0.0422473018025 -0.0422473018025 0.878 2.3482095064e-38
0.0438721980256 -0.0422473018025 0.878 9.74572954021e-39
0.0456007322767 -0.0423435371141 0.88 1.34079824391e-38
0.047229329858 -0.0423435371141 0.88 2.19847179718e-38
0.0488579274393 -0.0423435371141 0.88 2.34849691272e-38
-0.0196542117199 -0.0409462744165 0.885 2.05401305953e-38
-0.0180163607432 -0.0409462744165 0.885 1.07594652831e-38
-0.0163785097666 -0.0409462744165 0.885 1.93362176313e-38
-0.014690690455 -0.0408074734862 0.882 9.93546535228e-39
-0.0130583915156 -0.0408074734862 0.882 1.38718234411e-38
-0.0113742735622 -0.0406224055793 0.878 1.21222854929e-38
-0.00971606511577 -0.0404836046491 0.875 1.66426991765e-38
-0.00807821413911 -0.0403910706956 0.873 1.3701501218e-38
-0.00646257131129 -0.0403910706956 0.873 1.49824589728e-38
-0.00483582440905 -0.0402985367421 0.871 1.47116160056e-38
-0.00322388293937 -0.0402985367421 0.871 1.1490198992e-38
-0.00160824011154 -0.0402060027886 0.869 1.48031221966e-38
0.0 -0.0402060027886 0.869 1.59087284681e-38
0.00160824011154 -0.0402060027886 0.869 1.66509402127e-38
0.00320907750681 -0.0401134688351 0.867 1.58186642132e-38
0.00479696014859 -0.0399746679049 0.864 1.68285141554e-38
0.00639594686478 -0.0399746679049 0.864 1.52604765881e-38
0.00797642679028 -0.0398821339514 0.862 1.42345019045e-38
0.00957171214834 -0.0398821339514 0.862 1.57957053392e-38
0.0111669975064 -0.0398821339514 0.862 1.55201988507e-38
0.0127622828645 -0.0398821339514 0.862 1.59793763315e-38
0.0143575682225 -0.0398821339514 0.862 1.52446923622e-38
0.0159528535806 -0.0398821339514 0.862 2.29131202433e-38
0.0175481389386 -0.0398821339514 0.862 2.18222766512e-38
0.0191434242967 -0.0398821339514 0.862 2.32120508369e-38
0.0207387096547 -0.0398821339514 0.862 1.87852312791e-38
0.0223339950128 -0.0398821339514 0.862 1.39838068066e-38
0.0239292803708 -0.0398821339514 0.862 1.32243114468e-38
0.0255837874591 -0.0399746679049 0.864 1.44181728968e-38
0.0271827741753 -0.0399746679049 0.864 2.077822802e-38
0.0287817608915 -0.0399746679049 0.864 2.12687287253e-38
0.0304862363147 -0.0401134688351 0.867 2.34814448615e-38
0.0320907750681 -0.0401134688351 0.867 1.7495121644e-38
0.0337730423424 -0.0402060027886 0.869 2.34846566376e-38
0.035381282454 -0.0402060027886 0.869 1.83109351891e-38
0.0370746538027 -0.0402985367421 0.871 1.22174112378e-38
0.0386865952724 -0.0402985367421 0.871 2.28983071173e-38
0.0406224055793 -0.0406224055793 0.878 2.3202698571e-38
0.0422473018025 -0.0406224055793 0.878 6.89734798683e-39
0.0439721346954 -0.0407149395328 0.88 2.21910269408e-38
0.0456007322767 -0.0407149395328 0.88 8.72438754929e-39
0.047229329858 -0.0407149395328 0.88 2.34694861804e-38
0.0488579274393 -0.0407149395328 0.88 2.32051564485e-38
-0.0196986280176 -0.0393972560352 0.887 1.99876658731e-38
-0.0180570756828 -0.0393972560352 0.887 1.18644031352e-38
-0.016415523348 -0.0393972560352 0.887 1.6844376854e-38
-0.0147406587899 -0.0393084234398 0.885 1.6484634111e-38
-0.0130583915156 -0.0391751745468 0.882 1.40813596005e-38
-0.0114260925761 -0.0391751745468 0.882 9.64595568825e-39
-0.00974937733903 -0.0389975093561 0.878 1.42377417065e-38
-0.00809672092981 -0.0388642604631 0.875 1.2305964893e-38
-0.00647737674385 -0.0388642604631 0.875 1.29488049583e-38
-0.00484692848347 -0.0387754278677 0.873 1.36835043418e-38
-0.00322388293937 -0.0386865952724 0.871 1.58154636475e-38
-0.00161194146968 -0.0386865952724 0.871 1.48964346614e-38
0.0 -0.0386865952724 0.871 1.29495224231e-38
0.00160824011154 -0.0385977626771 0.869 1.58096987056e-38
0.00320907750681 -0.0385089300817 0.867 1.52568892641e-38
0.00481361626021 -0.0385089300817 0.867 1.56235179878e-38
0.00641815501362 -0.0385089300817 0.867 1.83951237996e-38
0.00799493358098 -0.0383756811887 0.864 1.42474162711e-38
0.00959392029717 -0.0383756811887 0.864 1.53365278584e-38
0.0111929070134 -0.0383756811887 0.864 1.57957053392e-38
0.0127622828645 -0.0382868485934 0.862 1.48773503776e-38
0.0143575682225 -0.0382868485934 0.862 2.34645395968e-38
0.0159528535806 -0.0382868485934 0.862 9.46130098441e-39
0.0175481389386 -0.0382868485934 0.862 2.34526159482e-38
0.0191434242967 -0.0382868485934 0.862 1.6667270945e-38
0.0207868273105 -0.0383756811887 0.864 9.55089160043e-39
0.0223858140267 -0.0383756811887 0.864 2.12704733419e-38
0.0239848007429 -0.0383756811887 0.864 1.88591315562e-38
0.0256726200545 -0.0385089300817 0.867 2.26531541548e-38
0.0272771588079 -0.0385089300817 0.867 2.3475958778e-38
0.0288816975613 -0.0385089300817 0.867 1.68494733766e-38
0.0305565621193 -0.0385977626771 0.869 2.34864362866e-38
0.0321648022309 -0.0385977626771 0.869 8.17622901732e-39
0.0337730423424 -0.0385977626771 0.869 1.66320563146e-38
0.035462712333 -0.0386865952724 0.871 1.65303893084e-38
0.0371597850399 -0.0387754278677 0.873 2.34806222993e-38
0.0388642604631 -0.0388642604631 0.875 1.62873705236e-38
0.0406224055793 -0.0389975093561 0.878 1.13047343376e-38
0.0423435371141 -0.0390863419515 0.88 1.80519107732e-38
0.0439721346954 -0.0390863419515 0.88 1.57445537413e-38
0.0456007322767 -0.0390863419515 0.88 1.33269089151e-38
0.047229329858 -0.0390863419515 0.88 2.34782442958e-38
0.0488579274393 -0.0390863419515 0.88 2.31111615514e-38
-0.0180570756828 -0.0377557037004 0.887 1.17732865051e-38
-0.016415523348 -0.0377557037004 0.887 1.37068794015e-38
-0.0147739710132 -0.0377557037004 0.887 1.78628896234e-38
-0.0131028078133 -0.0376705724632 0.885 1.74094672754e-38
-0.0114649568366 -0.0376705724632 0.885 1.51020499876e-38
-0.00977158548786 -0.0374577443701 0.88 1.11221395425e-38
-0.00812448111586 -0.0373726131329 0.878 1.28569806725e-38
-0.00647737674385 -0.0372449162771 0.875 1.2214120989e-38
-0.00484692848347 -0.0371597850399 0.873 1.25814629736e-38
-0.00323128565565 -0.0371597850399 0.873 1.18467790044e-38
-0.00161194146968 -0.0370746538027 0.871 1.28569932842e-38
0.0 -0.0370746538027 0.871 1.29488091622e-38
0.00161194146968 -0.0370746538027 0.871 1.33161483442e-38
0.00321648022309 -0.0369895225655 0.869 1.43263402032e-38
0.00482472033463 -0.0369895225655 0.869 1.61673899477e-38
0.00643296044618 -0.0369895225655 0.869 1.85734222136e-38
0.00802269376702 -0.0369043913283 0.867 1.47080525036e-38
0.00962723252043 -0.0369043913283 0.867 1.53365474766e-38
0.0111929070134 -0.0367766944725 0.864 1.5703869843e-38
0.0127918937296 -0.0367766944725 0.864 1.59793763315e-38
0.0143908804458 -0.0367766944725 0.864 1.46018438891e-38
0.015989867162 -0.0367766944725 0.864 1.26732984698e-38
0.0175888538782 -0.0367766944725 0.864 2.348895442e-38
0.0191878405943 -0.0367766944725 0.864 6.70542614916e-39
0.0207868273105 -0.0367766944725 0.864 2.34709967802e-38
0.0224635425477 -0.0369043913283 0.867 1.3902359136e-38
0.0240680813011 -0.0369043913283 0.867 2.3473038472e-38
0.0257318417847 -0.0369895225655 0.869 1.2783886142e-38
0.0273400818963 -0.0369895225655 0.869 2.34782330854e-38
0.0289483220078 -0.0369895225655 0.869 8.1751528201e-39
0.030626887924 -0.0370746538027 0.871 1.4510008393e-38
0.0322388293937 -0.0370746538027 0.871 1.79093566804e-38
0.0338507708634 -0.0370746538027 0.871 2.34674599028e-38
0.0355441422121 -0.0371597850399 0.873 2.20054922215e-38
0.0372449162771 -0.0372449162771 0.875 9.92791936005e-39
0.0389975093561 -0.0373726131329 0.878 1.56484723108e-38
0.0407149395328 -0.0374577443701 0.88 1.96128451586e-38
0.0423435371141 -0.0374577443701 0.88 1.98937242254e-38
0.0440720713651 -0.0375428756073 0.882 1.6481004748e-38
0.0458598273464 -0.0376705724632 0.885 1.96092298086e-38
0.0477123570952 -0.0378408349376 0.889 1.96051912664e-38
-0.016415523348 -0.0361141513656 0.887 1.27816804982e-38
-0.0147739710132 -0.0361141513656 0.887 1.83206265693e-38
-0.0131324186784 -0.0361141513656 0.887 1.60268957637e-38
-0.0114649568366 -0.0360327214865 0.885 1.71321601184e-38
-0.0097937936367 -0.0359105766679 0.882 1.73151038368e-38
-0.00814298790655 -0.0358291467888 0.88 1.47299716142e-38
-0.00649958489268 -0.0357477169098 0.878 1.22277528205e-38
-0.00485803255789 -0.0356255720912 0.875 1.12957660274e-38
-0.00323868837192 -0.0356255720912 0.875 1.14794370197e-38
-0.00161564282782 -0.0355441422121 0.873 1.13876113327e-38
0.0 -0.035462712333 0.871 1.13876029249e-38
0.00161194146968 -0.035462712333 0.871 1.21222854929e-38
0.00321648022309 -0.035381282454 0.869 1.31324759506e-38
0.00482472033463 -0.035381282454 0.869 1.47865910787e-38
0.00643296044618 -0.035381282454 0.869 1.47883847407e-38
0.00804120055772 -0.035381282454 0.869 1.60837842775e-38
0.00964944066926 -0.035381282454 0.869 1.48773503776e-38
0.0112317712738 -0.0352998525749 0.867 1.58875408353e-38
0.0128363100272 -0.0352998525749 0.867 1.61630473238e-38
0.0144408487806 -0.0352998525749 0.867 1.48773503776e-38
0.016045387534 -0.0352998525749 0.867 2.271073491e-38
0.0176499262875 -0.0352998525749 0.867 2.17382842225e-38
0.0192544650409 -0.0352998525749 0.867 1.08366053622e-38
0.0209071214501 -0.035381282454 0.869 2.31710488439e-38
0.0225153615616 -0.035381282454 0.869 1.97006813489e-38
0.0241236016732 -0.035381282454 0.869 1.19386565395e-38
0.0257318417847 -0.035381282454 0.869 1.29488049583e-38
0.0273400818963 -0.035381282454 0.869 1.38671599199e-38
0.0289483220078 -0.035381282454 0.869 2.29826414628e-38
0.030626887924 -0.035462712333 0.871 2.26494238983e-38
0.0322388293937 -0.035462712333 0.871 2.1732854191e-38
0.0338507708634 -0.035462712333 0.871 8.35846508e-39
0.0356255720912 -0.0356255720912 0.875 9.36722060812e-39
0.0373726131329 -0.0357477169098 0.878 1.90406711735e-38
0.0389975093561 -0.0357477169098 0.878 1.97111336342e-38
0.0407149395328 -0.0358291467888 0.88 1.80418662658e-38
0.0424397724257 -0.0359105766679 0.882 1.56498371755e-38
0.0442219763698 -0.0360327214865 0.885 1.61118887195e-38
0.0459634653743 -0.0361141513656 0.887 2.18239918405e-38
0.0477123570952 -0.0361955812446 0.889 1.81185523243e-38
-0.0164525369294 -0.0345503275517 0.889 1.38879804124e-38
-0.0148072832364 -0.0345503275517 0.889 1.46298488389e-38
-0.0131324186784 -0.0344725990308 0.887 1.52892760742e-38
-0.0114649568366 -0.0343948705098 0.885 1.76896288773e-38
-0.0097937936367 -0.0342782777284 0.882 1.82388551987e-38
-0.00814298790655 -0.0342005492075 0.88 1.41771509622e-38
-0.00649958489268 -0.0341228206866 0.878 1.7026600305e-38
-0.00487468866951 -0.0341228206866 0.878 1.15773723681e-38
-0.00324979244634 -0.0341228206866 0.878 1.13876029249e-38
-0.00161934418596 -0.0340062279052 0.875 1.16631080121e-38
0.0 -0.0340062279052 0.875 1.20304499967e-38
0.00161564282782 -0.0339284993843 0.873 1.6083829119e-38
0.00322388293937 -0.0338507708634 0.871 1.38847616299e-38
0.00483582440905 -0.0338507708634 0.871 1.23095438092e-38
0.00644776587873 -0.0338507708634 0.871 1.48859599554e-38
0.00804120055772 -0.0337730423424 0.869 1.31324759506e-38
0.00964944066926 -0.0337730423424 0.869 1.42345019045e-38
0.0112576807808 -0.0337730423424 0.869 1.4510008393e-38
0.0128659208924 -0.0337730423424 0.869 1.47855148814e-38
0.0144741610039 -0.0337730423424 0.869 1.47855148814e-38
0.0160824011154 -0.0337730423424 0.869 1.95786044306e-38
0.017690641227 -0.0337730423424 0.869 1.55458271983e-38
0.0192988813385 -0.0337730423424 0.869 1.32243114468e-38
0.0209552391059 -0.0338507708634 0.871 1.41426664083e-38
0.0225671805756 -0.0338507708634 0.871 1.84680025301e-38
0.0241791220453 -0.0338507708634 0.871 2.19964902802e-38
0.0257910635149 -0.0338507708634 0.871 2.31144083599e-38
0.0274030049846 -0.0338507708634 0.871 2.21049381696e-38
0.0290149464543 -0.0338507708634 0.871 1.48204114171e-38
0.030626887924 -0.0338507708634 0.871 1.44447513248e-38
0.0323128565565 -0.0339284993843 0.873 1.45439030002e-38
0.0340062279052 -0.0340062279052 0.875 1.17826976256e-38
0.0356255720912 -0.0340062279052 0.875 1.75859692247e-38
0.0373726131329 -0.0341228206866 0.878 2.03563979458e-38
0.0390863419515 -0.0342005492075 0.88 9.84039986316e-39
0.0408074734862 -0.0342782777284 0.882 2.07947241055e-38
0.0425841253931 -0.0343948705098 0.885 1.57434943597e-38
0.0443219130396 -0.0344725990308 0.887 1.99801030653e-38
0.0459634653743 -0.0344725990308 0.887 1.75722757361e-38
0.0477123570952 -0.0345503275517 0.889 2.15225879551e-38
-0.0166190980456 -0.0332381960913 0.898 1.27823811475e-38
-0.0148072832364 -0.0329050738588 0.889 1.60099344471e-38
-0.0131620295435 -0.0329050738588 0.889 5.97289457434e-39
-0.0114908663436 -0.032831046696 0.887 1.28064050083e-38
-0.00982710585995 -0.0327570195332 0.885 8.08511098597e-39
-0.00816149469725 -0.032645978789 0.882 1.23977919813e-38
-0.0065291957578 -0.032645978789 0.882 1.84941871932e-38
-0.00488579274393 -0.0325719516262 0.88 1.81297024562e-38
-0.00325719516262 -0.0325719516262 0.88 1.36161271091e-38
-0.00162489622317 -0.0324979244634 0.878 1.72171796988e-38
0.0 -0.0324979244634 0.878 1.69376865162e-38
0.00161934418596 -0.0323868837192 0.875 1.38847462156e-38
0.00323128565565 -0.0323128565565 0.873 2.04359202324e-38
0.00484692848347 -0.0323128565565 0.873 2.16375336655e-38
0.00644776587873 -0.0322388293937 0.871 2.11815343297e-38
0.00805970734842 -0.0322388293937 0.871 2.05376320801e-38
0.00964944066926 -0.0321648022309 0.869 1.97989922453e-38
0.0112576807808 -0.0321648022309 0.869 1.98908011168e-38
0.0128659208924 -0.0321648022309 0.869 1.97053322585e-38
0.0144741610039 -0.0321648022309 0.869 2.02560005161e-38
0.0160824011154 -0.0321648022309 0.869 1.95195172796e-38
0.017690641227 -0.0321648022309 0.869 2.14570744493e-38
0.0192988813385 -0.0321648022309 0.869 2.24737220904e-38
0.0209552391059 -0.0322388293937 0.871 2.12755530488e-38
0.0225671805756 -0.0322388293937 0.871 1.8049040914e-38
0.0241791220453 -0.0322388293937 0.871 1.13991398151e-38
0.0257910635149 -0.0322388293937 0.871 1.00100690812e-38
0.027465928073 -0.0323128565565 0.873 6.52032022722e-39
0.0290815709008 -0.0323128565565 0.873 2.08151956747e-38
0.0306972137286 -0.0323128565565 0.873 1.50985201168e-38
0.0323868837192 -0.0323868837192 0.875 1.40840528962e-38
0.0340062279052 -0.0323868837192 0.875 1.67655468089e-38
0.0357477169098 -0.0324979244634 0.878 1.80523353666e-38
0.0374577443701 -0.0325719516262 0.88 1.03906841649e-38
0.0391751745468 -0.032645978789 0.882 1.74867979311e-38
0.0409462744165 -0.0327570195332 0.885 1.99845185568e-38
0.0426803607048 -0.032831046696 0.887 1.18668680192e-38
0.0444218497093 -0.0329050738588 0.889 2.17192672011e-38
0.0460671034023 -0.0329050738588 0.889 1.91247757061e-38
0.0478196964812 -0.0329791010215 0.891 2.07857389797e-38
-0.0183420802595 -0.0316817749937 0.901 1.05801313095e-38
-0.0166190980456 -0.0315762862867 0.898 1.26905540591e-38
-0.0149238760178 -0.0315059604821 0.896 1.55500254885e-38
-0.0132360567063 -0.0314356346774 0.894 6.43530064679e-39
-0.0115167758506 -0.0312598201658 0.889 4.97061024254e-39
-0.00984931400879 -0.0311894943612 0.887 1.28738481021e-38
-0.00818925488329 -0.0311191685565 0.885 1.24035316998e-38
-0.00655140390664 -0.0311191685565 0.885 1.12039333339e-38
-0.00488579274393 -0.0309433540449 0.88 1.22162733835e-38
-0.00325719516262 -0.0309433540449 0.88 7.34683969264e-39
-0.00162859758131 -0.0309433540449 0.88 6.89627178961e-39
0.0 -0.0308730282403 0.878 1.11221395425e-38
0.00162489622317 -0.0308730282403 0.878 1.424850508e-38
0.00323868837192 -0.0307675395333 0.875 1.35005354e-38
0.00484692848347 -0.0306972137286 0.873 1.55201988507e-38
0.00646257131129 -0.0306972137286 0.873 1.25814629736e-38
0.00807821413911 -0.0306972137286 0.873 1.09284240428e-38
0.0096716488181 -0.030626887924 0.871 9.3672304172e-39
0.0112576807808 -0.0305565621193 0.869 1.00101097189e-38
0.0128659208924 -0.0305565621193 0.869 1.03774601113e-38
0.0144741610039 -0.0305565621193 0.869 1.12958192768e-38
0.0160824011154 -0.0305565621193 0.869 1.00101223306e-38
0.0177313561665 -0.030626887924 0.871 1.01019045774e-38
0.0193432976362 -0.030626887924 0.871 9.64272709659e-39
0.0209552391059 -0.030626887924 0.871 8.90804312733e-39
0.0225671805756 -0.030626887924 0.871 9.45905610427e-39
0.0242346424173 -0.0306972137286 0.873 1.26797794752e-38
0.0258502852452 -0.0306972137286 0.873 1.8789508042e-38
0.027465928073 -0.0306972137286 0.873 1.34461089677e-38
0.0290815709008 -0.0306972137286 0.873 1.83317935168e-38
0.0307675395333 -0.0307675395333 0.875 2.06287136777e-38
0.0323868837192 -0.0307675395333 0.875 1.37173414958e-38
0.0341228206866 -0.0308730282403 0.878 1.38016113816e-38
0.0357477169098 -0.0308730282403 0.878 1.46976450599e-38
0.0374577443701 -0.0309433540449 0.88 2.09943320652e-38
0.0391751745468 -0.0310136798495 0.882 1.55572912211e-38
0.04103880837 -0.0311894943612 0.887 1.10202875649e-38
0.0427765960164 -0.0312598201658 0.889 2.33852064856e-38
0.0445217863791 -0.0313301459705 0.891 1.82143478899e-38
0.046326198472 -0.0314356346774 0.894 2.08761423489e-38
0.0479807055603 -0.0314356346774 0.894 1.97679955233e-38
-0.020053958399 -0.0300809375984 0.903 1.76827919421e-38
-0.0183420802595 -0.0300143131519 0.901 9.01458665216e-39
-0.0166190980456 -0.0299143764822 0.898 1.22320814314e-38
-0.0149571882411 -0.0299143764822 0.898 1.48120919081e-38
-0.0132656675714 -0.0298477520357 0.896 7.8200077373e-39
-0.011581549618 -0.0297811275891 0.894 6.62975883468e-39
-0.00987152215763 -0.0296145664729 0.889 1.11261178288e-38
-0.00820776167399 -0.0295479420264 0.887 1.51722774615e-38
-0.00655140390664 -0.0294813175799 0.885 1.13065476178e-38
-0.00489689681835 -0.0293813809101 0.882 1.40763821884e-38
-0.0032645978789 -0.0293813809101 0.882 8.83557918114e-39
-0.00162859758131 -0.0293147564636 0.88 8.09981901465e-39
0.0 -0.0293147564636 0.88 1.48279097652e-38
0.00162489622317 -0.0292481320171 0.878 1.1227611074e-38
0.00324979244634 -0.0292481320171 0.878 1.08409157563e-38
0.00485803255789 -0.0291481953473 0.875 1.78462590132e-38
0.00647737674385 -0.0291481953473 0.875 1.79388077703e-38
0.00809672092981 -0.0291481953473 0.875 1.48895767067e-38
0.0096716488181 -0.0290149464543 0.871 1.33161889819e-38
0.0112835902878 -0.0290149464543 0.871 1.12957702313e-38
0.0128955317575 -0.0290149464543 0.871 1.17550051654e-38
0.0145074732272 -0.0290149464543 0.871 1.13876379574e-38
0.0161194146968 -0.0290149464543 0.871 1.13876547729e-38
0.0177313561665 -0.0290149464543 0.871 1.12958052638e-38
0.0193432976362 -0.0290149464543 0.871 1.13876421612e-38
0.0209552391059 -0.0290149464543 0.871 1.21244547029e-38
0.0226189995895 -0.0290815709008 0.873 1.03774390918e-38
0.0242346424173 -0.0290815709008 0.873 1.88496910084e-38
0.0258502852452 -0.0290815709008 0.873 1.79579551125e-38
0.0275288511614 -0.0291481953473 0.875 1.02107406265e-38
0.0291481953473 -0.0291481953473 0.875 1.16779687823e-38
0.0308730282403 -0.0292481320171 0.878 1.08365885466e-38
0.0324979244634 -0.0292481320171 0.878 1.64746358464e-38
0.0342005492075 -0.0293147564636 0.88 2.26455745314e-38
0.0358291467888 -0.0293147564636 0.88 2.09049306245e-38
0.0375428756073 -0.0293813809101 0.882 9.37583018588e-39
0.0393972560352 -0.0295479420264 0.887 1.31324759506e-38
0.0411313423234 -0.0296145664729 0.889 2.34527028287e-38
0.042872831328 -0.0296811909194 0.891 1.80234826313e-38
0.0446716913837 -0.0297811275891 0.894 2.21639888869e-38
0.046326198472 -0.0297811275891 0.894 1.82935731012e-38
0.0479807055603 -0.0297811275891 0.894 2.20736065373e-38
-0.020053958399 -0.0284097743985 0.903 1.70381442018e-38
-0.0183420802595 -0.0283468513102 0.901 8.37210531926e-39
-0.0166746184177 -0.0283468513102 0.901 1.14077087553e-38
-0.0149571882411 -0.0282524666776 0.898 1.27034642218e-38
-0.0132656675714 -0.0281895435892 0.896 7.5488116429e-39
-0.011581549618 -0.0281266205009 0.894 6.44679689939e-39
-0.00989373030646 -0.0280322358683 0.891 1.03928533749e-38
-0.00822626846469 -0.0279693127799 0.889 1.27773308678e-38
-0.00658101477175 -0.0279693127799 0.889 1.39762383936e-38
-0.00491355292998 -0.0278434666032 0.885 1.30621658001e-38
-0.00327570195332 -0.0278434666032 0.885 9.20327989818e-39
-0.00163785097666 -0.0278434666032 0.885 8.3792771648e-39
0.0 -0.0277490819706 0.882 6.25952176742e-39
0.00163229893945 -0.0277490819706 0.882 8.37822058575e-39
0.00325719516262 -0.0276861588823 0.88 1.28745949942e-38
0.00488579274393 -0.0276861588823 0.88 2.06187168145e-38
0.00651439032524 -0.0276861588823 0.88 1.48914124077e-38
0.00812448111586 -0.0276232357939 0.878 1.56123930793e-38
0.00974937733903 -0.0276232357939 0.878 1.7275859072e-38
0.0113742735622 -0.0276232357939 0.878 1.43263374006e-38
0.0129547534877 -0.0275288511614 0.875 1.18467790044e-38
0.0145407854504 -0.027465928073 0.873 1.17549841459e-38
0.0161194146968 -0.0274030049846 0.871 1.14794706509e-38
0.0177313561665 -0.0274030049846 0.871 1.13876309509e-38
0.0193432976362 -0.0274030049846 0.871 1.14823475167e-38
0.0210033567617 -0.027465928073 0.873 1.08366249804e-38
0.0226189995895 -0.027465928073 0.873 1.08366095661e-38
0.0242901627894 -0.0275288511614 0.875 1.11120950351e-38
0.0259095069754 -0.0275288511614 0.875 1.01019045774e-38
0.0276232357939 -0.0276232357939 0.878 1.49116079212e-38
0.0292481320171 -0.0276232357939 0.878 1.63005763603e-38
0.0308730282403 -0.0276232357939 0.878 1.70248108469e-38
0.0325719516262 -0.0276861588823 0.88 2.22865604636e-38
0.0342782777284 -0.0277490819706 0.882 1.44470326387e-38
0.0359105766679 -0.0277490819706 0.882 1.17549435082e-38
0.0376705724632 -0.0278434666032 0.885 2.1262914738e-38
0.0394860886305 -0.0279693127799 0.889 1.78456438432e-38
0.0412238762769 -0.0280322358683 0.891 1.96692978685e-38
0.0430171842954 -0.0281266205009 0.894 1.98530052946e-38
0.0447716280535 -0.0281895435892 0.896 2.07803369741e-38
0.0465334745278 -0.0282524666776 0.898 1.91193905161e-38
0.0481953843324 -0.0282524666776 0.898 2.04205760142e-38
-0.020053958399 -0.0267386111986 0.903 1.6576421963e-38
-0.018382795199 -0.0267386111986 0.903 9.944116969e-39
-0.0166746184177 -0.0266793894684 0.901 8.65371866644e-39
-0.015007156576 -0.0266793894684 0.901 8.19527686734e-39
-0.0133396947342 -0.0266793894684 0.901 6.54149805091e-39
-0.011607459125 -0.0265313351428 0.896 5.3447695442e-39
-0.00992704252972 -0.0264721134126 0.894 9.75000209923e-39
-0.00824477525538 -0.0263832808172 0.891 1.15777296992e-38
-0.00658101477175 -0.026324059087 0.889 1.12042892637e-38
-0.00492465700439 -0.0262648373568 0.887 1.52759245024e-38
-0.0032831046696 -0.0262648373568 0.887 1.23350698621e-38
-0.0016415523348 -0.0262648373568 0.887 1.1044664553e-38
0.0 -0.0262056156265 0.885 7.35724293244e-39
0.00163785097666 -0.0262056156265 0.885 9.94587419727e-39
0.0032645978789 -0.0261167830312 0.882 9.18785440468e-39
0.00489689681835 -0.0261167830312 0.882 1.32243114468e-38
0.00651439032524 -0.026057561301 0.88 1.82821272953e-38
0.00814298790655 -0.026057561301 0.88 1.92166238139e-38
0.00977158548786 -0.026057561301 0.88 1.92302528428e-38
0.0114001830692 -0.026057561301 0.88 1.85867555685e-38
0.0129991697854 -0.0259983395707 0.878 1.35138183082e-38
0.0146240660085 -0.0259983395707 0.878 1.18467790044e-38
0.0162489622317 -0.0259983395707 0.878 1.18468140368e-38
0.0178127860456 -0.0259095069754 0.875 1.16649409105e-38
0.0194321302315 -0.0259095069754 0.875 1.12958010599e-38
0.0210514744175 -0.0259095069754 0.875 1.25858210119e-38
0.0227485471244 -0.0259983395707 0.878 1.57427782962e-38
0.0243734433476 -0.0259983395707 0.878 1.81445141809e-38
0.0259983395707 -0.0259983395707 0.878 1.59347281598e-38
0.0276861588823 -0.026057561301 0.88 1.63957063091e-38
0.0293147564636 -0.026057561301 0.88 1.17830535554e-38
0.0310136798495 -0.0261167830312 0.882 1.51744466715e-38
0.0327570195332 -0.0262056156265 0.885 9.45905610427e-39
0.0344725990308 -0.0262648373568 0.887 1.75822151461e-38
0.0361141513656 -0.0262648373568 0.887 1.78640386881e-38
0.0378408349376 -0.026324059087 0.889 1.61990648982e-38
0.0397081701189 -0.0264721134126 0.894 1.77278380826e-38
0.0413626772071 -0.0264721134126 0.894 2.04040084625e-38
0.0432096549187 -0.026590556873 0.898 2.10583503856e-38
0.0448715647232 -0.026590556873 0.898 1.98616246815e-38
0.0465334745278 -0.026590556873 0.898 2.16137270059e-38
0.0481953843324 -0.026590556873 0.898 1.98698965463e-38
-0.0201205828455 -0.0251507285568 0.906 1.5840307268e-38
-0.0184438676083 -0.0251507285568 0.906 9.39201798574e-39
-0.0167671523712 -0.0251507285568 0.906 7.1843619383e-39
-0.0150404687992 -0.0250674479987 0.903 7.00393915582e-39
-0.0133693055993 -0.0250674479987 0.903 6.36142138915e-39
-0.011633368632 -0.0249286470685 0.898 4.60757304679e-39
-0.00994925067855 -0.0248731266964 0.896 9.47486275095e-39
-0.00824477525538 -0.0247343257662 0.891 1.15791716354e-38
-0.00658101477175 -0.0246788053941 0.889 1.15791744379e-38
-0.00492465700439 -0.024623285022 0.887 1.01019045774e-38
-0.0032831046696 -0.024623285022 0.887 1.04692521672e-38
-0.0016415523348 -0.024623285022 0.887 1.24975308008e-38
0.0 -0.0245677646499 0.885 1.22212970384e-38
0.00163785097666 -0.0245677646499 0.885 9.1835496158e-39
0.00327570195332 -0.0245677646499 0.885 9.91825040064e-39
0.00491355292998 -0.0245677646499 0.885 1.31342696126e-38
0.0065291957578 -0.0244844840917 0.882 1.35916534314e-38
0.00816149469725 -0.0244844840917 0.882 1.81924301806e-38
0.0097937936367 -0.0244844840917 0.882 1.76647193958e-38
0.0114001830692 -0.0244289637197 0.88 1.87707418529e-38
0.0130287806505 -0.0244289637197 0.88 1.65562656859e-38
0.0146573782318 -0.0244289637197 0.88 1.58900519622e-38
0.0162489622317 -0.0243734433476 0.878 1.15713187588e-38
0.0178738584549 -0.0243734433476 0.878 1.08365927505e-38
0.0194987546781 -0.0243734433476 0.878 1.04692535685e-38
0.0211236509012 -0.0243734433476 0.878 1.69204225191e-38
0.0227485471244 -0.0243734433476 0.878 1.36223166444e-38
0.0244289637197 -0.0244289637197 0.88 7.43948373801e-39
0.026057561301 -0.0244289637197 0.88 8.08158672033e-39
0.0277490819706 -0.0244844840917 0.882 8.17335915806e-39
0.0293813809101 -0.0244844840917 0.882 1.29538846652e-38
0.0311191685565 -0.0245677646499 0.885 2.04422120625e-38
0.032831046696 -0.024623285022 0.887 1.81488469958e-38
0.0344725990308 -0.024623285022 0.887 1.41872893566e-38
0.0361955812446 -0.0246788053941 0.889 1.30740025683e-38
0.0379259661748 -0.0247343257662 0.891 1.6006375149e-38
0.0397081701189 -0.0248176063243 0.894 2.123593694e-38
0.0414552111606 -0.0248731266964 0.896 1.98580093314e-38
0.0432096549187 -0.0249286470685 0.898 1.97690492997e-38
0.0450214697279 -0.0250119276266 0.901 1.98619750061e-38
0.0465334745278 -0.0249286470685 0.898 2.1425353256e-38
0.0481953843324 -0.0249286470685 0.898 1.85802745631e-38
-0.0201205828455 -0.0234740133197 0.906 1.51041855665e-38
-0.0184438676083 -0.0234740133197 0.906 8.65659833478e-39
-0.0167671523712 -0.0234740133197 0.906 8.47795940525e-39
-0.0150904371341 -0.0234740133197 0.906 6.54403440113e-39
-0.0133693055993 -0.0233962847988 0.903 5.99337455139e-39
-0.011633368632 -0.0232667372639 0.898 4.9795827566e-39
-0.00997145882739 -0.0232667372639 0.898 8.83450999041e-39
-0.00827253544143 -0.023163099236 0.894 1.12103877146e-38
-0.00659582020431 -0.0230853707151 0.891 1.21327083508e-38
-0.00493576107881 -0.0230335517011 0.889 1.11189291677e-38
-0.00329050738588 -0.0230335517011 0.889 1.12071619255e-38
-0.0016415523348 -0.0229817326872 0.887 1.1113892901e-38
0.0 -0.0229817326872 0.887 1.37821557537e-38
0.0016415523348 -0.0229817326872 0.887 1.6827460379e-38
0.0032831046696 -0.0229817326872 0.887 1.54506047638e-38
0.00491355292998 -0.0229299136732 0.885 1.09298589724e-38
0.00655140390664 -0.0229299136732 0.885 1.26732984698e-38
0.00818925488329 -0.0229299136732 0.885 1.45100125969e-38
0.00982710585995 -0.0229299136732 0.885 1.68145348019e-38
0.0114649568366 -0.0229299136732 0.885 1.82025041153e-38
0.0131028078133 -0.0229299136732 0.885 1.30442277785e-38
0.014690690455 -0.0228521851523 0.882 1.68988074903e-38
0.0163229893945 -0.0228521851523 0.882 1.31324759506e-38
0.0179552883339 -0.0228521851523 0.882 1.28620743924e-38
0.0195431709757 -0.0228003661383 0.88 1.37969688798e-38
0.021171768557 -0.0228003661383 0.88 1.36172369374e-38
0.0228003661383 -0.0228003661383 0.88 1.49980077806e-38
0.0244844840917 -0.0228521851523 0.882 1.6014305097e-38
0.0261167830312 -0.0228521851523 0.882 2.01713130434e-38
0.0278434666032 -0.0229299136732 0.885 2.09150437955e-38
0.0295479420264 -0.0229817326872 0.887 1.66809027765e-38
0.0311894943612 -0.0229817326872 0.887 1.08736220625e-38
0.032831046696 -0.0229817326872 0.887 4.33312874255e-39
0.0345503275517 -0.0230335517011 0.889 1.17901357179e-38
0.0362770111237 -0.0230853707151 0.891 1.74803715764e-38
0.0380536630306 -0.023163099236 0.894 1.93116879017e-38
0.0397970027142 -0.02321491825 0.896 1.99462575035e-38
0.0415477451141 -0.0232667372639 0.898 1.88409847411e-38
0.0433540078861 -0.0233444657848 0.901 2.03193518183e-38
0.0450214697279 -0.0233444657848 0.901 1.97665549884e-38
0.0466889315697 -0.0233444657848 0.901 2.19828430344e-38
-0.0184438676083 -0.0217972980826 0.906 8.65555156483e-39
-0.0167671523712 -0.0217972980826 0.906 7.73788604209e-39
-0.0150904371341 -0.0217972980826 0.906 6.72949765418e-39
-0.0133693055993 -0.0217251215989 0.903 5.90296837967e-39
-0.0116722328924 -0.0216770039431 0.901 4.98102048883e-39
-0.00997145882739 -0.0216048274593 0.898 6.99815599706e-39
-0.00829104223213 -0.0215567098035 0.896 1.02062957078e-38
-0.00661802835314 -0.0215085921477 0.894 1.15795233613e-38
-0.00493576107881 -0.0213882980082 0.889 1.07497753042e-38
-0.00329050738588 -0.0213882980082 0.889 1.14848180059e-38
-0.00164525369294 -0.0213882980082 0.889 1.33459217327e-38
0.0 -0.0213401803524 0.887 8.54679959361e-39
0.0016415523348 -0.0213401803524 0.887 1.18467790044e-38
0.0032831046696 -0.0213401803524 0.887 1.87596463717e-38
0.00492465700439 -0.0213401803524 0.887 1.31490364958e-38
0.00656620933919 -0.0213401803524 0.887 1.04692549698e-38
0.00820776167399 -0.0213401803524 0.887 1.63557398756e-38
0.00982710585995 -0.0212920626966 0.885 1.31324759506e-38
0.0114649568366 -0.0212920626966 0.885 1.53365278584e-38
0.0131028078133 -0.0212920626966 0.885 1.87592778302e-38
0.0147406587899 -0.0212920626966 0.885 2.22831987486e-38
0.0163785097666 -0.0212920626966 0.885 2.11800853871e-38
0.0180163607432 -0.0212920626966 0.885 2.05408760861e-38
0.0196542117199 -0.0212920626966 0.885 2.02650080626e-38
0.0212920626966 -0.0212920626966 0.885 1.87895304628e-38
0.0229299136732 -0.0212920626966 0.885 2.2017058539e-38
0.024623285022 -0.0213401803524 0.887 1.63895153725e-38
0.0262648373568 -0.0213401803524 0.887 2.17375779681e-38
0.0279063896916 -0.0213401803524 0.887 1.86137515834e-38
0.0296145664729 -0.0213882980082 0.889 1.02275435964e-38
0.0312598201658 -0.0213882980082 0.889 1.02202862716e-39
0.0329050738588 -0.0213882980082 0.889 1.02293218441e-38
0.0346280560726 -0.021436415664 0.891 1.81268157813e-38
0.0362770111237 -0.021436415664 0.891 1.92158783231e-38
0.0380536630306 -0.0215085921477 0.894 1.93037523485e-38
0.0397970027142 -0.0215567098035 0.896 2.00395195215e-38
