# .PCD v0.7 - Point Cloud Data file format
VERSION 0.7
FIELDS x y z rgb
SIZE 4 4 4 4
TYPE F F F F
COUNT 1 1 1 1
WIDTH 854
HEIGHT 1
VIEWPOINT 0 0 0 1 0 0 0
POINTS 854
DATA ascii
0.0372541696725 -0.0220138275337 0.915 1.70417006973e-38
0.0389475410212 -0.0220138275337 0.915 1.86082584934e-38
0.0405520797746 -0.0219657098779 0.913 1.85197230551e-38
0.0422417497652 -0.0219657098779 0.913 2.22086370586e-38
0.0439314197559 -0.0219657098779 0.913 2.35097496892e-38
0.0456210897465 -0.0219657098779 0.913 2.35098337671e-38
0.0473107597371 -0.0219657098779 0.913 2.35098645957e-38
0.0490004297277 -0.0219657098779 0.913 2.13888704505e-38
0.0506900997183 -0.0219657098779 0.913 2.14654710297e-38
0.0522076565554 -0.0218935333942 0.91 2.32146656599e-38
0.0538917745088 -0.0218935333942 0.91 2.35098856151e-38
0.0555758924622 -0.0218935333942 0.91 2.35098856151e-38
0.0571341642389 -0.0218454157384 0.908 9.94707370876e-39
0.0588145808341 -0.0218454157384 0.908 2.33112375448e-38
0.0606282463224 -0.0218935333942 0.91 2.35098856151e-38
0.0623123642758 -0.0218935333942 0.91 2.35098856151e-38
0.0639964822292 -0.0218935333942 0.91 1.58370548543e-38
0.0656806001826 -0.0218935333942 0.91 1.4419249094e-38
0.067364718136 -0.0218935333942 0.91 2.34572164111e-38
0.0690488360894 -0.0218935333942 0.91 2.34572542461e-38
0.00515229052996 -0.0206091621199 0.928 1.77677232408e-38
0.00684751255778 -0.0205425376733 0.925 1.95036349628e-38
0.00854088390653 -0.0204981213757 0.923 2.05314411435e-38
0.0102157484646 -0.0204314969292 0.92 1.81254116803e-38
0.0118924637017 -0.0203870806315 0.918 1.72873497194e-38
0.01354697079 -0.020320456185 0.915 1.79366974148e-38
0.0152403421387 -0.020320456185 0.915 1.93392850737e-38
0.0169337134875 -0.020320456185 0.915 2.2184736512e-38
0.0185863698967 -0.0202760398873 0.913 2.34856851907e-38
0.0202760398873 -0.0202760398873 0.913 2.09027670197e-38
0.0219657098779 -0.0202760398873 0.913 1.91516470054e-38
0.0236553798685 -0.0202760398873 0.913 2.0160048005e-38
0.0253450498591 -0.0202760398873 0.913 2.34931078686e-38
0.0270347198498 -0.0202760398873 0.913 2.34867459736e-38
0.0287243898404 -0.0202760398873 0.913 1.90522781287e-38
0.030414059831 -0.0202760398873 0.913 1.99695568931e-38
0.0321037298216 -0.0202760398873 0.913 2.20148332771e-38
0.0337933998122 -0.0202760398873 0.913 2.35097679061e-38
0.0354830698028 -0.0202760398873 0.913 2.35097931294e-38
0.0371727397934 -0.0202760398873 0.913 2.35097917282e-38
0.038862409784 -0.0202760398873 0.913 2.350977211e-38
0.0405520797746 -0.0202760398873 0.913 2.35097847217e-38
0.042102948835 -0.0202094154408 0.91 2.3509758097e-38
0.0437870667884 -0.0202094154408 0.91 1.77850516976e-38
0.0454711847418 -0.0202094154408 0.91 1.61121451571e-38
0.0473107597371 -0.0202760398873 0.913 1.83089845817e-38
0.0488394206486 -0.0202094154408 0.91 2.3493278827e-38
0.050523538602 -0.0202094154408 0.91 2.3509851984e-38
0.0522076565554 -0.0202094154408 0.91 2.35098407736e-38
0.0538917745088 -0.0202094154408 0.91 2.25809746722e-38
0.0554537476436 -0.0201649991431 0.908 1.3423766665e-38
0.0571341642389 -0.0201649991431 0.908 2.3509716058e-38
0.0588145808341 -0.0201649991431 0.908 2.35098856151e-38
0.0606282463224 -0.0202094154408 0.91 2.35098744048e-38
0.0623123642758 -0.0202094154408 0.91 1.42721688072e-38
0.0639964822292 -0.0202094154408 0.91 2.03968212026e-38
0.0656806001826 -0.0202094154408 0.91 2.13339157286e-38
0.067364718136 -0.0202094154408 0.91 2.34544138141e-38
0.0690488360894 -0.0202094154408 0.91 2.34604716274e-38
0.00515229052996 -0.0188917319432 0.928 2.09938514199e-38
0.00684751255778 -0.0188306595339 0.925 1.71098360325e-38
0.00854088390653 -0.0187899445944 0.923 2.08040371351e-38
0.0102157484646 -0.0187288721851 0.92 2.14476184873e-38
0.0118924637017 -0.0186881572455 0.918 1.77565647011e-38
0.01354697079 -0.0186270848362 0.915 1.589616863e-38
0.0152403421387 -0.0186270848362 0.915 1.91315986283e-38
0.0169337134875 -0.0186270848362 0.915 1.84912206444e-38
0.0185863698967 -0.0185863698967 0.913 1.87689692104e-38
0.0202094154408 -0.0185252974874 0.91 2.34895345575e-38
0.0218935333942 -0.0185252974874 0.91 2.34925305337e-38
0.0235776513476 -0.0185252974874 0.91 2.09870691353e-38
0.025261769301 -0.0185252974874 0.91 2.0439242711e-38
0.0269458872544 -0.0185252974874 0.91 2.04424628949e-38
0.0286300052078 -0.0185252974874 0.91 2.34791621463e-38
0.0303141231612 -0.0185252974874 0.91 2.3500006461e-38
0.0319982411146 -0.0185252974874 0.91 2.34964233408e-38
0.033682359068 -0.0185252974874 0.91 2.072188321e-38
0.0353664770214 -0.0185252974874 0.91 2.1448969339e-38
0.0370505949748 -0.0185252974874 0.91 2.08032510066e-38
0.038862409784 -0.0185863698967 0.913 2.05263095885e-38
0.0404188308816 -0.0185252974874 0.91 2.03448190166e-38
0.042102948835 -0.0185252974874 0.91 2.34827578782e-38
0.0437870667884 -0.0185252974874 0.91 2.35096515983e-38
0.0454711847418 -0.0185252974874 0.91 2.35097889256e-38
0.0471553026952 -0.0185252974874 0.91 2.35098211554e-38
0.0488394206486 -0.0185252974874 0.91 2.3509716058e-38
0.050523538602 -0.0185252974874 0.91 1.65860853172e-38
0.0520929144531 -0.0184845825479 0.908 2.09069246722e-38
0.0537733310484 -0.0184845825479 0.908 2.35092256036e-38
0.0554537476436 -0.0184845825479 0.908 2.35098617931e-38
0.0571341642389 -0.0184845825479 0.908 2.35098856151e-38
0.0588145808341 -0.0184845825479 0.908 2.07388795591e-38
0.0606282463224 -0.0185252974874 0.91 1.60059225296e-38
0.0623123642758 -0.0185252974874 0.91 2.04107977535e-38
0.0639964822292 -0.0185252974874 0.91 2.28082624806e-38
0.0658971296338 -0.0185863698967 0.913 1.97582733145e-38
0.0675867996244 -0.0185863698967 0.913 2.3455502623e-38
0.0701870037173 -0.0188306595339 0.925 2.34597877937e-38
0.00344226306959 -0.0172113153479 0.93 2.34910367495e-38
0.00515229052996 -0.0171743017665 0.928 2.29278240681e-38
0.00686972070662 -0.0171743017665 0.928 1.66545527602e-38
0.00855939069723 -0.0171187813945 0.925 1.79348701216e-38
0.0102490606878 -0.0170817678131 0.923 2.11642479118e-38
0.0118924637017 -0.0169892338596 0.918 2.108309031e-38
0.01354697079 -0.0169337134875 0.915 1.74753731447e-38
0.0152403421387 -0.0169337134875 0.915 1.74624083313e-38
0.0168966999061 -0.0168966999061 0.913 1.80105570542e-38
0.0185252974874 -0.016841179534 0.91 1.98691958971e-38
0.0202094154408 -0.016841179534 0.91 1.81367930264e-38
0.0218935333942 -0.016841179534 0.91 1.90494082695e-38
0.0235258323337 -0.0168041659526 0.908 2.34885564512e-38
0.0252062489289 -0.0168041659526 0.908 2.34857062101e-38
0.0268866655242 -0.0168041659526 0.908 2.16435522425e-38
0.0285670821194 -0.0168041659526 0.908 1.87807835577e-38
0.0302474987147 -0.0168041659526 0.908 2.06202974791e-38
0.03192791531 -0.0168041659526 0.908 2.22889384671e-38
0.0336083319052 -0.0168041659526 0.908 2.3496377098e-38
0.0353664770214 -0.016841179534 0.91 2.34909947105e-38
0.0370505949748 -0.016841179534 0.91 2.34939178191e-38
0.0387347129282 -0.016841179534 0.91 2.34953471436e-38
0.0404188308816 -0.016841179534 0.91 2.34985098742e-38
0.042102948835 -0.016841179534 0.91 2.35060628729e-38
0.0437870667884 -0.016841179534 0.91 2.34999391986e-38
0.0454711847418 -0.016841179534 0.91 1.69376066422e-38
0.0471553026952 -0.016841179534 0.91 2.17223262356e-38
0.0488394206486 -0.016841179534 0.91 1.89630238243e-38
0.050523538602 -0.016841179534 0.91 2.3509636184e-38
0.0520929144531 -0.0168041659526 0.908 2.35098617931e-38
0.0537733310484 -0.0168041659526 0.908 2.35098393723e-38
0.0554537476436 -0.0168041659526 0.908 2.35050525367e-38
0.0571341642389 -0.0168041659526 0.908 1.83193878215e-38
0.0588145808341 -0.0168041659526 0.908 1.87344412162e-38
0.0606282463224 -0.016841179534 0.91 2.34299037027e-38
0.0623123642758 -0.016841179534 0.91 2.26098274076e-38
0.0642074596432 -0.0168966999061 0.913 2.34497138591e-38
0.0660414826012 -0.0169337134875 0.915 2.18805664634e-38
0.0681049897639 -0.017026247441 0.92 2.34568983163e-38
0.0701870037173 -0.0171187813945 0.925 2.34612241247e-38
0.0721320674195 -0.0171743017665 0.928 2.34672553133e-38
0.00344226306959 -0.0154901838131 0.93 2.34932059595e-38
0.00515229052996 -0.0154568715899 0.928 2.13630192964e-38
0.00686972070662 -0.0154568715899 0.928 1.86842509091e-38
0.00858715088327 -0.0154568715899 0.928 2.32944009438e-38
0.0102712688367 -0.015406903255 0.925 1.62764544085e-38
0.0118924637017 -0.0152903104736 0.918 2.11642507144e-38
0.01354697079 -0.0152403421387 0.915 2.31052774992e-38
0.0152403421387 -0.0152403421387 0.915 1.92256439721e-38
0.0168966999061 -0.0152070299155 0.913 1.84822999784e-38
0.0185252974874 -0.0151570615806 0.91 1.65346940973e-38
0.0202094154408 -0.0151570615806 0.91 1.88421324045e-38
0.0218935333942 -0.0151570615806 0.91 2.20858160508e-38
0.0235258323337 -0.0151237493574 0.908 1.76729604321e-38
0.0252062489289 -0.0151237493574 0.908 2.01583019871e-38
0.0268866655242 -0.0151237493574 0.908 1.96069639089e-38
0.0285670821194 -0.0151237493574 0.908 2.34993324364e-38
0.0302474987147 -0.0151237493574 0.908 2.35000428947e-38
0.03192791531 -0.0151237493574 0.908 2.34992932001e-38
0.0336083319052 -0.0151237493574 0.908 2.32986314639e-38
0.0353664770214 -0.0151570615806 0.91 2.34777202102e-38
0.0370505949748 -0.0151570615806 0.91 2.32911793586e-38
0.0387347129282 -0.0151570615806 0.91 2.34738189953e-38
0.0404188308816 -0.0151570615806 0.91 2.34820642354e-38
0.0420104148815 -0.0151237493574 0.908 2.27487857685e-38
0.0436908314768 -0.0151237493574 0.908 2.34975177549e-38
0.0453712480721 -0.0151237493574 0.908 2.35097623009e-38
0.0471553026952 -0.0151570615806 0.91 2.35097552944e-38
0.0488394206486 -0.0151570615806 0.91 2.32331235632e-38
0.0504124978578 -0.0151237493574 0.908 2.34964205382e-38
0.0520929144531 -0.0151237493574 0.908 2.34838564962e-38
0.0537733310484 -0.0151237493574 0.908 2.19949600622e-38
0.0554537476436 -0.0151237493574 0.908 1.60712118276e-38
0.0571341642389 -0.0151237493574 0.908 1.90099477047e-38
0.058944128369 -0.0151570615806 0.91 2.34371161859e-38
0.0606282463224 -0.0151570615806 0.91 2.34403223568e-38
0.0625177896526 -0.0152070299155 0.913 2.31669682627e-38
0.0643481112525 -0.0152403421387 0.915 2.29836714171e-38
0.0662580120524 -0.0152903104736 0.918 2.2523060408e-38
0.0681049897639 -0.0153236226969 0.92 2.34536613169e-38
0.0701870037173 -0.015406903255 0.925 2.34586471368e-38
0.0721320674195 -0.0154568715899 0.928 2.34720281358e-38
0.00344226306959 -0.0137690522784 0.93 2.34835005664e-38
0.00515229052996 -0.0137394414132 0.928 2.18239750249e-38
0.00686972070662 -0.0137394414132 0.928 1.97906138818e-38
0.00858715088327 -0.0137394414132 0.928 1.72095468261e-38
0.0103045810599 -0.0137394414132 0.928 1.81236096104e-38
0.0119831469761 -0.0136950251156 0.925 1.83933245324e-38
0.0135913870877 -0.0135913870877 0.918 2.32786209218e-38
0.0152403421387 -0.01354697079 0.915 2.2181882067e-38
0.0169337134875 -0.01354697079 0.915 1.31432379228e-38
0.0185863698967 -0.0135173599249 0.913 2.12402711561e-38
0.0202094154408 -0.0134729436272 0.91 1.75596206097e-38
0.0218935333942 -0.0134729436272 0.91 1.65346940973e-38
0.0235258323337 -0.0134433327621 0.908 1.91122032562e-38
0.0252062489289 -0.0134433327621 0.908 2.05141519231e-38
0.0268866655242 -0.0134433327621 0.908 2.17238480458e-38
0.0285670821194 -0.0134433327621 0.908 1.83140390652e-38
0.0302474987147 -0.0134433327621 0.908 2.0712572983e-38
0.03192791531 -0.0134433327621 0.908 2.34780256933e-38
0.0336083319052 -0.0134433327621 0.908 2.34770559947e-38
0.0352887485005 -0.0134433327621 0.908 2.34785007334e-38
0.0370505949748 -0.0134729436272 0.91 2.34860383179e-38
0.0387347129282 -0.0134729436272 0.91 2.34885564512e-38
0.0404188308816 -0.0134729436272 0.91 2.34889319992e-38
0.0420104148815 -0.0134433327621 0.908 2.3489973164e-38
0.0436908314768 -0.0134433327621 0.908 2.34791817645e-38
0.0453712480721 -0.0134433327621 0.908 2.34776781712e-38
0.0471553026952 -0.0134729436272 0.91 2.28333176971e-38
0.0488394206486 -0.0134729436272 0.91 2.28308065702e-38
0.0504124978578 -0.0134433327621 0.908 2.07924890344e-38
0.0520929144531 -0.0134433327621 0.908 1.66233010018e-38
0.0537733310484 -0.0134433327621 0.908 2.11311324265e-38
0.0554537476436 -0.0134433327621 0.908 2.18715561143e-38
0.0571341642389 -0.0134433327621 0.908 2.22396491949e-38
0.0591384496713 -0.0135173599249 0.913 2.34468397959e-38
0.0608281196619 -0.0135173599249 0.913 2.19694998704e-38
0.0626547399037 -0.01354697079 0.915 2.27956690113e-38
0.0646997402757 -0.0136209979528 0.92 2.2705992916e-38
0.0664023650198 -0.0136209979528 0.92 2.34471662985e-38
0.0684751255778 -0.0136950251156 0.925 2.28958212138e-38
0.0701870037173 -0.0136950251156 0.925 2.34630135828e-38
0.0721320674195 -0.0137394414132 0.928 2.34680260274e-38
0.00515229052996 -0.0120220112366 0.928 2.20108900232e-38
0.00686972070662 -0.0120220112366 0.928 1.88683240741e-38
0.00858715088327 -0.0120220112366 0.928 1.71155589355e-38
0.0103045810599 -0.0120220112366 0.928 1.92335346838e-38
0.0120220112366 -0.0120220112366 0.928 1.75657316723e-38
0.0135913870877 -0.0118924637017 0.918 1.84758736236e-38
0.0152903104736 -0.0118924637017 0.918 2.34663038316e-38
0.0169337134875 -0.0118535994412 0.915 1.45351378783e-38
0.0185863698967 -0.0118276899343 0.913 1.73878648582e-38
0.0202094154408 -0.0117888256738 0.91 1.89561868891e-38
0.0218935333942 -0.0117888256738 0.91 2.25478914168e-38
0.0235258323337 -0.0117629161668 0.908 1.45200739198e-38
0.0252062489289 -0.0117629161668 0.908 1.61684283099e-38
0.0268866655242 -0.0117629161668 0.908 1.85507702239e-38
0.0285670821194 -0.0117629161668 0.908 1.8920264603e-38
0.0302474987147 -0.0117629161668 0.908 1.89317524478e-38
0.03192791531 -0.0117629161668 0.908 2.24419588581e-38
0.0336083319052 -0.0117629161668 0.908 2.2081774706e-38
0.0352887485005 -0.0117629161668 0.908 2.2361251073e-38
0.0370505949748 -0.0117888256738 0.91 2.18116702231e-38
0.038649581691 -0.0117629161668 0.908 2.28247459544e-38
0.0403299982863 -0.0117629161668 0.908 2.20846445653e-38
0.042102948835 -0.0117888256738 0.91 2.26371176952e-38
0.0437870667884 -0.0117888256738 0.91 2.24494740217e-38
0.0454711847418 -0.0117888256738 0.91 1.92105295669e-38
0.0471553026952 -0.0117888256738 0.91 1.77242507585e-38
0.0488394206486 -0.0117888256738 0.91 1.99283026663e-38
0.050523538602 -0.0117888256738 0.91 2.18607941421e-38
0.0522076565554 -0.0117888256738 0.91 2.26955644529e-38
0.0538917745088 -0.0117888256738 0.91 2.1777222103e-38
0.0555758924622 -0.0117888256738 0.91 2.27013083753e-38
0.0574487796807 -0.0118276899343 0.913 2.29807819397e-38
0.0592679972062 -0.0118535994412 0.915 2.21524435889e-38
0.060961368555 -0.0118535994412 0.915 2.2151740137e-38
0.0628601652804 -0.0118924637017 0.918 2.21492149972e-38
0.0649107176896 -0.0119572374691 0.923 2.34457327702e-38
0.0667632474384 -0.0119831469761 0.925 2.32570591423e-38
0.0686972070662 -0.0120220112366 0.928 2.34496956422e-38
0.0704146372428 -0.0120220112366 0.928 2.34676799067e-38
0.00688452613918 -0.0103267892088 0.93 1.76690802367e-38
0.00858715088327 -0.0103045810599 0.928 1.99714472447e-38
0.0103045810599 -0.0103045810599 0.928 1.48985380104e-38
0.0120220112366 -0.0103045810599 0.928 2.21802005088e-38
0.0137394414132 -0.0103045810599 0.928 1.53523120843e-38
0.0153735910318 -0.0102490606878 0.923 1.93051886795e-38
0.0169892338596 -0.0101935403157 0.918 1.67420820661e-38
0.0186270848362 -0.0101602280925 0.915 1.97020686344e-38
0.0202760398873 -0.0101380199437 0.913 1.48203371483e-38
0.0219657098779 -0.0101380199437 0.913 1.06547112164e-38
0.0235776513476 -0.0101047077204 0.91 1.60956056313e-38
0.025261769301 -0.0101047077204 0.91 1.99641843148e-38
0.0269458872544 -0.0101047077204 0.91 1.8579889206e-38
0.0286300052078 -0.0101047077204 0.91 1.73802263803e-38
0.0302474987147 -0.0100824995716 0.908 1.88381302961e-38
0.03192791531 -0.0100824995716 0.908 1.92854597984e-38
0.0336083319052 -0.0100824995716 0.908 2.02038091548e-38
0.0352887485005 -0.0100824995716 0.908 1.95609606817e-38
0.0370505949748 -0.0101047077204 0.91 1.93772896893e-38
0.038649581691 -0.0100824995716 0.908 2.00201381624e-38
0.0403299982863 -0.0100824995716 0.908 2.01119736586e-38
0.0422417497652 -0.0101380199437 0.913 2.02038091548e-38
0.0439314197559 -0.0101380199437 0.913 2.05711511394e-38
0.0456210897465 -0.0101380199437 0.913 2.25936844493e-38
0.0473107597371 -0.0101380199437 0.913 2.11221641163e-38
0.0490004297277 -0.0101380199437 0.913 2.24175468375e-38
0.0506900997183 -0.0101380199437 0.913 2.20487699233e-38
0.0523797697089 -0.0101380199437 0.913 2.24186706789e-38
0.0540694396995 -0.0101380199437 0.913 2.20545096418e-38
0.0557591096901 -0.0101380199437 0.913 2.23300609718e-38
0.0575746258575 -0.0101602280925 0.915 2.27009580506e-38
0.0594623185085 -0.0101935403157 0.918 2.33448953327e-38
0.0611612418945 -0.0101935403157 0.918 2.34421370383e-38
0.0632025409083 -0.0102490606878 0.923 2.28911100484e-38
0.0650513692989 -0.0102712688367 0.925 2.34514794952e-38
0.0669797768895 -0.0103045810599 0.928 2.34497124578e-38
0.0686972070662 -0.0103045810599 0.928 2.34579801187e-38
0.0704146372428 -0.0103045810599 0.928 2.34734224278e-38
0.0725207100241 -0.010360101432 0.933 2.34788426503e-38
0.00688452613918 -0.00860565767397 0.93 1.62864961133e-38
0.00860565767397 -0.00860565767397 0.93 1.941720988e-38
0.0103267892088 -0.00860565767397 0.93 1.81282437045e-38
0.0120479207436 -0.00860565767397 0.93 1.44418954785e-38
0.0137690522784 -0.00860565767397 0.93 2.27319463649e-38
0.015406903255 -0.00855939069723 0.925 1.52576571756e-38
0.0171187813945 -0.00855939069723 0.925 2.31938591803e-38
0.0186881572455 -0.00849461692979 0.918 2.26472925234e-38
0.020320456185 -0.00846685674374 0.915 1.39930749947e-38
0.0219657098779 -0.00844834995305 0.913 1.72199192373e-38
0.0235776513476 -0.008420589767 0.91 1.35252879361e-38
0.025261769301 -0.008420589767 0.91 1.51697172892e-38
0.0269458872544 -0.008420589767 0.91 1.26830164747e-38
0.0286300052078 -0.008420589767 0.91 1.2872753688e-38
0.0303141231612 -0.008420589767 0.91 1.98792530161e-38
0.0319982411146 -0.008420589767 0.91 1.60005415435e-38
0.033682359068 -0.008420589767 0.91 2.13101455027e-38
0.0353664770214 -0.008420589767 0.91 2.07609205826e-38
0.0370505949748 -0.008420589767 0.91 2.03942960628e-38
0.0387347129282 -0.008420589767 0.91 2.14055627178e-38
0.0404188308816 -0.008420589767 0.91 2.12211742606e-38
0.0422417497652 -0.00844834995305 0.913 2.112718637e-38
0.0439314197559 -0.00844834995305 0.913 2.18615116069e-38
0.0457210264162 -0.00846685674374 0.915 2.17732718426e-38
0.047414397765 -0.00846685674374 0.915 2.23260742777e-38
0.0491077691137 -0.00846685674374 0.915 2.21427774321e-38
0.0508011404625 -0.00846685674374 0.915 2.34291792314e-38
0.0524945118112 -0.00846685674374 0.915 2.233080366e-38
0.05418788316 -0.00846685674374 0.915 2.26073162808e-38
0.0558812545087 -0.00846685674374 0.915 2.29761548522e-38
0.0577633951226 -0.00849461692979 0.918 2.27020244388e-38
0.0597861873457 -0.00854088390653 0.923 2.2422215964e-38
0.061494364127 -0.00854088390653 0.923 2.34424635408e-38
0.0633394911595 -0.00855939069723 0.925 2.30754985055e-38
0.0652623467129 -0.00858715088327 0.928 2.34471522855e-38
0.067124129857 -0.00860565767397 0.93 2.34475194257e-38
0.0688452613918 -0.00860565767397 0.93 2.34554703932e-38
0.0705663929266 -0.00860565767397 0.93 2.347879921e-38
0.0725207100241 -0.00863341786002 0.933 2.34777510388e-38
0.00863341786002 -0.00690673428801 0.933 2.0058212843e-38
0.010360101432 -0.00690673428801 0.933 1.88629346802e-38
0.012086785004 -0.00690673428801 0.933 1.73972003086e-38
0.013813468576 -0.00690673428801 0.933 1.48074409985e-38
0.0154568715899 -0.00686972070662 0.928 2.19918477784e-38
0.0171743017665 -0.00686972070662 0.928 1.67309585589e-38
0.0187899445944 -0.00683270712523 0.923 1.54373316647e-38
0.0204314969292 -0.00681049897639 0.92 2.01389080164e-38
0.0220860040175 -0.00679569354383 0.918 1.96065953674e-38
0.0237071988825 -0.006773485395 0.915 1.39016528816e-38
0.0253450498591 -0.00675867996244 0.913 1.62958918195e-38
0.0270347198498 -0.00675867996244 0.913 1.55521540609e-38
0.0287243898404 -0.00675867996244 0.913 1.53652264509e-38
0.0303141231612 -0.0067364718136 0.91 1.3900523435e-38
0.0319982411146 -0.0067364718136 0.91 1.59180877406e-38
0.033682359068 -0.0067364718136 0.91 2.18575655504e-38
0.0353664770214 -0.0067364718136 0.91 2.08473750927e-38
0.0370505949748 -0.0067364718136 0.91 2.06658564948e-38
0.038862409784 -0.00675867996244 0.913 2.1398746802e-38
0.0405520797746 -0.00675867996244 0.913 2.12183044014e-38
0.0422417497652 -0.00675867996244 0.913 2.18636696065e-38
0.0439314197559 -0.00675867996244 0.913 2.16789168118e-38
0.0457210264162 -0.006773485395 0.915 2.09420804481e-38
0.047414397765 -0.006773485395 0.915 2.14934521574e-38
0.0491077691137 -0.006773485395 0.915 2.27834538925e-38
0.0508011404625 -0.006773485395 0.915 2.28745719239e-38
0.0526666249647 -0.00679569354383 0.918 2.17740047217e-38
0.0543655483507 -0.00679569354383 0.918 2.14098675066e-38
0.0560644717366 -0.00679569354383 0.918 2.34335106449e-38
0.0578892412993 -0.00681049897639 0.92 2.29786043219e-38
0.0599157348806 -0.00684751255778 0.925 2.2149598953e-38
0.0618274863596 -0.00686972070662 0.928 2.34450125027e-38
0.0636818667874 -0.00688452613918 0.93 2.32588163706e-38
0.0654029983222 -0.00688452613918 0.93 2.3445750987e-38
0.0673406593081 -0.00690673428801 0.933 2.34493523241e-38
0.0690673428801 -0.00690673428801 0.933 2.34633639074e-38
0.0707940264521 -0.00690673428801 0.933 2.34763287208e-38
0.072676167066 -0.00692153972057 0.935 2.34788230321e-38
0.00863341786002 -0.00518005071601 0.933 1.69182364935e-38
0.010360101432 -0.00518005071601 0.933 1.9132709858e-38
0.012086785004 -0.00518005071601 0.933 1.78480568791e-38
0.013813468576 -0.00518005071601 0.933 1.87743137627e-38
0.0154901838131 -0.00516339460438 0.93 1.42574691863e-38
0.0171743017665 -0.00515229052996 0.928 2.04241913642e-38
0.0188306595339 -0.00513563441834 0.925 2.2551460524e-38
0.0204981213757 -0.00512453034392 0.923 1.51600511324e-38
0.0220860040175 -0.00509677015787 0.918 1.6732390686e-38
0.0237071988825 -0.00508011404625 0.915 1.76564657479e-38
0.0254005702312 -0.00508011404625 0.915 1.90494713279e-38
0.02709394158 -0.00508011404625 0.915 1.75801047907e-38
0.0287243898404 -0.00506900997183 0.913 1.86043951135e-38
0.030414059831 -0.00506900997183 0.913 1.08660508469e-38
0.0321037298216 -0.00506900997183 0.913 1.58233277345e-38
0.0337933998122 -0.00506900997183 0.913 2.23185549101e-38
0.0354830698028 -0.00506900997183 0.913 2.02038091548e-38
0.0371727397934 -0.00506900997183 0.913 2.14019781963e-38
0.038862409784 -0.00506900997183 0.913 2.12190428857e-38
0.0405520797746 -0.00506900997183 0.913 2.12204567958e-38
0.0423342837187 -0.00508011404625 0.915 2.14034103233e-38
0.0440276550675 -0.00508011404625 0.915 2.15913861045e-38
0.0457210264162 -0.00508011404625 0.915 2.195914988e-38
0.047414397765 -0.00508011404625 0.915 2.14999093408e-38
0.0491077691137 -0.00508011404625 0.915 2.2232799648e-38
0.0509677015787 -0.00509677015787 0.918 2.260158497e-38
0.0526666249647 -0.00509677015787 0.918 2.23264456218e-38
0.0544839918111 -0.00510787423229 0.92 2.08545623525e-38
0.0561866165552 -0.00510787423229 0.92 2.2972505871e-38
0.0578892412993 -0.00510787423229 0.92 2.34417993254e-38
0.0601100561829 -0.00515229052996 0.928 2.17794025234e-38
0.0618274863596 -0.00515229052996 0.928 2.3439281192e-38
0.0638872921641 -0.00518005071601 0.933 2.34396469309e-38
0.0656139757361 -0.00518005071601 0.933 2.34446986119e-38
0.0674850122756 -0.00519115479043 0.935 2.34464152025e-38
0.0692153972057 -0.00519115479043 0.935 2.34906990366e-38
0.0709457821358 -0.00519115479043 0.935 2.27286701291e-38
0.012112694511 -0.00346076986028 0.935 2.0239713224e-38
0.0138430794411 -0.00346076986028 0.935 1.85834793327e-38
0.0154901838131 -0.00344226306959 0.93 1.6471962169e-38
0.0171743017665 -0.00343486035331 0.928 1.5446323797e-38
0.0188306595339 -0.00342375627889 0.925 1.83001143624e-38
0.0204981213757 -0.00341635356261 0.923 2.12585595024e-38
0.0221341216733 -0.00340524948819 0.92 2.12589672802e-38
0.0237849274034 -0.00339784677192 0.918 1.83879365398e-38
0.0254005702312 -0.0033867426975 0.915 1.69074170681e-38
0.02709394158 -0.0033867426975 0.915 1.74587887774e-38
0.0287873129287 -0.0033867426975 0.915 1.7202381987e-38
0.0304806842775 -0.0033867426975 0.915 1.9145945122e-38
0.0321740556262 -0.0033867426975 0.915 1.71987077824e-38
0.0337933998122 -0.00337933998122 0.913 2.07580507234e-38
0.0354830698028 -0.00337933998122 0.913 2.12183044014e-38
0.0371727397934 -0.00337933998122 0.913 2.07605618502e-38
0.0389475410212 -0.0033867426975 0.915 2.22324409156e-38
0.04064091237 -0.0033867426975 0.915 2.01155609827e-38
0.0423342837187 -0.0033867426975 0.915 2.18647401986e-38
0.0440276550675 -0.0033867426975 0.915 2.09435153777e-38
0.0458709314209 -0.00339784677192 0.918 2.30686797872e-38
0.0475698548068 -0.00339784677192 0.918 2.16968534321e-38
0.0492687781928 -0.00339784677192 0.918 1.97553936462e-38
0.0510787423229 -0.00340524948819 0.92 2.24229586522e-38
0.0529534802205 -0.00341635356261 0.923 2.27005867066e-38
0.0546616570018 -0.00341635356261 0.923 2.3453225513e-38
0.0563698337831 -0.00341635356261 0.923 2.34586401303e-38
0.0580780105644 -0.00341635356261 0.923 2.34643812501e-38
0.0601100561829 -0.00343486035331 0.928 2.17912617123e-38
0.0618274863596 -0.00343486035331 0.928 2.34381405351e-38
0.0640242424153 -0.00346076986028 0.935 2.34478739542e-38
0.0657546273454 -0.00346076986028 0.935 2.14156226394e-38
0.0674850122756 -0.00346076986028 0.935 2.34831922807e-38
0.0692153972057 -0.00346076986028 0.935 2.27474335155e-38
0.0709457821358 -0.00346076986028 0.935 2.28158252884e-38
0.013813468576 -0.001726683572 0.933 1.93148898687e-38
0.01726683572 -0.001726683572 0.933 1.79427790501e-38
0.0188917319432 -0.00171743017665 0.928 1.74826220617e-38
0.0205425376733 -0.00171187813945 0.925 1.50833048181e-38
0.022206298157 -0.00170817678131 0.923 1.80289406888e-38
0.0238367464174 -0.0017026247441 0.92 2.26435594642e-38
0.0254838507894 -0.00169892338596 0.918 2.12531084513e-38
0.0271827741753 -0.00169892338596 0.918 2.34733944018e-38
0.0288816975613 -0.00169892338596 0.918 1.63535342319e-38
0.0305806209472 -0.00169892338596 0.918 1.83728389501e-38
0.0322795443332 -0.00169892338596 0.918 2.04793156432e-38
0.033867426975 -0.00169337134875 0.915 2.05758146607e-38
0.0355607983237 -0.00169337134875 0.915 2.0391784936e-38
0.0372541696725 -0.00169337134875 0.915 2.14012579289e-38
0.039075237877 -0.00169892338596 0.918 2.11261101728e-38
0.040774161263 -0.00169892338596 0.918 2.10306873526e-38
0.042473084649 -0.00169892338596 0.918 2.24171881051e-38
0.0441720080349 -0.00169892338596 0.918 2.20570207686e-38
0.0458709314209 -0.00169892338596 0.918 2.00380845919e-38
0.0476734928347 -0.0017026247441 0.92 1.9775482661e-38
0.0493761175788 -0.0017026247441 0.92 1.95010523697e-38
0.0512453034392 -0.00170817678131 0.923 2.34557436464e-38
0.0529534802205 -0.00170817678131 0.923 2.34637408567e-38
0.0546616570018 -0.00170817678131 0.923 2.34590324939e-38
0.0564919786017 -0.00171187813945 0.925 2.15092854288e-38
0.0582038567412 -0.00171187813945 0.925 2.34500179409e-38
0.0601100561829 -0.00171743017665 0.928 2.20620430223e-38
0.0621606085921 -0.001726683572 0.933 2.30668665069e-38
0.0640242424153 -0.00173038493014 0.935 2.2608392478e-38
0.0659656047594 -0.00173593696735 0.938 2.34586835706e-38
0.0677015417267 -0.00173593696735 0.938 2.34968157044e-38
0.0694374786941 -0.00173593696735 0.938 1.98788844746e-38
0.0711734156614 -0.00173593696735 0.938 2.34615492259e-38
0.0190342342316 0.0 0.935 1.43371245962e-38
0.0206535784175 0.0 0.93 2.07011089603e-38
0.0223265922965 0.0 0.928 1.56390639929e-38
0.0240440224732 0.0 0.928 1.65562839028e-38
0.0256226517196 0.0 0.923 2.00554046409e-38
0.0273308285009 0.0 0.923 1.74749653669e-38
0.0290390052822 0.0 0.923 2.34787599737e-38
0.0307471820635 0.0 0.923 1.88603941261e-38
0.0324553588448 0.0 0.923 2.00240842189e-38
0.0341635356261 0.0 0.923 2.05718742094e-38
0.0358717124074 0.0 0.923 1.97471428008e-38
0.0375798891887 0.0 0.923 2.13061938411e-38
0.03928806597 0.0 0.923 2.2135946102e-38
0.0409962427514 0.0 0.923 2.03907087387e-38
0.0427044195327 0.0 0.923 2.28817647889e-38
0.044412596314 0.0 0.923 2.12459394084e-38
0.046220709765 0.0 0.925 1.74810540087e-38
0.0478289498766 0.0 0.923 1.61964094376e-38
0.0495371266579 0.0 0.923 1.84944674529e-38
0.0513563441834 0.0 0.925 2.3467962969e-38
0.0530682223228 0.0 0.925 2.3374794838e-38
0.054957765653 0.0 0.928 2.34720239319e-38
0.0566751958296 0.0 0.928 2.13187494753e-38
0.0583926260063 0.0 0.928 2.20624255768e-38
0.060563472555 0.0 0.935 2.25183744659e-38
0.0624937308247 0.0 0.938 2.14973982139e-38
0.064229667792 0.0 0.938 2.34622596842e-38
0.0661062563686 0.0 0.94 2.35025862514e-38
0.0678458946941 0.0 0.94 1.85964441461e-38
0.0695855330196 0.0 0.94 2.11627485225e-38
0.0713251713451 0.0 0.94 2.2451005641e-38
0.0175444375805 0.00175444375805 0.948 1.91319237295e-38
0.0191970939897 0.0017451903627 0.943 2.01421296016e-38
0.0208756599059 0.00173963832549 0.94 1.98695308074e-38
0.022446886436 0.001726683572 0.933 1.95072124778e-38
0.0240958414871 0.00172113153479 0.93 1.8957651246e-38
0.0257614526498 0.00171743017665 0.928 1.83170112193e-38
0.0274788828265 0.00171743017665 0.928 1.31525649654e-38
0.0291019283706 0.00171187813945 0.925 1.57164464967e-38
0.03081380651 0.00171187813945 0.925 2.08783928342e-38
0.0325256846495 0.00171187813945 0.925 2.18107159389e-38
0.0342375627889 0.00171187813945 0.925 2.04179752043e-38
0.0359494409284 0.00171187813945 0.925 1.9494236454e-38
0.0376613190678 0.00171187813945 0.925 2.1146961494e-38
0.0393731972073 0.00171187813945 0.925 2.31791357373e-38
0.0410850753467 0.00171187813945 0.925 2.34654154084e-38
0.0427969534861 0.00171187813945 0.925 2.28240901467e-38
0.0445088316256 0.00171187813945 0.925 2.20022005714e-38
0.0464705514394 0.00172113153479 0.93 2.09030598911e-38
0.0483471400161 0.001726683572 0.933 2.12711585769e-38
0.0500738235881 0.001726683572 0.933 2.02483073875e-38
0.0518005071601 0.001726683572 0.933 1.46058431949e-38
0.0536419328344 0.00173038493014 0.935 2.06881805806e-38
0.0553723177646 0.00173038493014 0.935 2.21834599291e-38
0.0571027026947 0.00173038493014 0.935 1.74552014533e-38
0.0588330876248 0.00173038493014 0.935 2.16904747215e-38
0.0610816626945 0.0017451903627 0.943 2.18690449874e-38
0.0628268530572 0.0017451903627 0.943 2.3464761002e-38
0.0649144190478 0.00175444375805 0.948 2.34993842845e-38
0.0668798402198 0.00175999579526 0.951 2.22021140142e-38
0.068639836015 0.00175999579526 0.951 1.41760285222e-38
0.0703998318103 0.00175999579526 0.951 2.2372129353e-38
0.0721598276055 0.00175999579526 0.951 2.17217376903e-38
0.0175444375805 0.0035088875161 0.948 1.68202450932e-38
0.019258166399 0.00350148479982 0.946 2.13345771415e-38
0.0209422843524 0.0034903807254 0.943 1.80169764025e-38
0.0225671805756 0.0034718739347 0.938 1.93098886345e-38
0.024225389022 0.00346076986028 0.935 2.1710937883e-38
0.0259557739521 0.00346076986028 0.935 1.72898678527e-38
0.0275381045567 0.00344226306959 0.93 1.84055088225e-38
0.0291963130031 0.00343486035331 0.928 1.8686869936e-38
0.0309137431798 0.00343486035331 0.928 2.06240081175e-38
0.0326311733564 0.00343486035331 0.928 1.68364483073e-38
0.0342375627889 0.00342375627889 0.925 1.90351416498e-38
0.0359494409284 0.00342375627889 0.925 1.71997839797e-38
0.0376613190678 0.00342375627889 0.925 1.7474238093e-38
0.0393731972073 0.00342375627889 0.925 1.59058361881e-38
0.0412183242397 0.00343486035331 0.928 1.71783034755e-38
0.0429357544164 0.00343486035331 0.928 1.5703869843e-38
0.044653184593 0.00343486035331 0.928 1.54312500294e-38
0.0466204564441 0.00345336714401 0.933 1.47855148814e-38
0.048450778044 0.00346076986028 0.935 1.60712118276e-38
0.0501811629741 0.00346076986028 0.935 2.0775387588e-38
0.0519115479043 0.00346076986028 0.935 2.34651351487e-38
0.0536419328344 0.00346076986028 0.935 2.21736830697e-38
0.0555499829552 0.0034718739347 0.938 1.67276921322e-38
0.0574080647412 0.00347927665098 0.94 1.94852681438e-38
0.0591477030667 0.00347927665098 0.94 2.34395922803e-38
0.0614055315317 0.0035088875161 0.948 2.34799048345e-38
0.0631599752897 0.0035088875161 0.948 2.34846145986e-38
0.0651198444245 0.00351999159051 0.951 2.34863900438e-38
0.0670908176337 0.00353109566493 0.954 1.54645953276e-38
0.0688563654662 0.00353109566493 0.954 1.55682816049e-38
0.0706219132986 0.00353109566493 0.954 1.98907534726e-38
0.0725392168148 0.00353849838121 0.956 2.22828049837e-38
0.0175444375805 0.00526333127414 0.948 1.60769683617e-38
0.019258166399 0.00525222719973 0.946 1.65314697096e-38
0.0210089087989 0.00525222719973 0.946 1.98548423969e-38
0.0226152982314 0.00521891497647 0.94 2.11559508236e-38
0.0243549365569 0.00521891497647 0.94 2.05052088363e-38
0.0260390545103 0.00520781090205 0.938 2.04122523013e-38
0.0277749914776 0.00520781090205 0.938 2.08821959582e-38
0.0294165438124 0.00519115479043 0.935 2.07929514629e-38
0.0309803676263 0.00516339460438 0.93 1.73752685863e-38
0.0326311733564 0.00515229052996 0.928 2.03243978941e-38
0.0343486035331 0.00515229052996 0.928 2.06935265343e-38
0.0360660337097 0.00515229052996 0.928 1.79359028785e-38
0.0377834638864 0.00515229052996 0.928 2.06125230753e-38
0.0395008940631 0.00515229052996 0.928 1.70204486048e-38
0.0412183242397 0.00515229052996 0.928 1.91237093179e-38
0.0430282883699 0.00516339460438 0.93 2.03215434491e-38
0.0448937728721 0.00518005071601 0.933 2.09683379787e-38
0.0467203931138 0.00519115479043 0.935 2.29133710758e-38
0.048450778044 0.00519115479043 0.935 2.34691302506e-38
0.0503421720532 0.00520781090205 0.938 2.06934788901e-38
0.0520781090205 0.00520781090205 0.938 2.2149598953e-38
0.0538140459879 0.00520781090205 0.938 2.07569941443e-38
0.0556684264157 0.00521891497647 0.94 2.34421482487e-38
0.0578966440156 0.00526333127414 0.948 2.34720589644e-38
0.0596510877736 0.00526333127414 0.948 2.34860691464e-38
0.0614055315317 0.00526333127414 0.948 2.34752258989e-38
0.0633598486293 0.00527998738577 0.951 2.25356090358e-38
0.0653252698012 0.0052966434974 0.954 2.34676574859e-38
0.067231469243 0.00530774757182 0.956 1.68442941774e-38
0.0690007184336 0.00530774757182 0.956 1.57555917693e-38
0.0707699676242 0.00530774757182 0.956 1.91611267895e-38
0.0725392168148 0.00530774757182 0.956 2.30275376642e-38
0.0176554783247 0.00706219132986 0.954 1.76493149218e-38
0.0192988813385 0.00701777503219 0.948 1.50656918977e-38
0.0210533250966 0.00701777503219 0.948 1.68119942478e-38
0.0226874747151 0.0069807614508 0.943 1.78290146343e-38
0.0244326650778 0.0069807614508 0.943 2.04919133164e-38
0.0260945748824 0.00695855330196 0.94 2.09665078829e-38
0.0278342132079 0.00695855330196 0.94 1.93977682651e-38
0.029510928445 0.00694374786941 0.938 2.1704801597e-38
0.0312468654123 0.00694374786941 0.938 2.07781733693e-38
0.0327014991611 0.00688452613918 0.93 1.87498667097e-38
0.0344226306959 0.00688452613918 0.93 2.16093227249e-38
0.0361437622307 0.00688452613918 0.93 2.07781831784e-38
0.0378648937655 0.00688452613918 0.93 2.13306535058e-38
0.0395860253003 0.00688452613918 0.93 2.19781711053e-38
0.0413071568351 0.00688452613918 0.93 2.08703367693e-38
0.0431670893001 0.00690673428801 0.933 2.16021817079e-38
0.0449900081837 0.00692153972057 0.935 2.07659582506e-38
0.0468702981185 0.00694374786941 0.938 1.99318899904e-38
0.0486062350858 0.00694374786941 0.938 2.16767644174e-38
0.0503421720532 0.00694374786941 0.938 2.29696500247e-38
0.0520781090205 0.00694374786941 0.938 2.26051638863e-38
0.0539287880902 0.00695855330196 0.94 2.34395866751e-38
0.0560237567971 0.00700296959964 0.946 2.34651449578e-38
0.0578966440156 0.00701777503219 0.948 2.03325940888e-38
0.0598398570387 0.00703998318103 0.951 2.20771097834e-38
0.0617941741363 0.00706219132986 0.954 2.34697790518e-38
0.0635597219688 0.00706219132986 0.954 2.34593057471e-38
0.0654622200524 0.00707699676242 0.956 2.34679853898e-38
0.067442446657 0.00709920491126 0.959 1.56468650215e-38
0.0690007184336 0.00707699676242 0.956 1.62159085058e-38
0.0707699676242 0.00707699676242 0.956 1.76867323934e-38
0.0725392168148 0.00707699676242 0.956 2.21988756135e-38
0.0176924919061 0.00884624595303 0.956 1.92190943031e-38
0.0194210261571 0.00882773916233 0.954 1.59054816596e-38
0.0210533250966 0.00877221879024 0.948 1.58954329483e-38
0.0227596511988 0.00875371199954 0.946 1.6256676482e-38
0.0245103935987 0.00875371199954 0.946 1.81870197672e-38
0.0262611359986 0.00875371199954 0.946 1.74516141293e-38
0.0280711001288 0.00877221879024 0.948 2.12362774555e-38
0.0297626207984 0.00875371199954 0.946 2.0873603196e-38
0.0313134898588 0.00869819162745 0.94 2.16072207772e-38
0.0329828023797 0.00867968483676 0.938 2.26235405144e-38
0.0346076986028 0.00865192465071 0.935 2.27168109402e-38
0.036338083533 0.00865192465071 0.935 2.29014768544e-38
0.0380684684631 0.00865192465071 0.935 2.0130295636e-38
0.0397988533933 0.00865192465071 0.935 2.34496690175e-38
0.0415292383234 0.00865192465071 0.935 2.16972121645e-38
0.0433984241838 0.00867968483676 0.938 2.34514542718e-38
0.0451343611511 0.00867968483676 0.938 2.27131955901e-38
0.0469702347883 0.00869819162745 0.94 1.96578184315e-38
0.0487098731137 0.00869819162745 0.94 2.25036538256e-38
0.0504495114392 0.00869819162745 0.94 2.34349553837e-38
0.0521891497647 0.00869819162745 0.94 2.27006203377e-38
0.0541009012437 0.0087259518135 0.943 2.08620831214e-38
0.0561422002575 0.00877221879024 0.948 2.12516665152e-38
0.0578966440156 0.00877221879024 0.948 2.10651256636e-38
0.0600286263038 0.00882773916233 0.954 2.34600260145e-38
0.0617941741363 0.00882773916233 0.954 2.13287939827e-38
0.0636929708618 0.00884624595303 0.956 2.3456173845e-38
0.0656676454291 0.00887400613907 0.959 2.245744741e-38
0.0676534240709 0.00890176632512 0.962 1.59335132341e-38
0.0695781303034 0.00892027311581 0.964 1.56634381784e-38
0.0713621849265 0.00892027311581 0.964 1.61218953918e-38
0.0159732110503 0.0106488073669 0.959 1.81059420394e-38
0.0177480122781 0.0106488073669 0.959 1.87588350199e-38
0.0194617410967 0.0106154951436 0.956 1.83940307868e-38
0.0211865739896 0.0105932869948 0.954 1.76578852632e-38
0.0228077688546 0.0105266625483 0.948 1.82035172541e-38
0.0245622126127 0.0105266625483 0.948 1.64489570521e-38
0.0263166563707 0.0105266625483 0.948 1.75473956819e-38
0.0280711001288 0.0105266625483 0.948 1.63467183161e-38
0.0298255438868 0.0105266625483 0.948 1.86426057201e-38
0.0315799876449 0.0105266625483 0.948 1.80915927431e-38
0.0332641055983 0.0105044543995 0.946 1.96567422343e-38
0.0347927665098 0.0104378299529 0.94 2.11386672084e-38
0.0365324048353 0.0104378299529 0.94 2.21603357018e-38
0.0383941879794 0.0104711421762 0.943 2.0961132502e-38
0.0399265502491 0.0104156218041 0.938 2.16943423053e-38
0.0416624872164 0.0104156218041 0.938 2.02217457751e-38
0.0434909581373 0.0104378299529 0.94 2.02120600001e-38
0.0453749494302 0.0104711421762 0.943 1.96592533611e-38
0.0471201397929 0.0104711421762 0.943 2.16868439572e-38
0.0490207871974 0.0105044543995 0.946 2.03978833869e-38
0.0507715295974 0.0105044543995 0.946 2.23221240173e-38
0.0525222719973 0.0105044543995 0.946 2.2694846988e-38
0.0543877564995 0.0105266625483 0.948 2.34381559494e-38
0.0561422002575 0.0105266625483 0.948 2.3467277734e-38
0.0582630784714 0.0105932869948 0.954 2.13327652625e-38
0.0600286263038 0.0105932869948 0.954 2.14116990037e-38
0.0619237216712 0.0106154951436 0.956 2.27089090181e-38
0.0638928442013 0.0106488073669 0.959 2.34579562967e-38
0.0656676454291 0.0106488073669 0.959 1.66610239565e-38
0.0677940756802 0.010704327739 0.964 1.50194882847e-38
0.0695781303034 0.010704327739 0.964 1.58481727563e-38
0.0159732110503 0.0124236085947 0.959 1.64385958512e-38
0.0177480122781 0.0124236085947 0.959 2.11548550082e-38
0.019522813506 0.0124236085947 0.959 1.7939848935e-38
0.0212309902873 0.0123847443342 0.956 1.8306854608e-38
0.0229521218221 0.0123588348273 0.954 1.79323155545e-38
0.0247176696545 0.0123588348273 0.954 1.75631799078e-38
0.0263999369289 0.0123199705668 0.951 1.79258583712e-38
0.0281599327241 0.0123199705668 0.951 1.6905623406e-38
0.0299199285194 0.0123199705668 0.951 1.7726412962e-38
0.0315799876449 0.0122811063063 0.948 1.93819854405e-38
0.0332641055983 0.0122551967994 0.946 1.74494617348e-38
0.0350148479982 0.0122551967994 0.946 1.82752637354e-38
0.0367655903981 0.0122551967994 0.946 1.80915927431e-38
0.038516332798 0.0122551967994 0.946 1.9746425336e-38
0.0402670751979 0.0122551967994 0.946 1.91986409507e-38
0.0418845687048 0.0122163325389 0.943 1.9661764488e-38
0.0436297590675 0.0122163325389 0.943 1.9203304472e-38
0.0453749494302 0.0122163325389 0.943 1.92854541932e-38
0.0472700447975 0.0122551967994 0.946 1.98364671701e-38
0.0491244252253 0.0122811063063 0.948 2.26909289575e-38
0.0508788689834 0.0122811063063 0.948 2.34420949993e-38
0.0526333127414 0.0122811063063 0.948 2.22356695073e-38
0.0543877564995 0.0122811063063 0.948 2.34356546316e-38
0.0564975306389 0.0123588348273 0.954 2.13248759522e-38
0.0582630784714 0.0123588348273 0.954 2.08689354708e-38
0.0601544724806 0.0123847443342 0.956 2.14213847787e-38
0.0619237216712 0.0123847443342 0.956 2.17040827309e-38
0.0638928442013 0.0124236085947 0.959 1.8769667057e-38
0.066010021057 0.0124883823621 0.964 1.60282326024e-38
0.0677940756802 0.0124883823621 0.964 1.44669605041e-38
0.0697946597545 0.0125272466226 0.967 1.66757656163e-38
0.0160231793852 0.0142428261202 0.962 1.34205380733e-38
0.0178035326502 0.0142428261202 0.962 2.00449187245e-38
0.0195838859153 0.0142428261202 0.962 1.77554955104e-38
0.0212976147338 0.0141984098225 0.959 1.9967509596e-38
0.0230002394779 0.0141539935248 0.956 1.72930544054e-38
0.0247694886685 0.0141539935248 0.956 1.895111559e-38
0.0265387378591 0.0141539935248 0.956 1.99609655322e-38
0.0283079870497 0.0141539935248 0.956 1.71958379232e-38
0.0300143131519 0.0141243826597 0.954 1.86616185376e-38
0.0317798609844 0.0141243826597 0.954 2.09607401384e-38
0.0334399201099 0.0140799663621 0.951 1.85618909285e-38
0.0351999159051 0.0140799663621 0.951 1.93916389856e-38
0.0369599117004 0.0140799663621 0.951 1.93937913801e-38
0.0387199074957 0.0140799663621 0.951 1.93001622219e-38
0.0403522064351 0.0140355500644 0.948 1.93887691264e-38
0.0421066501932 0.0140355500644 0.948 1.97546761814e-38
0.0438610939512 0.0140355500644 0.948 1.81898854226e-38
0.0456155377093 0.0140355500644 0.948 2.2611646293e-38
0.0473699814673 0.0140355500644 0.948 2.3446032648e-38
0.0492798822672 0.0140799663621 0.951 2.34478809607e-38
0.0510398780625 0.0140799663621 0.951 2.34489025073e-38
0.0527998738577 0.0140799663621 0.951 2.07702476252e-38
0.0547319828065 0.0141243826597 0.954 2.34291890405e-38
0.0564975306389 0.0141243826597 0.954 2.10436423569e-38
0.05838522329 0.0141539935248 0.956 1.97658515366e-38
0.0601544724806 0.0141539935248 0.956 1.98645085537e-38
0.0621180429735 0.0141984098225 0.959 1.76629621676e-38
0.0642259664339 0.0142724369853 0.964 1.53782066786e-38
0.066010021057 0.0142724369853 0.964 1.49298065843e-38
0.0680050530941 0.014316853283 0.967 1.40996227234e-38
0.0697946597545 0.014316853283 0.967 2.08234395136e-38
0.0178405462316 0.0160564916085 0.964 2.00388188723e-38
0.0196246008548 0.0160564916085 0.964 1.90451259014e-38
0.0213642391803 0.0160231793852 0.962 1.71965581906e-38
0.0230724159616 0.0159732110503 0.959 1.93163542256e-38
0.0248472171894 0.0159732110503 0.959 1.92273395433e-38
0.0266220184172 0.0159732110503 0.959 1.90397224945e-38
0.028396819645 0.0159732110503 0.959 1.97769175906e-38
0.0300772362403 0.0159232427154 0.956 2.29995060898e-38
0.0318464854309 0.0159232427154 0.956 2.28160985416e-38
0.0336157346215 0.0159232427154 0.956 2.17094160729e-38
0.0353849838121 0.0159232427154 0.956 2.02328790914e-38
0.0370765044818 0.0158899304922 0.954 2.04129515493e-38
0.0388420523143 0.0158899304922 0.954 2.11494277793e-38
0.0404799032909 0.0158399621573 0.951 2.13341749688e-38
0.0422398990862 0.0158399621573 0.951 2.20717287973e-38
0.0439998948814 0.0158399621573 0.951 2.06938390238e-38
0.0457598906767 0.0158399621573 0.951 2.26278046656e-38
0.0475198864719 0.0158399621573 0.951 2.3268123795e-38
0.0494353393091 0.0158899304922 0.954 2.3451098342e-38
0.0512008871415 0.0158899304922 0.954 2.34608149455e-38
0.0530774757182 0.0159232427154 0.956 2.02253330992e-38
0.0548467249088 0.0159232427154 0.956 2.34360469952e-38
0.0566159740994 0.0159232427154 0.956 1.97629606579e-38
0.0585684405179 0.0159732110503 0.959 1.77511823137e-38
0.0603432417457 0.0159732110503 0.959 1.57329748121e-38
0.0623123642758 0.0160231793852 0.962 1.49197550704e-38
0.0642259664339 0.0160564916085 0.964 1.42830176599e-38
0.0662154464338 0.0161064599433 0.967 1.45610310713e-38
0.0196856732641 0.0178960666037 0.967 1.95875489187e-38
0.0214752799245 0.0178960666037 0.967 1.86720217774e-38
0.0231445924453 0.0178035326502 0.962 1.95925557581e-38
0.0249249457103 0.0178035326502 0.962 1.83036035956e-38
0.0267052989754 0.0178035326502 0.962 1.80252454647e-38
0.028396819645 0.0177480122781 0.959 2.18045376139e-38
0.0301716208728 0.0177480122781 0.959 2.16190603479e-38
0.0319464221007 0.0177480122781 0.959 2.13406321521e-38
0.0336157346215 0.0176924919061 0.956 2.06949152211e-38
0.0353849838121 0.0176924919061 0.956 2.17076154043e-38
0.0371542330027 0.0176924919061 0.956 2.2810400862e-38
0.0389234821933 0.0176924919061 0.956 2.34593435821e-38
0.0406927313839 0.0176924919061 0.956 2.3458972238e-38
0.0423731479792 0.0176554783247 0.954 2.27160514364e-38
0.0441386958117 0.0176554783247 0.954 2.20724462621e-38
0.0459042436441 0.0176554783247 0.954 2.1333819039e-38
0.0477697281463 0.0176924919061 0.956 2.3268818839e-38
0.049538977337 0.0176924919061 0.956 2.3462925301e-38
0.0513082265276 0.0176924919061 0.956 2.34708762685e-38
0.0532440368344 0.0177480122781 0.959 1.93995310986e-38
0.0550188380623 0.0177480122781 0.959 2.34370769495e-38
0.0567936392901 0.0177480122781 0.959 1.45204214419e-38
0.0587516577458 0.0178035326502 0.962 1.41764292935e-38
0.0605320110108 0.0178035326502 0.962 1.43751726521e-38
0.062636233113 0.0178960666037 0.967 1.42879824604e-38
0.0232648865848 0.0196856732641 0.967 1.88546165725e-38
0.0249767647243 0.0196246008548 0.964 1.87667271328e-38
0.0267608193474 0.0196246008548 0.964 1.8856097745e-38
0.0284856522404 0.0195838859153 0.962 1.84861983907e-38
0.0302660055054 0.0195838859153 0.962 2.01453357724e-38
0.0319464221007 0.019522813506 0.959 1.93159464478e-38
0.0337212233285 0.019522813506 0.959 2.03318962422e-38
0.0354960245563 0.019522813506 0.959 2.34625483517e-38
0.0372708257841 0.019522813506 0.959 2.33686095066e-38
0.0390456270119 0.019522813506 0.959 2.32752942392e-38
0.0408204282397 0.019522813506 0.959 2.34708230192e-38
0.0425952294675 0.019522813506 0.959 2.34690251532e-38
0.0443700306954 0.019522813506 0.959 2.34701826258e-38
0.0461448319232 0.019522813506 0.959 2.34729515915e-38
0.047919633151 0.019522813506 0.959 2.34636820022e-38
0.0496944343788 0.019522813506 0.959 2.34603819443e-38
0.0516302446857 0.0195838859153 0.962 2.17047763737e-38
0.0534105979507 0.0195838859153 0.962 2.13313051095e-38
0.0551909512157 0.0195838859153 0.962 2.11393832719e-38
0.0569713044808 0.0195838859153 0.962 1.51865931266e-38
0.0588738025644 0.0196246008548 0.964 1.23508372724e-38
0.0250544932452 0.0214752799245 0.967 2.06985053477e-38
0.0267608193474 0.021408655478 0.964 2.05148399606e-38
0.0285448739706 0.021408655478 0.964 1.9497823778e-38
0.0302660055054 0.0213642391803 0.962 2.0695990017e-38
0.0320463587704 0.0213642391803 0.962 2.12491637962e-38
0.0338267120354 0.0213642391803 0.962 1.94960819641e-38
0.0356070653005 0.0213642391803 0.962 2.08742800232e-38
0.0373874185655 0.0213642391803 0.962 2.05047856441e-38
0.0391677718305 0.0213642391803 0.962 2.24401483805e-38
0.0410332563327 0.021408655478 0.964 2.26213068446e-38
0.0428173109559 0.021408655478 0.964 2.3082646529e-38
0.0446013655791 0.021408655478 0.964 2.31748309484e-38
0.0463854202022 0.021408655478 0.964 2.34600232119e-38
0.0481694748254 0.021408655478 0.964 2.34564358878e-38
0.0499535294486 0.021408655478 0.964 2.34618701233e-38
0.0518985931508 0.0214752799245 0.967 2.17073099213e-38
