# .PCD v0.7 - Point Cloud Data file format
VERSION 0.7
FIELDS x y z rgb
SIZE 4 4 4 4
TYPE F F F F
COUNT 1 1 1 1
WIDTH 853
HEIGHT 1
VIEWPOINT 0 0 0 1 0 0 0
POINTS 853
DATA ascii
0.0688970804057 -0.0235258323337 0.908 2.35098856151e-38
0.070577497001 -0.0235258323337 0.908 1.90844953817e-38
0.0722579135962 -0.0235258323337 0.908 2.34662169511e-38
0.0739383301915 -0.0235258323337 0.908 2.35051296082e-38
0.00508011404625 -0.0220138275337 0.915 1.90598843768e-38
0.006773485395 -0.0220138275337 0.915 1.63671660633e-38
0.00844834995305 -0.0219657098779 0.913 2.34902716405e-38
0.0101380199437 -0.0219657098779 0.913 2.34916168871e-38
0.0118276899343 -0.0219657098779 0.913 2.24747366305e-38
0.0135173599249 -0.0219657098779 0.913 1.73953281739e-38
0.0152070299155 -0.0219657098779 0.913 2.34996239065e-38
0.0168966999061 -0.0219657098779 0.913 1.79559974985e-38
0.0185863698967 -0.0219657098779 0.913 2.3509786123e-38
0.0202760398873 -0.0219657098779 0.913 2.35097538931e-38
0.0219657098779 -0.0219657098779 0.913 1.58362421012e-38
0.0236553798685 -0.0219657098779 0.913 2.35096277762e-38
0.0253450498591 -0.0219657098779 0.913 2.35098253593e-38
0.0270347198498 -0.0219657098779 0.913 2.35098828126e-38
0.0287243898404 -0.0219657098779 0.913 2.35098687996e-38
0.030414059831 -0.0219657098779 0.913 2.35098617931e-38
0.0321037298216 -0.0219657098779 0.913 2.35098477801e-38
0.033867426975 -0.0220138275337 0.915 2.35098253593e-38
0.0355607983237 -0.0220138275337 0.915 2.35098309645e-38
0.0370505949748 -0.0218935333942 0.91 2.35098057411e-38
0.0387347129282 -0.0218935333942 0.91 2.35097987346e-38
0.0404188308816 -0.0218935333942 0.91 2.35098225567e-38
0.042102948835 -0.0218935333942 0.91 2.35097608996e-38
0.0437870667884 -0.0218935333942 0.91 2.35097370775e-38
0.0454711847418 -0.0218935333942 0.91 2.35097665048e-38
0.0471553026952 -0.0218935333942 0.91 2.35097987346e-38
0.0488394206486 -0.0218935333942 0.91 2.35098197541e-38
0.050523538602 -0.0218935333942 0.91 2.35098561879e-38
0.0520929144531 -0.0218454157384 0.908 2.35098730035e-38
0.0537733310484 -0.0218454157384 0.908 2.35098295632e-38
0.0554537476436 -0.0218454157384 0.908 3.3118175802e-39
0.0571341642389 -0.0218454157384 0.908 2.35097104528e-38
0.0588145808341 -0.0218454157384 0.908 2.35098856151e-38
0.0604949974294 -0.0218454157384 0.908 4.59466568663e-39
0.0621754140247 -0.0218454157384 0.908 2.35097608996e-38
0.0638558306199 -0.0218454157384 0.908 2.35098856151e-38
0.0655362472152 -0.0218454157384 0.908 9.58119327842e-39
0.0672166638105 -0.0218454157384 0.908 2.35098856151e-38
0.0688970804057 -0.0218454157384 0.908 2.35098856151e-38
0.070577497001 -0.0218454157384 0.908 1.69584089179e-38
0.0722579135962 -0.0218454157384 0.908 2.34788426503e-38
0.0739383301915 -0.0218454157384 0.908 2.35083553972e-38
0.00508011404625 -0.020320456185 0.915 1.79549983727e-38
0.006773485395 -0.020320456185 0.915 2.08829176269e-38
0.00844834995305 -0.0202760398873 0.913 2.09773203019e-38
0.0101380199437 -0.0202760398873 0.913 1.94233405608e-38
0.0118276899343 -0.0202760398873 0.913 2.34932395907e-38
0.0135173599249 -0.0202760398873 0.913 2.20068696979e-38
0.0152070299155 -0.0202760398873 0.913 1.46191247018e-38
0.0168966999061 -0.0202760398873 0.913 2.35046489628e-38
0.0185863698967 -0.0202760398873 0.913 1.96147705427e-38
0.0202760398873 -0.0202760398873 0.913 2.35097931294e-38
0.0219657098779 -0.0202760398873 0.913 2.35097398801e-38
0.0236553798685 -0.0202760398873 0.913 1.60235004175e-38
0.0253450498591 -0.0202760398873 0.913 2.3505321586e-38
0.0270347198498 -0.0202760398873 0.913 2.35097945307e-38
0.0287243898404 -0.0202760398873 0.913 2.35098716022e-38
0.030414059831 -0.0202760398873 0.913 2.35098645957e-38
0.0321037298216 -0.0202760398873 0.913 2.3509851984e-38
0.0337933998122 -0.0202760398873 0.913 2.35098547866e-38
0.0353664770214 -0.0202094154408 0.91 2.35098477801e-38
0.0370505949748 -0.0202094154408 0.91 2.35097833204e-38
0.0387347129282 -0.0202094154408 0.91 2.35097665048e-38
0.0403299982863 -0.0201649991431 0.908 2.35098071424e-38
0.0420104148815 -0.0201649991431 0.908 2.35097889256e-38
0.0436908314768 -0.0201649991431 0.908 2.35097875243e-38
0.0453712480721 -0.0201649991431 0.908 2.35098575892e-38
0.0470516646673 -0.0201649991431 0.908 2.35098617931e-38
0.0488394206486 -0.0202094154408 0.91 2.35098716022e-38
0.0504124978578 -0.0201649991431 0.908 2.35098716022e-38
0.0520929144531 -0.0201649991431 0.908 2.24034399659e-38
0.0537733310484 -0.0201649991431 0.908 5.14888623576e-39
0.0554537476436 -0.0201649991431 0.908 2.35096824269e-38
0.0571341642389 -0.0201649991431 0.908 2.35098856151e-38
0.0588145808341 -0.0201649991431 0.908 4.96311469705e-39
0.0604949974294 -0.0201649991431 0.908 2.35097398801e-38
0.0621754140247 -0.0201649991431 0.908 2.35098856151e-38
0.0638558306199 -0.0201649991431 0.908 1.17931499109e-38
0.0655362472152 -0.0201649991431 0.908 2.35097665048e-38
0.0672166638105 -0.0201649991431 0.908 2.35098856151e-38
0.0688970804057 -0.0201649991431 0.908 2.14787104976e-38
0.070577497001 -0.0201649991431 0.908 2.2085366234e-38
0.0722579135962 -0.0201649991431 0.908 2.34821104783e-38
0.0739383301915 -0.0201649991431 0.908 2.35051338121e-38
0.00506900997183 -0.0185863698967 0.913 1.92471735217e-38
0.00675867996244 -0.0185863698967 0.913 1.9221643265e-38
0.00844834995305 -0.0185863698967 0.913 1.82160728883e-38
0.0101380199437 -0.0185863698967 0.913 2.34824033497e-38
0.0118276899343 -0.0185863698967 0.913 1.80374241497e-38
0.0135173599249 -0.0185863698967 0.913 2.34914949741e-38
0.0152070299155 -0.0185863698967 0.913 2.1360796837e-38
0.0168966999061 -0.0185863698967 0.913 1.69217663643e-38
0.0185863698967 -0.0185863698967 0.913 2.34982618444e-38
0.0202760398873 -0.0185863698967 0.913 1.86917520598e-38
0.0219657098779 -0.0185863698967 0.913 2.35097482879e-38
0.0236553798685 -0.0185863698967 0.913 2.35098015372e-38
0.0253450498591 -0.0185863698967 0.913 1.59370893477e-38
0.0270347198498 -0.0185863698967 0.913 1.93277846172e-38
0.0287243898404 -0.0185863698967 0.913 2.35096165658e-38
0.0303141231612 -0.0185252974874 0.91 2.35097903269e-38
0.0319982411146 -0.0185252974874 0.91 2.35098547866e-38
0.0336083319052 -0.0184845825479 0.908 2.35098744048e-38
0.0352887485005 -0.0184845825479 0.908 2.35098589905e-38
0.0369691650957 -0.0184845825479 0.908 2.35098716022e-38
0.038649581691 -0.0184845825479 0.908 2.35098547866e-38
0.0403299982863 -0.0184845825479 0.908 2.35098393723e-38
0.0420104148815 -0.0184845825479 0.908 2.35098589905e-38
0.0436908314768 -0.0184845825479 0.908 2.3509865997e-38
0.0453712480721 -0.0184845825479 0.908 2.35098744048e-38
0.0470516646673 -0.0184845825479 0.908 2.35098617931e-38
0.0487320812626 -0.0184845825479 0.908 2.35097903269e-38
0.0504124978578 -0.0184845825479 0.908 1.29871893258e-38
0.0519781723508 -0.0184438676083 0.906 1.70050048944e-38
0.0536548875879 -0.0184438676083 0.906 2.35097496892e-38
0.055331602825 -0.0184438676083 0.906 2.35098856151e-38
0.0570083180621 -0.0184438676083 0.906 4.96668520554e-39
0.0586850332993 -0.0184438676083 0.906 2.35097006437e-38
0.0603617485364 -0.0184438676083 0.906 2.35098856151e-38
0.0620384637735 -0.0184438676083 0.906 1.77926803664e-38
0.0638558306199 -0.0184845825479 0.908 2.35057097457e-38
0.0653918942478 -0.0184438676083 0.906 2.35098856151e-38
0.0670686094849 -0.0184438676083 0.906 2.35098856151e-38
0.068745324722 -0.0184438676083 0.906 1.72952432336e-38
0.0704220399591 -0.0184438676083 0.906 2.34629617348e-38
0.0722579135962 -0.0184845825479 0.908 2.34788594658e-38
0.0739383301915 -0.0184845825479 0.908 2.35098407736e-38
0.00506900997183 -0.0168966999061 0.913 2.15528027526e-38
0.00675867996244 -0.0168966999061 0.913 1.92231076219e-38
0.008420589767 -0.016841179534 0.91 1.93174290215e-38
0.0101047077204 -0.016841179534 0.91 1.63711723756e-38
0.0117888256738 -0.016841179534 0.91 2.34942345126e-38
0.0134729436272 -0.016841179534 0.91 1.88743468549e-38
0.0151570615806 -0.016841179534 0.91 2.34893117511e-38
0.016841179534 -0.016841179534 0.91 2.18216923097e-38
0.0185252974874 -0.016841179534 0.91 1.75718455375e-38
0.0202094154408 -0.016841179534 0.91 2.35021574541e-38
0.0218935333942 -0.016841179534 0.91 1.75879324439e-38
0.0235776513476 -0.016841179534 0.91 2.34977685873e-38
0.025261769301 -0.016841179534 0.91 2.35098393723e-38
0.0269458872544 -0.016841179534 0.91 2.35097482879e-38
0.0286300052078 -0.016841179534 0.91 1.55664753312e-38
0.0303141231612 -0.016841179534 0.91 1.77604827316e-38
0.0319982411146 -0.016841179534 0.91 2.13682895799e-38
0.0336083319052 -0.0168041659526 0.908 2.35097328736e-38
0.0352887485005 -0.0168041659526 0.908 2.35097917282e-38
0.0369691650957 -0.0168041659526 0.908 2.350977211e-38
0.038649581691 -0.0168041659526 0.908 2.35097945307e-38
0.0403299982863 -0.0168041659526 0.908 2.35098169515e-38
0.0420104148815 -0.0168041659526 0.908 2.35098085437e-38
0.0435945961652 -0.0167671523712 0.906 2.35098141489e-38
0.0452713114023 -0.0167671523712 0.906 1.99068712076e-38
0.0470516646673 -0.0168041659526 0.908 1.10418675613e-38
0.0487320812626 -0.0168041659526 0.908 1.61896271531e-38
0.0503014571137 -0.0167671523712 0.906 2.35096179671e-38
0.0519781723508 -0.0167671523712 0.906 2.35098856151e-38
0.0536548875879 -0.0167671523712 0.906 2.35098716022e-38
0.055331602825 -0.0167671523712 0.906 8.64724466753e-39
0.0570083180621 -0.0167671523712 0.906 2.35096698152e-38
0.0586850332993 -0.0167671523712 0.906 2.35098856151e-38
0.0603617485364 -0.0167671523712 0.906 1.74188783958e-38
0.0620384637735 -0.0167671523712 0.906 2.23006771443e-38
0.0638558306199 -0.0168041659526 0.908 2.35098856151e-38
0.0653918942478 -0.0167671523712 0.906 2.35098856151e-38
0.0670686094849 -0.0167671523712 0.906 1.53774233528e-38
0.068745324722 -0.0167671523712 0.906 2.34618561103e-38
0.0704220399591 -0.0167671523712 0.906 2.34651547669e-38
0.0720987551962 -0.0167671523712 0.906 2.34845907766e-38
0.00506900997183 -0.0152070299155 0.913 2.33038092617e-38
0.0067364718136 -0.0151570615806 0.91 1.62757341411e-38
0.008420589767 -0.0151570615806 0.91 2.17155495563e-38
0.0101047077204 -0.0151570615806 0.91 1.73799138907e-38
0.0117888256738 -0.0151570615806 0.91 1.83986718873e-38
0.0134729436272 -0.0151570615806 0.91 2.14630635989e-38
0.0151570615806 -0.0151570615806 0.91 2.13582100401e-38
0.016841179534 -0.0151570615806 0.91 2.34939836802e-38
0.0185252974874 -0.0151570615806 0.91 2.09029786157e-38
0.0202094154408 -0.0151570615806 0.91 1.87742941446e-38
0.0218935333942 -0.0151570615806 0.91 2.34919728169e-38
0.0235776513476 -0.0151570615806 0.91 2.34809782291e-38
0.0252062489289 -0.0151237493574 0.908 2.00660559105e-38
0.0268866655242 -0.0151237493574 0.908 2.3509716058e-38
0.0286300052078 -0.0151570615806 0.91 2.35098351684e-38
0.0303141231612 -0.0151570615806 0.91 2.35098337671e-38
0.0319982411146 -0.0151570615806 0.91 2.26802973061e-38
0.0336083319052 -0.0151237493574 0.908 1.60297530113e-38
0.0352887485005 -0.0151237493574 0.908 1.66624042355e-38
0.0369691650957 -0.0151237493574 0.908 1.71987077824e-38
0.038649581691 -0.0151237493574 0.908 1.98626546358e-38
0.0403299982863 -0.0151237493574 0.908 1.98633721006e-38
0.041917880928 -0.0150904371341 0.906 1.87663684004e-38
0.0435945961652 -0.0150904371341 0.906 1.79545947988e-38
0.0452713114023 -0.0150904371341 0.906 2.25803510944e-38
0.0469480266394 -0.0150904371341 0.906 2.35097398801e-38
0.0486247418765 -0.0150904371341 0.906 2.35098856151e-38
0.0503014571137 -0.0150904371341 0.906 2.35098814113e-38
0.0519781723508 -0.0150904371341 0.906 1.64966684622e-38
0.0534772223972 -0.0150404687992 0.903 2.04438151479e-38
0.0551483855971 -0.0150404687992 0.903 2.3509837971e-38
0.056819548797 -0.0150404687992 0.903 2.35098856151e-38
0.0586850332993 -0.0150904371341 0.906 1.15144218372e-38
0.0603617485364 -0.0150904371341 0.906 2.35056957327e-38
0.0620384637735 -0.0150904371341 0.906 2.35098856151e-38
0.0638558306199 -0.0151237493574 0.908 2.35098856151e-38
0.0653918942478 -0.0150904371341 0.906 1.54674651869e-38
0.0670686094849 -0.0150904371341 0.906 2.12337298949e-38
0.068745324722 -0.0150904371341 0.906 2.3478437675e-38
0.0704220399591 -0.0150904371341 0.906 2.18124731671e-38
0.0720987551962 -0.0150904371341 0.906 2.34882005214e-38
0.0067364718136 -0.0134729436272 0.91 1.6834277696e-38
0.008420589767 -0.0134729436272 0.91 1.92241585958e-38
0.0101047077204 -0.0134729436272 0.91 1.96815648353e-38
0.0117888256738 -0.0134729436272 0.91 1.69131722008e-38
0.0134729436272 -0.0134729436272 0.91 1.85780436959e-38
0.0151570615806 -0.0134729436272 0.91 2.12758010787e-38
0.016841179534 -0.0134729436272 0.91 1.94200138782e-38
0.0185252974874 -0.0134729436272 0.91 2.35025708372e-38
0.0202094154408 -0.0134729436272 0.91 2.03516069064e-38
0.0218935333942 -0.0134729436272 0.91 2.12718199897e-38
0.0235258323337 -0.0134433327621 0.908 1.94207397508e-38
0.0252062489289 -0.0134433327621 0.908 2.35013993516e-38
0.0268866655242 -0.0134433327621 0.908 2.21005843353e-38
0.0285670821194 -0.0134433327621 0.908 2.10740939738e-38
0.0302474987147 -0.0134433327621 0.908 2.23774640963e-38
0.03192791531 -0.0134433327621 0.908 2.35097875243e-38
0.0336083319052 -0.0134433327621 0.908 2.35098365697e-38
0.0352887485005 -0.0134433327621 0.908 2.35098617931e-38
0.0369691650957 -0.0134433327621 0.908 2.35098814113e-38
0.038649581691 -0.0134433327621 0.908 2.35098856151e-38
0.0403299982863 -0.0134433327621 0.908 2.35098856151e-38
0.041917880928 -0.013413721897 0.906 2.35098856151e-38
0.0435945961652 -0.013413721897 0.906 2.35098856151e-38
0.0452713114023 -0.013413721897 0.906 2.3509865997e-38
0.0469480266394 -0.013413721897 0.906 1.668078787e-38
0.0486247418765 -0.013413721897 0.906 1.92488634877e-38
0.0503014571137 -0.013413721897 0.906 1.8964388689e-38
0.0518060591973 -0.0133693055993 0.903 2.35097777152e-38
0.0533587789368 -0.0133396947342 0.901 2.35098603918e-38
0.0550262407785 -0.0133396947342 0.901 2.35098617931e-38
0.0566937026203 -0.0133396947342 0.901 1.33469979299e-38
0.058490711997 -0.0133693055993 0.903 2.35096628087e-38
0.0603617485364 -0.013413721897 0.906 2.35098856151e-38
0.0620384637735 -0.013413721897 0.906 2.35098547866e-38
0.0637151790106 -0.013413721897 0.906 1.51872951771e-38
0.0655362472152 -0.0134433327621 0.908 2.25248218402e-38
0.0672166638105 -0.0134433327621 0.908 2.34593870224e-38
0.0688970804057 -0.0134433327621 0.908 2.3481785377e-38
0.070577497001 -0.0134433327621 0.908 2.34784628984e-38
0.0067364718136 -0.0117888256738 0.91 1.72077293419e-38
0.008420589767 -0.0117888256738 0.91 1.82160728883e-38
0.0101047077204 -0.0117888256738 0.91 1.88528985806e-38
0.0117888256738 -0.0117888256738 0.91 1.87571072189e-38
0.0134729436272 -0.0117888256738 0.91 1.81095447778e-38
0.0151570615806 -0.0117888256738 0.91 1.68263435441e-38
0.0168041659526 -0.0117629161668 0.908 2.08872378301e-38
0.0184845825479 -0.0117629161668 0.908 1.68342987155e-38
0.0202094154408 -0.0117888256738 0.91 2.3498865804e-38
0.0218454157384 -0.0117629161668 0.908 2.34889039732e-38
0.0235258323337 -0.0117629161668 0.908 2.19961063244e-38
0.0252062489289 -0.0117629161668 0.908 2.06214129127e-38
0.026827443794 -0.0117370066599 0.906 2.09880430377e-38
0.0285041590311 -0.0117370066599 0.906 2.34959426954e-38
0.0301808742682 -0.0117370066599 0.906 2.34960968383e-38
0.03192791531 -0.0117629161668 0.908 2.21966629632e-38
0.0336083319052 -0.0117629161668 0.908 2.13506766595e-38
0.0352887485005 -0.0117629161668 0.908 2.19881875868e-38
0.0369691650957 -0.0117629161668 0.908 1.99653417873e-38
0.038649581691 -0.0117629161668 0.908 1.73945840844e-38
0.0403299982863 -0.0117629161668 0.908 1.7947741048e-38
0.041917880928 -0.0117370066599 0.906 2.03336716873e-38
0.0435945961652 -0.0117370066599 0.906 1.96929742074e-38
0.0452713114023 -0.0117370066599 0.906 2.03519964674e-38
0.0469480266394 -0.0117370066599 0.906 2.35096768217e-38
0.0486247418765 -0.0117370066599 0.906 2.35098365697e-38
0.0503014571137 -0.0117370066599 0.906 2.35098295632e-38
0.0518060591973 -0.0116981423994 0.903 2.35097594983e-38
0.0533587789368 -0.0116722328924 0.901 1.97284887157e-38
0.0550262407785 -0.0116722328924 0.901 2.34937524659e-38
0.0566937026203 -0.0116722328924 0.901 2.35098758061e-38
0.058490711997 -0.0116981423994 0.903 2.35098856151e-38
0.0603617485364 -0.0117370066599 0.906 1.84246141258e-38
0.0620384637735 -0.0117370066599 0.906 1.73791501831e-38
0.0637151790106 -0.0117370066599 0.906 2.25248078272e-38
0.0655362472152 -0.0117629161668 0.908 2.34475432478e-38
0.0672166638105 -0.0117629161668 0.908 2.34813341589e-38
0.0690488360894 -0.0117888256738 0.91 2.34716385749e-38
0.0707329540428 -0.0117888256738 0.91 2.34817041017e-38
0.00844834995305 -0.0101380199437 0.913 1.67442372632e-38
0.0101380199437 -0.0101380199437 0.913 1.88539467519e-38
0.0118276899343 -0.0101380199437 0.913 1.91258701202e-38
0.0134729436272 -0.0101047077204 0.91 1.82003208923e-38
0.0151570615806 -0.0101047077204 0.91 1.85662167369e-38
0.0168041659526 -0.0100824995716 0.908 1.59854747824e-38
0.0184845825479 -0.0100824995716 0.908 2.16176254183e-38
0.0202094154408 -0.0101047077204 0.91 1.7864873862e-38
0.0218454157384 -0.0100824995716 0.908 1.93263594967e-38
0.0234740133197 -0.0100602914227 0.906 2.34918551078e-38
0.0251507285568 -0.0100602914227 0.906 2.34942779529e-38
0.026827443794 -0.0100602914227 0.906 2.17266870764e-38
0.0285041590311 -0.0100602914227 0.906 2.09905443555e-38
0.0301808742682 -0.0100602914227 0.906 2.05382752761e-38
0.0318575895053 -0.0100602914227 0.906 2.34881024305e-38
0.0335343047424 -0.0100602914227 0.906 2.34809558084e-38
0.0352110199796 -0.0100602914227 0.906 2.34964247421e-38
0.0368877352167 -0.0100602914227 0.906 2.35057882184e-38
0.0385644504538 -0.0100602914227 0.906 2.35090238166e-38
0.0402411656909 -0.0100602914227 0.906 2.35097651035e-38
0.041917880928 -0.0100602914227 0.906 2.35097482879e-38
0.0435945961652 -0.0100602914227 0.906 2.35097482879e-38
0.0452713114023 -0.0100602914227 0.906 2.35097651035e-38
0.0469480266394 -0.0100602914227 0.906 2.35097188606e-38
0.0486247418765 -0.0100602914227 0.906 1.37187105644e-38
0.0503014571137 -0.0100602914227 0.906 1.68421838219e-38
0.0518060591973 -0.0100269791995 0.903 2.34857706699e-38
0.0533587789368 -0.0100047710506 0.901 2.35098589905e-38
0.0550262407785 -0.0100047710506 0.901 2.35098113463e-38
0.0566937026203 -0.0100047710506 0.901 2.35097118541e-38
0.058490711997 -0.0100269791995 0.903 1.66635000509e-38
0.0603617485364 -0.0100602914227 0.906 1.83670992316e-38
0.0620384637735 -0.0100602914227 0.906 2.27124949409e-38
0.0637151790106 -0.0100602914227 0.906 2.34561668385e-38
0.0655362472152 -0.0100824995716 0.908 1.77465131872e-38
0.067364718136 -0.0101047077204 0.91 2.34853026362e-38
0.0690488360894 -0.0101047077204 0.91 2.34788090191e-38
0.00846685674374 -0.00846685674374 0.915 1.75729175308e-38
0.0101602280925 -0.00846685674374 0.915 1.72930908392e-38
0.0118535994412 -0.00846685674374 0.915 1.89361034795e-38
0.0135173599249 -0.00844834995305 0.913 1.88460210078e-38
0.0152070299155 -0.00844834995305 0.913 1.7834022875e-38
0.016841179534 -0.008420589767 0.91 1.92137119157e-38
0.0185252974874 -0.008420589767 0.91 1.69913604513e-38
0.0202094154408 -0.008420589767 0.91 1.59919319657e-38
0.0218454157384 -0.00840208297631 0.908 2.17173642378e-38
0.0234740133197 -0.00838357618561 0.906 1.92431237692e-38
0.0251507285568 -0.00838357618561 0.906 1.97902033013e-38
0.0267386111986 -0.00835581599956 0.903 2.34899465393e-38
0.0284097743985 -0.00835581599956 0.903 2.34989793092e-38
0.0300809375984 -0.00835581599956 0.903 2.34985953534e-38
0.0317521007983 -0.00835581599956 0.903 2.32064764717e-38
0.0334232639983 -0.00835581599956 0.903 2.23656021048e-38
0.0350944271982 -0.00835581599956 0.903 2.25417004802e-38
0.0368877352167 -0.00838357618561 0.906 1.90382889661e-38
0.0385644504538 -0.00838357618561 0.906 2.05126777571e-38
0.0402411656909 -0.00838357618561 0.906 1.9871622946e-38
0.0417790799978 -0.00835581599956 0.903 1.99602340544e-38
0.0434502431977 -0.00835581599956 0.903 2.20814818346e-38
0.0452713114023 -0.00838357618561 0.906 2.17273877257e-38
0.0469480266394 -0.00838357618561 0.906 2.34953947877e-38
0.0486247418765 -0.00838357618561 0.906 2.35097314723e-38
0.0503014571137 -0.00838357618561 0.906 2.35097202619e-38
0.0518060591973 -0.00835581599956 0.903 2.35096978412e-38
0.0533587789368 -0.00833730920887 0.901 2.27606575691e-38
0.0550262407785 -0.00833730920887 0.901 2.0806130675e-38
0.0566937026203 -0.00833730920887 0.901 1.81063007718e-38
0.0586850332993 -0.00838357618561 0.906 1.89181122085e-38
0.0603617485364 -0.00838357618561 0.906 2.34565171631e-38
0.0621754140247 -0.00840208297631 0.908 2.1332063212e-38
0.0638558306199 -0.00840208297631 0.908 2.34861195932e-38
0.0656806001826 -0.008420589767 0.91 1.5004057186e-38
0.0675867996244 -0.00844834995305 0.913 2.34885676616e-38
0.069276469615 -0.00844834995305 0.913 2.29116138475e-38
0.0101602280925 -0.006773485395 0.915 1.93245742424e-38
0.0118535994412 -0.006773485395 0.915 1.7375562859e-38
0.01354697079 -0.006773485395 0.915 1.91193610888e-38
0.0152070299155 -0.00675867996244 0.913 1.78300768185e-38
0.016841179534 -0.0067364718136 0.91 1.81970600707e-38
0.0185252974874 -0.0067364718136 0.91 1.89274392511e-38
0.0202094154408 -0.0067364718136 0.91 1.82853334662e-38
0.0218454157384 -0.00672166638105 0.908 1.70832113617e-38
0.0234740133197 -0.00670686094849 0.906 1.79208473278e-38
0.0251507285568 -0.00670686094849 0.906 2.16215966981e-38
0.0267386111986 -0.00668465279965 0.903 1.94214137754e-38
0.0284097743985 -0.00668465279965 0.903 1.97916634543e-38
0.0300809375984 -0.00668465279965 0.903 2.31077662052e-38
0.0317521007983 -0.00668465279965 0.903 2.33805079318e-38
0.0334232639983 -0.00668465279965 0.903 2.34878529994e-38
0.0350944271982 -0.00668465279965 0.903 2.35089985932e-38
0.0367655903981 -0.00668465279965 0.903 2.35097566957e-38
0.038436753598 -0.00668465279965 0.903 2.35097272684e-38
0.0402411656909 -0.00670686094849 0.906 2.35097426827e-38
0.0417790799978 -0.00668465279965 0.903 2.35097286697e-38
0.0434502431977 -0.00668465279965 0.903 2.35097707087e-38
0.0451214063976 -0.00668465279965 0.903 2.35018393594e-38
0.0467925695976 -0.00668465279965 0.903 2.34946563034e-38
0.0484637327975 -0.00668465279965 0.903 2.18168326067e-38
0.0503014571137 -0.00670686094849 0.906 2.11645828222e-38
0.0519781723508 -0.00670686094849 0.906 2.3093041361e-38
0.0534772223972 -0.00668465279965 0.903 1.75474307144e-38
0.0551483855971 -0.00668465279965 0.903 1.84589347278e-38
0.056819548797 -0.00668465279965 0.903 2.19590896242e-38
0.0586850332993 -0.00670686094849 0.906 2.34515355471e-38
0.0603617485364 -0.00670686094849 0.906 2.34578750213e-38
0.0621754140247 -0.00672166638105 0.908 2.3477057396e-38
0.0638558306199 -0.00672166638105 0.908 2.34852199596e-38
0.0658971296338 -0.00675867996244 0.913 1.4174281103e-38
0.06773485395 -0.006773485395 0.915 2.34781742309e-38
0.0701870037173 -0.00684751255778 0.925 2.34651183331e-38
0.0718988818567 -0.00684751255778 0.925 2.34755720197e-38
0.0736107599962 -0.00684751255778 0.925 2.34928668453e-38
0.00867968483676 -0.00520781090205 0.938 1.67392136082e-38
0.0103823095809 -0.00519115479043 0.935 2.16256044117e-38
0.0118924637017 -0.00509677015787 0.918 1.53555406759e-38
0.0135913870877 -0.00509677015787 0.918 2.0037357318e-38
0.0152403421387 -0.00508011404625 0.915 1.81023547153e-38
0.0168966999061 -0.00506900997183 0.913 1.76410248401e-38
0.0185863698967 -0.00506900997183 0.913 1.96625057749e-38
0.0202094154408 -0.0050523538602 0.91 1.84675443055e-38
0.0218454157384 -0.00504124978578 0.908 1.80051522461e-38
0.0234740133197 -0.00503014571137 0.906 1.85529226184e-38
0.0251507285568 -0.00503014571137 0.906 1.87344412162e-38
0.0267386111986 -0.00501348959974 0.903 1.7999757247e-38
0.0284097743985 -0.00501348959974 0.903 1.97507749664e-38
0.0300809375984 -0.00501348959974 0.903 2.10619377096e-38
0.0317521007983 -0.00501348959974 0.903 2.14428708881e-38
0.0334232639983 -0.00501348959974 0.903 2.17219647006e-38
0.0350166986772 -0.00500238552532 0.901 2.12624284874e-38
0.036684160519 -0.00500238552532 0.901 2.08936515732e-38
0.038436753598 -0.00501348959974 0.903 1.8860356291e-38
0.0402411656909 -0.00503014571137 0.906 1.97841244686e-38
0.0417790799978 -0.00501348959974 0.903 2.16301852564e-38
0.0434502431977 -0.00501348959974 0.903 2.31057287173e-38
0.0451214063976 -0.00501348959974 0.903 2.17205886255e-38
0.0467925695976 -0.00501348959974 0.903 2.11583960894e-38
0.0484637327975 -0.00501348959974 0.903 1.81023841426e-38
0.0503014571137 -0.00503014571137 0.906 1.93884103939e-38
0.0519781723508 -0.00503014571137 0.906 1.88262767124e-38
0.0534772223972 -0.00501348959974 0.903 2.17664475191e-38
0.0551483855971 -0.00501348959974 0.903 2.3454004635e-38
0.056819548797 -0.00501348959974 0.903 2.2442042936e-38
0.0586850332993 -0.00503014571137 0.906 2.34712938554e-38
0.0604949974294 -0.00504124978578 0.908 2.22415017115e-38
0.0621754140247 -0.00504124978578 0.908 2.34949982203e-38
0.0643481112525 -0.00508011404625 0.915 2.34813313563e-38
0.0660414826012 -0.00508011404625 0.915 1.6197547292e-38
0.0679569354383 -0.00509677015787 0.918 2.3461131639e-38
0.069807614508 -0.00510787423229 0.92 2.34593674042e-38
0.0718988818567 -0.00513563441834 0.925 2.34727764292e-38
0.0736107599962 -0.00513563441834 0.925 2.34986331885e-38
0.00867968483676 -0.0034718739347 0.938 2.03333423822e-38
0.0103823095809 -0.00346076986028 0.935 1.82121772786e-38
0.0120220112366 -0.00343486035331 0.928 2.03366410388e-38
0.0135913870877 -0.00339784677192 0.918 1.74656453308e-38
0.0152903104736 -0.00339784677192 0.918 1.85626168011e-38
0.0169337134875 -0.0033867426975 0.915 1.82817335305e-38
0.0185863698967 -0.00337933998122 0.913 1.85575861396e-38
0.0202760398873 -0.00337933998122 0.913 1.84653919111e-38
0.0218935333942 -0.0033682359068 0.91 1.87401809347e-38
0.0235258323337 -0.00336083319052 0.908 1.97564698434e-38
0.0251507285568 -0.00335343047424 0.906 1.99394233709e-38
0.0267386111986 -0.00334232639983 0.903 1.91114689758e-38
0.0284097743985 -0.00334232639983 0.903 1.90131762964e-38
0.0300809375984 -0.00334232639983 0.903 1.89181122085e-38
0.0317521007983 -0.00334232639983 0.903 2.11246794471e-38
0.0334232639983 -0.00334232639983 0.903 1.84589347278e-38
0.0350166986772 -0.00333492368355 0.901 1.96571009667e-38
0.036684160519 -0.00333492368355 0.901 1.89285154483e-38
0.038436753598 -0.00334232639983 0.903 1.82802859891e-38
0.0402411656909 -0.00335343047424 0.906 1.82799272567e-38
0.041917880928 -0.00335343047424 0.906 1.7999757247e-38
0.0435945961652 -0.00335343047424 0.906 1.85507702239e-38
0.0452713114023 -0.00335343047424 0.906 2.01119736586e-38
0.0469480266394 -0.00335343047424 0.906 2.14909410306e-38
0.0486247418765 -0.00335343047424 0.906 2.10349921415e-38
0.0504124978578 -0.00336083319052 0.908 2.34306547987e-38
0.0519781723508 -0.00335343047424 0.906 2.34654882759e-38
0.0536548875879 -0.00335343047424 0.906 2.34474857945e-38
0.055331602825 -0.00335343047424 0.906 2.34788076178e-38
0.0570083180621 -0.00335343047424 0.906 2.20840588225e-38
0.0586850332993 -0.00335343047424 0.906 2.34882187383e-38
0.0608281196619 -0.00337933998122 0.913 2.34468930453e-38
0.0625177896526 -0.00337933998122 0.913 2.11814922907e-38
0.0645590886664 -0.00339784677192 0.918 2.31817365473e-38
0.0662580120524 -0.00339784677192 0.918 2.03323068226e-38
0.0681049897639 -0.00340524948819 0.92 2.3454727705e-38
0.069807614508 -0.00340524948819 0.92 2.34806377136e-38
0.00867968483676 -0.00173593696735 0.938 1.84847942896e-38
0.0103823095809 -0.00173038493014 0.935 1.99642599849e-38
0.0120220112366 -0.00171743017665 0.928 1.92316989828e-38
0.0136950251156 -0.00171187813945 0.925 1.99606306219e-38
0.0153236226969 -0.0017026247441 0.92 1.70024867611e-38
0.0169892338596 -0.00169892338596 0.918 1.88381246909e-38
0.0186270848362 -0.00169337134875 0.915 1.81027134477e-38
0.020320456185 -0.00169337134875 0.915 1.83731976825e-38
0.0218935333942 -0.0016841179534 0.91 1.88309402337e-38
0.0235258323337 -0.00168041659526 0.908 2.00305442048e-38
0.0251507285568 -0.00167671523712 0.906 1.92926288413e-38
0.0267386111986 -0.00167116319991 0.903 1.88356387874e-38
0.0284097743985 -0.00167116319991 0.903 1.87401809347e-38
0.0300809375984 -0.00167116319991 0.903 2.00244429513e-38
0.0317521007983 -0.00167116319991 0.903 2.0480033108e-38
0.0334232639983 -0.00167116319991 0.903 2.07580507234e-38
0.0350944271982 -0.00167116319991 0.903 2.09420888559e-38
0.0367655903981 -0.00167116319991 0.903 2.05801194496e-38
0.0385644504538 -0.00167671523712 0.906 2.06698025513e-38
0.0402411656909 -0.00167671523712 0.906 2.11307736941e-38
0.041917880928 -0.00167671523712 0.906 2.11286212997e-38
0.0435945961652 -0.00167671523712 0.906 2.16807104738e-38
0.0452713114023 -0.00167671523712 0.906 2.17757745616e-38
0.0469480266394 -0.00167671523712 0.906 2.17768507589e-38
0.0486247418765 -0.00167671523712 0.906 2.11300576306e-38
0.0504124978578 -0.00168041659526 0.908 2.34389364726e-38
0.0519781723508 -0.00167671523712 0.906 1.96890449665e-38
0.0536548875879 -0.00167671523712 0.906 2.34540620882e-38
0.0554537476436 -0.00168041659526 0.908 2.01705871708e-38
0.0571341642389 -0.00168041659526 0.908 2.00381420451e-38
0.0588145808341 -0.00168041659526 0.908 2.34842614714e-38
0.0608281196619 -0.00168966999061 0.913 2.30788181816e-38
0.0626547399037 -0.00169337134875 0.915 2.00647975445e-38
0.0645590886664 -0.00169892338596 0.918 2.27224735873e-38
0.0664023650198 -0.0017026247441 0.92 2.21628804598e-38
0.0681049897639 -0.0017026247441 0.92 2.34845165077e-38
0.0104156218041 0.0 0.938 1.82100445023e-38
0.012086785004 0.0 0.933 1.94160664204e-38
0.0137394414132 0.0 0.928 1.78394515052e-38
0.0153735910318 0.0 0.923 1.85733745694e-38
0.0170817678131 0.0 0.923 1.81895603214e-38
0.0187288721851 0.0 0.92 1.9110751511e-38
0.0204314969292 0.0 0.92 1.8648704171e-38
0.0220138275337 0.0 0.915 1.8463598249e-38
0.0236553798685 0.0 0.913 1.92007933452e-38
0.025261769301 0.0 0.91 1.90138937612e-38
0.0268866655242 0.0 0.908 1.94745061716e-38
0.0285041590311 0.0 0.906 1.92029457396e-38
0.0301808742682 0.0 0.906 2.03946547952e-38
0.0318575895053 0.0 0.906 2.01191483067e-38
0.0335343047424 0.0 0.906 2.09478243705e-38
0.0352110199796 0.0 0.906 1.99333291239e-38
0.0368877352167 0.0 0.906 2.08549084732e-38
0.038649581691 0.0 0.908 2.05765321255e-38
0.0403299982863 0.0 0.908 1.99344011172e-38
0.0420104148815 0.0 0.908 2.17714697728e-38
0.0436908314768 0.0 0.908 2.14008991965e-38
0.0456210897465 0.0 0.913 2.14055627178e-38
0.0470516646673 0.0 0.908 2.26941561479e-38
0.0487320812626 0.0 0.908 2.04857728266e-38
0.050523538602 0.0 0.91 2.34396539374e-38
0.0522076565554 0.0 0.91 1.90436937743e-38
0.0538917745088 0.0 0.91 2.34547655401e-38
0.0557591096901 0.0 0.913 2.11829314242e-38
0.0574487796807 0.0 0.913 2.34457720065e-38
0.0592679972062 0.0 0.915 2.30193386669e-38
0.0611612418945 0.0 0.918 1.96710971358e-38
0.0628601652804 0.0 0.918 2.34625595621e-38
0.0646997402757 0.0 0.92 2.27135305005e-38
0.0666188944709 0.0 0.923 2.34709239126e-38
0.0686972070662 0.0 0.928 2.34745280523e-38
0.0137394414132 0.00171743017665 0.928 1.69207153905e-38
0.0154568715899 0.00171743017665 0.928 1.82074815274e-38
0.0171187813945 0.00171187813945 0.925 1.79219193212e-38
0.0188306595339 0.00171187813945 0.925 1.89267217863e-38
0.0204981213757 0.00170817678131 0.923 1.92940637709e-38
0.0221341216733 0.0017026247441 0.92 1.82810328812e-38
0.0237849274034 0.00169892338596 0.918 1.92929945802e-38
0.0254005702312 0.00169337134875 0.915 1.87355440381e-38
0.0270347198498 0.00168966999061 0.913 1.97539587165e-38
0.0287243898404 0.00168966999061 0.913 1.93851902101e-38
0.0303141231612 0.0016841179534 0.91 1.95659885405e-38
0.0319982411146 0.0016841179534 0.91 1.97507329275e-38
0.0336083319052 0.00168041659526 0.908 1.99318899904e-38
0.0352887485005 0.00168041659526 0.908 2.01159225177e-38
0.0369691650957 0.00168041659526 0.908 2.08523973464e-38
0.038649581691 0.00168041659526 0.908 1.97460666036e-38
0.0403299982863 0.00168041659526 0.908 2.1040022803e-38
0.0420104148815 0.00168041659526 0.908 2.14963220167e-38
0.0436908314768 0.00168041659526 0.908 2.14037690557e-38
0.0457210264162 0.00169337134875 0.915 2.17754214344e-38
0.047414397765 0.00169337134875 0.915 2.12201022673e-38
0.0491077691137 0.00169337134875 0.915 2.19605539811e-38
0.0508011404625 0.00169337134875 0.915 2.34396441283e-38
0.0526666249647 0.00169892338596 0.918 1.89536701571e-38
0.0543655483507 0.00169892338596 0.918 2.34576424058e-38
0.0560644717366 0.00169892338596 0.918 2.34875180891e-38
0.0577633951226 0.00169892338596 0.918 2.08841129345e-38
0.0594623185085 0.00169892338596 0.918 1.7934519797e-38
0.061494364127 0.00170817678131 0.923 2.34529256352e-38
0.0633394911595 0.00171187813945 0.925 2.03150162009e-38
0.0652623467129 0.00171743017665 0.928 2.34712910528e-38
0.067124129857 0.00172113153479 0.93 2.30070913184e-38
0.0692153972057 0.00173038493014 0.935 2.3477057396e-38
0.0713251713451 0.00173963832549 0.94 2.34763259182e-38
0.0137690522784 0.00344226306959 0.93 1.60938441991e-38
0.0154901838131 0.00344226306959 0.93 1.74684787563e-38
0.0171743017665 0.00343486035331 0.928 1.86619828752e-38
0.0188917319432 0.00343486035331 0.928 1.7918683723e-38
0.0205425376733 0.00342375627889 0.925 1.89285154483e-38
0.022206298157 0.00341635356261 0.923 1.90185572825e-38
0.0239144749383 0.00341635356261 0.923 1.89252868567e-38
0.0255393711615 0.00340524948819 0.92 1.93801595486e-38
0.0271827741753 0.00339784677192 0.918 1.87391047375e-38
0.0288816975613 0.00339784677192 0.918 1.99329942135e-38
0.0304806842775 0.0033867426975 0.915 2.00312658735e-38
0.0321037298216 0.00337933998122 0.913 1.98454677102e-38
0.0337933998122 0.00337933998122 0.913 2.03946547952e-38
0.0353664770214 0.0033682359068 0.91 2.02113957846e-38
0.0370505949748 0.0033682359068 0.91 2.0208472676e-38
0.038862409784 0.00337933998122 0.913 2.07594954621e-38
0.0405520797746 0.00337933998122 0.913 2.05783636226e-38
0.0423342837187 0.0033867426975 0.915 2.1219739331e-38
0.0440276550675 0.0033867426975 0.915 2.07555395965e-38
0.0457210264162 0.0033867426975 0.915 2.03874801471e-38
0.047414397765 0.0033867426975 0.915 2.28763767963e-38
0.0491077691137 0.0033867426975 0.915 2.07609444047e-38
0.0508011404625 0.0033867426975 0.915 2.34374987404e-38
0.0526666249647 0.00339784677192 0.918 2.04273863247e-38
0.0543655483507 0.00339784677192 0.918 2.20451938096e-38
0.0560644717366 0.00339784677192 0.918 1.89396641789e-38
0.0577633951226 0.00339784677192 0.918 2.30852655558e-38
0.0595918660434 0.00340524948819 0.92 2.3464732976e-38
0.061494364127 0.00341635356261 0.923 2.34633695126e-38
0.0633394911595 0.00342375627889 0.925 2.34748979951e-38
0.0652623467129 0.00343486035331 0.928 2.34723490332e-38
0.0674850122756 0.00346076986028 0.935 2.3469488983e-38
0.0692153972057 0.00346076986028 0.935 2.3473442046e-38
0.0713251713451 0.00347927665098 0.94 2.34795741281e-38
0.0137690522784 0.00516339460438 0.93 1.84948205801e-38
0.0154901838131 0.00516339460438 0.93 1.59951605574e-38
0.0172113153479 0.00516339460438 0.93 1.80141121484e-38
0.0189324468827 0.00516339460438 0.93 1.81009197857e-38
0.0206091621199 0.00515229052996 0.928 1.90181985501e-38
0.0223265922965 0.00515229052996 0.928 1.94784522281e-38
0.0239662939522 0.00513563441834 0.925 1.86501713305e-38
0.0256781720917 0.00513563441834 0.925 1.89213408002e-38
0.0273900502311 0.00513563441834 0.925 1.95710079916e-38
0.0289446206497 0.00510787423229 0.92 1.92926288413e-38
0.0306472453938 0.00510787423229 0.92 1.92919113765e-38
0.0321740556262 0.00508011404625 0.915 2.01187923769e-38
0.033867426975 0.00508011404625 0.915 2.00240842189e-38
0.0355607983237 0.00508011404625 0.915 2.04872077562e-38
0.0372541696725 0.00508011404625 0.915 2.0301025637e-38
0.0389475410212 0.00508011404625 0.915 2.07612891241e-38
0.04064091237 0.00508011404625 0.915 2.02999494398e-38
0.0423342837187 0.00508011404625 0.915 2.16785594807e-38
0.0440276550675 0.00508011404625 0.915 2.17700348431e-38
0.0458709314209 0.00509677015787 0.918 2.18654576634e-38
0.0475698548068 0.00509677015787 0.918 2.21399075728e-38
0.0492687781928 0.00509677015787 0.918 2.08534735436e-38
0.0509677015787 0.00509677015787 0.918 2.3441440593e-38
0.0526666249647 0.00509677015787 0.918 2.34601605391e-38
0.0543655483507 0.00509677015787 0.918 2.3070186183e-38
0.0561866165552 0.00510787423229 0.92 2.13256144365e-38
0.0578892412993 0.00510787423229 0.92 2.34787235399e-38
0.0597861873457 0.00512453034392 0.923 2.17124274633e-38
0.06162761302 0.00513563441834 0.925 2.34727498045e-38
0.0640242424153 0.00519115479043 0.935 2.31817393499e-38
0.0659656047594 0.00520781090205 0.938 2.34752329054e-38
0.0677015417267 0.00520781090205 0.938 2.30153505715e-38
0.0695855330196 0.00521891497647 0.94 2.2463611722e-38
0.0713251713451 0.00521891497647 0.94 2.2182741063e-38
0.0735311807962 0.00525222719973 0.946 2.34777552427e-38
0.013813468576 0.00690673428801 0.933 2.07046990869e-38
0.015540152148 0.00690673428801 0.933 1.6926788618e-38
0.01726683572 0.00690673428801 0.933 1.76478561701e-38
0.0189324468827 0.00688452613918 0.93 1.77353826735e-38
0.0206535784175 0.00688452613918 0.93 1.88359624874e-38
0.0223265922965 0.00686972070662 0.928 1.90178398177e-38
0.0240440224732 0.00686972070662 0.928 1.91986409507e-38
0.0257614526498 0.00686972070662 0.928 1.91954123591e-38
0.0274788828265 0.00686972070662 0.928 1.86447581145e-38
0.0291019283706 0.00684751255778 0.925 1.86436819173e-38
0.0307471820635 0.00683270712523 0.923 2.02095488733e-38
0.0322795443332 0.00679569354383 0.918 1.92919113765e-38
0.0339784677192 0.00679569354383 0.918 2.15921119771e-38
0.0355607983237 0.006773485395 0.915 1.86541089792e-38
0.0372541696725 0.006773485395 0.915 1.79118678073e-38
0.039075237877 0.00679569354383 0.918 2.04796743756e-38
0.040774161263 0.00679569354383 0.918 2.08509876401e-38
0.042473084649 0.00679569354383 0.918 2.17732718426e-38
0.0441720080349 0.00679569354383 0.918 2.14938108899e-38
0.0458709314209 0.00679569354383 0.918 2.16785580794e-38
0.0475698548068 0.00679569354383 0.918 2.18600822825e-38
0.0492687781928 0.00679569354383 0.918 2.2053792177e-38
0.0510787423229 0.00681049897639 0.92 2.15910273721e-38
0.052781367067 0.00681049897639 0.92 2.06637041004e-38
0.0544839918111 0.00681049897639 0.92 2.34515089224e-38
0.0563698337831 0.00683270712523 0.923 2.34637688827e-38
0.0582038567412 0.00684751255778 0.925 2.34748755743e-38
0.0604339250201 0.00690673428801 0.933 2.34697496245e-38
0.0621606085921 0.00690673428801 0.933 2.32793201697e-38
0.064229667792 0.00694374786941 0.938 2.34741693199e-38
0.0659656047594 0.00694374786941 0.938 2.09841600397e-38
0.0678458946941 0.00695855330196 0.94 1.9788192438e-38
0.0695855330196 0.00695855330196 0.94 2.34777874725e-38
0.0717804383963 0.00700296959964 0.946 2.34763119052e-38
0.0735311807962 0.00700296959964 0.946 2.3477381096e-38
0.015540152148 0.00863341786002 0.933 2.13532550487e-38
0.01726683572 0.00863341786002 0.933 1.66437529529e-38
0.018993519292 0.00863341786002 0.933 1.72704584677e-38
0.020720202864 0.00863341786002 0.933 1.70814022854e-38
0.0223747099523 0.00860565767397 0.93 1.9110751511e-38
0.0240958414871 0.00860565767397 0.93 1.9014611226e-38
0.0257614526498 0.00858715088327 0.928 2.20556012533e-38
0.0274788828265 0.00858715088327 0.928 1.99455218218e-38
0.0291963130031 0.00858715088327 0.928 2.02256918316e-38
0.03081380651 0.00855939069723 0.925 1.98626756553e-38
0.0325256846495 0.00855939069723 0.925 1.89464520687e-38
0.0341635356261 0.00854088390653 0.923 1.76603963901e-38
0.035755119626 0.00851312372049 0.92 1.75725111543e-38
0.0374577443701 0.00851312372049 0.92 1.84872745879e-38
0.0391603691142 0.00851312372049 0.92 2.08742800232e-38
0.0408629938583 0.00851312372049 0.92 2.12376759513e-38
0.0425656186024 0.00851312372049 0.92 2.12362410217e-38
0.0442682433465 0.00851312372049 0.92 2.24279500773e-38
0.0459708680906 0.00851312372049 0.92 2.20577382334e-38
0.0476734928347 0.00851312372049 0.92 2.21452689407e-38
0.0493761175788 0.00851312372049 0.92 2.16857425366e-38
0.0512453034392 0.00854088390653 0.923 2.17772249056e-38
0.0529534802205 0.00854088390653 0.923 2.22331583804e-38
0.0547801004623 0.00855939069723 0.925 2.25962179969e-38
0.0566751958296 0.00858715088327 0.928 2.34852662024e-38
0.0587072414481 0.00863341786002 0.933 1.73938932442e-38
0.060563472555 0.00865192465071 0.935 2.34705918049e-38
0.0622938574851 0.00865192465071 0.935 1.83851577649e-38
0.064229667792 0.00867968483676 0.938 2.34824818224e-38
0.0661062563686 0.00869819162745 0.94 1.92314019075e-38
0.0678458946941 0.00869819162745 0.94 2.07987346217e-38
0.0695855330196 0.00869819162745 0.94 2.20054768072e-38
0.0717804383963 0.00875371199954 0.946 2.34723252111e-38
0.0735311807962 0.00875371199954 0.946 2.34744930198e-38
0.0173593696735 0.0104156218041 0.938 2.3101440744e-38
0.0190953066409 0.0104156218041 0.938 1.90469952335e-38
0.020720202864 0.010360101432 0.933 1.56177740654e-38
0.022446886436 0.010360101432 0.933 1.85525638859e-38
0.0240958414871 0.0103267892088 0.93 1.84625220518e-38
0.0258169730219 0.0103267892088 0.93 1.85532813508e-38
0.0275381045567 0.0103267892088 0.93 2.23393950209e-38
0.0292592360915 0.0103267892088 0.93 2.10583237609e-38
0.0309803676263 0.0103267892088 0.93 1.94010318892e-38
0.0326311733564 0.0103045810599 0.928 1.9317022645e-38
0.0343486035331 0.0103045810599 0.928 1.64658174752e-38
0.0359494409284 0.0102712688367 0.925 1.40737897862e-38
0.0376613190678 0.0102712688367 0.925 1.85816212109e-38
0.0393731972073 0.0102712688367 0.925 2.15207284321e-38
0.0409962427514 0.0102490606878 0.923 2.3462549753e-38
0.0427044195327 0.0102490606878 0.923 2.3462282105e-38
0.044412596314 0.0102490606878 0.923 2.19777409067e-38
0.0461207730953 0.0102490606878 0.923 2.34600246132e-38
0.0478289498766 0.0102490606878 0.923 2.21600120019e-38
0.0496444660439 0.0102712688367 0.925 2.18733497763e-38
0.0513563441834 0.0102712688367 0.925 2.2239269443e-38
0.0532403354763 0.0103045810599 0.928 2.24215377356e-38
0.054957765653 0.0103045810599 0.928 2.26001780664e-38
0.0569805578761 0.010360101432 0.933 2.3470094344e-38
0.0588330876248 0.0103823095809 0.935 2.34806040824e-38
0.060563472555 0.0103823095809 0.935 1.44379171922e-38
0.0624937308247 0.0104156218041 0.938 1.8105972868e-38
0.0643666180432 0.0104378299529 0.94 2.05159974331e-38
0.0663172337826 0.0104711421762 0.943 2.34716441801e-38
0.0682789535964 0.0105044543995 0.946 2.27415985087e-38
0.0700296959964 0.0105044543995 0.946 2.17241983704e-38
0.0717804383963 0.0105044543995 0.946 2.34701924348e-38
0.0735311807962 0.0105044543995 0.946 2.34770265675e-38
0.0173593696735 0.0121515587715 0.938 2.07003760812e-38
0.0190953066409 0.0121515587715 0.938 2.31988828353e-38
0.0208312436082 0.0121515587715 0.938 2.26497896372e-38
0.0224950040919 0.012112694511 0.935 1.55388529359e-38
0.024173570008 0.012086785004 0.933 1.92104791201e-38
0.02590025358 0.012086785004 0.933 1.75405797662e-38
0.0276861588823 0.012112694511 0.935 2.03039039041e-38
0.0293536207241 0.012086785004 0.933 2.21682278148e-38
0.0310803042961 0.012086785004 0.933 1.8939636153e-38
0.0328069878681 0.012086785004 0.933 1.96682286778e-38
0.0344226306959 0.0120479207436 0.93 1.99519790051e-38
0.0360660337097 0.0120220112366 0.928 2.04212402297e-38
0.0377834638864 0.0120220112366 0.928 2.07899821115e-38
0.0395008940631 0.0120220112366 0.928 1.88452979377e-38
0.0410850753467 0.0119831469761 0.925 1.85608147313e-38
0.0427044195327 0.0119572374691 0.923 2.07645079067e-38
0.044412596314 0.0119572374691 0.923 1.97521650545e-38
0.046220709765 0.0119831469761 0.925 2.18722735791e-38
0.0479325879045 0.0119831469761 0.925 2.28921498118e-38
0.049805475123 0.0120220112366 0.928 1.9748218998e-38
0.0515229052996 0.0120220112366 0.928 2.31659144863e-38
0.0533550775786 0.0120479207436 0.93 2.34637170346e-38
0.0552538743041 0.012086785004 0.933 2.34774287401e-38
0.0571027026947 0.012112694511 0.935 1.84895054551e-38
0.0588330876248 0.012112694511 0.935 1.57039160859e-38
0.0607577938573 0.0121515587715 0.938 1.91259149617e-38
0.0624937308247 0.0121515587715 0.938 2.19064288279e-38
0.0645720434199 0.0122163325389 0.943 2.20916566628e-38
0.0665282111965 0.0122551967994 0.946 2.34816760758e-38
0.0684233065639 0.0122811063063 0.948 1.89622601167e-38
0.0703998318103 0.0123199705668 0.951 2.34644429072e-38
0.0723874611311 0.0123588348273 0.954 2.34698379063e-38
0.0173963832549 0.0139171066039 0.94 1.94017381436e-38
0.0208756599059 0.0139171066039 0.94 2.34774063193e-38
0.0225671805756 0.0138874957388 0.938 2.34824650068e-38
0.0243031175429 0.0138874957388 0.938 2.34809712226e-38
0.0260390545103 0.0138874957388 0.938 2.19085952353e-38
0.0277749914776 0.0138874957388 0.938 1.69224838291e-38
0.0294165438124 0.0138430794411 0.935 1.77382413224e-38
0.0311469287426 0.0138430794411 0.935 1.83764262742e-38
0.0328069878681 0.013813468576 0.933 1.83670992316e-38
0.0345336714401 0.013813468576 0.933 1.79079217508e-38
0.0361437622307 0.0137690522784 0.93 1.77249682233e-38
0.0378648937655 0.0137690522784 0.93 1.76417423049e-38
0.0395008940631 0.0137394414132 0.928 1.65303893084e-38
0.0412183242397 0.0137394414132 0.928 2.01281348338e-38
0.0427969534861 0.0136950251156 0.925 1.84722162346e-38
0.0445088316256 0.0136950251156 0.925 2.28021738387e-38
0.0463706147697 0.0137394414132 0.928 2.34679251339e-38
0.0480880449463 0.0137394414132 0.928 2.34777468349e-38
0.049912814509 0.0137690522784 0.93 2.34806194967e-38
0.0518005071601 0.013813468576 0.933 2.18125166074e-38
0.0535271907321 0.013813468576 0.933 1.74713500168e-38
0.0553723177646 0.0138430794411 0.935 1.51532212037e-38
0.0572859199226 0.0138874957388 0.938 1.86512433238e-38
0.0590218568899 0.0138874957388 0.938 1.72848890393e-38
0.0607577938573 0.0138874957388 0.938 2.11574109766e-38
0.0626269797177 0.0139171066039 0.94 1.97870784058e-38
0.0649144190478 0.0140355500644 0.948 2.34864292802e-38
0.0666688628058 0.0140355500644 0.948 2.34932227751e-38
0.068639836015 0.0140799663621 0.951 2.34899913808e-38
0.0706219132986 0.0141243826597 0.954 2.34615366142e-38
0.0723874611311 0.0141243826597 0.954 2.3461559035e-38
0.014316853283 0.0161064599433 0.967 1.26819080476e-38
0.0161064599433 0.0161064599433 0.967 1.49907350415e-38
0.0178960666037 0.0161064599433 0.967 1.68220583734e-38
0.0209422843524 0.0157067132643 0.943 2.19888966438e-38
0.0226874747151 0.0157067132643 0.943 1.77691721834e-38
0.0243549365569 0.0156567449294 0.94 2.11893675881e-38
0.0260390545103 0.0156234327062 0.938 2.34881724954e-38
0.0277749914776 0.0156234327062 0.938 2.34878544007e-38
0.029510928445 0.0156234327062 0.938 2.3477043383e-38
0.0312468654123 0.0156234327062 0.938 2.34737699498e-38
0.0328773136727 0.0155734643713 0.935 2.09797837846e-38
0.0346076986028 0.0155734643713 0.935 1.82975051447e-38
0.036338083533 0.0155734643713 0.935 1.96743201222e-38
0.0379870385841 0.015540152148 0.933 2.01464119697e-38
0.0395860253003 0.0154901838131 0.93 1.97759254713e-38
0.0413071568351 0.0154901838131 0.93 2.24430574761e-38
0.0429357544164 0.0154568715899 0.928 2.3462268092e-38
0.044653184593 0.0154568715899 0.928 2.34619275765e-38
0.0464705514394 0.0154901838131 0.93 2.08771793097e-38
0.0483471400161 0.015540152148 0.933 1.93008796867e-38
0.0501811629741 0.0155734643713 0.935 1.83670992316e-38
0.0519115479043 0.0155734643713 0.935 1.9744631674e-38
0.0536419328344 0.0155734643713 0.935 2.02996481606e-38
0.0555499829552 0.0156234327062 0.938 1.76374739498e-38
0.0572859199226 0.0156234327062 0.938 1.66222808565e-38
0.0591477030667 0.0156567449294 0.94 2.06806401936e-38
0.0608873413922 0.0156567449294 0.94 2.34781518101e-38
0.0631599752897 0.0157899938224 0.948 2.34878431903e-38
0.0649144190478 0.0157899938224 0.948 2.34838158585e-38
0.0668798402198 0.0158399621573 0.951 2.34791803632e-38
0.0688563654662 0.0158899304922 0.954 2.34816942926e-38
0.0707699676242 0.0159232427154 0.956 2.34525136534e-38
0.0725392168148 0.0159232427154 0.956 2.34679994028e-38
0.0210089087989 0.0175074239991 0.946 2.17091077872e-38
0.0227596511988 0.0175074239991 0.946 8.82661087097e-39
0.0245103935987 0.0175074239991 0.946 5.99083119468e-39
