# .PCD v0.7 - Point Cloud Data file format
VERSION 0.7
FIELDS x y z rgb
SIZE 4 4 4 4
TYPE F F F F
COUNT 1 1 1 1
WIDTH 840
HEIGHT 1
VIEWPOINT 0 0 0 1 0 0 0
POINTS 840
DATA ascii
-0.00700296959964 -0.096290831995 0.946 1.7680936623e-38
-0.00525222719973 -0.096290831995 0.946 1.68497494324e-38
-0.00350148479982 -0.096290831995 0.946 1.72188794738e-38
-0.00175074239991 -0.096290831995 0.946 1.60231907306e-38
0.0 -0.096290831995 0.946 1.62072288631e-38
0.00175074239991 -0.096290831995 0.946 1.59309979033e-38
0.00350148479982 -0.096290831995 0.946 1.8142260893e-38
0.00527998738577 -0.0967997687391 0.951 1.38951985008e-38
0.00703998318103 -0.0967997687391 0.951 1.24232858043e-38
0.00879997897629 -0.0967997687391 0.951 1.76816554891e-38
0.0105599747715 -0.0967997687391 0.951 1.73121344853e-38
0.0123588348273 -0.0971051307856 0.954 1.66667650763e-38
0.0141243826597 -0.0971051307856 0.954 1.72195885308e-38
0.0158399621573 -0.0967997687391 0.951 1.7219232601e-38
0.0175999579526 -0.0967997687391 0.951 1.92475574775e-38
0.0193599537478 -0.0967997687391 0.951 8.92310988841e-39
-0.0362603550121 -0.0932409128882 0.933 1.38000853676e-38
-0.0345336714401 -0.0932409128882 0.933 1.65741616686e-38
-0.0328773136727 -0.0934407862277 0.935 1.08606516439e-38
-0.0312468654123 -0.093740596237 0.938 9.66716013661e-39
-0.0294165438124 -0.0934407862277 0.935 1.29832783018e-38
-0.0276861588823 -0.0934407862277 0.935 1.18751328775e-38
-0.0260945748824 -0.0939404695765 0.94 1.57444780712e-38
-0.0244326650778 -0.0942402795858 0.943 1.79524087732e-38
-0.0226874747151 -0.0942402795858 0.943 1.48210293897e-38
-0.0210089087989 -0.0945400895951 0.946 1.64823990399e-38
-0.019258166399 -0.0945400895951 0.946 1.65742163192e-38
-0.0175074239991 -0.0945400895951 0.946 1.67589579036e-38
-0.0157566815992 -0.0945400895951 0.946 1.62050610544e-38
-0.0139615229016 -0.0942402795858 0.943 1.70355433918e-38
-0.0122163325389 -0.0942402795858 0.943 1.70355405892e-38
-0.0104711421762 -0.0942402795858 0.943 1.70355405892e-38
-0.0087259518135 -0.0942402795858 0.943 1.62987056268e-38
-0.0069807614508 -0.0942402795858 0.943 1.66675119684e-38
-0.00525222719973 -0.0945400895951 0.946 1.70348371374e-38
-0.00350148479982 -0.0945400895951 0.946 1.73114128166e-38
-0.00175074239991 -0.0945400895951 0.946 1.36268092073e-38
0.0 -0.0945400895951 0.946 1.36264953164e-38
0.00175074239991 -0.0945400895951 0.946 1.56529830906e-38
0.00350148479982 -0.0945400895951 0.946 1.35317451194e-38
0.00526333127414 -0.0947399629346 0.948 1.30708076078e-38
0.00701777503219 -0.0947399629346 0.948 1.13241423213e-38
0.00877221879024 -0.0947399629346 0.948 1.75015662156e-38
0.0105266625483 -0.0947399629346 0.948 1.59288497128e-38
0.0123199705668 -0.0950397729439 0.951 1.62054394049e-38
0.0140799663621 -0.0950397729439 0.951 1.6574919771e-38
0.0157899938224 -0.0947399629346 0.948 1.6667486745e-38
0.0175444375805 -0.0947399629346 0.948 1.77724035776e-38
0.0192988813385 -0.0947399629346 0.948 1.17832833684e-38
-0.0362603550121 -0.0915142293162 0.933 6.61215572338e-39
-0.0345336714401 -0.0915142293162 0.933 1.15961623792e-38
-0.0328773136727 -0.0917104012975 0.935 9.94370358595e-39
-0.0311469287426 -0.0917104012975 0.935 1.01216768987e-38
-0.0294165438124 -0.0917104012975 0.935 1.24301073252e-38
-0.0276861588823 -0.0917104012975 0.935 1.1045012075e-38
-0.0260390545103 -0.0920046592696 0.938 1.48292942481e-38
-0.0243549365569 -0.092200831251 0.94 8.27846775327e-39
-0.0226152982314 -0.092200831251 0.94 1.65764121539e-38
-0.0209422843524 -0.0924950892231 0.943 1.49161341152e-38
-0.0191970939897 -0.0924950892231 0.943 1.56526299634e-38
-0.017451903627 -0.0924950892231 0.943 1.57440983193e-38
-0.0157067132643 -0.0924950892231 0.943 1.54685904296e-38
-0.0139171066039 -0.092200831251 0.94 1.56529858932e-38
-0.0121774682784 -0.092200831251 0.94 1.63916229254e-38
-0.0104711421762 -0.0924950892231 0.943 1.49161341152e-38
-0.0087259518135 -0.0924950892231 0.943 1.50994617894e-38
-0.0069807614508 -0.0924950892231 0.943 1.60214138841e-38
-0.0052355710881 -0.0924950892231 0.943 1.60213956672e-38
-0.0034903807254 -0.0924950892231 0.943 1.58391371838e-38
-0.00175074239991 -0.0927893471952 0.946 1.27009306742e-38
0.0 -0.0927893471952 0.946 1.26098476753e-38
0.00175074239991 -0.0927893471952 0.946 1.7216729882e-38
0.00350148479982 -0.0927893471952 0.946 1.38122738616e-38
0.00526333127414 -0.0929855191766 0.948 1.18769489603e-38
0.00700296959964 -0.0927893471952 0.946 1.41807831279e-38
0.00875371199954 -0.0927893471952 0.946 1.58409532666e-38
0.0105266625483 -0.0929855191766 0.948 1.65749169684e-38
0.0122811063063 -0.0929855191766 0.948 1.48239244723e-38
0.0140355500644 -0.0929855191766 0.948 1.54678841751e-38
0.0157566815992 -0.0927893471952 0.946 1.63891174038e-38
0.0175074239991 -0.0927893471952 0.946 1.84170527193e-38
0.019258166399 -0.0927893471952 0.946 9.47878638665e-39
-0.0362603550121 -0.0897875457442 0.933 1.35246307271e-38
-0.0345336714401 -0.0897875457442 0.933 4.95911679253e-39
-0.0328773136727 -0.0899800163674 0.935 1.28036066153e-38
-0.0311469287426 -0.0899800163674 0.935 1.0864210942e-38
-0.0294165438124 -0.0899800163674 0.935 1.20591892269e-38
-0.0276861588823 -0.0899800163674 0.935 7.35760166485e-39
-0.0259557739521 -0.0899800163674 0.935 1.48286482495e-38
-0.024225389022 -0.0899800163674 0.935 1.11400761629e-38
-0.0224950040919 -0.0899800163674 0.935 1.24272108413e-38
-0.0208312436082 -0.0902687223023 0.938 1.52882068834e-38
-0.0190953066409 -0.0902687223023 0.938 1.51012372345e-38
-0.0173593696735 -0.0902687223023 0.938 1.52841963672e-38
-0.0156234327062 -0.0902687223023 0.938 1.56537047593e-38
-0.0138874957388 -0.0902687223023 0.938 1.54703868942e-38
-0.0121515587715 -0.0902687223023 0.938 1.59320544824e-38
-0.0104156218041 -0.0902687223023 0.938 1.4917922172e-38
-0.00867968483676 -0.0902687223023 0.938 1.51005337827e-38
-0.00694374786941 -0.0902687223023 0.938 1.47321071931e-38
-0.00520781090205 -0.0902687223023 0.938 1.53778381371e-38
-0.0034718739347 -0.0902687223023 0.938 1.34449528965e-38
-0.00173593696735 -0.0902687223023 0.938 1.28896309267e-38
0.0 -0.0902687223023 0.938 1.22450042059e-38
0.00173963832549 -0.0904611929255 0.94 1.52835321518e-38
0.00347927665098 -0.0904611929255 0.94 1.28871127934e-38
0.00521891497647 -0.0904611929255 0.94 1.26123602035e-38
0.00694374786941 -0.0902687223023 0.938 1.47331721799e-38
0.00865192465071 -0.0899800163674 0.935 1.40881741149e-38
0.0103823095809 -0.0899800163674 0.935 1.46370571182e-38
0.0122163325389 -0.0907498988604 0.943 1.50980128468e-38
0.0139615229016 -0.0907498988604 0.943 1.53753228064e-38
0.0157067132643 -0.0907498988604 0.943 1.59288497128e-38
0.0173593696735 -0.0902687223023 0.938 1.75909270187e-38
0.018993519292 -0.0897875457442 0.933 7.63382561813e-39
0.020720202864 -0.0897875457442 0.933 2.34909961118e-38
0.022446886436 -0.0897875457442 0.933 9.0163803142e-39
-0.0380684684631 -0.0882496314373 0.935 1.85963866928e-38
-0.036338083533 -0.0882496314373 0.935 1.14905619283e-38
-0.0346076986028 -0.0882496314373 0.935 1.26015519884e-38
-0.0328773136727 -0.0882496314373 0.935 6.98595489133e-39
-0.0310803042961 -0.0880608621722 0.933 1.15131802868e-38
-0.0293536207241 -0.0880608621722 0.933 1.11407936277e-38
-0.027626937152 -0.0880608621722 0.933 1.1322680767e-38
-0.02590025358 -0.0880608621722 0.933 9.19755279135e-39
-0.024173570008 -0.0880608621722 0.933 1.56558949888e-38
-0.022446886436 -0.0880608621722 0.933 1.04939990981e-38
-0.0207646191617 -0.0882496314373 0.935 1.12308354618e-38
-0.0190342342316 -0.0882496314373 0.935 1.51931189735e-38
-0.0173038493014 -0.0882496314373 0.935 1.44583831562e-38
-0.0155734643713 -0.0882496314373 0.935 1.49157865932e-38
-0.0138430794411 -0.0882496314373 0.935 1.40856826063e-38
-0.012112694511 -0.0882496314373 0.935 1.34410292608e-38
-0.0103823095809 -0.0882496314373 0.935 1.40867545996e-38
-0.00865192465071 -0.0882496314373 0.935 1.34406789361e-38
-0.00692153972057 -0.0882496314373 0.935 1.46399213723e-38
-0.00519115479043 -0.0882496314373 0.935 1.39023563334e-38
-0.00346076986028 -0.0882496314373 0.935 1.23368284916e-38
-0.00173593696735 -0.0885327853349 0.938 1.35364674953e-38
0.0 -0.0885327853349 0.938 1.11397468577e-38
0.00173593696735 -0.0885327853349 0.938 1.38123537356e-38
0.0034718739347 -0.0885327853349 0.938 1.34439019226e-38
0.00520781090205 -0.0885327853349 0.938 1.35357318136e-38
0.00692153972057 -0.0882496314373 0.935 1.4362612814e-38
0.00863341786002 -0.0880608621722 0.933 1.42700472413e-38
0.0103267892088 -0.0877777082745 0.93 1.4822504957e-38
0.0120479207436 -0.0877777082745 0.93 1.51902280948e-38
0.0137690522784 -0.0877777082745 0.93 1.58355750831e-38
0.0154901838131 -0.0877777082745 0.93 1.62083260798e-38
0.0172113153479 -0.0877777082745 0.93 1.06726478367e-38
0.0188917319432 -0.0875889390094 0.928 2.24710470116e-38
0.0206091621199 -0.0875889390094 0.928 1.555299484e-38
0.0223265922965 -0.0875889390094 0.928 1.79344791593e-38
-0.0380684684631 -0.0865192465071 0.935 2.18283288593e-38
-0.0362603550121 -0.0863341786002 0.933 9.92469076839e-39
-0.0345336714401 -0.0863341786002 0.933 1.15712725159e-38
-0.0328069878681 -0.0863341786002 0.933 1.41677944924e-38
-0.0310803042961 -0.0863341786002 0.933 8.6400700194e-39
-0.0293536207241 -0.0863341786002 0.933 8.82842134858e-39
-0.027626937152 -0.0863341786002 0.933 1.06752010025e-38
-0.0258169730219 -0.0860565767397 0.93 1.25197988347e-38
-0.0240958414871 -0.0860565767397 0.93 1.10461162982e-38
-0.0223747099523 -0.0860565767397 0.93 1.28907127291e-38
-0.0206535784175 -0.0860565767397 0.93 1.32609343821e-38
-0.0189324468827 -0.0860565767397 0.93 1.2799572277e-38
-0.01726683572 -0.0863341786002 0.933 1.49143096246e-38
-0.015540152148 -0.0863341786002 0.933 1.43658203862e-38
-0.013813468576 -0.0863341786002 0.933 1.48253860266e-38
-0.012086785004 -0.0863341786002 0.933 1.34428075085e-38
-0.010360101432 -0.0863341786002 0.933 1.39948686567e-38
-0.00863341786002 -0.0863341786002 0.933 1.44523071261e-38
-0.00688452613918 -0.0860565767397 0.93 1.41789474269e-38
-0.00516339460438 -0.0860565767397 0.93 1.42715087956e-38
-0.00346076986028 -0.0865192465071 0.935 1.41803725474e-38
-0.00173038493014 -0.0865192465071 0.935 1.45487795189e-38
0.0 -0.0865192465071 0.935 1.39041401863e-38
0.00173593696735 -0.0867968483676 0.938 1.39045241421e-38
0.0034718739347 -0.0867968483676 0.938 1.32588016059e-38
0.00520781090205 -0.0867968483676 0.938 1.33502783696e-38
0.00692153972057 -0.0865192465071 0.935 1.38094418374e-38
0.00863341786002 -0.0863341786002 0.933 1.40838777339e-38
0.0103045810599 -0.0858715088327 0.928 1.58377302801e-38
0.0120220112366 -0.0858715088327 0.928 1.43654798707e-38
0.0137394414132 -0.0858715088327 0.928 1.33495090567e-38
0.0154568715899 -0.0858715088327 0.928 1.60102273185e-38
0.0171743017665 -0.0858715088327 0.928 2.3496762455e-38
0.0188917319432 -0.0858715088327 0.928 1.20581382531e-38
0.0205425376733 -0.0855939069723 0.925 1.97873292382e-38
0.0222544158128 -0.0855939069723 0.925 2.34964934057e-38
0.0240440224732 -0.0858715088327 0.928 1.23264042324e-38
-0.0380684684631 -0.084788861577 0.935 2.12751578827e-38
-0.0362603550121 -0.0846074950282 0.933 1.37046835668e-38
-0.0345336714401 -0.0846074950282 0.933 1.04713989565e-38
-0.0327014991611 -0.0843354452049 0.93 1.10202637429e-38
-0.0309803676263 -0.0843354452049 0.93 1.18467790044e-38
-0.0291019283706 -0.0838820288328 0.925 1.49897247053e-38
-0.0273900502311 -0.0838820288328 0.925 8.7397976285e-39
-0.0258169730219 -0.0843354452049 0.93 9.65565407492e-39
-0.0239662939522 -0.0838820288328 0.925 1.14138198179e-38
-0.0222544158128 -0.0838820288328 0.925 1.13255464224e-38
-0.0206091621199 -0.0841540786561 0.928 1.16017913952e-38
-0.0188917319432 -0.0841540786561 0.928 1.27059683422e-38
-0.0172113153479 -0.0843354452049 0.93 1.51934749034e-38
-0.0154901838131 -0.0843354452049 0.93 1.33527390497e-38
-0.0137394414132 -0.0841540786561 0.928 1.37161335766e-38
-0.0120220112366 -0.0841540786561 0.928 1.52848970165e-38
-0.0103045810599 -0.0841540786561 0.928 1.36286477108e-38
-0.00855939069723 -0.0838820288328 0.925 1.3443551598e-38
-0.00684751255778 -0.0838820288328 0.925 1.45480634554e-38
-0.00515229052996 -0.0841540786561 0.928 1.49157837906e-38
-0.00343486035331 -0.0841540786561 0.928 1.40853028544e-38
-0.00172113153479 -0.0843354452049 0.93 1.48203637729e-38
0.0 -0.0846074950282 0.933 1.50058172169e-38
0.001726683572 -0.0846074950282 0.933 1.44523071261e-38
0.00346076986028 -0.084788861577 0.935 1.4549174685e-38
0.00519115479043 -0.084788861577 0.935 1.40882021409e-38
0.00690673428801 -0.0846074950282 0.933 1.40874958865e-38
0.00863341786002 -0.0846074950282 0.933 1.39945533645e-38
0.0103045810599 -0.0841540786561 0.928 1.38018706218e-38
0.0120220112366 -0.0841540786561 0.928 1.7118016813e-38
0.0136950251156 -0.0838820288328 0.925 2.04536999073e-38
0.015406903255 -0.0838820288328 0.925 1.66646729377e-38
0.0171187813945 -0.0838820288328 0.925 1.62929084551e-38
0.0188306595339 -0.0838820288328 0.925 2.34946086593e-38
0.0205425376733 -0.0838820288328 0.925 2.21049227553e-38
0.0222544158128 -0.0838820288328 0.925 1.66688600175e-38
0.0239662939522 -0.0838820288328 0.925 1.16883369896e-38
0.0256781720917 -0.0838820288328 0.925 1.1312985183e-38
0.0273900502311 -0.0838820288328 0.925 1.87843526649e-38
-0.0416624872164 -0.0833249744329 0.938 2.21960225698e-38
-0.0397988533933 -0.0830584766468 0.935 2.33938412867e-38
-0.0380684684631 -0.0830584766468 0.935 2.18294050565e-38
-0.0361437622307 -0.0826143136701 0.93 8.26770578107e-39
-0.0344226306959 -0.0826143136701 0.93 1.54520495025e-38
-0.0327014991611 -0.0826143136701 0.93 9.36722060812e-39
-0.03081380651 -0.0821701506934 0.925 1.15712725159e-38
-0.0290390052822 -0.0819924855027 0.923 1.12957660274e-38
-0.0273308285009 -0.0819924855027 0.923 1.31375304342e-38
-0.0256781720917 -0.0821701506934 0.925 1.59141613023e-38
-0.0239144749383 -0.0819924855027 0.923 1.09499479872e-38
-0.022206298157 -0.0819924855027 0.923 9.29009314064e-39
-0.0205425376733 -0.0821701506934 0.925 1.02113291719e-38
-0.0188306595339 -0.0821701506934 0.925 1.06741290092e-38
-0.0171187813945 -0.0821701506934 0.925 1.22464545498e-38
-0.0154568715899 -0.0824366484794 0.928 1.33520538148e-38
-0.0136950251156 -0.0821701506934 0.925 1.36232583169e-38
-0.0119831469761 -0.0821701506934 0.925 1.53778241241e-38
-0.0102712688367 -0.0821701506934 0.925 1.61189933027e-38
-0.00854088390653 -0.0819924855027 0.923 1.47385881985e-38
-0.00683270712523 -0.0819924855027 0.923 1.43647610045e-38
-0.00512453034392 -0.0819924855027 0.923 1.41767796181e-38
-0.00343486035331 -0.0824366484794 0.928 1.3528545955e-38
-0.00172113153479 -0.0826143136701 0.93 1.55517981311e-38
0.0 -0.0828808114561 0.933 1.54610318256e-38
0.001726683572 -0.0828808114561 0.933 1.50915458544e-38
0.00346076986028 -0.0830584766468 0.935 1.51873540317e-38
0.00519115479043 -0.0830584766468 0.935 1.66685629422e-38
0.00686972070662 -0.0824366484794 0.928 1.77807328957e-38
0.00858715088327 -0.0824366484794 0.928 1.8797771499e-38
0.0102712688367 -0.0821701506934 0.925 1.81344178255e-38
0.0119831469761 -0.0821701506934 0.925 2.05248746589e-38
0.0136654142505 -0.0819924855027 0.923 2.34874508267e-38
0.0153735910318 -0.0819924855027 0.923 2.34946520995e-38
0.0170817678131 -0.0819924855027 0.923 2.17411919168e-38
0.0187899445944 -0.0819924855027 0.923 1.54743161351e-38
0.0204981213757 -0.0819924855027 0.923 1.16806859e-38
0.022206298157 -0.0819924855027 0.923 1.02102417643e-38
0.0239662939522 -0.0821701506934 0.925 1.50058018026e-38
0.0256781720917 -0.0821701506934 0.925 2.21063254551e-38
0.0273900502311 -0.0821701506934 0.925 1.2795703292e-38
0.0291019283706 -0.0821701506934 0.925 1.31324759506e-38
-0.0433984241838 -0.0815890374655 0.938 2.25640638024e-38
-0.0416624872164 -0.0815890374655 0.938 2.30239853726e-38
-0.0397988533933 -0.0813280917167 0.935 2.29314366156e-38
-0.0380684684631 -0.0813280917167 0.935 2.14606449578e-38
-0.0361437622307 -0.0808931821353 0.93 8.17802267935e-39
-0.0344226306959 -0.0808931821353 0.93 1.51632909344e-38
-0.0326311733564 -0.0807192183028 0.928 1.50934277982e-38
-0.03081380651 -0.0804582725539 0.925 8.99987862348e-39
-0.0289446206497 -0.0800233629726 0.92 1.16631080121e-38
-0.0272419959056 -0.0800233629726 0.92 1.23977919813e-38
-0.0255393711615 -0.0800233629726 0.92 1.18467790044e-38
-0.0237849274034 -0.07984939914 0.918 1.2765133966e-38
-0.0220860040175 -0.07984939914 0.918 1.50811314042e-38
-0.0204314969292 -0.0800233629726 0.92 1.55507443546e-38
-0.0187288721851 -0.0800233629726 0.92 1.3161554295e-38
-0.017026247441 -0.0800233629726 0.92 1.23336027026e-38
-0.0153236226969 -0.0800233629726 0.92 1.03964463042e-38
-0.0136654142505 -0.0802843087214 0.923 1.36250477751e-38
-0.0119183732087 -0.0800233629726 0.92 1.32559205362e-38
-0.0101935403157 -0.07984939914 0.918 1.36247198712e-38
-0.00849461692979 -0.07984939914 0.918 1.39038234929e-38
-0.00679569354383 -0.07984939914 0.918 1.43640575527e-38
-0.00509677015787 -0.07984939914 0.918 1.52841991698e-38
-0.00339784677192 -0.07984939914 0.918 1.51905588013e-38
-0.00168966999061 -0.0794144895587 0.913 1.70297896603e-38
0.0 -0.0794144895587 0.913 1.72127515956e-38
0.0016841179534 -0.0791535438098 0.91 1.77694776664e-38
0.00343486035331 -0.0807192183028 0.928 1.8785447079e-38
0.00515229052996 -0.0807192183028 0.928 2.03560322069e-38
0.00686972070662 -0.0807192183028 0.928 1.990152105e-38
0.00855939069723 -0.0804582725539 0.925 2.04593863765e-38
0.0102712688367 -0.0804582725539 0.925 2.27577877099e-38
0.0119572374691 -0.0802843087214 0.923 2.13672372048e-38
0.0136654142505 -0.0802843087214 0.923 1.59181297795e-38
0.0153735910318 -0.0802843087214 0.923 1.34244841298e-38
0.0170817678131 -0.0802843087214 0.923 1.34345286372e-38
0.0187899445944 -0.0802843087214 0.923 1.65702464407e-38
0.0204981213757 -0.0802843087214 0.923 1.33387933274e-38
0.022206298157 -0.0802843087214 0.923 1.90437358133e-38
0.0239662939522 -0.0804582725539 0.925 2.12748341827e-38
0.0256781720917 -0.0804582725539 0.925 2.14609952824e-38
0.0273900502311 -0.0804582725539 0.925 7.53051068496e-39
0.0291019283706 -0.0804582725539 0.925 1.66294232748e-38
0.03081380651 -0.0804582725539 0.925 2.20628333547e-38
-0.0434909581373 -0.0800233629726 0.94 2.2931809361e-38
-0.0417513198118 -0.0800233629726 0.94 2.34838915286e-38
-0.0399265502491 -0.0798531004982 0.938 2.2931433813e-38
-0.0380684684631 -0.0795977067866 0.935 2.17372150318e-38
-0.0360660337097 -0.0790017881261 0.928 8.63863508977e-39
-0.0343486035331 -0.0790017881261 0.928 1.59970060675e-38
-0.0325256846495 -0.0787463944145 0.925 1.40785107607e-38
-0.0307471820635 -0.0785761319401 0.923 1.24290661605e-38
-0.0289446206497 -0.0783207382285 0.92 9.18534327783e-39
-0.0272419959056 -0.0783207382285 0.92 1.21222854929e-38
-0.0255393711615 -0.0783207382285 0.92 1.23977919813e-38
-0.0237849274034 -0.0781504757541 0.918 1.29488049583e-38
-0.0220860040175 -0.0781504757541 0.918 1.29488049583e-38
-0.0203870806315 -0.0781504757541 0.918 1.30406404544e-38
-0.0186881572455 -0.0781504757541 0.918 1.35916534314e-38
-0.0169892338596 -0.0781504757541 0.918 1.52544369917e-38
-0.0152903104736 -0.0781504757541 0.918 1.76697388469e-38
-0.0135913870877 -0.0781504757541 0.918 1.73971610722e-38
-0.0118924637017 -0.0781504757541 0.918 1.6848301891e-38
-0.0101602280925 -0.0778950820425 0.915 1.74036448802e-38
-0.00846685674374 -0.0778950820425 0.915 1.6944821928e-38
-0.006773485395 -0.0778950820425 0.915 1.65771282174e-38
-0.00508011404625 -0.0778950820425 0.915 1.77746176292e-38
-0.00337933998122 -0.077724819568 0.913 1.61165228135e-38
-0.00168966999061 -0.077724819568 0.913 1.64831571424e-38
0.0 -0.077724819568 0.913 1.61107522664e-38
0.0016841179534 -0.0774694258564 0.91 1.53731549976e-38
0.0033682359068 -0.0774694258564 0.91 1.62901114634e-38
0.0050523538602 -0.0774694258564 0.91 1.65677899645e-38
0.00683270712523 -0.0785761319401 0.923 1.50951009486e-38
0.00854088390653 -0.0785761319401 0.923 1.4729914161e-38
0.0102490606878 -0.0785761319401 0.923 1.37136532783e-38
0.0119572374691 -0.0785761319401 0.923 1.65670893152e-38
0.0136209979528 -0.0783207382285 0.92 1.84084627597e-38
0.0153236226969 -0.0783207382285 0.92 1.69304165798e-38
0.0170817678131 -0.0785761319401 0.923 1.31400093311e-38
0.0187899445944 -0.0785761319401 0.923 1.43263374006e-38
0.0204981213757 -0.0785761319401 0.923 1.20304499967e-38
0.022206298157 -0.0785761319401 0.923 2.32009105142e-38
0.0239144749383 -0.0785761319401 0.923 2.21967624554e-38
0.0256226517196 -0.0785761319401 0.923 1.21474668263e-38
0.0273308285009 -0.0785761319401 0.923 1.2765133966e-38
0.0290390052822 -0.0785761319401 0.923 1.94766837894e-38
0.0307471820635 -0.0785761319401 0.923 2.20588802917e-38
0.0324553588448 -0.0785761319401 0.923 2.34896522666e-38
-0.0434909581373 -0.0782837246471 0.94 2.31158152636e-38
-0.0416624872164 -0.0781171635308 0.938 2.256121216e-38
-0.0397988533933 -0.0778673218564 0.935 2.34864068594e-38
-0.0379870385841 -0.0777007607401 0.933 2.08145342619e-38
-0.0360660337097 -0.0772843579495 0.928 7.34719842505e-39
-0.0343486035331 -0.0772843579495 0.928 1.60070379632e-38
-0.0325256846495 -0.0770345162751 0.925 7.25500419648e-39
-0.0307471820635 -0.0768679551588 0.923 7.98968816575e-39
-0.0289446206497 -0.0766181134844 0.92 1.03953897252e-38
-0.0272419959056 -0.0766181134844 0.92 1.15914512138e-38
-0.0254838507894 -0.0764515523681 0.918 1.13876015236e-38
-0.0237071988825 -0.0762017106937 0.915 1.30406404544e-38
-0.0220138275337 -0.0762017106937 0.915 1.32243114468e-38
-0.0203870806315 -0.0764515523681 0.918 1.38671599199e-38
-0.0186881572455 -0.0764515523681 0.918 1.42345019045e-38
-0.0169892338596 -0.0764515523681 0.918 1.42345019045e-38
-0.0152403421387 -0.0762017106937 0.915 1.37753244237e-38
-0.01354697079 -0.0762017106937 0.915 1.34079824391e-38
-0.0118535994412 -0.0762017106937 0.915 1.33161469429e-38
-0.0101380199437 -0.0760351495774 0.913 1.35916534314e-38
-0.00844834995305 -0.0760351495774 0.913 1.48791440396e-38
-0.00675867996244 -0.0760351495774 0.913 1.58990258775e-38
-0.00506900997183 -0.0760351495774 0.913 1.53555574915e-38
-0.0033682359068 -0.075785307903 0.91 1.62810842987e-38
-0.0016841179534 -0.075785307903 0.91 1.72963124244e-38
0.0 -0.075785307903 0.91 1.72952586479e-38
0.0016841179534 -0.075785307903 0.91 1.80328208842e-38
0.0033682359068 -0.075785307903 0.91 1.72023413493e-38
0.0050523538602 -0.075785307903 0.91 1.71997839797e-38
0.00679569354383 -0.0764515523681 0.918 1.52598095701e-38
0.00849461692979 -0.0764515523681 0.918 1.32243114468e-38
0.0101935403157 -0.0764515523681 0.918 1.41426664083e-38
0.0118924637017 -0.0764515523681 0.918 1.47855148814e-38
0.0135913870877 -0.0764515523681 0.918 1.51528568661e-38
0.0153236226969 -0.0766181134844 0.92 1.5703869843e-38
0.017026247441 -0.0766181134844 0.92 1.66222248046e-38
0.0187288721851 -0.0766181134844 0.92 1.33161469429e-38
0.0204314969292 -0.0766181134844 0.92 2.27387833001e-38
0.0221341216733 -0.0766181134844 0.92 2.0262474515e-38
0.0239144749383 -0.0768679551588 0.923 1.99873099433e-38
0.0256226517196 -0.0768679551588 0.923 9.55089160043e-39
0.0273308285009 -0.0768679551588 0.923 1.56120343469e-38
0.0290390052822 -0.0768679551588 0.923 1.99354927287e-38
0.0307471820635 -0.0768679551588 0.923 2.23379783081e-38
0.0324553588448 -0.0768679551588 0.923 2.34882215409e-38
-0.0434909581373 -0.0765440863216 0.94 2.29310680741e-38
-0.0416624872164 -0.0763812265635 0.938 2.26537735288e-38
-0.0397988533933 -0.0761369369263 0.935 2.34856781842e-38
-0.0379870385841 -0.0759740771681 0.933 2.02617262216e-38
-0.0360660337097 -0.0755669277728 0.928 1.04853895203e-38
-0.0343486035331 -0.0755669277728 0.928 1.40845994026e-38
-0.0325256846495 -0.0753226381356 0.925 8.63253663885e-39
-0.0307471820635 -0.0751597783775 0.923 1.23988681785e-38
-0.0289446206497 -0.0749154887403 0.92 7.16316870032e-39
-0.0272419959056 -0.0749154887403 0.92 6.89735078943e-39
-0.0254838507894 -0.0747526289822 0.918 1.61017951666e-38
-0.0237071988825 -0.074508339345 0.915 1.17700677225e-38
-0.0220138275337 -0.074508339345 0.915 1.16652604065e-38
-0.0203870806315 -0.0747526289822 0.918 1.41426664083e-38
-0.0186881572455 -0.0747526289822 0.918 1.41426664083e-38
-0.0169337134875 -0.074508339345 0.915 1.42345019045e-38
-0.0152403421387 -0.074508339345 0.915 1.46936793853e-38
-0.01354697079 -0.074508339345 0.915 1.47855148814e-38
-0.0118535994412 -0.074508339345 0.915 1.49691858738e-38
-0.0101380199437 -0.0743454795868 0.913 1.51528568661e-38
-0.00844834995305 -0.0743454795868 0.913 1.51528568661e-38
-0.0067364718136 -0.0741011899496 0.91 1.49691858738e-38
-0.0050523538602 -0.0741011899496 0.91 1.51528568661e-38
-0.0033682359068 -0.0741011899496 0.91 1.53365278584e-38
-0.0016841179534 -0.0741011899496 0.91 1.51528568661e-38
0.0 -0.0741011899496 0.91 1.50610213699e-38
0.0016841179534 -0.0741011899496 0.91 1.51528568661e-38
0.0033682359068 -0.0741011899496 0.91 1.54283633545e-38
0.00506900997183 -0.0743454795868 0.913 1.55201988507e-38
0.006773485395 -0.074508339345 0.915 1.57957053392e-38
0.00846685674374 -0.074508339345 0.915 1.625488282e-38
0.0101602280925 -0.074508339345 0.915 1.65303893084e-38
0.0118924637017 -0.0747526289822 0.918 1.66222248046e-38
0.0135913870877 -0.0747526289822 0.918 1.68058957969e-38
0.0152903104736 -0.0747526289822 0.918 1.68058957969e-38
0.0169892338596 -0.0747526289822 0.918 1.51528568661e-38
0.0187288721851 -0.0749154887403 0.92 2.34561976671e-38
0.0204314969292 -0.0749154887403 0.92 2.09074907968e-38
0.0221341216733 -0.0749154887403 0.92 2.12748285775e-38
0.0239144749383 -0.0751597783775 0.923 8.09228563411e-39
0.0256226517196 -0.0751597783775 0.923 1.29488049583e-38
0.0273308285009 -0.0751597783775 0.923 1.71732377815e-38
0.0291019283706 -0.0753226381356 0.925 1.77242507585e-38
0.03081380651 -0.0753226381356 0.925 2.34446845989e-38
0.0325256846495 -0.0753226381356 0.925 2.34864222737e-38
-0.0416624872164 -0.0746452895961 0.938 2.3208379435e-38
-0.0397988533933 -0.0744065519961 0.935 2.32984212691e-38
-0.0379870385841 -0.0742473935961 0.933 2.05375774295e-38
-0.0360660337097 -0.0738494975962 0.928 6.88909714148e-39
-0.0343486035331 -0.0738494975962 0.928 1.54672255649e-38
-0.0325256846495 -0.0736107599962 0.925 6.06114274643e-39
-0.0307471820635 -0.0734516015962 0.923 1.48009992295e-38
-0.0289446206497 -0.0732128639962 0.92 8.17335915806e-39
-0.0272419959056 -0.0732128639962 0.92 8.91485904306e-39
-0.0254838507894 -0.0730537055962 0.918 8.91055425417e-39
-0.0237071988825 -0.0728149679962 0.915 9.27717877399e-39
-0.0220138275337 -0.0728149679962 0.915 1.63001083266e-38
-0.0203870806315 -0.0730537055962 0.918 1.03777894164e-38
-0.0186270848362 -0.0728149679962 0.915 1.42345019045e-38
-0.0169337134875 -0.0728149679962 0.915 1.4510008393e-38
-0.0152403421387 -0.0728149679962 0.915 1.46018438891e-38
-0.01354697079 -0.0728149679962 0.915 1.48773503776e-38
-0.0118276899343 -0.0726558095962 0.913 1.51528568661e-38
-0.0101380199437 -0.0726558095962 0.913 1.52446923622e-38
-0.00844834995305 -0.0726558095962 0.913 1.54283633545e-38
-0.0067364718136 -0.0724170719962 0.91 1.54283633545e-38
-0.0050523538602 -0.0724170719962 0.91 1.5703869843e-38
-0.0033682359068 -0.0724170719962 0.91 1.59793763315e-38
-0.0016841179534 -0.0724170719962 0.91 1.60712118276e-38
0.0 -0.0724170719962 0.91 1.57957053392e-38
0.0016841179534 -0.0724170719962 0.91 1.60712118276e-38
0.0033682359068 -0.0724170719962 0.91 1.625488282e-38
0.00506900997183 -0.0726558095962 0.913 1.625488282e-38
0.00675867996244 -0.0726558095962 0.913 1.64385538123e-38
0.00846685674374 -0.0728149679962 0.915 1.64385538123e-38
0.0101602280925 -0.0728149679962 0.915 1.67140603008e-38
0.0118535994412 -0.0728149679962 0.915 1.68977312931e-38
0.01354697079 -0.0728149679962 0.915 1.68977312931e-38
0.0152903104736 -0.0730537055962 0.918 1.625488282e-38
0.0169892338596 -0.0730537055962 0.918 1.71822383216e-38
0.0187288721851 -0.0732128639962 0.92 2.21906766162e-38
0.0204314969292 -0.0732128639962 0.92 2.2656629375e-38
0.022206298157 -0.0734516015962 0.923 1.45449133364e-38
0.0239144749383 -0.0734516015962 0.923 1.21222854929e-38
0.0256781720917 -0.0736107599962 0.925 1.70817708269e-38
0.0273900502311 -0.0736107599962 0.925 1.82752637354e-38
0.0291019283706 -0.0736107599962 0.925 1.73569087739e-38
0.03081380651 -0.0736107599962 0.925 2.34382190078e-38
0.0325256846495 -0.0736107599962 0.925 2.34907326677e-38
-0.046220709765 -0.0718988818567 0.925 2.2747774031e-38
-0.0445088316256 -0.0718988818567 0.925 2.25630268415e-38
-0.0397988533933 -0.072676167066 0.935 2.32998912312e-38
-0.0380684684631 -0.072676167066 0.935 2.0445378997e-38
-0.0360660337097 -0.0721320674195 0.928 1.10378500386e-38
-0.0343486035331 -0.0721320674195 0.928 1.24258459766e-38
-0.0325256846495 -0.0718988818567 0.925 4.59500339956e-39
-0.0307471820635 -0.0717434248149 0.923 1.34352867396e-38
-0.0289446206497 -0.0715102392521 0.92 9.64272709659e-39
-0.0272419959056 -0.0715102392521 0.92 9.09171411964e-39
-0.0254838507894 -0.0713547822102 0.918 1.06529175543e-38
-0.0237849274034 -0.0713547822102 0.918 9.27538511196e-39
-0.0220860040175 -0.0713547822102 0.918 1.33431079254e-38
-0.0203870806315 -0.0713547822102 0.918 9.46658948482e-39
-0.0186270848362 -0.0711215966475 0.915 1.42345019045e-38
-0.0169337134875 -0.0711215966475 0.915 1.4510008393e-38
-0.0152403421387 -0.0711215966475 0.915 1.47855148814e-38
-0.01354697079 -0.0711215966475 0.915 1.46936793853e-38
-0.0118276899343 -0.0709661396056 0.913 1.49691858738e-38
-0.0101380199437 -0.0709661396056 0.913 1.51528568661e-38
-0.00844834995305 -0.0709661396056 0.913 1.54283633545e-38
-0.0067364718136 -0.0707329540428 0.91 1.55201988507e-38
-0.0050523538602 -0.0707329540428 0.91 1.57957053392e-38
-0.0033682359068 -0.0707329540428 0.91 1.60712118276e-38
-0.0016841179534 -0.0707329540428 0.91 1.60712118276e-38
0.0 -0.0707329540428 0.91 1.59793763315e-38
0.0016841179534 -0.0707329540428 0.91 1.60712118276e-38
0.0033682359068 -0.0707329540428 0.91 1.60712118276e-38
0.00506900997183 -0.0709661396056 0.913 1.63467183161e-38
0.00675867996244 -0.0709661396056 0.913 1.66222248046e-38
0.00846685674374 -0.0711215966475 0.915 1.69895667892e-38
0.0101602280925 -0.0711215966475 0.915 1.68058957969e-38
0.0118535994412 -0.0711215966475 0.915 1.69895667892e-38
0.01354697079 -0.0711215966475 0.915 1.68058957969e-38
0.0152903104736 -0.0713547822102 0.918 1.31324759506e-38
0.0169892338596 -0.0713547822102 0.918 2.31094015205e-38
0.0187899445944 -0.0717434248149 0.923 2.21035004374e-38
0.0204981213757 -0.0717434248149 0.923 2.0261375897e-38
0.022206298157 -0.0717434248149 0.923 7.25500419648e-39
0.0239662939522 -0.0718988818567 0.925 1.51539344646e-38
0.0256781720917 -0.0718988818567 0.925 1.72650732777e-38
0.0273900502311 -0.0718988818567 0.925 1.744874427e-38
0.0291019283706 -0.0718988818567 0.925 1.744874427e-38
0.03081380651 -0.0718988818567 0.925 2.34565269722e-38
0.0325256846495 -0.0718988818567 0.925 2.34882019227e-38
-0.0461207730953 -0.0700352480336 0.923 2.22871434037e-38
-0.044412596314 -0.0700352480336 0.923 2.21946002519e-38
-0.0427969534861 -0.0701870037173 0.925 2.32994932624e-38
-0.0415292383234 -0.0709457821358 0.935 2.28381493742e-38
-0.0397988533933 -0.0709457821358 0.935 2.29325156154e-38
-0.0379870385841 -0.0707940264521 0.933 1.93393845659e-38
-0.0361437622307 -0.0705663929266 0.93 1.09374498062e-38
-0.0344226306959 -0.0705663929266 0.93 1.51016702358e-38
-0.0325256846495 -0.0701870037173 0.925 1.56120343469e-39
-0.03081380651 -0.0701870037173 0.925 6.61933037151e-39
-0.0290390052822 -0.0700352480336 0.923 1.11120950351e-38
-0.0273308285009 -0.0700352480336 0.923 8.72437213501e-39
-0.0255393711615 -0.069807614508 0.92 8.81620763117e-39
-0.0237849274034 -0.0696558588243 0.918 6.97949770801e-39
-0.0220860040175 -0.0696558588243 0.918 1.38073188702e-38
-0.0203870806315 -0.0696558588243 0.918 9.46407835797e-39
-0.0186881572455 -0.0696558588243 0.918 1.4510008393e-38
-0.0169337134875 -0.0694282252987 0.915 1.46936793853e-38
-0.0152403421387 -0.0694282252987 0.915 1.47855148814e-38
-0.01354697079 -0.0694282252987 0.915 1.47855148814e-38
-0.0118276899343 -0.069276469615 0.913 1.47855148814e-38
-0.0101380199437 -0.069276469615 0.913 1.51528568661e-38
-0.00844834995305 -0.069276469615 0.913 1.49691858738e-38
-0.00675867996244 -0.069276469615 0.913 1.53365278584e-38
-0.0050523538602 -0.0690488360894 0.91 1.58875408353e-38
-0.0033682359068 -0.0690488360894 0.91 1.59793763315e-38
-0.0016841179534 -0.0690488360894 0.91 1.625488282e-38
0.0 -0.0690488360894 0.91 1.59793763315e-38
0.0016841179534 -0.0690488360894 0.91 1.61630473238e-38
0.0033682359068 -0.0690488360894 0.91 1.60712118276e-38
0.00506900997183 -0.069276469615 0.913 1.63467183161e-38
0.006773485395 -0.0694282252987 0.915 1.63467183161e-38
0.00846685674374 -0.0694282252987 0.915 1.67140603008e-38
0.0101602280925 -0.0694282252987 0.915 1.68058957969e-38
0.0118535994412 -0.0694282252987 0.915 1.67140603008e-38
0.0135913870877 -0.0696558588243 0.918 1.38671599199e-38
0.0152903104736 -0.0696558588243 0.918 2.21859598455e-38
0.0169892338596 -0.0696558588243 0.918 2.12766012201e-38
0.0187288721851 -0.069807614508 0.92 2.09063949814e-38
0.0204981213757 -0.0700352480336 0.923 6.89340193036e-39
0.022206298157 -0.0700352480336 0.923 1.12039305313e-38
0.0239662939522 -0.0701870037173 0.925 1.67140603008e-38
0.0256781720917 -0.0701870037173 0.925 1.81841457041e-38
0.0273900502311 -0.0701870037173 0.925 1.76324152623e-38
0.0291019283706 -0.0701870037173 0.925 1.97507329275e-38
0.03081380651 -0.0701870037173 0.925 2.34522361963e-38
0.0325256846495 -0.0701870037173 0.925 2.3490734069e-38
-0.0461207730953 -0.0683270712523 0.923 2.26559441401e-38
-0.044412596314 -0.0683270712523 0.923 2.22864399519e-38
-0.0427969534861 -0.0684751255778 0.925 2.28385221196e-38
-0.0415292383234 -0.0692153972057 0.935 2.24697424027e-38
-0.0397988533933 -0.0692153972057 0.935 2.34846075921e-38
-0.0379870385841 -0.0690673428801 0.933 1.9892947906e-38
-0.0362603550121 -0.0690673428801 0.933 1.26869303013e-38
-0.0344226306959 -0.0688452613918 0.93 1.41742965173e-38
-0.0326311733564 -0.0686972070662 0.928 1.23390159185e-38
-0.03081380651 -0.0684751255778 0.925 5.06099679608e-39
-0.0290390052822 -0.0683270712523 0.923 4.95911679253e-39
-0.0273308285009 -0.0683270712523 0.923 5.78563625795e-39
-0.0255393711615 -0.0681049897639 0.92 6.62614628724e-39
-0.0237849274034 -0.0679569354383 0.918 3.40437054117e-39
-0.0220860040175 -0.0679569354383 0.918 1.31705954727e-38
-0.0203870806315 -0.0679569354383 0.918 1.06575810756e-38
-0.0186881572455 -0.0679569354383 0.918 1.4510008393e-38
-0.0169337134875 -0.06773485395 0.915 1.46018438891e-38
-0.0152403421387 -0.06773485395 0.915 1.48773503776e-38
-0.01354697079 -0.06773485395 0.915 1.48773503776e-38
-0.0118535994412 -0.06773485395 0.915 1.49691858738e-38
-0.0101380199437 -0.0675867996244 0.913 1.49691858738e-38
-0.00844834995305 -0.0675867996244 0.913 1.51528568661e-38
-0.00675867996244 -0.0675867996244 0.913 1.53365278584e-38
-0.00506900997183 -0.0675867996244 0.913 1.61630473238e-38
-0.00337933998122 -0.0675867996244 0.913 1.59793763315e-38
-0.00168966999061 -0.0675867996244 0.913 1.625488282e-38
0.0 -0.0675867996244 0.913 1.57957053392e-38
0.00168966999061 -0.0675867996244 0.913 1.57957053392e-38
0.00337933998122 -0.0675867996244 0.913 1.60712118276e-38
0.00508011404625 -0.06773485395 0.915 1.625488282e-38
0.006773485395 -0.06773485395 0.915 1.64385538123e-38
0.00846685674374 -0.06773485395 0.915 1.68058957969e-38
0.0101602280925 -0.06773485395 0.915 1.68058957969e-38
0.0118535994412 -0.06773485395 0.915 1.47855148814e-38
0.0135913870877 -0.0679569354383 0.918 2.31771094597e-38
0.0152903104736 -0.0679569354383 0.918 2.08159944149e-38
0.017026247441 -0.0681049897639 0.92 2.25651904463e-38
0.0187288721851 -0.0681049897639 0.92 1.14106178509e-38
0.0204981213757 -0.0683270712523 0.923 1.06529175543e-38
0.022206298157 -0.0683270712523 0.923 1.80058739148e-38
0.0239662939522 -0.0684751255778 0.925 1.69895667892e-38
0.0256781720917 -0.0684751255778 0.925 1.75405797662e-38
0.0273900502311 -0.0684751255778 0.925 1.8091596947e-38
0.0291963130031 -0.0686972070662 0.928 1.96585358963e-38
0.0309137431798 -0.0686972070662 0.928 2.34562200879e-38
0.0326311733564 -0.0686972070662 0.928 2.34871341333e-38
-0.0461207730953 -0.0666188944709 0.923 2.21027549466e-38
-0.044412596314 -0.0666188944709 0.923 2.24704612688e-38
-0.0432596232536 -0.0674850122756 0.935 2.29307177495e-38
-0.0415292383234 -0.0674850122756 0.935 2.25626568987e-38
-0.0397988533933 -0.0674850122756 0.935 2.34885578525e-38
-0.0380684684631 -0.0674850122756 0.935 1.90628200971e-38
-0.0362603550121 -0.0673406593081 0.933 1.73972185255e-38
-0.0345336714401 -0.0673406593081 0.933 1.01241501905e-38
-0.0326311733564 -0.0669797768895 0.928 1.25227107329e-38
-0.03081380651 -0.0667632474384 0.925 9.48708767875e-39
-0.0290390052822 -0.0666188944709 0.923 9.95026866926e-39
-0.0273308285009 -0.0666188944709 0.923 6.9005765785e-39
-0.0255393711615 -0.0664023650198 0.92 4.69150241701e-39
-0.0237849274034 -0.0662580120524 0.918 1.1127879261e-39
-0.0220860040175 -0.0662580120524 0.918 1.40946985606e-38
-0.0203870806315 -0.0662580120524 0.918 1.09309351696e-38
-0.0186881572455 -0.0662580120524 0.918 1.42345019045e-38
-0.0169892338596 -0.0662580120524 0.918 1.4510008393e-38
-0.0152403421387 -0.0660414826012 0.915 1.47855148814e-38
-0.01354697079 -0.0660414826012 0.915 1.47855148814e-38
-0.0118535994412 -0.0660414826012 0.915 1.48773503776e-38
-0.0101602280925 -0.0660414826012 0.915 1.51528568661e-38
-0.00846685674374 -0.0660414826012 0.915 1.52446923622e-38
-0.006773485395 -0.0660414826012 0.915 1.54283633545e-38
-0.00508011404625 -0.0660414826012 0.915 1.60712118276e-38
-0.0033867426975 -0.0660414826012 0.915 1.625488282e-38
-0.00169337134875 -0.0660414826012 0.915 1.60712118276e-38
0.0 -0.0660414826012 0.915 1.59793763315e-38
0.00169337134875 -0.0660414826012 0.915 1.59793763315e-38
0.0033867426975 -0.0660414826012 0.915 1.59793763315e-38
0.00508011404625 -0.0660414826012 0.915 1.64385538123e-38
0.006773485395 -0.0660414826012 0.915 1.64385538123e-38
0.00846685674374 -0.0660414826012 0.915 1.67140603008e-38
0.0101602280925 -0.0660414826012 0.915 1.5703869843e-38
0.0118535994412 -0.0660414826012 0.915 1.87524436976e-38
0.0135913870877 -0.0662580120524 0.918 2.21943073805e-38
0.0152903104736 -0.0662580120524 0.918 2.14602343773e-38
0.017026247441 -0.0664023650198 0.92 1.57423705183e-38
0.0187899445944 -0.0666188944709 0.923 9.36722060812e-39
0.0204981213757 -0.0666188944709 0.923 1.59815329298e-38
0.0222544158128 -0.0667632474384 0.925 1.66222248046e-38
0.0240440224732 -0.0669797768895 0.928 1.70814022854e-38
0.0257614526498 -0.0669797768895 0.928 1.95624166308e-38
0.0274788828265 -0.0669797768895 0.928 1.73569087739e-38
0.0291963130031 -0.0669797768895 0.928 2.02145809361e-38
0.0309137431798 -0.0669797768895 0.928 2.34598004054e-38
-0.0397988533933 -0.0657546273454 0.935 2.34867599866e-38
-0.0380684684631 -0.0657546273454 0.935 1.93386783115e-38
-0.0362603550121 -0.0656139757361 0.933 1.74879483972e-38
-0.0345336714401 -0.0656139757361 0.933 3.58445420942e-39
-0.0327014991611 -0.0654029983222 0.93 1.08685970062e-38
-0.0309137431798 -0.0652623467129 0.928 8.01085337775e-39
-0.0291019283706 -0.0650513692989 0.925 1.17901679477e-38
-0.0273900502311 -0.0650513692989 0.925 1.60275894065e-38
-0.0256226517196 -0.0649107176896 0.923 6.06544753531e-39
-0.0238367464174 -0.0646997402757 0.92 0.0
-0.0221341216733 -0.0646997402757 0.92 1.41815272173e-38
-0.0204314969292 -0.0646997402757 0.92 1.08380234763e-38
-0.0186881572455 -0.0645590886664 0.918 1.4510008393e-38
-0.0169892338596 -0.0645590886664 0.918 1.46018438891e-38
-0.0152403421387 -0.0643481112525 0.915 1.48773503776e-38
-0.01354697079 -0.0643481112525 0.915 1.49691858738e-38
-0.0118535994412 -0.0643481112525 0.915 1.52446923622e-38
-0.0101935403157 -0.0645590886664 0.918 1.51528568661e-38
-0.00846685674374 -0.0643481112525 0.915 1.52446923622e-38
-0.006773485395 -0.0643481112525 0.915 1.53365278584e-38
-0.00508011404625 -0.0643481112525 0.915 1.60712118276e-38
-0.0033867426975 -0.0643481112525 0.915 1.57957053392e-38
-0.00169337134875 -0.0643481112525 0.915 1.57957053392e-38
0.0 -0.0643481112525 0.915 1.57957053392e-38
0.00169337134875 -0.0643481112525 0.915 1.60712118276e-38
0.0033867426975 -0.0643481112525 0.915 1.60712118276e-38
0.00508011404625 -0.0643481112525 0.915 1.64385538123e-38
0.006773485395 -0.0643481112525 0.915 1.65303893084e-38
0.00846685674374 -0.0643481112525 0.915 1.59793763315e-38
0.0101602280925 -0.0643481112525 0.915 1.32243114468e-38
0.0118535994412 -0.0643481112525 0.915 2.34764057922e-38
0.0136209979528 -0.0646997402757 0.92 2.14617015368e-38
0.0153236226969 -0.0646997402757 0.92 1.84203373629e-38
0.017026247441 -0.0646997402757 0.92 7.53051068496e-39
0.0187899445944 -0.0649107176896 0.923 1.31324759506e-38
0.0205425376733 -0.0650513692989 0.925 1.68058957969e-38
0.0223265922965 -0.0652623467129 0.928 1.76324152623e-38
0.0240440224732 -0.0652623467129 0.928 1.77242507585e-38
0.0257614526498 -0.0652623467129 0.928 1.76324152623e-38
0.0274788828265 -0.0652623467129 0.928 1.96556814513e-38
0.0291963130031 -0.0652623467129 0.928 1.92901233197e-38
0.0309137431798 -0.0652623467129 0.928 2.34662828121e-38
-0.0397988533933 -0.0640242424153 0.935 2.3115464939e-38
-0.0380684684631 -0.0640242424153 0.935 1.99837001985e-38
-0.036338083533 -0.0640242424153 0.935 1.10238496656e-38
-0.0345336714401 -0.0638872921641 0.933 1.36203590304e-38
-0.0327014991611 -0.0636818667874 0.93 4.68935002257e-39
-0.0309803676263 -0.0636818667874 0.93 7.26868927728e-39
-0.0291019283706 -0.0633394911595 0.925 1.05934366384e-38
-0.0273900502311 -0.0633394911595 0.925 1.41836347702e-38
-0.0256226517196 -0.0632025409083 0.923 1.58323703135e-38
-0.0239144749383 -0.0632025409083 0.923 8.73948513895e-39
-0.022206298157 -0.0632025409083 0.923 1.55565513355e-38
-0.0204314969292 -0.0629971155316 0.92 1.04706913007e-38
-0.0187288721851 -0.0629971155316 0.92 1.4510008393e-38
-0.0169892338596 -0.0628601652804 0.918 1.4510008393e-38
-0.0152903104736 -0.0628601652804 0.918 1.49691858738e-38
-0.0135913870877 -0.0628601652804 0.918 1.51528568661e-38
-0.0118924637017 -0.0628601652804 0.918 1.51528568661e-38
-0.0101935403157 -0.0628601652804 0.918 1.48773503776e-38
-0.00849461692979 -0.0628601652804 0.918 1.51528568661e-38
-0.00679569354383 -0.0628601652804 0.918 1.52446923622e-38
-0.00508011404625 -0.0626547399037 0.915 1.56120343469e-38
-0.0033867426975 -0.0626547399037 0.915 1.55201988507e-38
-0.00169337134875 -0.0626547399037 0.915 1.58875408353e-38
0.0 -0.0626547399037 0.915 1.58875408353e-38
0.00169337134875 -0.0626547399037 0.915 1.58875408353e-38
0.0033867426975 -0.0626547399037 0.915 1.64385538123e-38
0.00508011404625 -0.0626547399037 0.915 1.65303893084e-38
0.006773485395 -0.0626547399037 0.915 1.63467183161e-38
0.00846685674374 -0.0626547399037 0.915 1.30406404544e-38
0.0101935403157 -0.0628601652804 0.918 2.30168401518e-38
0.0118924637017 -0.0628601652804 0.918 2.12744544308e-38
0.0136209979528 -0.0629971155316 0.92 2.0078429376e-38
0.0153236226969 -0.0629971155316 0.92 5.41829427332e-39
0.0170817678131 -0.0632025409083 0.923 1.25814629736e-38
0.0188306595339 -0.0633394911595 0.925 1.63467183161e-38
0.0205425376733 -0.0633394911595 0.925 1.70814022854e-38
0.0223265922965 -0.0635449165362 0.928 1.70814022854e-38
0.0240958414871 -0.0636818667874 0.93 1.79079217508e-38
0.0258169730219 -0.0636818667874 0.93 1.87344440188e-38
0.0275381045567 -0.0636818667874 0.93 1.77242535611e-38
0.0292592360915 -0.0636818667874 0.93 2.01184392497e-38
0.0309803676263 -0.0636818667874 0.93 2.34735093083e-38
-0.0381906132817 -0.0624937308247 0.938 1.97082021178e-38
-0.036338083533 -0.0622938574851 0.935 9.92253837395e-39
-0.0346076986028 -0.0622938574851 0.935 1.25814629736e-38
-0.0328069878681 -0.0621606085921 0.933 1.5921714301e-38
-0.0309803676263 -0.0619607352526 0.93 6.26023923224e-39
-0.0291963130031 -0.0618274863596 0.928 2.20405190779e-39
-0.0273900502311 -0.06162761302 0.925 1.08660410378e-38
-0.0256226517196 -0.061494364127 0.923 1.51034624965e-38
-0.0239144749383 -0.061494364127 0.923 1.48254308682e-38
-0.022206298157 -0.061494364127 0.923 1.62014316913e-38
-0.0204981213757 -0.061494364127 0.923 1.13876015236e-38
-0.0187899445944 -0.061494364127 0.923 1.4510008393e-38
-0.017026247441 -0.0612944907875 0.92 1.48773503776e-38
-0.0152903104736 -0.0611612418945 0.918 1.51528568661e-38
-0.0135913870877 -0.0611612418945 0.918 1.52446923622e-38
-0.0118924637017 -0.0611612418945 0.918 1.54283633545e-38
-0.0101935403157 -0.0611612418945 0.918 1.55201988507e-38
-0.00849461692979 -0.0611612418945 0.918 1.53365278584e-38
-0.00679569354383 -0.0611612418945 0.918 1.57957053392e-38
-0.00509677015787 -0.0611612418945 0.918 1.55201988507e-38
-0.00339784677192 -0.0611612418945 0.918 1.56120343469e-38
-0.00169892338596 -0.0611612418945 0.918 1.52446923622e-38
0.0 -0.060961368555 0.915 1.63538929643e-38
0.00169337134875 -0.060961368555 0.915 1.51528568661e-38
0.0033867426975 -0.060961368555 0.915 1.63467183161e-38
0.00508011404625 -0.060961368555 0.915 1.65303893084e-38
0.00679569354383 -0.0611612418945 0.918 1.2765133966e-38
0.00849461692979 -0.0611612418945 0.918 2.23714259012e-38
0.0101935403157 -0.0611612418945 0.918 2.11840580682e-38
0.0118924637017 -0.0611612418945 0.918 2.10915065085e-38
0.0136209979528 -0.0612944907875 0.92 5.60196526564e-39
0.0153735910318 -0.061494364127 0.923 1.13876015236e-38
0.0171187813945 -0.06162761302 0.925 1.65303893084e-38
0.0188306595339 -0.06162761302 0.925 1.68058957969e-38
0.0206091621199 -0.0618274863596 0.928 1.73569087739e-38
0.0223747099523 -0.0619607352526 0.93 1.744874427e-38
0.024173570008 -0.0621606085921 0.933 1.66222248046e-38
0.0259557739521 -0.0622938574851 0.935 1.69895667892e-38
0.0276861588823 -0.0622938574851 0.935 1.72650732777e-38
0.0294165438124 -0.0622938574851 0.935 2.19602260772e-38
0.0311469287426 -0.0622938574851 0.935 2.34716946268e-38
0.0328773136727 -0.0622938574851 0.935 2.34911040118e-38
-0.0381906132817 -0.0607577938573 0.938 2.02613730944e-38
-0.036338083533 -0.060563472555 0.935 9.46407835797e-39
-0.0346076986028 -0.060563472555 0.935 1.35948904308e-38
-0.0328069878681 -0.0604339250201 0.933 1.27651451763e-38
-0.0310803042961 -0.0604339250201 0.933 1.55496303223e-38
-0.0291963130031 -0.0601100561829 0.928 1.25158864094e-38
-0.0273900502311 -0.0599157348806 0.925 6.80408036365e-39
-0.0256781720917 -0.0599157348806 0.925 0.0
-0.0239144749383 -0.0597861873457 0.923 7.26757244241e-39
-0.022206298157 -0.0597861873457 0.923 1.73078563211e-38
-0.0205425376733 -0.0599157348806 0.925 1.19386145005e-38
-0.0187899445944 -0.0597861873457 0.923 1.43263374006e-38
-0.0170817678131 -0.0597861873457 0.923 1.48773503776e-38
-0.0153236226969 -0.0595918660434 0.92 1.52446923622e-38
-0.0136209979528 -0.0595918660434 0.92 1.51528568661e-38
-0.0119183732087 -0.0595918660434 0.92 1.48773503776e-38
-0.0102157484646 -0.0595918660434 0.92 1.51528568661e-38
-0.00851312372049 -0.0595918660434 0.92 1.55201988507e-38
-0.00681049897639 -0.0595918660434 0.92 1.53365278584e-38
-0.00510787423229 -0.0595918660434 0.92 1.53365278584e-38
-0.00339784677192 -0.0594623185085 0.918 1.51528568661e-38
-0.00169892338596 -0.0594623185085 0.918 1.65321843718e-38
0.0 -0.0594623185085 0.918 1.42441876795e-38
0.00169892338596 -0.0594623185085 0.918 1.44199665588e-38
0.00339784677192 -0.0594623185085 0.918 1.625488282e-38
0.00509677015787 -0.0594623185085 0.918 1.26732984698e-38
0.00679569354383 -0.0594623185085 0.918 2.17292654656e-38
0.00849461692979 -0.0594623185085 0.918 2.07245260589e-38
0.0101935403157 -0.0594623185085 0.918 2.09985878087e-38
0.0119183732087 -0.0595918660434 0.92 7.26325504184e-39
0.0136654142505 -0.0597861873457 0.923 9.91823358506e-39
0.015406903255 -0.0599157348806 0.925 1.67154994343e-38
0.0171187813945 -0.0599157348806 0.925 1.68977312931e-38
0.0188917319432 -0.0601100561829 0.928 1.76324152623e-38
0.0206091621199 -0.0601100561829 0.928 1.64385538123e-38
