# .PCD v0.7 - Point Cloud Data file format
VERSION 0.7
FIELDS x y z rgb
SIZE 4 4 4 4
TYPE F F F F
COUNT 1 1 1 1
WIDTH 855
HEIGHT 1
VIEWPOINT 0 0 0 1 0 0 0
POINTS 855
DATA ascii
0.0408629938583 -0.035755119626 0.92 2.35072105364e-38
0.0425656186024 -0.035755119626 0.92 2.35089985932e-38
0.0442682433465 -0.035755119626 0.92 2.35086538738e-38
0.0459708680906 -0.035755119626 0.92 2.35097637022e-38
0.0476734928347 -0.035755119626 0.92 2.35097833204e-38
0.0493761175788 -0.035755119626 0.92 1.15242785706e-38
0.0509677015787 -0.0356773911051 0.918 2.11621375563e-38
0.0526666249647 -0.0356773911051 0.918 2.35098477801e-38
0.0543655483507 -0.0356773911051 0.918 1.1020259539e-39
0.0560644717366 -0.0356773911051 0.918 2.35098856151e-38
0.0577633951226 -0.0356773911051 0.918 1.61345855507e-38
0.0594623185085 -0.0356773911051 0.918 2.08884317364e-38
0.060961368555 -0.0355607983237 0.915 2.3509823958e-38
0.0626547399037 -0.0355607983237 0.915 1.37198049785e-38
0.0643481112525 -0.0355607983237 0.915 2.35098309645e-38
-0.0102712688367 -0.0342375627889 0.925 2.34950430618e-38
-0.00855939069723 -0.0342375627889 0.925 2.35033163279e-38
-0.00683270712523 -0.0341635356261 0.923 1.11372063036e-38
-0.00512453034392 -0.0341635356261 0.923 2.34929102856e-38
-0.00341635356261 -0.0341635356261 0.923 2.34913029962e-38
-0.00170817678131 -0.0341635356261 0.923 2.3503302315e-38
0.0 -0.0341635356261 0.923 1.13223122255e-38
0.00171187813945 -0.0342375627889 0.925 2.35092564321e-38
0.00342375627889 -0.0342375627889 0.925 2.34916337026e-38
0.00513563441834 -0.0342375627889 0.925 2.34988896261e-38
0.00684751255778 -0.0342375627889 0.925 2.100531264e-38
0.00855939069723 -0.0342375627889 0.925 2.35097875243e-38
0.0102712688367 -0.0342375627889 0.925 2.35098085437e-38
0.0119572374691 -0.0341635356261 0.923 2.35097945307e-38
0.0136654142505 -0.0341635356261 0.923 2.35097791165e-38
0.0153236226969 -0.0340524948819 0.92 2.35098127476e-38
0.017026247441 -0.0340524948819 0.92 2.35098309645e-38
0.0187288721851 -0.0340524948819 0.92 2.3509786123e-38
0.0204314969292 -0.0340524948819 0.92 2.350977211e-38
0.0220860040175 -0.0339784677192 0.918 2.35079770466e-38
0.0237849274034 -0.0339784677192 0.918 2.34986023599e-38
0.0254838507894 -0.0339784677192 0.918 2.34935142452e-38
0.0272419959056 -0.0340524948819 0.92 2.35006790842e-38
0.0289446206497 -0.0340524948819 0.92 2.3504358894e-38
0.0306472453938 -0.0340524948819 0.92 2.34888703421e-38
0.0322795443332 -0.0339784677192 0.918 2.34928878648e-38
0.0339784677192 -0.0339784677192 0.918 2.35061021093e-38
0.0356773911051 -0.0339784677192 0.918 2.35097286697e-38
0.0373763144911 -0.0339784677192 0.918 2.35097286697e-38
0.039075237877 -0.0339784677192 0.918 2.35068504027e-38
0.040774161263 -0.0339784677192 0.918 2.3508297944e-38
0.042473084649 -0.0339784677192 0.918 2.35097272684e-38
0.0441720080349 -0.0339784677192 0.918 2.3509758097e-38
0.0458709314209 -0.0339784677192 0.918 2.35097693074e-38
0.0475698548068 -0.0339784677192 0.918 2.35097819191e-38
0.0492687781928 -0.0339784677192 0.918 3.85924323308e-39
0.0509677015787 -0.0339784677192 0.918 2.35098575892e-38
0.0524945118112 -0.033867426975 0.915 2.35097917282e-38
0.05418788316 -0.033867426975 0.915 1.37104891464e-38
0.0558812545087 -0.033867426975 0.915 2.35098856151e-38
0.0577633951226 -0.0339784677192 0.918 5.5317377918e-40
0.0594623185085 -0.0339784677192 0.918 2.35023031892e-38
0.060961368555 -0.033867426975 0.915 2.35098575892e-38
0.0626547399037 -0.033867426975 0.915 2.18981275358e-38
-0.0102157484646 -0.0323498701378 0.92 2.34965102213e-38
-0.00851312372049 -0.0323498701378 0.92 2.3497565399e-38
-0.00681049897639 -0.0323498701378 0.92 2.0729155949e-38
-0.00510787423229 -0.0323498701378 0.92 2.34863255841e-38
-0.00340524948819 -0.0323498701378 0.92 1.73099148286e-38
-0.0017026247441 -0.0323498701378 0.92 2.35018407607e-38
0.0 -0.0323498701378 0.92 1.84144519093e-38
0.0017026247441 -0.0323498701378 0.92 2.34999462051e-38
0.00340524948819 -0.0323498701378 0.92 1.99821503624e-38
0.00510787423229 -0.0323498701378 0.92 2.34834220936e-38
0.00681049897639 -0.0323498701378 0.92 2.34860383179e-38
0.00851312372049 -0.0323498701378 0.92 2.34963967161e-38
0.0102157484646 -0.0323498701378 0.92 2.35097805178e-38
0.0118924637017 -0.0322795443332 0.918 2.35097903269e-38
0.0135913870877 -0.0322795443332 0.918 2.3509786123e-38
0.0152903104736 -0.0322795443332 0.918 2.35097805178e-38
0.0169892338596 -0.0322795443332 0.918 2.35097777152e-38
0.0186881572455 -0.0322795443332 0.918 2.35097847217e-38
0.0204314969292 -0.0323498701378 0.92 2.35097875243e-38
0.0220860040175 -0.0322795443332 0.918 2.35010658426e-38
0.0237849274034 -0.0322795443332 0.918 2.35093615295e-38
0.0254838507894 -0.0322795443332 0.918 2.35070788143e-38
0.0271827741753 -0.0322795443332 0.918 2.35097412814e-38
0.0288816975613 -0.0322795443332 0.918 2.35097076502e-38
0.0305806209472 -0.0322795443332 0.918 2.34945638177e-38
0.0322795443332 -0.0322795443332 0.918 2.34859906737e-38
0.0339784677192 -0.0322795443332 0.918 2.350977211e-38
0.0356773911051 -0.0322795443332 0.918 2.35075510519e-38
0.0373763144911 -0.0322795443332 0.918 2.35093573256e-38
0.039075237877 -0.0322795443332 0.918 2.35057573899e-38
0.040774161263 -0.0322795443332 0.918 2.35075692688e-38
0.042473084649 -0.0322795443332 0.918 2.35075664662e-38
0.0441720080349 -0.0322795443332 0.918 2.35097230645e-38
0.0458709314209 -0.0322795443332 0.918 2.35098057411e-38
0.0475698548068 -0.0322795443332 0.918 1.48433212457e-38
0.0492687781928 -0.0322795443332 0.918 1.28756936122e-38
0.0508011404625 -0.0321740556262 0.915 2.35098309645e-38
0.0524945118112 -0.0321740556262 0.915 3.2178296896e-39
0.05418788316 -0.0321740556262 0.915 2.35069484936e-38
0.0558812545087 -0.0321740556262 0.915 2.35098856151e-38
0.0575746258575 -0.0321740556262 0.915 5.14816877095e-39
0.0592679972062 -0.0321740556262 0.915 2.35098814113e-38
0.060961368555 -0.0321740556262 0.915 1.69639510533e-38
0.0626547399037 -0.0321740556262 0.915 2.34766201909e-38
-0.0102157484646 -0.0306472453938 0.92 2.34957619279e-38
-0.00849461692979 -0.0305806209472 0.918 2.3497917125e-38
-0.00679569354383 -0.0305806209472 0.918 2.34982842652e-38
-0.00509677015787 -0.0305806209472 0.918 1.08416108003e-38
-0.00339784677192 -0.0305806209472 0.918 2.29303253859e-38
-0.00169892338596 -0.0305806209472 0.918 2.35013531088e-38
0.0 -0.0306472453938 0.92 2.25572268672e-38
0.0017026247441 -0.0306472453938 0.92 1.50951009486e-38
0.00340524948819 -0.0306472453938 0.92 2.34882005214e-38
0.00510787423229 -0.0306472453938 0.92 2.34920961311e-38
0.00679569354383 -0.0305806209472 0.918 2.35032056254e-38
0.00849461692979 -0.0305806209472 0.918 1.74903572292e-38
0.0101935403157 -0.0305806209472 0.918 2.35097833204e-38
0.0118924637017 -0.0305806209472 0.918 2.35098085437e-38
0.0135913870877 -0.0305806209472 0.918 2.35097917282e-38
0.0152903104736 -0.0305806209472 0.918 2.35097665048e-38
0.0169892338596 -0.0305806209472 0.918 2.35097693074e-38
0.0186881572455 -0.0305806209472 0.918 2.35097763139e-38
0.0203870806315 -0.0305806209472 0.918 2.35097552944e-38
0.0220860040175 -0.0305806209472 0.918 2.35075818805e-38
0.0237849274034 -0.0305806209472 0.918 2.35049460381e-38
0.0254838507894 -0.0305806209472 0.918 2.35097875243e-38
0.0271827741753 -0.0305806209472 0.918 2.35097272684e-38
0.0288816975613 -0.0305806209472 0.918 2.35097076502e-38
0.0305806209472 -0.0305806209472 0.918 2.25770089976e-38
0.0322795443332 -0.0305806209472 0.918 2.35097062489e-38
0.0339784677192 -0.0305806209472 0.918 2.35086398608e-38
0.0356773911051 -0.0305806209472 0.918 2.3506837791e-38
0.0372541696725 -0.0304806842775 0.915 2.35064790586e-38
0.0389475410212 -0.0304806842775 0.915 2.35082306817e-38
0.04064091237 -0.0304806842775 0.915 2.3507908383e-38
0.0423342837187 -0.0304806842775 0.915 2.35097398801e-38
0.0440276550675 -0.0304806842775 0.915 2.35097482879e-38
0.0457210264162 -0.0304806842775 0.915 2.35097931294e-38
0.047414397765 -0.0304806842775 0.915 3.123841799e-39
0.0491077691137 -0.0304806842775 0.915 2.35098351684e-38
0.0508011404625 -0.0304806842775 0.915 2.35098561879e-38
0.0524945118112 -0.0304806842775 0.915 1.536245188e-38
0.05418788316 -0.0304806842775 0.915 2.35098856151e-38
0.0558812545087 -0.0304806842775 0.915 1.38293444795e-38
0.0575746258575 -0.0304806842775 0.915 2.35075958935e-38
0.0592679972062 -0.0304806842775 0.915 2.35098856151e-38
0.060961368555 -0.0304806842775 0.915 1.6580680509e-38
0.0626547399037 -0.0304806842775 0.915 2.34856011128e-38
-0.00849461692979 -0.0288816975613 0.918 2.34954031955e-38
-0.00679569354383 -0.0288816975613 0.918 2.35015408828e-38
-0.00509677015787 -0.0288816975613 0.918 1.42563901865e-38
-0.00339784677192 -0.0288816975613 0.918 2.34877408955e-38
-0.00169892338596 -0.0288816975613 0.918 2.20039676088e-38
0.0 -0.0288816975613 0.918 2.34856389478e-38
0.00169892338596 -0.0288816975613 0.918 1.82232881741e-38
0.00339784677192 -0.0288816975613 0.918 2.34927617479e-38
0.00509677015787 -0.0288816975613 0.918 1.9982153165e-38
0.00679569354383 -0.0288816975613 0.918 2.34910353482e-38
0.00849461692979 -0.0288816975613 0.918 2.34985308937e-38
0.0101935403157 -0.0288816975613 0.918 1.9696202799e-38
0.0118924637017 -0.0288816975613 0.918 2.3509730071e-38
0.0135913870877 -0.0288816975613 0.918 2.35097945307e-38
0.0152903104736 -0.0288816975613 0.918 2.35097566957e-38
0.0169892338596 -0.0288816975613 0.918 2.3509744084e-38
0.0186881572455 -0.0288816975613 0.918 2.35097637022e-38
0.0203870806315 -0.0288816975613 0.918 2.35097412814e-38
0.0220138275337 -0.0287873129287 0.915 2.35097230645e-38
0.0237071988825 -0.0287873129287 0.915 2.35097454853e-38
0.0254838507894 -0.0288816975613 0.918 2.35097272684e-38
0.0271827741753 -0.0288816975613 0.918 2.35097188606e-38
0.0287873129287 -0.0287873129287 0.915 2.35082881349e-38
0.0304806842775 -0.0287873129287 0.915 2.35086510712e-38
0.0321740556262 -0.0287873129287 0.915 2.35086510712e-38
0.033867426975 -0.0287873129287 0.915 2.35097118541e-38
0.0355607983237 -0.0287873129287 0.915 2.35097076502e-38
0.0372541696725 -0.0287873129287 0.915 2.35090168101e-38
0.0389475410212 -0.0287873129287 0.915 2.35043504862e-38
0.04064091237 -0.0287873129287 0.915 2.35097608996e-38
0.0423342837187 -0.0287873129287 0.915 2.35097566957e-38
0.0440276550675 -0.0287873129287 0.915 2.35097707087e-38
0.0457210264162 -0.0287873129287 0.915 5.23821060507e-39
0.047414397765 -0.0287873129287 0.915 2.34839475806e-38
0.0491077691137 -0.0287873129287 0.915 2.35098716022e-38
0.0506900997183 -0.0287243898404 0.913 2.75578234955e-39
0.0523797697089 -0.0287243898404 0.913 2.35097833204e-38
0.0540694396995 -0.0287243898404 0.913 2.35098856151e-38
0.0557591096901 -0.0287243898404 0.913 3.21962335163e-39
0.0574487796807 -0.0287243898404 0.913 2.35098856151e-38
0.0592679972062 -0.0287873129287 0.915 2.35098856151e-38
0.060961368555 -0.0287873129287 0.915 1.80406695569e-38
-0.00679569354383 -0.0271827741753 0.918 2.35022527424e-38
-0.00509677015787 -0.0271827741753 0.918 1.95151592413e-38
-0.00339784677192 -0.0271827741753 0.918 1.40641152216e-38
-0.00169892338596 -0.0271827741753 0.918 2.03481989485e-38
0.0 -0.0271827741753 0.918 2.34895793991e-38
0.00169892338596 -0.0271827741753 0.918 2.11732358402e-38
0.0033867426975 -0.02709394158 0.915 1.37921848468e-38
0.00508011404625 -0.02709394158 0.915 2.34954073994e-38
0.006773485395 -0.02709394158 0.915 2.17277716815e-38
0.00846685674374 -0.02709394158 0.915 2.34939864828e-38
0.0101602280925 -0.02709394158 0.915 2.28395590805e-38
0.0118535994412 -0.02709394158 0.915 1.99699156255e-38
0.01354697079 -0.02709394158 0.915 2.35097665048e-38
0.0152403421387 -0.02709394158 0.915 2.35097763139e-38
0.0169337134875 -0.02709394158 0.915 2.35097328736e-38
0.0186270848362 -0.02709394158 0.915 2.35097679061e-38
0.020320456185 -0.02709394158 0.915 2.35097524918e-38
0.0220138275337 -0.02709394158 0.915 2.35097454853e-38
0.0237071988825 -0.02709394158 0.915 2.35097384788e-38
0.0254005702312 -0.02709394158 0.915 2.35097286697e-38
0.02709394158 -0.02709394158 0.915 2.35064874664e-38
0.0287873129287 -0.02709394158 0.915 2.3509702045e-38
0.0304806842775 -0.02709394158 0.915 2.35068770273e-38
0.0321740556262 -0.02709394158 0.915 2.3507199326e-38
0.033867426975 -0.02709394158 0.915 2.35093292997e-38
0.0355607983237 -0.02709394158 0.915 2.35050455303e-38
0.0372541696725 -0.02709394158 0.915 2.35097524918e-38
0.0389475410212 -0.02709394158 0.915 2.35097286697e-38
0.04064091237 -0.02709394158 0.915 2.3509730071e-38
0.0423342837187 -0.02709394158 0.915 2.35097819191e-38
0.0440276550675 -0.02709394158 0.915 5.70205160715e-39
0.0457210264162 -0.02709394158 0.915 2.34784699049e-38
0.047414397765 -0.02709394158 0.915 2.35098645957e-38
0.0491077691137 -0.02709394158 0.915 5.33043005701e-39
0.0506900997183 -0.0270347198498 0.913 2.35015422841e-38
0.0523797697089 -0.0270347198498 0.913 2.35098856151e-38
0.0540694396995 -0.0270347198498 0.913 5.61281551965e-39
0.0557591096901 -0.0270347198498 0.913 2.3509758097e-38
0.0574487796807 -0.0270347198498 0.913 2.35098856151e-38
0.0592679972062 -0.02709394158 0.915 1.6123412998e-38
-0.00679569354383 -0.0254838507894 0.918 2.34993674689e-38
-0.00509677015787 -0.0254838507894 0.918 1.62915155644e-38
-0.00339784677192 -0.0254838507894 0.918 1.71209034878e-38
-0.00169892338596 -0.0254838507894 0.918 2.20991550109e-38
0.0 -0.0254838507894 0.918 1.85027449229e-38
0.00169337134875 -0.0254005702312 0.915 2.34893047446e-38
0.0033867426975 -0.0254005702312 0.915 2.14533021538e-38
0.00508011404625 -0.0254005702312 0.915 1.61938983108e-38
0.006773485395 -0.0254005702312 0.915 2.34828447587e-38
0.00846685674374 -0.0254005702312 0.915 2.21865694104e-38
0.0101602280925 -0.0254005702312 0.915 2.349795496e-38
0.0118535994412 -0.0254005702312 0.915 2.3489611629e-38
0.01354697079 -0.0254005702312 0.915 1.63811566272e-38
0.0152403421387 -0.0254005702312 0.915 2.35057756068e-38
0.0169337134875 -0.0254005702312 0.915 2.35097454853e-38
0.0186270848362 -0.0254005702312 0.915 2.35097791165e-38
0.020320456185 -0.0254005702312 0.915 2.35097510905e-38
0.0220138275337 -0.0254005702312 0.915 2.35097230645e-38
0.0237071988825 -0.0254005702312 0.915 2.35097328736e-38
0.0254005702312 -0.0254005702312 0.915 2.35097230645e-38
0.02709394158 -0.0254005702312 0.915 2.35097342749e-38
0.0287873129287 -0.0254005702312 0.915 2.3509744084e-38
0.030414059831 -0.0253450498591 0.913 2.35097174593e-38
0.0321037298216 -0.0253450498591 0.913 2.35097132554e-38
0.0337933998122 -0.0253450498591 0.913 2.35097468866e-38
0.0354830698028 -0.0253450498591 0.913 2.35098029385e-38
0.0372541696725 -0.0254005702312 0.915 2.35097188606e-38
0.0389475410212 -0.0254005702312 0.915 2.35097819191e-38
0.04064091237 -0.0254005702312 0.915 2.18423334361e-38
0.0423342837187 -0.0254005702312 0.915 7.35042701671e-39
0.0440276550675 -0.0254005702312 0.915 2.34968115005e-38
0.0456210897465 -0.0253450498591 0.913 2.35098856151e-38
0.0473107597371 -0.0253450498591 0.913 9.85053965885e-39
0.0490004297277 -0.0253450498591 0.913 2.34799468735e-38
0.0506900997183 -0.0253450498591 0.913 2.35098856151e-38
0.0522076565554 -0.025261769301 0.91 1.61335149587e-38
0.0538917745088 -0.025261769301 0.91 2.3491752813e-38
0.0557591096901 -0.0253450498591 0.913 2.35098856151e-38
0.0574487796807 -0.0253450498591 0.913 2.12039186713e-38
0.0592679972062 -0.0254005702312 0.915 2.06048902025e-38
0.060961368555 -0.0254005702312 0.915 2.34770868233e-38
-0.00509677015787 -0.0237849274034 0.918 1.76758751329e-38
-0.00339784677192 -0.0237849274034 0.918 2.01575859236e-38
-0.00169337134875 -0.0237071988825 0.915 1.43482775307e-38
0.0 -0.0237071988825 0.915 2.303186067e-38
0.00169337134875 -0.0237071988825 0.915 2.13671783502e-38
0.0033867426975 -0.0237071988825 0.915 2.34799146436e-38
0.00508011404625 -0.0237071988825 0.915 1.97985298168e-38
0.006773485395 -0.0237071988825 0.915 1.89683347455e-38
0.00846685674374 -0.0237071988825 0.915 2.34838845221e-38
0.0101602280925 -0.0237071988825 0.915 2.05284745947e-38
0.0118535994412 -0.0237071988825 0.915 2.35008122076e-38
0.01354697079 -0.0237071988825 0.915 2.35097566957e-38
0.0152403421387 -0.0237071988825 0.915 1.93367529274e-38
0.0169337134875 -0.0237071988825 0.915 1.84055662757e-38
0.0186270848362 -0.0237071988825 0.915 2.35082390895e-38
0.020320456185 -0.0237071988825 0.915 2.35097272684e-38
0.0220138275337 -0.0237071988825 0.915 2.35097566957e-38
0.0237071988825 -0.0237071988825 0.915 2.35097819191e-38
0.0254005702312 -0.0237071988825 0.915 2.35097679061e-38
0.0270347198498 -0.0236553798685 0.913 2.35097552944e-38
0.0287243898404 -0.0236553798685 0.913 2.35097538931e-38
0.030414059831 -0.0236553798685 0.913 2.35097735113e-38
0.0321037298216 -0.0236553798685 0.913 2.35097735113e-38
0.0337933998122 -0.0236553798685 0.913 2.35097651035e-38
0.0354830698028 -0.0236553798685 0.913 2.35097707087e-38
0.0371727397934 -0.0236553798685 0.913 2.24954982685e-38
0.038862409784 -0.0236553798685 0.913 9.75465160753e-39
0.0405520797746 -0.0236553798685 0.913 1.99495197263e-38
0.0422417497652 -0.0236553798685 0.913 2.35097468866e-38
0.0439314197559 -0.0236553798685 0.913 2.35098589905e-38
0.0456210897465 -0.0236553798685 0.913 6.16593464819e-39
0.0473107597371 -0.0236553798685 0.913 2.34899507432e-38
0.0490004297277 -0.0236553798685 0.913 2.35098856151e-38
0.0506900997183 -0.0236553798685 0.913 2.18507202074e-38
0.0522076565554 -0.0235776513476 0.91 1.70401480586e-38
0.0538917745088 -0.0235776513476 0.91 2.35098856151e-38
0.0557591096901 -0.0236553798685 0.913 2.35098856151e-38
0.0574487796807 -0.0236553798685 0.913 1.63793629651e-38
0.0592679972062 -0.0237071988825 0.915 2.3464347619e-38
0.060961368555 -0.0237071988825 0.915 2.34756028482e-38
-0.00509677015787 -0.0220860040175 0.918 1.8878028066e-38
-0.00339784677192 -0.0220860040175 0.918 1.82179155958e-38
-0.00169337134875 -0.0220138275337 0.915 1.90401765152e-38
0.0 -0.0220138275337 0.915 1.59091390486e-38
0.00169337134875 -0.0220138275337 0.915 2.04492844158e-38
0.0033867426975 -0.0220138275337 0.915 2.27536903132e-38
0.00508011404625 -0.0220138275337 0.915 2.27423411969e-38
0.006773485395 -0.0220138275337 0.915 2.03516461427e-38
0.00844834995305 -0.0219657098779 0.913 1.86874472709e-38
0.0101380199437 -0.0219657098779 0.913 2.34875012735e-38
0.0118276899343 -0.0219657098779 0.913 1.84155281065e-38
0.0135173599249 -0.0219657098779 0.913 2.34984594275e-38
0.0152070299155 -0.0219657098779 0.913 2.35098225567e-38
0.0168966999061 -0.0219657098779 0.913 2.35062058054e-38
0.0185863698967 -0.0219657098779 0.913 1.62079547357e-38
0.0202760398873 -0.0219657098779 0.913 1.72040887685e-38
0.0219657098779 -0.0219657098779 0.913 1.97851684359e-38
0.0236553798685 -0.0219657098779 0.913 2.33077917519e-38
0.0253450498591 -0.0219657098779 0.913 2.35054014601e-38
0.0270347198498 -0.0219657098779 0.913 2.35096796243e-38
0.0286300052078 -0.0218935333942 0.91 2.35097006437e-38
0.0303141231612 -0.0218935333942 0.91 2.35078887648e-38
0.0319982411146 -0.0218935333942 0.91 2.11043774349e-38
0.033867426975 -0.0220138275337 0.915 1.21539240096e-38
0.0354830698028 -0.0219657098779 0.913 1.37014255479e-38
0.0371727397934 -0.0219657098779 0.913 1.93242211152e-38
0.038862409784 -0.0219657098779 0.913 2.35097552944e-38
0.0405520797746 -0.0219657098779 0.913 2.35098730035e-38
0.0422417497652 -0.0219657098779 0.913 2.23102508154e-38
0.0439314197559 -0.0219657098779 0.913 7.99865647592e-39
0.0456210897465 -0.0219657098779 0.913 2.35096389866e-38
0.0473107597371 -0.0219657098779 0.913 2.35098856151e-38
0.0490004297277 -0.0219657098779 0.913 1.74177811792e-38
0.0506900997183 -0.0219657098779 0.913 1.7128073932e-38
0.0522076565554 -0.0218935333942 0.91 2.35098856151e-38
0.0538917745088 -0.0218935333942 0.91 2.35098856151e-38
0.0557591096901 -0.0219657098779 0.913 1.40813231668e-38
0.0575746258575 -0.0220138275337 0.915 2.3451084329e-38
0.0592679972062 -0.0220138275337 0.915 2.34774077206e-38
0.060961368555 -0.0220138275337 0.915 2.34816928913e-38
-0.0033867426975 -0.020320456185 0.915 1.88618262531e-38
-0.00169337134875 -0.020320456185 0.915 1.92249082904e-38
0.0 -0.020320456185 0.915 1.90401611009e-38
0.00169337134875 -0.020320456185 0.915 1.67395639328e-38
0.0033867426975 -0.020320456185 0.915 1.93422530238e-38
0.00508011404625 -0.020320456185 0.915 2.18303032888e-38
0.006773485395 -0.020320456185 0.915 2.34806559305e-38
0.00844834995305 -0.0202760398873 0.913 2.09956058455e-38
0.0101380199437 -0.0202760398873 0.913 1.6652082271e-38
0.0118276899343 -0.0202760398873 0.913 2.34952336384e-38
0.0135173599249 -0.0202760398873 0.913 2.02563410316e-38
0.0152070299155 -0.0202760398873 0.913 2.09797473508e-38
0.0168966999061 -0.0202760398873 0.913 2.35014063581e-38
0.0185863698967 -0.0202760398873 0.913 2.35096992425e-38
0.0202760398873 -0.0202760398873 0.913 2.35097076502e-38
0.0219657098779 -0.0202760398873 0.913 2.35096894334e-38
0.0236553798685 -0.0202760398873 0.913 2.10082791888e-38
0.0253450498591 -0.0202760398873 0.913 1.75969806281e-38
0.0270347198498 -0.0202760398873 0.913 1.75033654829e-38
0.0286300052078 -0.0202094154408 0.91 1.6672092813e-38
0.0303141231612 -0.0202094154408 0.91 1.88880697708e-38
0.0319982411146 -0.0202094154408 0.91 2.16572681518e-38
0.033682359068 -0.0202094154408 0.91 2.35097342749e-38
0.0353664770214 -0.0202094154408 0.91 2.3509851984e-38
0.0370505949748 -0.0202094154408 0.91 2.3509851984e-38
0.0387347129282 -0.0202094154408 0.91 2.31410680632e-38
0.0404188308816 -0.0202094154408 0.91 1.870072037e-38
0.042102948835 -0.0202094154408 0.91 2.00764591503e-38
0.0437870667884 -0.0202094154408 0.91 2.35098407736e-38
0.0454711847418 -0.0202094154408 0.91 2.35098856151e-38
0.0471553026952 -0.0202094154408 0.91 6.25994776216e-39
0.0488394206486 -0.0202094154408 0.91 2.34884807811e-38
0.0506900997183 -0.0202760398873 0.913 2.35098856151e-38
0.0522076565554 -0.0202094154408 0.91 2.35098856151e-38
0.0538917745088 -0.0202094154408 0.91 1.49203982664e-38
0.0557591096901 -0.0202760398873 0.913 2.2066717754e-38
0.0575746258575 -0.020320456185 0.915 2.34670142899e-38
0.0592679972062 -0.020320456185 0.915 2.3476320313e-38
0.060961368555 -0.020320456185 0.915 2.34737321148e-38
0.0632025409083 -0.0204981213757 0.923 2.34900039925e-38
-0.00169892338596 -0.0186881572455 0.918 1.97766149101e-38
0.0 -0.0186881572455 0.918 1.70086300535e-38
0.00169337134875 -0.0186270848362 0.915 1.76485582206e-38
0.0033867426975 -0.0186270848362 0.915 1.8759220377e-38
0.00508011404625 -0.0186270848362 0.915 1.89770059804e-38
0.00675867996244 -0.0185863698967 0.913 1.98856135099e-38
0.008420589767 -0.0185252974874 0.91 2.34943283996e-38
0.0101047077204 -0.0185252974874 0.91 2.08086964525e-38
0.0117888256738 -0.0185252974874 0.91 1.96123336847e-38
0.0134729436272 -0.0185252974874 0.91 1.85927419155e-38
0.0151570615806 -0.0185252974874 0.91 2.34952728748e-38
0.0168966999061 -0.0185863698967 0.913 2.14559211807e-38
0.0185863698967 -0.0185863698967 0.913 1.95082270178e-38
0.0202760398873 -0.0185863698967 0.913 1.96072988193e-38
0.0219657098779 -0.0185863698967 0.913 2.34915440195e-38
0.0236553798685 -0.0185863698967 0.913 2.35096810256e-38
0.0253450498591 -0.0185863698967 0.913 2.35098267606e-38
0.0270347198498 -0.0185863698967 0.913 2.35098491814e-38
0.0285670821194 -0.0184845825479 0.908 2.35098421749e-38
0.0302474987147 -0.0184845825479 0.908 2.3509851984e-38
0.03192791531 -0.0184845825479 0.908 2.35098323658e-38
0.0336083319052 -0.0184845825479 0.908 2.04672504635e-38
0.0352887485005 -0.0184845825479 0.908 1.38167440037e-38
0.0370505949748 -0.0185252974874 0.91 1.56439615311e-38
0.0387347129282 -0.0185252974874 0.91 2.34756448872e-38
0.0404188308816 -0.0185252974874 0.91 2.35097819191e-38
0.042102948835 -0.0185252974874 0.91 2.3509758097e-38
0.0436908314768 -0.0184845825479 0.908 2.11948732898e-38
0.0453712480721 -0.0184845825479 0.908 1.26890826957e-38
0.0471553026952 -0.0185252974874 0.91 2.35096137632e-38
0.0488394206486 -0.0185252974874 0.91 2.35098645957e-38
0.050523538602 -0.0185252974874 0.91 2.35098575892e-38
0.0522076565554 -0.0185252974874 0.91 1.29836020017e-38
0.0538917745088 -0.0185252974874 0.91 2.01360185389e-38
0.0557591096901 -0.0185863698967 0.913 2.34586961822e-38
0.0575746258575 -0.0186270848362 0.915 2.34795334904e-38
0.0592679972062 -0.0186270848362 0.915 2.348024535e-38
0.0611612418945 -0.0186881572455 0.918 2.34734602629e-38
0.0629971155316 -0.0187288721851 0.92 2.34918214766e-38
-0.00169892338596 -0.0169892338596 0.918 1.78405038804e-38
0.0 -0.0169892338596 0.918 1.87624980141e-38
0.00169892338596 -0.0169892338596 0.918 1.80241720701e-38
0.0033867426975 -0.0169337134875 0.915 1.78336837608e-38
0.00508011404625 -0.0169337134875 0.915 1.82157141559e-38
0.00675867996244 -0.0168966999061 0.913 1.64734237233e-38
0.008420589767 -0.016841179534 0.91 1.81221046159e-38
0.0101047077204 -0.016841179534 0.91 2.34970987667e-38
0.0117888256738 -0.016841179534 0.91 2.34896032212e-38
0.0134729436272 -0.016841179534 0.91 2.13518215204e-38
0.0151570615806 -0.016841179534 0.91 2.07165358551e-38
0.016841179534 -0.016841179534 0.91 2.08082830694e-38
0.0185252974874 -0.016841179534 0.91 2.34876862449e-38
0.0202094154408 -0.016841179534 0.91 2.3496480794e-38
0.0218935333942 -0.016841179534 0.91 2.23850423184e-38
0.0235776513476 -0.016841179534 0.91 2.03484399719e-38
0.025261769301 -0.016841179534 0.91 2.00570876003e-38
0.0269458872544 -0.016841179534 0.91 2.14368312917e-38
0.0285670821194 -0.0168041659526 0.908 2.00553471877e-38
0.0302474987147 -0.0168041659526 0.908 2.07993049502e-38
0.03192791531 -0.0168041659526 0.908 1.99829112674e-38
0.0336083319052 -0.0168041659526 0.908 2.34999854415e-38
0.0352887485005 -0.0168041659526 0.908 2.35097693074e-38
0.0370505949748 -0.016841179534 0.91 2.35097875243e-38
0.0387347129282 -0.016841179534 0.91 2.35097552944e-38
0.0404188308816 -0.016841179534 0.91 1.80601518095e-38
0.0420104148815 -0.0168041659526 0.908 2.2473509093e-38
0.0436908314768 -0.0168041659526 0.908 2.34941252113e-38
0.0453712480721 -0.0168041659526 0.908 2.350988001e-38
0.0470516646673 -0.0168041659526 0.908 2.35098323658e-38
0.0487320812626 -0.0168041659526 0.908 1.80629754259e-38
0.050523538602 -0.016841179534 0.91 1.75678434291e-38
0.0522076565554 -0.016841179534 0.91 1.85679893794e-38
0.0540694396995 -0.0168966999061 0.913 2.34540592856e-38
0.0557591096901 -0.0168966999061 0.913 2.34781826387e-38
0.0575746258575 -0.0169337134875 0.915 2.34780425088e-38
0.0594623185085 -0.0169892338596 0.918 2.26321346779e-38
0.0611612418945 -0.0169892338596 0.918 2.34752595301e-38
0.0629971155316 -0.017026247441 0.92 2.34925305337e-38
0.0 -0.015406903255 0.925 1.86685017157e-38
0.00169892338596 -0.0152903104736 0.918 1.74709996922e-38
0.00339784677192 -0.0152903104736 0.918 1.89417899487e-38
0.00509677015787 -0.0152903104736 0.918 1.70896531307e-38
0.00675867996244 -0.0152070299155 0.913 1.95835832441e-38
0.008420589767 -0.0151570615806 0.91 1.9504401473e-38
0.0101047077204 -0.0151570615806 0.91 1.56453964607e-38
0.0117888256738 -0.0151570615806 0.91 1.88597299106e-38
0.0134729436272 -0.0151570615806 0.91 2.3489691503e-38
0.0151570615806 -0.0151570615806 0.91 2.34942723477e-38
0.016841179534 -0.0151570615806 0.91 2.09059241451e-38
0.0185252974874 -0.0151570615806 0.91 1.94239389152e-38
0.0202094154408 -0.0151570615806 0.91 2.19110741323e-38
0.0218935333942 -0.0151570615806 0.91 2.23836774537e-38
0.0235776513476 -0.0151570615806 0.91 2.34942261048e-38
0.025261769301 -0.0151570615806 0.91 2.3488109437e-38
0.0268866655242 -0.0151237493574 0.908 2.34906710106e-38
0.0285041590311 -0.0150904371341 0.906 2.34914094949e-38
0.0301808742682 -0.0150904371341 0.906 2.34975345705e-38
0.03192791531 -0.0151237493574 0.908 2.35096529996e-38
0.0336083319052 -0.0151237493574 0.908 2.35049796692e-38
0.0352887485005 -0.0151237493574 0.908 1.77706365403e-38
0.0369691650957 -0.0151237493574 0.908 2.03440735258e-38
0.038649581691 -0.0151237493574 0.908 1.90547892556e-38
0.0403299982863 -0.0151237493574 0.908 2.35096894334e-38
0.0420104148815 -0.0151237493574 0.908 2.35098365697e-38
0.0436908314768 -0.0151237493574 0.908 2.3509434397e-38
0.0453712480721 -0.0151237493574 0.908 2.18261876752e-38
0.0470516646673 -0.0151237493574 0.908 1.81246661895e-38
0.0487320812626 -0.0151237493574 0.908 1.85507884408e-38
0.050523538602 -0.0151570615806 0.91 2.00244429513e-38
0.0522076565554 -0.0151570615806 0.91 2.34601521313e-38
0.0540694396995 -0.0152070299155 0.913 2.34749092055e-38
0.0557591096901 -0.0152070299155 0.913 2.31946649269e-38
0.0575746258575 -0.0152403421387 0.915 2.189712841e-38
0.0594623185085 -0.0152903104736 0.918 2.34716595943e-38
0.0611612418945 -0.0152903104736 0.918 2.34655443278e-38
0.0629971155316 -0.0153236226969 0.92 2.34964695836e-38
0.0 -0.0136950251156 0.925 1.82982772601e-38
0.00171187813945 -0.0136950251156 0.925 1.89457514195e-38
0.00341635356261 -0.0136654142505 0.923 1.81080944338e-38
0.00510787423229 -0.0136209979528 0.92 1.8378937401e-38
0.006773485395 -0.01354697079 0.915 1.89285154483e-38
0.008420589767 -0.0134729436272 0.91 1.86501391006e-38
0.0101047077204 -0.0134729436272 0.91 1.89443305028e-38
0.0117888256738 -0.0134729436272 0.91 2.04263297457e-38
0.0134729436272 -0.0134729436272 0.91 1.54574346925e-38
0.0151570615806 -0.0134729436272 0.91 1.75768117393e-38
0.0168041659526 -0.0134433327621 0.908 2.0441040577e-38
0.0184845825479 -0.0134433327621 0.908 2.35036134032e-38
0.0201649991431 -0.0134433327621 0.908 2.35024867593e-38
0.0218454157384 -0.0134433327621 0.908 2.34895709913e-38
0.0235258323337 -0.0134433327621 0.908 2.30171456348e-38
0.0252062489289 -0.0134433327621 0.908 2.34727273838e-38
0.026827443794 -0.013413721897 0.906 2.25507416579e-38
0.0285041590311 -0.013413721897 0.906 2.32879171358e-38
0.0301808742682 -0.013413721897 0.906 2.31053083277e-38
0.0318575895053 -0.013413721897 0.906 2.27426887189e-38
0.0335343047424 -0.013413721897 0.906 2.34953611566e-38
0.0352110199796 -0.013413721897 0.906 2.35097566957e-38
0.0369691650957 -0.0134433327621 0.908 2.35097651035e-38
0.038649581691 -0.0134433327621 0.908 2.35093783451e-38
0.0403299982863 -0.0134433327621 0.908 2.34956988695e-38
0.0420104148815 -0.0134433327621 0.908 2.18211107709e-38
0.0436908314768 -0.0134433327621 0.908 2.01608215218e-38
0.0453712480721 -0.0134433327621 0.908 1.80277383747e-38
0.0470516646673 -0.0134433327621 0.908 1.91157737647e-38
0.0487320812626 -0.0134433327621 0.908 2.34349651928e-38
0.050523538602 -0.0134729436272 0.91 2.15003213225e-38
0.0523797697089 -0.0135173599249 0.913 2.34608443728e-38
0.0540694396995 -0.0135173599249 0.913 2.34777776634e-38
0.0558812545087 -0.01354697079 0.915 2.34733817902e-38
0.0577633951226 -0.0135913870877 0.918 2.34619429908e-38
0.0594623185085 -0.0135913870877 0.918 2.34738203966e-38
0.0611612418945 -0.0135913870877 0.918 2.34734658681e-38
0.0629971155316 -0.0136209979528 0.92 2.34932451959e-38
0.0 -0.0119831469761 0.925 1.72920160433e-38
0.00171187813945 -0.0119831469761 0.925 1.78354578046e-38
0.00342375627889 -0.0119831469761 0.925 1.81070182366e-38
0.00512453034392 -0.0119572374691 0.923 1.88374240417e-38
0.00679569354383 -0.0118924637017 0.918 1.8561897935e-38
0.008420589767 -0.0117888256738 0.91 1.91150703129e-38
0.0101047077204 -0.0117888256738 0.91 1.77310764833e-38
0.0117888256738 -0.0117888256738 0.91 1.86490769164e-38
0.0134729436272 -0.0117888256738 0.91 1.93956046603e-38
0.0151570615806 -0.0117888256738 0.91 2.05198622143e-38
0.0168041659526 -0.0117629161668 0.908 1.95100641201e-38
0.0184845825479 -0.0117629161668 0.908 1.73013290729e-38
0.0201649991431 -0.0117629161668 0.908 1.90509160666e-38
0.0218454157384 -0.0117629161668 0.908 2.22765986328e-38
0.0234740133197 -0.0117370066599 0.906 2.3470601614e-38
0.0251507285568 -0.0117370066599 0.906 2.34781405997e-38
0.026827443794 -0.0117370066599 0.906 2.34849481077e-38
0.0284097743985 -0.0116981423994 0.903 2.3486006088e-38
0.0300809375984 -0.0116981423994 0.903 2.34860299101e-38
0.0318575895053 -0.0117370066599 0.906 2.34838845221e-38
0.0335343047424 -0.0117370066599 0.906 2.33877134085e-38
0.0352110199796 -0.0117370066599 0.906 2.12649830545e-38
0.0369691650957 -0.0117629161668 0.908 2.08000392306e-38
0.038649581691 -0.0117629161668 0.908 2.15340701947e-38
0.0403299982863 -0.0117629161668 0.908 2.33840560195e-38
0.0420104148815 -0.0117629161668 0.908 1.70208395671e-38
0.0436908314768 -0.0117629161668 0.908 1.55262973016e-38
0.0453712480721 -0.0117629161668 0.908 2.09420804481e-38
0.0471553026952 -0.0117888256738 0.91 2.34324344477e-38
0.0488394206486 -0.0117888256738 0.91 2.26984693446e-38
0.0506900997183 -0.0118276899343 0.913 2.20541971522e-38
0.0524945118112 -0.0118535994412 0.915 2.34579689083e-38
0.05418788316 -0.0118535994412 0.915 2.34572948838e-38
0.0560644717366 -0.0118924637017 0.918 2.34640813722e-38
0.0578892412993 -0.0119183732087 0.92 2.34781195803e-38
0.0595918660434 -0.0119183732087 0.92 2.31921313793e-38
0.0612944907875 -0.0119183732087 0.92 2.34777790647e-38
0.0 -0.0103045810599 0.928 1.74824763267e-38
0.00171743017665 -0.0103045810599 0.928 1.84887417474e-38
0.00343486035331 -0.0103045810599 0.928 1.81084938039e-38
0.00513563441834 -0.0102712688367 0.925 1.75517046747e-38
0.00683270712523 -0.0102490606878 0.923 1.88384806207e-38
0.008420589767 -0.0101047077204 0.91 1.8009443022e-38
0.0101047077204 -0.0101047077204 0.91 1.85575861396e-38
0.0117888256738 -0.0101047077204 0.91 1.9569211527e-38
0.0134729436272 -0.0101047077204 0.91 1.91085991166e-38
0.0151570615806 -0.0101047077204 0.91 1.89195625525e-38
0.0168041659526 -0.0100824995716 0.908 1.95660165665e-38
0.0184845825479 -0.0100824995716 0.908 1.83739151473e-38
0.0201649991431 -0.0100824995716 0.908 2.00377370699e-38
0.0218454157384 -0.0100824995716 0.908 2.18037612946e-38
0.0234740133197 -0.0100602914227 0.906 2.19953748466e-38
0.0251507285568 -0.0100602914227 0.906 2.11681182982e-38
0.026827443794 -0.0100602914227 0.906 2.19060336617e-38
0.0284097743985 -0.0100269791995 0.903 2.08911460515e-38
0.0300809375984 -0.0100269791995 0.903 1.96962182133e-38
0.0318575895053 -0.0100602914227 0.906 1.92421666823e-38
0.0335343047424 -0.0100602914227 0.906 2.13615269135e-38
0.0352110199796 -0.0100602914227 0.906 2.13601256151e-38
0.0369691650957 -0.0100824995716 0.908 2.34910241378e-38
0.038649581691 -0.0100824995716 0.908 2.34860607387e-38
0.0404188308816 -0.0101047077204 0.91 1.64712405003e-38
0.042102948835 -0.0101047077204 0.91 1.63506643726e-38
0.0437870667884 -0.0101047077204 0.91 2.22385477743e-38
0.0454711847418 -0.0101047077204 0.91 2.17779858106e-38
0.0473107597371 -0.0101380199437 0.913 2.26062442874e-38
0.0490004297277 -0.0101380199437 0.913 2.26995259236e-38
0.0508011404625 -0.0101602280925 0.915 2.15020967677e-38
0.0524945118112 -0.0101602280925 0.915 2.34604898443e-38
0.0543655483507 -0.0101935403157 0.918 2.33614811013e-38
0.0560644717366 -0.0101935403157 0.918 2.34720589644e-38
0.0580780105644 -0.0102490606878 0.923 2.3469099422e-38
0.0597861873457 -0.0102490606878 0.923 2.24567439582e-38
0.0 -0.00863341786002 0.933 1.5453474623e-38
0.00172113153479 -0.00860565767397 0.93 1.84901542562e-38
0.00343486035331 -0.00858715088327 0.928 1.8758844829e-38
0.00513563441834 -0.00855939069723 0.925 1.71904569371e-38
0.00684751255778 -0.00855939069723 0.925 1.76421010373e-38
0.00846685674374 -0.00846685674374 0.915 1.8281003454e-38
0.0101602280925 -0.00846685674374 0.915 1.89263826721e-38
0.0118535994412 -0.00846685674374 0.915 1.89260351501e-38
0.0135173599249 -0.00844834995305 0.913 1.97518063221e-38
0.0151570615806 -0.008420589767 0.91 1.94748719105e-38
0.016841179534 -0.008420589767 0.91 1.94734299744e-38
0.0185252974874 -0.008420589767 0.91 2.03939373304e-38
0.0201649991431 -0.00840208297631 0.908 1.99290201311e-38
0.0218454157384 -0.00840208297631 0.908 2.02956446509e-38
0.0234740133197 -0.00838357618561 0.906 2.00201381624e-38
0.0251507285568 -0.00838357618561 0.906 1.92854541932e-38
0.026827443794 -0.00838357618561 0.906 1.82752637354e-38
0.0284097743985 -0.00835581599956 0.903 1.70814022854e-38
0.0300809375984 -0.00835581599956 0.903 2.25400553558e-38
0.0318575895053 -0.00838357618561 0.906 2.3482095064e-38
0.0335343047424 -0.00838357618561 0.906 2.34878529994e-38
0.0352110199796 -0.00838357618561 0.906 2.34935702971e-38
0.0369691650957 -0.00840208297631 0.908 2.02559430628e-38
0.0387347129282 -0.008420589767 0.91 1.23088263444e-38
0.0404188308816 -0.008420589767 0.91 1.96556688397e-38
0.042102948835 -0.008420589767 0.91 2.14084592017e-38
0.0437870667884 -0.008420589767 0.91 2.23267875386e-38
0.0454711847418 -0.008420589767 0.91 2.23292986654e-38
0.047414397765 -0.00846685674374 0.915 2.19623154132e-38
0.0491077691137 -0.00846685674374 0.915 2.34363987211e-38
0.0509677015787 -0.00849461692979 0.918 2.34428292797e-38
0.0526666249647 -0.00849461692979 0.918 2.31586879901e-38
0.0543655483507 -0.00849461692979 0.918 2.34720407475e-38
0.0561866165552 -0.00851312372049 0.92 2.33769079961e-38
0.0580780105644 -0.00854088390653 0.923 2.3005995503e-38
0.0 -0.00690673428801 0.933 1.56422435392e-38
0.00172113153479 -0.00688452613918 0.93 1.74774428626e-38
0.00343486035331 -0.00686972070662 0.928 1.93163051802e-38
0.00513563441834 -0.00684751255778 0.925 1.784443172e-38
0.00684751255778 -0.00684751255778 0.925 1.67366604424e-38
0.00849461692979 -0.00679569354383 0.918 1.75520592032e-38
0.0101935403157 -0.00679569354383 0.918 1.76442534318e-38
0.0118535994412 -0.006773485395 0.915 1.89238519271e-38
0.01354697079 -0.006773485395 0.915 1.99315312579e-38
0.0152070299155 -0.00675867996244 0.913 1.98393370294e-38
0.0168966999061 -0.00675867996244 0.913 2.04850553617e-38
0.0185252974874 -0.0067364718136 0.91 2.01152022503e-38
0.0201649991431 -0.00672166638105 0.908 1.96535136426e-38
0.0218454157384 -0.00672166638105 0.908 2.02967208481e-38
0.0235258323337 -0.00672166638105 0.908 1.90099477047e-38
0.0252062489289 -0.00672166638105 0.908 1.79079217508e-38
0.026827443794 -0.00670686094849 0.906 2.34662029381e-38
0.0285041590311 -0.00670686094849 0.906 2.34852648011e-38
0.0301808742682 -0.00670686094849 0.906 2.34885424382e-38
0.0318575895053 -0.00670686094849 0.906 2.34892697121e-38
0.0336083319052 -0.00672166638105 0.908 2.21916883537e-38
0.0352887485005 -0.00672166638105 0.908 1.5085450206e-38
0.0370505949748 -0.0067364718136 0.91 1.5703869843e-38
0.0387347129282 -0.0067364718136 0.91 2.1589275749e-38
0.0404188308816 -0.0067364718136 0.91 2.20495252231e-38
0.0422417497652 -0.00675867996244 0.913 2.16828782826e-38
0.0439314197559 -0.00675867996244 0.913 2.27910209042e-38
0.0457210264162 -0.006773485395 0.915 2.21431305593e-38
0.047414397765 -0.006773485395 0.915 2.14055655204e-38
0.0492687781928 -0.00679569354383 0.918 2.3432477888e-38
0.0510787423229 -0.00681049897639 0.92 2.34407049113e-38
0.052781367067 -0.00681049897639 0.92 2.33474148673e-38
0.0546616570018 -0.00683270712523 0.923 2.34590338952e-38
0.0564919786017 -0.00684751255778 0.925 2.34655485317e-38
0.0583926260063 -0.00686972070662 0.928 2.3464840876e-38
0.060563472555 -0.00692153972057 0.935 2.34702176582e-38
0.0 -0.00518005071601 0.933 1.5183388357e-38
0.00172113153479 -0.00516339460438 0.93 1.69322214522e-38
0.00343486035331 -0.00515229052996 0.928 1.93188359252e-38
0.00515229052996 -0.00515229052996 0.928 1.78451435796e-38
0.00684751255778 -0.00513563441834 0.925 1.69271473504e-38
0.00854088390653 -0.00512453034392 0.923 1.53627153241e-38
0.0101935403157 -0.00509677015787 0.918 1.69275060828e-38
0.0118924637017 -0.00509677015787 0.918 1.77400349844e-38
0.01354697079 -0.00508011404625 0.915 1.85586623369e-38
0.0152403421387 -0.00508011404625 0.915 2.00237254865e-38
0.0168966999061 -0.00506900997183 0.913 1.95623956113e-38
0.0185863698967 -0.00506900997183 0.913 1.88262767124e-38
0.0202094154408 -0.0050523538602 0.91 1.72650732777e-38
0.0218935333942 -0.0050523538602 0.91 2.03965731728e-38
0.0235258323337 -0.00504124978578 0.908 2.34702386777e-38
0.0252062489289 -0.00504124978578 0.908 2.34849663246e-38
0.0268866655242 -0.00504124978578 0.908 2.34899913808e-38
0.0285041590311 -0.00503014571137 0.906 2.34882117318e-38
0.0301808742682 -0.00503014571137 0.906 2.24700478858e-38
0.03192791531 -0.00504124978578 0.908 1.62868464379e-38
0.0336083319052 -0.00504124978578 0.908 1.55201988507e-38
0.0352887485005 -0.00504124978578 0.908 1.9378724619e-38
0.0371727397934 -0.00506900997183 0.913 2.19605511785e-38
0.038862409784 -0.00506900997183 0.913 2.14034117246e-38
0.0405520797746 -0.00506900997183 0.913 2.17696985315e-38
0.0422417497652 -0.00506900997183 0.913 2.28753258225e-38
0.0439314197559 -0.00506900997183 0.913 2.17747207852e-38
0.0457210264162 -0.00508011404625 0.915 2.29728716099e-38
0.0475698548068 -0.00509677015787 0.918 2.18643954791e-38
0.0493761175788 -0.00510787423229 0.92 2.34270772837e-38
0.0510787423229 -0.00510787423229 0.92 2.34389546895e-38
0.0529534802205 -0.00512453034392 0.923 2.34547150933e-38
0.0546616570018 -0.00512453034392 0.923 2.14311364147e-38
0.0566751958296 -0.00515229052996 0.928 2.34669624419e-38
0.0583926260063 -0.00515229052996 0.928 2.34687757221e-38
0.060563472555 -0.00519115479043 0.935 2.29966264214e-38
-0.00176554783247 -0.00353109566493 0.954 2.08062329698e-38
0.0 -0.00353109566493 0.954 1.5638580545e-38
0.00172113153479 -0.00344226306959 0.93 1.57340033652e-38
0.00343486035331 -0.00343486035331 0.928 1.80331585972e-38
0.00515229052996 -0.00343486035331 0.928 1.79309044469e-38
0.00686972070662 -0.00343486035331 0.928 1.82092863998e-38
0.00854088390653 -0.00341635356261 0.923 1.41677776768e-38
0.0102157484646 -0.00340524948819 0.92 1.4450100081e-38
0.0118924637017 -0.00339784677192 0.918 1.47984292481e-38
0.0135913870877 -0.00339784677192 0.918 1.61630473238e-38
0.0152403421387 -0.0033867426975 0.915 1.88298710429e-38
0.0169337134875 -0.0033867426975 0.915 1.95742337807e-38
0.0185863698967 -0.00337933998122 0.913 2.34651701812e-38
0.0202760398873 -0.00337933998122 0.913 2.34834879547e-38
0.0218935333942 -0.0033682359068 0.91 2.34914389222e-38
0.0235776513476 -0.0033682359068 0.91 2.3491457139e-38
0.0252062489289 -0.00336083319052 0.908 2.34846061909e-38
0.0268866655242 -0.00336083319052 0.908 2.18232155212e-38
0.0285670821194 -0.00336083319052 0.908 1.49907098182e-38
0.0302474987147 -0.00336083319052 0.908 1.57957053392e-38
0.03192791531 -0.00336083319052 0.908 1.80915927431e-38
0.033682359068 -0.0033682359068 0.91 2.06759164165e-38
0.0353664770214 -0.0033682359068 0.91 2.10393039368e-38
0.0371727397934 -0.00337933998122 0.913 2.21416816167e-38
0.0389475410212 -0.0033867426975 0.915 2.24182727101e-38
0.04064091237 -0.0033867426975 0.915 2.14074026226e-38
0.0423342837187 -0.0033867426975 0.915 2.28781942804e-38
0.0440276550675 -0.0033867426975 0.915 2.17757745616e-38
0.0458709314209 -0.00339784677192 0.918 2.29707122089e-38
0.0476734928347 -0.00340524948819 0.92 2.31630053907e-38
0.0495371266579 -0.00341635356261 0.923 2.34413803371e-38
0.0512453034392 -0.00341635356261 0.923 2.34622905128e-38
0.0532403354763 -0.00343486035331 0.928 2.21780172858e-38
0.054957765653 -0.00343486035331 0.928 2.29141768224e-38
0.0567973406482 -0.00344226306959 0.93 2.34666023082e-38
0.0587072414481 -0.00345336714401 0.933 2.3465150563e-38
0.0607577938573 -0.0034718739347 0.938 2.24384331911e-38
-0.00176554783247 -0.00176554783247 0.954 1.9882163513e-38
0.0 -0.00176554783247 0.954 1.88701821959e-38
0.00175444375805 -0.00175444375805 0.948 1.48099451189e-38
0.00347927665098 -0.00173963832549 0.94 1.90466294946e-38
0.00520781090205 -0.00173593696735 0.938 1.95976060378e-38
0.00692153972057 -0.00173038493014 0.935 1.97794805655e-38
0.00860565767397 -0.00172113153479 0.93 1.76676761356e-38
0.0103045810599 -0.00171743017665 0.928 1.85942945542e-38
0.0119831469761 -0.00171187813945 0.925 2.13622359705e-38
0.0136654142505 -0.00170817678131 0.923 2.32079730584e-38
0.0153735910318 -0.00170817678131 0.923 2.34870976995e-38
0.0169892338596 -0.00169892338596 0.918 2.34896382536e-38
0.0186881572455 -0.00169892338596 0.918 2.3487494267e-38
0.0203870806315 -0.00169892338596 0.918 2.33934489231e-38
0.0220138275337 -0.00169337134875 0.915 2.11793146729e-38
0.0236553798685 -0.00168966999061 0.913 1.70279749788e-38
0.025261769301 -0.0016841179534 0.91 1.3134628345e-38
0.0268866655242 -0.00168041659526 0.908 1.60712118276e-38
0.0285670821194 -0.00168041659526 0.908 1.78160862547e-38
0.0302474987147 -0.00168041659526 0.908 2.13130391841e-38
0.0319982411146 -0.0016841179534 0.91 2.08484512899e-38
0.033682359068 -0.0016841179534 0.91 2.2970026974e-38
0.0354830698028 -0.00168966999061 0.913 2.1775424237e-38
0.0372541696725 -0.00169337134875 0.915 2.18611528745e-38
0.0389475410212 -0.00169337134875 0.915 2.09392105888e-38
0.040774161263 -0.00169892338596 0.918 2.26865961427e-38
0.042473084649 -0.00169892338596 0.918 2.1489506101e-38
0.0441720080349 -0.00169892338596 0.918 2.24132420487e-38
0.0459708680906 -0.0017026247441 0.92 2.30621973805e-38
0.0478289498766 -0.00170817678131 0.923 2.34546576401e-38
0.0495371266579 -0.00170817678131 0.923 2.3458760642e-38
0.0513563441834 -0.00171187813945 0.925 2.17238508484e-38
0.0532403354763 -0.00171743017665 0.928 1.9780652051e-38
0.0552538743041 -0.001726683572 0.933 2.34630093789e-38
0.0571027026947 -0.00173038493014 0.935 2.34644106774e-38
0.0588330876248 -0.00173038493014 0.935 2.34532479338e-38
0.0607577938573 -0.00173593696735 0.938 2.34597905963e-38
-0.00176924919061 0.0 0.956 1.7671584357e-38
0.0 0.0 0.954 2.0162662828e-38
0.00175999579526 0.0 0.951 2.23771684223e-38
0.0035088875161 0.0 0.948 1.95216402467e-38
0.00525222719973 0.0 0.946 1.97981949065e-38
0.00694374786941 0.0 0.938 2.08123692557e-38
0.00865192465071 0.0 0.935 2.11818454179e-38
0.010360101432 0.0 0.933 2.17357618853e-38
0.0120220112366 0.0 0.928 2.21963280529e-38
0.0137394414132 0.0 0.928 2.13669303204e-38
0.015406903255 0.0 0.925 1.98924952866e-38
0.0171187813945 0.0 0.925 1.78588622916e-38
0.0188306595339 0.0 0.925 1.64651854896e-38
0.0205425376733 0.0 0.925 1.52604765881e-38
0.022206298157 0.0 0.923 1.51528568661e-38
0.0239144749383 0.0 0.923 1.70814022854e-38
0.0256226517196 0.0 0.923 1.882736412e-38
0.0272419959056 0.0 0.92 2.10342970974e-38
0.0288816975613 0.0 0.918 2.06680088892e-38
0.0305806209472 0.0 0.918 2.19558582299e-38
0.0322795443332 0.0 0.918 2.03896325415e-38
0.0340524948819 0.0 0.92 2.04793156432e-38
0.035755119626 0.0 0.92 2.18636696065e-38
0.0374577443701 0.0 0.92 2.15053407736e-38
0.0391603691142 0.0 0.92 2.34490062034e-38
0.0408629938583 0.0 0.92 2.34564625125e-38
0.0427044195327 0.0 0.923 2.34579450863e-38
0.044412596314 0.0 0.923 2.33600265535e-38
0.0464705514394 0.0 0.93 2.3460516469e-38
0.0480880449463 0.0 0.928 1.6829216206e-38
0.049805475123 0.0 0.928 2.32844194948e-38
0.0518005071601 0.0 0.933 1.94178684903e-38
0.0535271907321 0.0 0.933 2.3464465328e-38
0.0555499829552 0.0 0.938 2.34601100924e-38
0.0572859199226 0.0 0.938 2.3456483532e-38
0.0590218568899 0.0 0.938 2.28965344747e-38
0.0608873413922 0.0 0.94 2.34561654372e-38
-0.00176924919061 0.00176924919061 0.956 1.73949792505e-38
0.0 0.00176924919061 0.956 1.92363835236e-38
0.00176554783247 0.00176554783247 0.954 2.08090846121e-38
0.0035088875161 0.00175444375805 0.948 1.44504770303e-38
0.00525222719973 0.00175074239991 0.946 1.50919242049e-38
0.00695855330196 0.00173963832549 0.94 1.55474793292e-38
0.00867968483676 0.00173593696735 0.938 1.25954689518e-38
0.0103823095809 0.00173038493014 0.935 1.25947360727e-38
0.012086785004 0.001726683572 0.933 1.3602774136e-38
0.0137690522784 0.00172113153479 0.93 1.31378569367e-38
0.0154901838131 0.00172113153479 0.93 1.49813827756e-38
0.0171743017665 0.00171743017665 0.928 1.70039160855e-38
0.0188917319432 0.00171743017665 0.928 1.8198136268e-38
0.0206091621199 0.00171743017665 0.928 2.03207559194e-38
0.0223265922965 0.00171743017665 0.928 1.96746788546e-38
0.0240440224732 0.00171743017665 0.928 1.97503713925e-38
0.0256781720917 0.00171187813945 0.925 2.06629866355e-38
0.0273900502311 0.00171187813945 0.925 2.14044865205e-38
0.0290390052822 0.00170817678131 0.923 2.08509624167e-38
0.0307471820635 0.00170817678131 0.923 2.10476052289e-38
