# .PCD v0.7 - Point Cloud Data file format
VERSION 0.7
FIELDS x y z rgb
SIZE 4 4 4 4
TYPE F F F F
COUNT 1 1 1 1
WIDTH 856
HEIGHT 1
VIEWPOINT 0 0 0 1 0 0 0
POINTS 856
DATA ascii
0.0185863698967 -0.0152070299155 0.913 1.84937794154e-38
0.0202094154408 -0.0151570615806 0.91 2.34954116033e-38
0.0218935333942 -0.0151570615806 0.91 1.87897883017e-38
0.0235258323337 -0.0151237493574 0.908 2.05406939173e-38
0.0252062489289 -0.0151237493574 0.908 1.83184181229e-38
0.0268866655242 -0.0151237493574 0.908 2.34877226786e-38
0.0285041590311 -0.0150904371341 0.906 2.34928864635e-38
0.0301808742682 -0.0150904371341 0.906 1.83219451912e-38
0.0318575895053 -0.0150904371341 0.906 2.16229545563e-38
0.0335343047424 -0.0150904371341 0.906 2.07190722053e-38
0.0352110199796 -0.0150904371341 0.906 2.35094932516e-38
0.0368877352167 -0.0150904371341 0.906 2.35098113463e-38
0.0385644504538 -0.0150904371341 0.906 2.35098323658e-38
0.0403299982863 -0.0151237493574 0.908 2.35098421749e-38
0.0420104148815 -0.0151237493574 0.908 2.35098575892e-38
0.0436908314768 -0.0151237493574 0.908 2.35098113463e-38
0.0453712480721 -0.0151237493574 0.908 2.09224846904e-38
0.0470516646673 -0.0151237493574 0.908 1.43663248536e-38
0.0487320812626 -0.0151237493574 0.908 1.55532498763e-38
0.0504124978578 -0.0151237493574 0.908 2.34842810896e-38
0.0520929144531 -0.0151237493574 0.908 2.35098169515e-38
0.0537733310484 -0.0151237493574 0.908 2.35098856151e-38
0.0554537476436 -0.0151237493574 0.908 2.35098673983e-38
0.0571341642389 -0.0151237493574 0.908 1.58466453409e-38
0.0588145808341 -0.0151237493574 0.908 2.35096109606e-38
0.0604949974294 -0.0151237493574 0.908 2.35098856151e-38
0.0621754140247 -0.0151237493574 0.908 2.35098856151e-38
0.0638558306199 -0.0151237493574 0.908 1.45480340281e-38
0.0655362472152 -0.0151237493574 0.908 2.09539270253e-38
0.0672166638105 -0.0151237493574 0.908 2.34594458769e-38
0.0688970804057 -0.0151237493574 0.908 2.34842138273e-38
0.0711215966475 -0.0152403421387 0.915 2.08087665174e-38
0.0101935403157 -0.0135913870877 0.918 1.87624825998e-38
0.0118924637017 -0.0135913870877 0.918 1.82042893695e-38
0.01354697079 -0.01354697079 0.915 1.91254819605e-38
0.0152403421387 -0.01354697079 0.915 1.89325189581e-38
0.0169337134875 -0.01354697079 0.915 1.83918517677e-38
0.0185863698967 -0.0135173599249 0.913 2.0980194365e-38
0.0202094154408 -0.0134729436272 0.91 1.96073422595e-38
0.0218935333942 -0.0134729436272 0.91 2.23845742847e-38
0.0235258323337 -0.0134433327621 0.908 2.26566896309e-38
0.0252062489289 -0.0134433327621 0.908 2.09020439497e-38
0.026827443794 -0.013413721897 0.906 1.93396522139e-38
0.0285041590311 -0.013413721897 0.906 1.9894356211e-38
0.0301808742682 -0.013413721897 0.906 2.22801845556e-38
0.0318575895053 -0.013413721897 0.906 2.35038488214e-38
0.0335343047424 -0.013413721897 0.906 2.35039805434e-38
0.0352110199796 -0.013413721897 0.906 2.34957086786e-38
0.0368877352167 -0.013413721897 0.906 2.19186089141e-38
0.0385644504538 -0.013413721897 0.906 2.14507994348e-38
0.0402411656909 -0.013413721897 0.906 2.12696549836e-38
0.041917880928 -0.013413721897 0.906 2.1826435705e-38
0.0435945961652 -0.013413721897 0.906 2.27509325578e-38
0.0452713114023 -0.013413721897 0.906 2.35096277762e-38
0.0470516646673 -0.0134433327621 0.908 2.35097538931e-38
0.0487320812626 -0.0134433327621 0.908 2.35097693074e-38
0.0504124978578 -0.0134433327621 0.908 2.35097328736e-38
0.0520929144531 -0.0134433327621 0.908 1.92679856065e-38
0.0537733310484 -0.0134433327621 0.908 2.27579838917e-38
0.0554537476436 -0.0134433327621 0.908 2.34951873956e-38
0.0571341642389 -0.0134433327621 0.908 2.35098772074e-38
0.0588145808341 -0.0134433327621 0.908 2.35098856151e-38
0.0604949974294 -0.0134433327621 0.908 2.23112877763e-38
0.0621754140247 -0.0134433327621 0.908 1.38908362587e-38
0.0638558306199 -0.0134433327621 0.908 2.03896325415e-38
0.0655362472152 -0.0134433327621 0.908 2.34596784925e-38
0.06773485395 -0.01354697079 0.915 2.34781532114e-38
0.0694282252987 -0.01354697079 0.915 1.98806543146e-38
0.0711215966475 -0.01354697079 0.915 1.9609870202e-38
0.0730537055962 -0.0135913870877 0.918 2.34713232827e-38
0.0118535994412 -0.0118535994412 0.915 1.94046023977e-38
0.01354697079 -0.0118535994412 0.915 1.81120685163e-38
0.0152403421387 -0.0118535994412 0.915 1.82914431275e-38
0.0169337134875 -0.0118535994412 0.915 1.7550635484e-38
0.0185863698967 -0.0118276899343 0.913 1.80090954999e-38
0.0202094154408 -0.0117888256738 0.91 2.05170077693e-38
0.0218935333942 -0.0117888256738 0.91 1.91480989177e-38
0.0235258323337 -0.0117629161668 0.908 2.09873395859e-38
0.0252062489289 -0.0117629161668 0.908 2.34870458515e-38
0.026827443794 -0.0117370066599 0.906 2.29368666471e-38
0.0285041590311 -0.0117370066599 0.906 2.2564066605e-38
0.0301808742682 -0.0117370066599 0.906 2.19053330125e-38
0.0318575895053 -0.0117370066599 0.906 2.09829759425e-38
0.0335343047424 -0.0117370066599 0.906 2.21026092116e-38
0.0352110199796 -0.0117370066599 0.906 2.34950150358e-38
0.0368877352167 -0.0117370066599 0.906 2.34949281553e-38
0.0385644504538 -0.0117370066599 0.906 2.34903304951e-38
0.0402411656909 -0.0117370066599 0.906 2.3490668208e-38
0.041917880928 -0.0117370066599 0.906 2.34960421876e-38
0.0435945961652 -0.0117370066599 0.906 2.35092480243e-38
0.0452713114023 -0.0117370066599 0.906 2.35042327771e-38
0.0470516646673 -0.0117629161668 0.908 1.62043996415e-38
0.0486247418765 -0.0117370066599 0.906 2.06213736764e-38
0.0503014571137 -0.0117370066599 0.906 1.86903171302e-38
0.0520929144531 -0.0117629161668 0.908 2.35097328736e-38
0.0537733310484 -0.0117629161668 0.908 2.3509795932e-38
0.0554537476436 -0.0117629161668 0.908 2.35098393723e-38
0.0571341642389 -0.0117629161668 0.908 2.32338101995e-38
0.0588145808341 -0.0117629161668 0.908 1.94285884235e-38
0.0604949974294 -0.0117629161668 0.908 1.56120343469e-38
0.0621754140247 -0.0117629161668 0.908 2.20473448027e-38
0.0638558306199 -0.0117629161668 0.908 2.34425083824e-38
0.0655362472152 -0.0117629161668 0.908 2.34669456263e-38
0.06773485395 -0.0118535994412 0.915 2.34817321277e-38
0.0694282252987 -0.0118535994412 0.915 2.03391591721e-38
0.0713547822102 -0.0118924637017 0.918 2.19972778099e-38
0.0730537055962 -0.0118924637017 0.918 2.34724134929e-38
0.0119572374691 -0.0102490606878 0.923 1.92187762084e-38
0.0135913870877 -0.0101935403157 0.918 1.7558175871e-38
0.0152903104736 -0.0101935403157 0.918 1.84797594242e-38
0.0169337134875 -0.0101602280925 0.915 1.80173799765e-38
0.0185863698967 -0.0101380199437 0.913 1.82860551349e-38
0.0202094154408 -0.0101047077204 0.91 1.81834282393e-38
0.0218935333942 -0.0101047077204 0.91 1.86508719797e-38
0.0235258323337 -0.0100824995716 0.908 2.05177238328e-38
0.0251507285568 -0.0100602914227 0.906 1.90551816191e-38
0.026827443794 -0.0100602914227 0.906 1.95140424065e-38
0.0285041590311 -0.0100602914227 0.906 2.11713651067e-38
0.0301808742682 -0.0100602914227 0.906 2.34952966968e-38
0.0318575895053 -0.0100602914227 0.906 2.35076323272e-38
0.0334232639983 -0.0100269791995 0.903 2.35075426441e-38
0.0350944271982 -0.0100269791995 0.903 2.34937748867e-38
0.0367655903981 -0.0100269791995 0.903 2.34823865341e-38
0.038436753598 -0.0100269791995 0.903 2.34806321084e-38
0.0401079167979 -0.0100269791995 0.903 2.30171456348e-38
0.0417790799978 -0.0100269791995 0.903 2.30185553411e-38
0.0434502431977 -0.0100269791995 0.903 2.33934517257e-38
0.0452713114023 -0.0100602914227 0.906 2.35050329186e-38
0.0469480266394 -0.0100602914227 0.906 2.350977211e-38
0.0486247418765 -0.0100602914227 0.906 2.35097426827e-38
0.0503014571137 -0.0100602914227 0.906 2.35097749126e-38
0.0520929144531 -0.0100824995716 0.908 2.35097216632e-38
0.0537733310484 -0.0100824995716 0.908 2.10928965966e-38
0.0554537476436 -0.0100824995716 0.908 1.86727630643e-38
0.0571341642389 -0.0100824995716 0.908 1.93812357458e-38
0.0588145808341 -0.0100824995716 0.908 2.01126911234e-38
0.0604949974294 -0.0100824995716 0.908 2.3435276281e-38
0.0621754140247 -0.0100824995716 0.908 2.31648032566e-38
0.0639964822292 -0.0101047077204 0.91 2.34399510127e-38
0.0660414826012 -0.0101602280925 0.915 2.34655149006e-38
0.0679569354383 -0.0101935403157 0.918 2.34795881411e-38
0.0696558588243 -0.0101935403157 0.918 1.96026156798e-38
0.0713547822102 -0.0101935403157 0.918 2.34683805559e-38
0.0102712688367 -0.00855939069723 0.925 1.74829093279e-38
0.0119572374691 -0.00854088390653 0.923 1.85709138893e-38
0.0136654142505 -0.00854088390653 0.923 1.82942919673e-38
0.0152903104736 -0.00849461692979 0.918 1.82010243441e-38
0.0169892338596 -0.00849461692979 0.918 1.93055726352e-38
0.0186270848362 -0.00846685674374 0.915 1.82860355167e-38
0.0202094154408 -0.008420589767 0.91 1.92051149496e-38
0.0218935333942 -0.008420589767 0.91 1.93880614706e-38
0.0235258323337 -0.00840208297631 0.908 1.77285597513e-38
0.0251507285568 -0.00838357618561 0.906 1.66222248046e-38
0.026827443794 -0.00838357618561 0.906 2.09593878854e-38
0.0285041590311 -0.00838357618561 0.906 2.12592419347e-38
0.0301808742682 -0.00838357618561 0.906 1.94236068075e-38
0.0318575895053 -0.00838357618561 0.906 2.02566465147e-38
0.0334232639983 -0.00835581599956 0.903 2.21944152805e-38
0.0350944271982 -0.00835581599956 0.903 2.34820460186e-38
0.0367655903981 -0.00835581599956 0.903 2.34820824523e-38
0.038436753598 -0.00835581599956 0.903 2.34842516623e-38
0.0401079167979 -0.00835581599956 0.903 2.34950388579e-38
0.0417790799978 -0.00835581599956 0.903 2.349289347e-38
0.0434502431977 -0.00835581599956 0.903 2.34921619922e-38
0.0451214063976 -0.00835581599956 0.903 2.34925123168e-38
0.0469480266394 -0.00838357618561 0.906 2.34895878069e-38
0.0486247418765 -0.00838357618561 0.906 2.27387384585e-38
0.0503014571137 -0.00838357618561 0.906 2.34740754329e-38
0.0520929144531 -0.00840208297631 0.908 2.18938269508e-38
0.0537733310484 -0.00840208297631 0.908 1.71761076408e-38
0.0554537476436 -0.00840208297631 0.908 1.99326074552e-38
0.0571341642389 -0.00840208297631 0.908 2.3337352143e-38
0.0588145808341 -0.00840208297631 0.908 2.23307434042e-38
0.0604949974294 -0.00840208297631 0.908 2.29800392515e-38
0.0623123642758 -0.008420589767 0.91 2.25190807204e-38
0.0643481112525 -0.00846685674374 0.915 2.34449886807e-38
0.0660414826012 -0.00846685674374 0.915 2.3462991162e-38
0.0679569354383 -0.00849461692979 0.918 2.34763063e-38
0.0696558588243 -0.00849461692979 0.918 2.1535118366e-38
0.0715102392521 -0.00851312372049 0.92 2.34730875175e-38
0.0736107599962 -0.00855939069723 0.925 2.34759854027e-38
0.0102712688367 -0.00684751255778 0.925 1.87765194065e-38
0.0119831469761 -0.00684751255778 0.925 1.75693890613e-38
0.0136654142505 -0.00683270712523 0.923 1.68206038256e-38
0.0153735910318 -0.00683270712523 0.923 1.87495444111e-38
0.0169892338596 -0.00679569354383 0.918 1.78293593537e-38
0.0186270848362 -0.006773485395 0.915 1.86526502275e-38
0.0202760398873 -0.00675867996244 0.913 1.90196334797e-38
0.0218935333942 -0.0067364718136 0.91 1.86512152978e-38
0.0235258323337 -0.00672166638105 0.908 1.94809633549e-38
0.0252062489289 -0.00672166638105 0.908 1.9016404888e-38
0.026827443794 -0.00670686094849 0.906 2.03925024008e-38
0.0285041590311 -0.00670686094849 0.906 1.89181122085e-38
0.0301808742682 -0.00670686094849 0.906 1.78203910435e-38
0.0318575895053 -0.00670686094849 0.906 1.625488282e-38
0.0335343047424 -0.00670686094849 0.906 1.84722078268e-38
0.0352110199796 -0.00670686094849 0.906 2.0877236763e-38
0.0367655903981 -0.00668465279965 0.903 2.0980114491e-38
0.038436753598 -0.00668465279965 0.903 2.27310887702e-38
0.0401079167979 -0.00668465279965 0.903 2.22683730108e-38
0.0417790799978 -0.00668465279965 0.903 2.25442158109e-38
0.0434502431977 -0.00668465279965 0.903 2.16193882517e-38
0.0451214063976 -0.00668465279965 0.903 1.81927833078e-38
0.0467925695976 -0.00668465279965 0.903 1.84628807842e-38
0.0486247418765 -0.00670686094849 0.906 1.7999757247e-38
0.0503014571137 -0.00670686094849 0.906 1.94691251855e-38
0.0520929144531 -0.00672166638105 0.908 2.07548221317e-38
0.0537733310484 -0.00672166638105 0.908 2.3431712779e-38
0.0554537476436 -0.00672166638105 0.908 2.20584753164e-38
0.0572600104156 -0.0067364718136 0.91 2.17779283574e-38
0.058944128369 -0.0067364718136 0.91 2.28857206545e-38
0.0608281196619 -0.00675867996244 0.913 2.32577177526e-38
0.0625177896526 -0.00675867996244 0.913 2.18751602539e-38
0.0645590886664 -0.00679569354383 0.918 2.34450082988e-38
0.0662580120524 -0.00679569354383 0.918 2.34644359008e-38
0.0681049897639 -0.00681049897639 0.92 2.23454416238e-38
0.069807614508 -0.00681049897639 0.92 2.34788846892e-38
0.0715102392521 -0.00681049897639 0.92 2.34838789169e-38
0.0736107599962 -0.00684751255778 0.925 2.34752118859e-38
0.0119831469761 -0.00513563441834 0.925 1.73885528958e-38
0.0136950251156 -0.00513563441834 0.925 1.88568236176e-38
0.0153735910318 -0.00512453034392 0.923 1.6917102843e-38
0.017026247441 -0.00510787423229 0.92 1.83843239923e-38
0.0186881572455 -0.00509677015787 0.918 1.81949076763e-38
0.020320456185 -0.00508011404625 0.915 1.96632036215e-38
0.0218935333942 -0.0050523538602 0.91 1.87419759981e-38
0.0235776513476 -0.0050523538602 0.91 1.91057292573e-38
0.0252062489289 -0.00504124978578 0.908 1.99315312579e-38
0.0268866655242 -0.00504124978578 0.908 2.00222905569e-38
0.0285041590311 -0.00503014571137 0.906 2.08498904234e-38
0.0301808742682 -0.00503014571137 0.906 2.04886637053e-38
0.0318575895053 -0.00503014571137 0.906 2.00269540782e-38
0.0335343047424 -0.00503014571137 0.906 1.91082403842e-38
0.0352110199796 -0.00503014571137 0.906 1.84589347278e-38
0.0368877352167 -0.00503014571137 0.906 1.83670992316e-38
0.038436753598 -0.00501348959974 0.903 1.94691251855e-38
0.0401079167979 -0.00501348959974 0.903 1.9744631674e-38
0.0417790799978 -0.00501348959974 0.903 1.99283026663e-38
0.0434502431977 -0.00501348959974 0.903 2.05711511394e-38
0.0451214063976 -0.00501348959974 0.903 2.13976706048e-38
0.0467925695976 -0.00501348959974 0.903 2.15824388138e-38
0.0486247418765 -0.00503014571137 0.906 2.24175874752e-38
0.0503014571137 -0.00503014571137 0.906 2.27888657072e-38
0.0520929144531 -0.00504124978578 0.908 2.13177279287e-38
0.0537733310484 -0.00504124978578 0.908 2.21438732475e-38
0.0555758924622 -0.0050523538602 0.91 2.09510865933e-38
0.0572600104156 -0.0050523538602 0.91 2.2971111579e-38
0.058944128369 -0.0050523538602 0.91 2.19641118779e-38
0.0608281196619 -0.00506900997183 0.913 2.26988056562e-38
0.0625177896526 -0.00506900997183 0.913 2.28835402341e-38
0.0645590886664 -0.00509677015787 0.918 2.34486026294e-38
0.0662580120524 -0.00509677015787 0.918 2.34651799902e-38
0.0681049897639 -0.00510787423229 0.92 2.34554675906e-38
0.069807614508 -0.00510787423229 0.92 2.34748909886e-38
0.0717434248149 -0.00512453034392 0.923 2.34762796754e-38
0.0736107599962 -0.00513563441834 0.925 2.34723083955e-38
0.0119831469761 -0.00342375627889 0.925 1.90455308766e-38
0.0136950251156 -0.00342375627889 0.925 1.63715493249e-38
0.0153735910318 -0.00341635356261 0.923 1.92317143971e-38
0.0170817678131 -0.00341635356261 0.923 1.67402673846e-38
0.0186881572455 -0.00339784677192 0.918 1.59991066139e-38
0.020320456185 -0.0033867426975 0.915 1.84682617703e-38
0.0219657098779 -0.00337933998122 0.913 1.91979234859e-38
0.0236553798685 -0.00337933998122 0.913 1.9746425336e-38
0.0252062489289 -0.00336083319052 0.908 1.98393552463e-38
0.0268866655242 -0.00336083319052 0.908 2.00240842189e-38
0.0285670821194 -0.00336083319052 0.908 2.10421667896e-38
0.0301808742682 -0.00335343047424 0.906 2.04000427878e-38
0.0318575895053 -0.00335343047424 0.906 2.03071240879e-38
0.0335343047424 -0.00335343047424 0.906 1.98515339312e-38
0.0352110199796 -0.00335343047424 0.906 2.00323350643e-38
0.0368877352167 -0.00335343047424 0.906 1.93866167319e-38
0.038436753598 -0.00334232639983 0.903 2.31598034237e-38
0.0401079167979 -0.00334232639983 0.903 2.1226584674e-38
0.0417790799978 -0.00334232639983 0.903 2.05750971959e-38
0.0434502431977 -0.00334232639983 0.903 2.05747384635e-38
0.0452713114023 -0.00335343047424 0.906 2.18640479571e-38
0.0469480266394 -0.00335343047424 0.906 2.14041432024e-38
0.0486247418765 -0.00335343047424 0.906 2.13137454385e-38
0.0503014571137 -0.00335343047424 0.906 2.15917588499e-38
0.0520929144531 -0.00336083319052 0.908 2.21438340111e-38
0.0538917745088 -0.0033682359068 0.91 2.19598042864e-38
0.0555758924622 -0.0033682359068 0.91 2.19626741456e-38
0.0574487796807 -0.00337933998122 0.913 2.26981022044e-38
0.0591384496713 -0.00337933998122 0.913 2.24222131614e-38
0.0608281196619 -0.00337933998122 0.913 2.34331841424e-38
0.0626547399037 -0.0033867426975 0.915 2.28911198574e-38
0.0645590886664 -0.00339784677192 0.918 2.34432398602e-38
0.0664023650198 -0.00340524948819 0.92 2.0772049695e-38
0.0683270712523 -0.00341635356261 0.923 2.34738708433e-38
0.0700352480336 -0.00341635356261 0.923 2.28306131911e-38
0.0717434248149 -0.00341635356261 0.923 2.24496015399e-38
0.0137394414132 -0.00171743017665 0.928 1.46194441978e-38
0.0154568715899 -0.00171743017665 0.928 1.67421269077e-38
0.0170817678131 -0.00170817678131 0.923 1.56414798315e-38
0.0187288721851 -0.0017026247441 0.92 1.58244039317e-38
0.0203870806315 -0.00169892338596 0.918 1.76546622768e-38
0.0220138275337 -0.00169337134875 0.915 1.72711717286e-38
0.0237071988825 -0.00169337134875 0.915 1.96563835019e-38
0.0252062489289 -0.00168041659526 0.908 1.98400544942e-38
0.0268866655242 -0.00168041659526 0.908 2.02091901409e-38
0.0285670821194 -0.00168041659526 0.908 2.02099076057e-38
0.0302474987147 -0.00168041659526 0.908 1.89227827363e-38
0.0318575895053 -0.00167671523712 0.906 1.96527961778e-38
0.0335343047424 -0.00167671523712 0.906 1.99311725255e-38
0.0352110199796 -0.00167671523712 0.906 2.10396556628e-38
0.0368877352167 -0.00167671523712 0.906 2.10432429868e-38
0.0385644504538 -0.00167671523712 0.906 2.06708787485e-38
0.0402411656909 -0.00167671523712 0.906 2.08527560788e-38
0.041917880928 -0.00167671523712 0.906 2.07598443854e-38
0.0435945961652 -0.00167671523712 0.906 2.1224415464e-38
0.0453712480721 -0.00168041659526 0.908 2.03053710636e-38
0.0470516646673 -0.00168041659526 0.908 2.0947108307e-38
0.0487320812626 -0.00168041659526 0.908 2.1499191876e-38
0.0504124978578 -0.00168041659526 0.908 2.10378620007e-38
0.0522076565554 -0.0016841179534 0.91 2.20473349936e-38
0.0540694396995 -0.00168966999061 0.913 2.20545096418e-38
0.0557591096901 -0.00168966999061 0.913 2.17750570968e-38
0.0574487796807 -0.00168966999061 0.913 2.26963645943e-38
0.0591384496713 -0.00168966999061 0.913 2.30636421192e-38
0.060961368555 -0.00169337134875 0.915 2.34310247415e-38
0.0626547399037 -0.00169337134875 0.915 2.27967592215e-38
0.0645590886664 -0.00169892338596 0.918 2.344142658e-38
0.0667632474384 -0.00171187813945 0.925 2.34464656492e-38
0.0684751255778 -0.00171187813945 0.925 2.34744916185e-38
0.0701870037173 -0.00171187813945 0.925 2.34770798168e-38
0.0137394414132 0.0 0.928 2.0611742552e-38
0.0154568715899 0.0 0.928 1.28688076315e-38
0.0171743017665 0.0 0.928 1.70169159314e-38
0.0188917319432 0.0 0.928 1.7204912732e-38
0.0205425376733 0.0 0.925 1.85798429632e-38
0.022206298157 0.0 0.923 1.96793549876e-38
0.0238367464174 0.0 0.92 1.72693780666e-38
0.0254838507894 0.0 0.918 1.92908351793e-38
0.02709394158 0.0 0.915 1.97496539277e-38
0.0287873129287 0.0 0.915 2.01187895743e-38
0.030414059831 0.0 0.913 1.95663416678e-38
0.0321037298216 0.0 0.913 1.91114689758e-38
0.033867426975 0.0 0.915 2.06687585839e-38
0.0354830698028 0.0 0.913 1.97532412517e-38
0.0371727397934 0.0 0.913 1.95667004002e-38
0.038862409784 0.0 0.913 2.13126510244e-38
0.0405520797746 0.0 0.913 2.04825442349e-38
0.0422417497652 0.0 0.913 2.0759485653e-38
0.0439314197559 0.0 0.913 2.2418638449e-38
0.0457210264162 0.0 0.915 2.04882979664e-38
0.0473107597371 0.0 0.913 2.14995786343e-38
0.0490004297277 0.0 0.913 2.03064262413e-38
0.0506900997183 0.0 0.913 2.30686671755e-38
0.0524945118112 0.0 0.915 2.06730745832e-38
0.05418788316 0.0 0.915 2.22346395529e-38
0.0558812545087 0.0 0.915 2.20541509094e-38
0.0575746258575 0.0 0.915 2.34349764031e-38
0.0592679972062 0.0 0.915 2.25133424032e-38
0.0611612418945 0.0 0.918 2.23268225711e-38
0.0629971155316 0.0 0.92 2.34403461789e-38
0.0649107176896 0.0 0.923 2.34460943052e-38
0.0667632474384 0.0 0.925 2.34436210134e-38
0.0686972070662 0.0 0.928 2.34719762878e-38
0.0704146372428 0.0 0.928 1.85788298244e-38
0.015540152148 0.001726683572 0.933 2.00557157292e-38
0.01726683572 0.001726683572 0.933 1.31418029932e-38
0.018993519292 0.001726683572 0.933 1.67258984702e-38
0.0206091621199 0.00171743017665 0.928 2.09734176856e-38
0.0223265922965 0.00171743017665 0.928 2.11641358079e-38
0.0239662939522 0.00171187813945 0.925 2.0787829717e-38
0.0256226517196 0.00170817678131 0.923 1.81941902115e-38
0.0272419959056 0.0017026247441 0.92 1.92854597984e-38
0.0288816975613 0.00169892338596 0.918 2.02073964788e-38
0.0305806209472 0.00169892338596 0.918 2.01148435179e-38
0.0322795443332 0.00169892338596 0.918 2.02095488733e-38
0.0339784677192 0.00169892338596 0.918 2.03925024008e-38
0.0355607983237 0.00169337134875 0.915 1.9473071242e-38
0.0372541696725 0.00169337134875 0.915 1.98422068886e-38
0.0389475410212 0.00169337134875 0.915 2.14030515909e-38
0.04064091237 0.00169337134875 0.915 2.03942960628e-38
0.0423342837187 0.00169337134875 0.915 1.98422068886e-38
0.0440276550675 0.00169337134875 0.915 2.10346334091e-38
0.0457210264162 0.00169337134875 0.915 2.0573309139e-38
0.047414397765 0.00169337134875 0.915 2.33445702314e-38
0.0492687781928 0.00169892338596 0.918 2.0582271844e-38
0.0509677015787 0.00169892338596 0.918 2.13187494753e-38
0.0526666249647 0.00169892338596 0.918 2.150350227e-38
0.0544839918111 0.0017026247441 0.92 2.17757927785e-38
0.0561866165552 0.0017026247441 0.92 2.12247615847e-38
0.0578892412993 0.0017026247441 0.92 2.32458851884e-38
0.0597861873457 0.00170817678131 0.923 2.34511011446e-38
0.0618274863596 0.00171743017665 0.928 2.34507003732e-38
0.0635449165362 0.00171743017665 0.928 2.34478263101e-38
0.0654029983222 0.00172113153479 0.93 2.28925295637e-38
0.0674850122756 0.00173038493014 0.935 2.3476949496e-38
0.0692153972057 0.00173038493014 0.935 1.9867082739e-38
0.0711734156614 0.00173593696735 0.938 2.15207914905e-38
0.0732979952334 0.0017451903627 0.943 2.34846286116e-38
0.0156234327062 0.0034718739347 0.938 1.83836359548e-38
0.0173593696735 0.0034718739347 0.938 2.17094188755e-38
0.0190342342316 0.00346076986028 0.935 1.82061194653e-38
0.020720202864 0.00345336714401 0.933 1.2214120989e-38
0.0223747099523 0.00344226306959 0.93 2.08855156343e-38
0.0240440224732 0.00343486035331 0.928 2.05220734633e-38
0.0256781720917 0.00342375627889 0.925 2.12416220078e-38
0.0273308285009 0.00341635356261 0.923 1.98580219431e-38
0.0290390052822 0.00341635356261 0.923 1.87408983996e-38
0.0306472453938 0.00340524948819 0.92 2.03896325415e-38
0.0322795443332 0.00339784677192 0.918 2.00255191485e-38
0.0339784677192 0.00339784677192 0.918 2.1868338733e-38
0.0355607983237 0.0033867426975 0.915 1.95620368789e-38
0.0372541696725 0.0033867426975 0.915 2.08516910919e-38
0.0389475410212 0.0033867426975 0.915 2.06644215652e-38
0.04064091237 0.0033867426975 0.915 2.09402895887e-38
0.0423342837187 0.0033867426975 0.915 2.03910674711e-38
0.0441720080349 0.00339784677192 0.918 2.07630897926e-38
0.0458709314209 0.00339784677192 0.918 2.11275521089e-38
0.0475698548068 0.00339784677192 0.918 2.08491687547e-38
0.0492687781928 0.00339784677192 0.918 2.26048093578e-38
0.0510787423229 0.00340524948819 0.92 2.10475477757e-38
0.052781367067 0.00340524948819 0.92 2.11494277793e-38
0.0544839918111 0.00340524948819 0.92 2.1146933468e-38
0.0561866165552 0.00340524948819 0.92 2.34600876716e-38
0.0580780105644 0.00341635356261 0.923 2.34608163468e-38
0.0599157348806 0.00342375627889 0.925 2.34553596906e-38
0.0618274863596 0.00343486035331 0.928 2.34593449834e-38
0.0640242424153 0.00346076986028 0.935 2.32671148601e-38
0.0659656047594 0.0034718739347 0.938 2.34777356245e-38
0.0677015417267 0.0034718739347 0.938 2.07908158841e-38
0.0695855330196 0.00347927665098 0.94 1.94006619464e-38
0.0713251713451 0.00347927665098 0.94 2.34644695319e-38
0.0732979952334 0.0034903807254 0.943 2.34903459094e-38
0.0156567449294 0.00521891497647 0.94 1.70964970724e-38
0.0173963832549 0.00521891497647 0.94 1.80137478108e-38
0.0190953066409 0.00520781090205 0.938 1.90196334797e-38
0.0208312436082 0.00520781090205 0.938 2.2725392492e-38
0.022446886436 0.00518005071601 0.933 1.49846113672e-38
0.0240958414871 0.00516339460438 0.93 2.29209871329e-38
0.0257614526498 0.00515229052996 0.928 1.69988938318e-38
0.0274788828265 0.00515229052996 0.928 2.21639524531e-38
0.0291019283706 0.00513563441834 0.925 1.86626947349e-38
0.0307471820635 0.00512453034392 0.923 1.93844643375e-38
0.0323498701378 0.00510787423229 0.92 2.07623555123e-38
0.0340524948819 0.00510787423229 0.92 1.97503952146e-38
0.0356773911051 0.00509677015787 0.918 2.16800042194e-38
0.0373763144911 0.00509677015787 0.918 2.04854491266e-38
0.039075237877 0.00509677015787 0.918 2.21438340111e-38
0.040774161263 0.00509677015787 0.918 2.01119736586e-38
0.042473084649 0.00509677015787 0.918 2.29685752288e-38
0.0441720080349 0.00509677015787 0.918 2.03982827569e-38
0.0459708680906 0.00510787423229 0.92 2.05765321255e-38
0.0476734928347 0.00510787423229 0.92 2.27978158005e-38
0.0493761175788 0.00510787423229 0.92 2.13313051095e-38
0.0510787423229 0.00510787423229 0.92 1.96832884324e-38
0.0529534802205 0.00512453034392 0.923 1.94157132932e-38
0.0546616570018 0.00512453034392 0.923 2.05087541214e-38
0.0564919786017 0.00513563441834 0.925 2.34582393589e-38
0.0583926260063 0.00515229052996 0.928 2.21581945178e-38
0.060563472555 0.00519115479043 0.935 1.95699416035e-38
0.0622938574851 0.00519115479043 0.935 2.34543227297e-38
0.064229667792 0.00520781090205 0.938 2.34848920557e-38
0.0659656047594 0.00520781090205 0.938 1.71962204777e-38
0.0677015417267 0.00520781090205 0.938 1.99433708287e-38
0.0695855330196 0.00521891497647 0.94 2.18878363998e-38
0.0713251713451 0.00521891497647 0.94 2.34928864635e-38
0.0156567449294 0.00695855330196 0.94 1.59908557685e-38
0.0173963832549 0.00695855330196 0.94 1.81034309126e-38
0.0191360215804 0.00695855330196 0.94 1.84657506435e-38
0.0208756599059 0.00695855330196 0.94 1.744874427e-38
0.0224950040919 0.00692153972057 0.935 2.02188969353e-38
0.024225389022 0.00692153972057 0.935 2.17122789256e-38
0.02590025358 0.00690673428801 0.933 1.53440612389e-38
0.027626937152 0.00690673428801 0.933 2.03143113478e-38
0.0291963130031 0.00686972070662 0.928 1.97654787912e-38
0.0309137431798 0.00686972070662 0.928 1.97553936462e-38
0.0324553588448 0.00683270712523 0.923 1.97485777304e-38
0.0341635356261 0.00683270712523 0.923 2.05751013998e-38
0.0358717124074 0.00683270712523 0.923 2.06665753609e-38
0.0375798891887 0.00683270712523 0.923 2.30633100114e-38
0.0391603691142 0.00681049897639 0.92 2.23314622703e-38
0.0408629938583 0.00681049897639 0.92 1.94706105619e-38
0.0425656186024 0.00681049897639 0.92 2.02956446509e-38
0.0442682433465 0.00681049897639 0.92 2.06680229022e-38
0.0461207730953 0.00683270712523 0.923 2.27960221385e-38
0.0478289498766 0.00683270712523 0.923 2.14321089159e-38
0.0495371266579 0.00683270712523 0.923 1.85819799433e-38
0.0513563441834 0.00684751255778 0.925 1.58218928049e-38
0.0532403354763 0.00686972070662 0.928 1.95079159296e-38
0.054957765653 0.00686972070662 0.928 2.08764324176e-38
0.0569805578761 0.00690673428801 0.933 1.90214271417e-38
0.0588330876248 0.00692153972057 0.935 2.13155573174e-38
0.060563472555 0.00692153972057 0.935 2.34683020832e-38
0.0622938574851 0.00692153972057 0.935 2.34742015498e-38
0.064229667792 0.00694374786941 0.938 1.6455055503e-38
0.0659656047594 0.00694374786941 0.938 2.34440217847e-38
0.0677015417267 0.00694374786941 0.938 2.3454661844e-38
0.0695855330196 0.00695855330196 0.94 2.34857146179e-38
0.0715528048707 0.0069807614508 0.943 2.20004433431e-38
0.0158399621573 0.00879997897629 0.951 1.65440211399e-38
0.0175999579526 0.00879997897629 0.951 1.77368063927e-38
0.0208756599059 0.00869819162745 0.94 1.81002023209e-38
0.0224950040919 0.00865192465071 0.935 1.9661764488e-38
0.024225389022 0.00865192465071 0.935 1.63467183161e-38
0.0259557739521 0.00865192465071 0.935 1.74569951154e-38
0.0276861588823 0.00865192465071 0.935 1.77393231248e-38
0.0293536207241 0.00863341786002 0.933 2.05905282946e-38
0.0309803676263 0.00860565767397 0.93 1.94755823688e-38
0.0327014991611 0.00860565767397 0.93 1.9838978297e-38
0.0342375627889 0.00855939069723 0.925 2.12204652036e-38
0.0359494409284 0.00855939069723 0.925 2.09453104411e-38
0.0376613190678 0.00855939069723 0.925 2.07555395965e-38
0.0393731972073 0.00855939069723 0.925 2.26001626521e-38
0.0409962427514 0.00854088390653 0.923 1.93783658866e-38
0.0427044195327 0.00854088390653 0.923 2.34453880507e-38
0.0445088316256 0.00855939069723 0.925 2.17926349848e-38
0.046220709765 0.00855939069723 0.925 2.26227599911e-38
0.0480880449463 0.00858715088327 0.928 2.06920467631e-38
0.049805475123 0.00858715088327 0.928 2.09754453645e-38
0.0515229052996 0.00858715088327 0.928 2.08868356574e-38
0.0533550775786 0.00860565767397 0.93 2.10658487337e-38
0.0552538743041 0.00863341786002 0.933 1.67237460757e-38
0.0571027026947 0.00865192465071 0.935 2.10493624572e-38
0.0588330876248 0.00865192465071 0.935 2.34720421488e-38
0.0607577938573 0.00867968483676 0.938 2.34658722317e-38
0.0624937308247 0.00867968483676 0.938 2.12409143521e-38
0.064229667792 0.00867968483676 0.938 2.34629715439e-38
0.0659656047594 0.00867968483676 0.938 2.34698519193e-38
0.0678458946941 0.00869819162745 0.94 2.347807614e-38
0.0695855330196 0.00869819162745 0.94 2.34781251855e-38
0.0715528048707 0.0087259518135 0.943 2.04240708526e-38
0.0158899304922 0.0105932869948 0.954 1.89482709541e-38
0.0175999579526 0.0105599747715 0.951 1.67251936171e-38
0.0193599537478 0.0105599747715 0.951 1.736228976e-38
0.0209422843524 0.0104711421762 0.943 1.91132626379e-38
0.0226152982314 0.0104378299529 0.94 1.88338100929e-38
0.0243031175429 0.0104156218041 0.938 1.91247420749e-38
0.0260390545103 0.0104156218041 0.938 1.8773901781e-38
0.0277749914776 0.0104156218041 0.938 1.46129645937e-38
0.0294165438124 0.0103823095809 0.935 2.03907143439e-38
0.0310803042961 0.010360101432 0.933 1.9744631674e-38
0.0328069878681 0.010360101432 0.933 2.05729448014e-38
0.0344226306959 0.0103267892088 0.93 2.07569745261e-38
0.0360660337097 0.0103045810599 0.928 2.12175869366e-38
0.0377834638864 0.0103045810599 0.928 2.18676170643e-38
0.0395008940631 0.0103045810599 0.928 2.07630729771e-38
0.0410850753467 0.0102712688367 0.925 2.17786444209e-38
0.0427969534861 0.0102712688367 0.925 2.3167359225e-38
0.044653184593 0.0103045810599 0.928 2.34622554803e-38
0.0464705514394 0.0103267892088 0.93 2.31781394141e-38
0.0483471400161 0.010360101432 0.933 1.82759910093e-38
0.0500738235881 0.010360101432 0.933 1.82752637354e-38
0.0518005071601 0.010360101432 0.933 1.84589347278e-38
0.0536419328344 0.0103823095809 0.935 2.05880648119e-38
0.0553723177646 0.0103823095809 0.935 2.07839116865e-38
0.0572859199226 0.0104156218041 0.938 2.34572542461e-38
0.0590218568899 0.0104156218041 0.938 1.9859434452e-38
0.0607577938573 0.0104156218041 0.938 2.34673029574e-38
0.0624937308247 0.0104156218041 0.938 2.2435517089e-38
0.0643666180432 0.0104378299529 0.94 2.34586821693e-38
0.0661062563686 0.0104378299529 0.94 2.34658988564e-38
0.0680624241453 0.0104711421762 0.943 2.34792083892e-38
0.069807614508 0.0104711421762 0.943 2.15311190602e-38
0.07193219408 0.0105266625483 0.948 2.18045376139e-38
0.0142724369853 0.0124883823621 0.964 2.06110362976e-38
0.0158899304922 0.0123588348273 0.954 1.82139204939e-38
0.0176554783247 0.0123588348273 0.954 1.9315961862e-38
0.0193599537478 0.0123199705668 0.951 1.82074633105e-38
0.0210089087989 0.0122551967994 0.946 1.74577125802e-38
0.0226874747151 0.0122163325389 0.943 1.99372709765e-38
0.0244326650778 0.0122163325389 0.943 2.01385422775e-38
0.0260945748824 0.0121774682784 0.94 1.60127384453e-38
0.0278342132079 0.0121774682784 0.94 2.21794185843e-38
0.029510928445 0.0121515587715 0.938 1.90268081278e-38
0.0311469287426 0.012112694511 0.935 1.79079217508e-38
0.0328773136727 0.012112694511 0.935 1.9193618697e-38
0.0345336714401 0.012086785004 0.933 2.03874801471e-38
0.0362603550121 0.012086785004 0.933 2.10303286202e-38
0.0379870385841 0.012086785004 0.933 1.99283026663e-38
0.0397137221561 0.012086785004 0.933 2.01119736586e-38
0.0413071568351 0.0120479207436 0.93 1.9744631674e-38
0.0430282883699 0.0120479207436 0.93 2.1032839747e-38
0.0447494199046 0.0120479207436 0.93 1.99300963283e-38
0.0466204564441 0.012086785004 0.933 2.06694438189e-38
0.048450778044 0.012112694511 0.935 2.19623154132e-38
0.0501811629741 0.012112694511 0.935 1.92897898106e-38
0.0519115479043 0.012112694511 0.935 2.19731964958e-38
0.0538140459879 0.0121515587715 0.938 2.23610030432e-38
0.0555499829552 0.0121515587715 0.938 2.0526011112e-38
0.0572859199226 0.0121515587715 0.938 1.8768530604e-38
0.0591477030667 0.0121774682784 0.94 1.79337911218e-38
0.0608873413922 0.0121774682784 0.94 2.20703120846e-38
0.0626269797177 0.0121774682784 0.94 2.19677062084e-38
0.0645720434199 0.0122163325389 0.943 2.30815927525e-38
0.0663172337826 0.0122163325389 0.943 2.34885522473e-38
0.0684233065639 0.0122811063063 0.948 2.12578560505e-38
0.0706219132986 0.0123588348273 0.954 2.1158037357e-38
0.0723874611311 0.0123588348273 0.954 2.34856978024e-38
0.0142724369853 0.0142724369853 0.964 1.9689789056e-38
0.0160564916085 0.0142724369853 0.964 2.11655973622e-38
0.0176554783247 0.0141243826597 0.954 1.82146379587e-38
0.0193599537478 0.0140799663621 0.951 1.82096339219e-38
0.0210533250966 0.0140355500644 0.948 1.94067127532e-38
0.0228077688546 0.0140355500644 0.948 1.78189561139e-38
0.0245103935987 0.0140059391993 0.946 1.8839191079e-38
0.0262611359986 0.0140059391993 0.946 1.67345080479e-38
0.0279230458032 0.0139615229016 0.943 2.09715007093e-38
0.0295738515333 0.0139171066039 0.94 2.34698575245e-38
0.0312468654123 0.0138874957388 0.938 2.34709098997e-38
0.0329828023797 0.0138874957388 0.938 2.34694791739e-38
0.0346076986028 0.0138430794411 0.935 2.16193700349e-38
0.036338083533 0.0138430794411 0.935 1.93094892644e-38
0.0380684684631 0.0138430794411 0.935 1.82896130317e-38
0.0397988533933 0.0138430794411 0.935 2.34569347501e-38
0.0415292383234 0.0138430794411 0.935 2.30023226997e-38
0.0432596232536 0.0138430794411 0.935 2.11591555932e-38
0.0449900081837 0.0138430794411 0.935 2.34694987921e-38
0.0467203931138 0.0138430794411 0.935 2.34784348724e-38
0.048450778044 0.0138430794411 0.935 2.34723672501e-38
0.0503421720532 0.0138874957388 0.938 2.34666149199e-38
0.0520781090205 0.0138874957388 0.938 2.04180186445e-38
0.0539287880902 0.0139171066039 0.94 1.56328408265e-38
0.0556684264157 0.0139171066039 0.94 1.74860916767e-38
0.0575912819691 0.0139615229016 0.943 1.61064194516e-38
0.0593364723318 0.0139615229016 0.943 1.74782051689e-38
0.0610816626945 0.0139615229016 0.943 1.93015971515e-38
0.0630267263967 0.0140059391993 0.946 1.96657217548e-38
0.0647774687966 0.0140059391993 0.946 2.34824313756e-38
0.0666688628058 0.0140355500644 0.948 2.34838452858e-38
0.0688563654662 0.0141243826597 0.954 1.8029894973e-38
0.0707699676242 0.0141539935248 0.956 2.34759699884e-38
0.0725392168148 0.0141539935248 0.956 2.34889572226e-38
0.0125661108831 0.0161564282782 0.97 1.39780082336e-38
0.0143612695806 0.0161564282782 0.97 1.83075734741e-38
0.0160564916085 0.0160564916085 0.964 1.90419001123e-38
0.0178035326502 0.0160231793852 0.962 2.2270885539e-38
0.0194210261571 0.0158899304922 0.954 1.73838613485e-38
0.0211199495431 0.0158399621573 0.951 1.9777665884e-38
0.0228799453383 0.0158399621573 0.951 1.57989339308e-38
0.0246399411336 0.0158399621573 0.951 2.16046872295e-38
0.0263166563707 0.0157899938224 0.948 2.03240629838e-38
0.0280118783985 0.0157566815992 0.946 2.03171685953e-38
0.0296682361659 0.0157067132643 0.943 2.09653980545e-38
0.0313134898588 0.0156567449294 0.94 2.31839071586e-38
0.0329828023797 0.0156234327062 0.938 2.24516670538e-38
0.034718739347 0.0156234327062 0.938 2.34870878904e-38
0.0364546763144 0.0156234327062 0.938 2.34903753366e-38
0.0381906132817 0.0156234327062 0.938 2.34932255777e-38
0.0399265502491 0.0156234327062 0.938 2.3491419304e-38
0.0416624872164 0.0156234327062 0.938 2.34928752531e-38
0.0433984241838 0.0156234327062 0.938 2.34961276668e-38
0.0451343611511 0.0156234327062 0.938 1.99718031745e-38
0.0468702981185 0.0156234327062 0.938 2.00413033744e-38
0.0487098731137 0.0156567449294 0.94 2.0133497603e-38
0.0504495114392 0.0156567449294 0.94 1.97704604073e-38
0.0521891497647 0.0156567449294 0.94 1.9322098148e-38
0.0541009012437 0.0157067132643 0.943 1.67481398794e-38
0.0558460916064 0.0157067132643 0.943 1.68321098873e-38
0.057774499197 0.0157566815992 0.946 1.88550061335e-38
0.0595252415969 0.0157566815992 0.946 2.28158056702e-38
0.0612759839968 0.0157566815992 0.946 2.16291188683e-38
0.0631599752897 0.0157899938224 0.948 2.34815990043e-38
0.0649144190478 0.0157899938224 0.948 2.34821118796e-38
0.0668798402198 0.0158399621573 0.951 2.34931639206e-38
0.0690007184336 0.0159232427154 0.956 2.34888339083e-38
0.0709920491126 0.0159732110503 0.959 2.34935759023e-38
0.0727668503404 0.0159732110503 0.959 1.83201753512e-38
0.0126049751435 0.0180071073479 0.973 1.21380697188e-38
0.0143612695806 0.0179515869758 0.97 1.45229255622e-38
0.0161564282782 0.0179515869758 0.97 2.01475624357e-38
0.0178405462316 0.0178405462316 0.964 1.93163051802e-38
0.019522813506 0.0177480122781 0.959 1.93184673837e-38
0.0212309902873 0.0176924919061 0.956 2.01471350397e-38
0.0230002394779 0.0176924919061 0.956 1.64507507141e-38
0.0247176696545 0.0176554783247 0.954 1.744874427e-38
0.026483217487 0.0176554783247 0.954 1.77307079418e-38
0.0281599327241 0.0175999579526 0.951 1.82788510595e-38
0.0297626207984 0.0175074239991 0.946 2.04136676128e-38
0.0315133631984 0.0175074239991 0.946 2.21689452796e-38
0.0331586168913 0.017451903627 0.943 2.02299966205e-38
0.034903807254 0.017451903627 0.943 2.34485844125e-38
0.0365324048353 0.0173963832549 0.94 2.3480193502e-38
0.0382720431608 0.0173963832549 0.94 2.22867104025e-38
0.0399265502491 0.0173593696735 0.938 1.86071290469e-38
0.0416624872164 0.0173593696735 0.938 2.00776082151e-38
0.0433984241838 0.0173593696735 0.938 1.6648772404e-38
0.0452305964628 0.0173963832549 0.94 2.04872077562e-38
0.0469702347883 0.0173963832549 0.94 2.32617226636e-38
0.0487098731137 0.0173963832549 0.94 2.14310929745e-38
0.0504495114392 0.0173963832549 0.94 2.13514557815e-38
0.052355710881 0.017451903627 0.943 1.82229154287e-38
0.0542730143972 0.0175074239991 0.946 1.48949282655e-38
0.0560237567971 0.0175074239991 0.946 2.04998362579e-38
0.057774499197 0.0175074239991 0.946 1.9947349115e-38
0.0595252415969 0.0175074239991 0.946 2.27307328404e-38
0.0614055315317 0.0175444375805 0.948 2.00736299287e-38
0.0631599752897 0.0175444375805 0.948 2.3495288289e-38
0.0654622200524 0.0176924919061 0.956 2.3021451825e-38
0.067442446657 0.0177480122781 0.959 2.34920723091e-38
0.0692172478848 0.0177480122781 0.959 2.34867389671e-38
0.0712141306009 0.0178035326502 0.962 2.17249480651e-38
0.072994483866 0.0178035326502 0.962 1.88744001043e-38
0.0126049751435 0.0198078180827 0.973 1.28827981954e-38
0.0143612695806 0.0197467456734 0.97 1.39737034447e-38
0.0161564282782 0.0197467456734 0.97 1.53472898306e-38
0.0178960666037 0.0196856732641 0.967 2.09705408199e-38
0.0196246008548 0.0196246008548 0.964 1.82088982402e-38
0.0212976147338 0.019522813506 0.959 1.80252272479e-38
0.0230724159616 0.019522813506 0.959 1.77375238575e-38
0.0247694886685 0.0194617410967 0.956 1.77242605676e-38
0.0265387378591 0.0194617410967 0.956 1.67262572026e-38
0.0282487653195 0.0194210261571 0.954 1.63564040911e-38
0.0298255438868 0.0192988813385 0.948 1.63499469078e-38
0.0315799876449 0.0192988813385 0.948 1.86429644525e-38
0.0333344314029 0.0192988813385 0.948 2.18701380002e-38
0.035088875161 0.0192988813385 0.948 2.15982132306e-38
0.036843318919 0.0192988813385 0.948 2.31906235821e-38
0.038516332798 0.019258166399 0.946 9.83787752592e-39
0.0402670751979 0.019258166399 0.946 6.63870192148e-39
0.0418845687048 0.0191970939897 0.943 6.7230040371e-39
0.0436297590675 0.0191970939897 0.943 1.73766516679e-38
0.0453749494302 0.0191970939897 0.943 2.22508007281e-38
0.0471201397929 0.0191970939897 0.943 1.80169764025e-38
0.0488653301556 0.0191970939897 0.943 1.91211547508e-38
0.0506105205183 0.0191970939897 0.943 1.71908156695e-38
0.0525222719973 0.019258166399 0.946 1.63617850772e-38
0.0543877564995 0.0192988813385 0.948 2.08889908545e-38
0.0561422002575 0.0192988813385 0.948 2.01611199983e-38
0.0578966440156 0.0192988813385 0.948 2.12710380652e-38
0.0596510877736 0.0192988813385 0.948 2.1093109594e-38
0.0614055315317 0.0192988813385 0.948 1.73178069415e-38
0.0636929708618 0.0194617410967 0.956 2.26607884289e-38
0.0658730708059 0.0195838859153 0.962 2.34996631429e-38
0.0676534240709 0.0195838859153 0.962 2.26533503366e-38
0.0694337773359 0.0195838859153 0.962 2.02583364806e-38
0.0712141306009 0.0195838859153 0.962 2.05370813698e-38
0.0144056858783 0.0216085288175 0.973 1.18650743571e-38
0.0161564282782 0.021541904371 0.97 1.2868814638e-38
0.0179515869758 0.021541904371 0.97 1.68184514312e-38
0.0196856732641 0.0214752799245 0.967 2.03211384739e-38
0.0213642391803 0.0213642391803 0.962 1.95939640631e-38
0.0230724159616 0.0212976147338 0.959 1.66380146357e-38
0.0247694886685 0.0212309902873 0.956 1.54283633545e-38
0.0265387378591 0.0212309902873 0.956 1.56224375867e-38
0.0282487653195 0.0211865739896 0.954 1.57175016745e-38
0.0299199285194 0.0211199495431 0.951 1.63603515489e-38
0.0316799243146 0.0211199495431 0.951 1.83818240759e-38
0.0334399201099 0.0211199495431 0.951 1.91150562999e-38
0.0351999159051 0.0211199495431 0.951 2.20656625763e-38
0.0369599117004 0.0211199495431 0.951 2.19020511715e-38
0.0385977626771 0.0210533250966 0.948 1.1230117997e-38
0.0403522064351 0.0210533250966 0.948 9.22053688876e-39
0.0422398990862 0.0211199495431 0.951 9.39809401588e-39
0.0438610939512 0.0210533250966 0.948 1.72037440491e-38
0.0456155377093 0.0210533250966 0.948 1.86573137488e-38
0.0473699814673 0.0210533250966 0.948 1.84750776861e-38
0.0491244252253 0.0210533250966 0.948 1.97683752751e-38
0.0508788689834 0.0210533250966 0.948 1.67316550043e-38
0.0527998738577 0.0211199495431 0.951 2.03200818948e-38
0.0543877564995 0.0210533250966 0.948 2.06217324088e-38
0.0561422002575 0.0210533250966 0.948 1.92510158821e-38
0.0580798612435 0.0211199495431 0.951 1.87914796689e-38
0.0598398570387 0.0211199495431 0.951 1.75004087431e-38
0.061599852834 0.0211199495431 0.951 1.72253058286e-38
0.0640927175408 0.0213642391803 0.962 1.47331553643e-38
0.0662154464338 0.0214752799245 0.967 1.7587219183e-38
0.0682160305081 0.021541904371 0.97 1.29710687883e-38
0.0700111892057 0.021541904371 0.97 1.63897662049e-38
0.0718063479032 0.021541904371 0.97 1.88790145801e-38
0.0144352967434 0.0234573572081 0.975 1.46370725325e-38
0.0162397088364 0.0234573572081 0.975 1.21359173243e-38
0.0180071073479 0.0234092395523 0.973 1.35113324047e-38
0.0197467456734 0.0233370630686 0.97 1.50671338338e-38
0.0214752799245 0.0232648865848 0.967 2.08782751251e-38
0.0231445924453 0.0231445924453 0.962 1.75577989217e-38
0.0248472171894 0.0230724159616 0.959 1.52522257428e-38
0.0265387378591 0.0230002394779 0.956 1.20462356239e-38
0.0283079870497 0.0230002394779 0.956 1.121863856e-38
0.0300143131519 0.0229521218221 0.954 1.47159320049e-38
0.0317798609844 0.0229521218221 0.954 1.54434301156e-38
0.0335454088169 0.0229521218221 0.954 1.79323239623e-38
0.0353109566493 0.0229521218221 0.954 1.84051613005e-38
0.0370765044818 0.0229521218221 0.954 1.27030732596e-38
0.0388420523143 0.0229521218221 0.954 1.05040702301e-38
0.0406076001467 0.0229521218221 0.954 9.6822240951e-39
0.0424619805745 0.0230002394779 0.956 9.03290162309e-39
0.0442312297651 0.0230002394779 0.956 1.43565241722e-38
0.0460004789557 0.0230002394779 0.956 1.73759874525e-38
0.0476697914766 0.0229521218221 0.954 1.8752736569e-38
0.0494353393091 0.0229521218221 0.954 1.75667854488e-38
0.0512008871415 0.0229521218221 0.954 1.65590977101e-38
0.052966434974 0.0229521218221 0.954 1.76625571923e-38
0.0547319828065 0.0229521218221 0.954 1.85055699406e-38
0.0564975306389 0.0229521218221 0.954 1.79603303134e-38
0.0585684405179 0.0230724159616 0.959 1.73156545471e-38
0.0603432417457 0.0230724159616 0.959 1.5934893513e-38
0.0624419118107 0.0231927101011 0.964 1.68561505637e-38
0.0642259664339 0.0231927101011 0.964 1.79603303134e-38
0.0662154464338 0.0232648865848 0.967 1.39030331605e-38
0.0682160305081 0.0233370630686 0.97 1.39923883584e-38
0.0700111892057 0.0233370630686 0.97 1.52848816022e-38
0.0163396455061 0.0254172263429 0.981 1.46320166477e-38
0.0180996413014 0.0253394978219 0.978 1.03874555732e-38
0.0198078180827 0.0252099502871 0.973 1.47091118853e-38
0.021541904371 0.0251322217661 0.97 1.54287220869e-38
0.0232648865848 0.0250544932452 0.967 2.02149550827e-38
0.0249767647243 0.0249767647243 0.964 1.70085796068e-38
0.0267608193474 0.0249767647243 0.964 9.38874455253e-39
0.0284856522404 0.0249249457103 0.962 7.00499012967e-39
0.0301716208728 0.0248472171894 0.959 8.1963180321e-39
0.0319464221007 0.0248472171894 0.959 1.10478819343e-38
0.0337212233285 0.0248472171894 0.959 1.15988949112e-38
0.0354960245563 0.0248472171894 0.959 1.03171832579e-38
0.0371542330027 0.0247694886685 0.956 9.31271430175e-39
0.0389234821933 0.0247694886685 0.956 9.31488351177e-39
0.0406927313839 0.0247694886685 0.956 9.31416184306e-39
0.0424619805745 0.0247694886685 0.956 8.66914836383e-39
0.0442312297651 0.0247694886685 0.956 1.22546983886e-38
0.0461448319232 0.0248472171894 0.959 1.41753502937e-38
0.0477697281463 0.0247694886685 0.956 1.6013154631e-38
0.049538977337 0.0247694886685 0.956 1.43582799991e-38
0.0513082265276 0.0247694886685 0.956 1.13223122255e-38
0.0532440368344 0.0248472171894 0.959 1.72224976265e-38
0.0550188380623 0.0248472171894 0.959 1.80550174519e-38
0.0570897479412 0.0249767647243 0.964 1.75936791689e-38
0.0588738025644 0.0249767647243 0.964 1.51955460225e-38
0.0606578571875 0.0249767647243 0.964 1.80529042938e-38
0.062636233113 0.0250544932452 0.967 1.92542444738e-38
0.0644258397734 0.0250544932452 0.967 2.00829429583e-38
0.0664208718105 0.0251322217661 0.97 1.45476752957e-38
0.068427007922 0.0252099502871 0.973 1.50980128468e-38
0.0702277186568 0.0252099502871 0.973 2.17296858552e-38
0.0199096054315 0.0271494619521 0.978 1.13926237773e-38
0.0216085288175 0.0270106610218 0.973 1.66319231913e-38
0.0233370630686 0.0269273804637 0.97 1.96639224876e-38
0.0250544932452 0.0268440999056 0.967 1.61835006762e-38
0.0268440999056 0.0268440999056 0.967 9.67178442155e-39
0.0285448739706 0.0267608193474 0.964 8.94607857154e-39
0.0303289285938 0.0267608193474 0.964 8.57585691857e-39
0.0321129832169 0.0267608193474 0.964 9.2208675952e-39
0.0338267120354 0.0267052989754 0.962 8.85246062374e-39
0.0354960245563 0.0266220184172 0.959 9.22267246762e-39
0.0372708257841 0.0266220184172 0.959 9.12976778074e-39
0.0389234821933 0.0265387378591 0.956 9.31451777287e-39
0.0406927313839 0.0265387378591 0.956 9.22268788191e-39
0.0424619805745 0.0265387378591 0.956 8.9457548716e-39
0.0442312297651 0.0265387378591 0.956 1.01428463146e-38
0.0461448319232 0.0266220184172 0.959 1.25323768897e-38
0.047919633151 0.0266220184172 0.959 1.41850360687e-38
0.0496944343788 0.0266220184172 0.959 1.85156368688e-38
0.0514692356066 0.0266220184172 0.959 1.35407260413e-38
0.0535216386949 0.0267608193474 0.964 1.73172113897e-38
0.055305693318 0.0267608193474 0.964 1.8329132451e-38
0.0572674131319 0.0268440999056 0.967 1.61146184489e-38
0.0590570197923 0.0268440999056 0.967 1.75918785004e-38
0.0608466264526 0.0268440999056 0.967 2.09115923974e-38
0.062636233113 0.0268440999056 0.967 1.55629146318e-38
0.0644258397734 0.0268440999056 0.967 1.4549512398e-38
0.0664208718105 0.0269273804637 0.97 1.66670663555e-38
0.0685676595313 0.0270661813939 0.975 2.11810116453e-38
0.0235295336918 0.0289594260822 0.978 1.79247905817e-38
