# .PCD v0.7 - Point Cloud Data file format
VERSION 0.7
FIELDS x y z rgb
SIZE 4 4 4 4
TYPE F F F F
COUNT 1 1 1 1
WIDTH 837
HEIGHT 1
VIEWPOINT 0 0 0 1 0 0 0
POINTS 837
DATA ascii
-0.00952729585067 -0.0555758924622 0.858 7.34683969264e-40
-0.00793941320889 -0.0555758924622 0.858 1.88709304893e-38
-0.00635153056711 -0.0555758924622 0.858 1.59302944515e-38
-0.00476364792533 -0.0555758924622 0.858 1.5281312495e-38
-0.00317576528356 -0.0555758924622 0.858 1.95277737301e-38
-0.00158788264178 -0.0555758924622 0.858 7.71418167727e-39
0.0 -0.0554463449273 0.856 1.1020259539e-38
0.00158418128364 -0.0554463449273 0.856 1.57117773703e-38
0.00316836256728 -0.0554463449273 0.856 1.37943372413e-38
0.00475254385092 -0.0554463449273 0.856 1.28706012936e-38
0.006321919702 -0.0553167973925 0.854 1.23174359222e-38
0.0079023996275 -0.0553167973925 0.854 1.11120950351e-38
0.00948287955299 -0.0553167973925 0.854 1.14812306818e-38
0.0110633594785 -0.0553167973925 0.854 9.09601890852e-39
0.0126734502691 -0.0554463449273 0.856 4.60648283658e-39
0.0142576315527 -0.0554463449273 0.856 1.76892967696e-38
0.0158418128364 -0.0554463449273 0.856 1.02913194921e-38
0.01742599412 -0.0554463449273 0.856 1.63467183161e-38
0.019099007999 -0.0557054399971 0.86 1.66222248046e-38
0.0207387096547 -0.055834987532 0.862 1.68977312931e-38
0.0223339950128 -0.055834987532 0.862 1.77242507585e-38
0.0239292803708 -0.055834987532 0.862 1.73569087739e-38
0.0255245657289 -0.055834987532 0.862 1.76327795999e-38
0.0272771588079 -0.0561588563692 0.867 1.68977312931e-38
0.0289483220078 -0.056288403904 0.869 1.96758209129e-38
0.0305565621193 -0.056288403904 0.869 1.70268931764e-38
0.0322388293937 -0.0564179514389 0.871 9.85007442776e-39
0.0338507708634 -0.0564179514389 0.871 2.34914879676e-38
0.035462712333 -0.0564179514389 0.871 9.93258288134e-39
0.0370746538027 -0.0564179514389 0.871 2.06953258015e-38
0.0386865952724 -0.0564179514389 0.871 2.34813916122e-38
0.0402985367421 -0.0564179514389 0.871 2.34900362224e-38
-0.032831046696 -0.0558127793831 0.887 2.18272568659e-38
-0.0311191685565 -0.0556869332064 0.885 2.33006072947e-38
-0.0292481320171 -0.0552464715878 0.878 1.60211027959e-38
-0.0276232357939 -0.0552464715878 0.878 1.25980081046e-38
-0.0259983395707 -0.0552464715878 0.878 1.3234749719e-38
-0.0242901627894 -0.0550577023227 0.875 1.23149570252e-38
-0.0226189995895 -0.054931856146 0.873 1.48921130569e-38
-0.0209552391059 -0.0548060099692 0.871 1.07447530505e-38
-0.0192988813385 -0.0546801637925 0.869 8.72439875968e-39
-0.017690641227 -0.0546801637925 0.869 2.12669588854e-38
-0.015989867162 -0.0543655483507 0.864 4.40810381558e-39
-0.0143575682225 -0.0542397021739 0.862 2.13659339972e-38
-0.0127622828645 -0.0542397021739 0.862 3.21424236553e-39
-0.0111669975064 -0.0542397021739 0.862 2.33824347172e-38
-0.0095495039995 -0.0541138559972 0.86 1.56120343469e-39
-0.00793941320889 -0.0539880098204 0.858 1.50945124032e-38
-0.00635153056711 -0.0539880098204 0.858 1.54668878519e-38
-0.00476364792533 -0.0539880098204 0.858 1.46414123539e-38
-0.00318316799983 -0.0541138559972 0.86 1.63974579322e-38
-0.00158788264178 -0.0539880098204 0.858 5.33937314381e-39
0.0 -0.0539880098204 0.858 6.26707476615e-39
0.00158788264178 -0.0539880098204 0.858 9.93547095747e-39
0.00317576528356 -0.0539880098204 0.858 1.29560076324e-38
0.00476364792533 -0.0539880098204 0.858 1.46940381177e-38
0.00633672513455 -0.0538621636437 0.856 1.24896274775e-38
0.00792090641819 -0.0538621636437 0.856 7.89785266959e-39
0.00950508770183 -0.0538621636437 0.856 9.02862486018e-39
0.0110892689855 -0.0538621636437 0.856 7.19296170697e-39
0.0127030611342 -0.0539880098204 0.858 2.31131289745e-39
0.014290943776 -0.0539880098204 0.858 1.77828993031e-38
0.0158788264178 -0.0539880098204 0.858 1.03856857333e-38
0.0175074239991 -0.0541138559972 0.86 1.69895667892e-38
0.0191434242967 -0.0542397021739 0.862 1.71732377815e-38
0.0207387096547 -0.0542397021739 0.862 1.74487456713e-38
0.0223339950128 -0.0542397021739 0.862 1.79086392156e-38
0.0239848007429 -0.0543655483507 0.864 1.67140603008e-38
0.0255837874591 -0.0543655483507 0.864 1.81837953795e-38
0.0272771588079 -0.0545543176158 0.867 1.88442483652e-38
0.0289483220078 -0.0546801637925 0.869 1.8400867722e-38
0.030626887924 -0.0548060099692 0.871 1.37121875201e-38
0.0323128565565 -0.054931856146 0.873 1.71169602339e-38
0.0339284993843 -0.054931856146 0.873 2.22922427289e-38
0.0355441422121 -0.054931856146 0.873 1.12072053658e-38
0.0371597850399 -0.054931856146 0.873 1.92231202336e-38
0.0387754278677 -0.054931856146 0.873 2.34835341975e-38
0.0403910706956 -0.054931856146 0.873 2.32091375374e-38
-0.032831046696 -0.0541712270483 0.887 2.11836923293e-38
-0.0311191685565 -0.0540490822297 0.885 2.23815250592e-38
-0.0293147564636 -0.0537437201832 0.88 1.81430274033e-38
-0.0276861588823 -0.0537437201832 0.88 1.177006492e-38
-0.0259983395707 -0.0536215753646 0.878 1.72049155346e-38
-0.0242901627894 -0.0534383581368 0.875 1.71274461503e-38
-0.0226708186035 -0.0534383581368 0.875 8.0865459156e-39
-0.0210033567617 -0.0533162133182 0.873 1.65516820386e-38
-0.0193432976362 -0.0531940684996 0.871 9.5544789245e-39
-0.0177313561665 -0.0531940684996 0.871 1.35923708962e-38
-0.0160824011154 -0.053071923681 0.869 8.81620763117e-39
-0.0144408487806 -0.0529497788624 0.867 2.14510166361e-38
-0.0127918937296 -0.0527665616345 0.864 3.94892633479e-39
-0.0111929070134 -0.0527665616345 0.864 2.18144013538e-38
-0.00957171214834 -0.0526444168159 0.862 1.37753244237e-39
-0.00797642679028 -0.0526444168159 0.862 1.32541997417e-38
-0.00638114143223 -0.0526444168159 0.862 1.15993629449e-38
-0.00478585607417 -0.0526444168159 0.862 1.82410033893e-38
-0.00319057071611 -0.0526444168159 0.862 9.57320447588e-39
-0.00159158399992 -0.0525222719973 0.86 3.5837367446e-39
0.0 -0.0525222719973 0.86 5.07391676792e-39
0.00159158399992 -0.0525222719973 0.86 7.36441758058e-39
0.00318316799983 -0.0525222719973 0.86 6.70399121953e-39
0.00477475199975 -0.0525222719973 0.86 1.1389753918e-38
0.00636633599967 -0.0525222719973 0.86 4.95911679253e-39
0.00795791999959 -0.0525222719973 0.86 1.26113218413e-38
0.0095495039995 -0.0525222719973 0.86 4.05008887353e-39
0.0111410879994 -0.0525222719973 0.86 1.13388839812e-38
0.0127326719993 -0.0525222719973 0.86 9.1835496158e-41
0.0143242559993 -0.0525222719973 0.86 1.64950471599e-38
0.0159158399992 -0.0525222719973 0.86 1.0295638294e-38
0.0175481389386 -0.0526444168159 0.862 1.65303893084e-38
0.0191434242967 -0.0526444168159 0.862 1.68977312931e-38
0.0207387096547 -0.0526444168159 0.862 1.73569087739e-38
0.0223858140267 -0.0527665616345 0.864 1.79093566804e-38
0.0239848007429 -0.0527665616345 0.864 1.76334928609e-38
0.0256726200545 -0.0529497788624 0.867 1.81888204358e-38
0.0273400818963 -0.053071923681 0.869 2.05098359238e-38
0.0289483220078 -0.053071923681 0.869 1.64636650808e-38
0.030626887924 -0.0531940684996 0.871 1.62792766236e-38
0.0323128565565 -0.0533162133182 0.873 2.34922012285e-38
0.0339284993843 -0.0533162133182 0.873 1.25234267964e-38
0.0355441422121 -0.0533162133182 0.873 1.55295371037e-38
0.0372449162771 -0.0534383581368 0.875 1.96855277073e-38
0.0388642604631 -0.0534383581368 0.875 2.34871411398e-38
0.0404836046491 -0.0534383581368 0.875 2.34860789555e-38
-0.032831046696 -0.0525296747135 0.887 2.16461124147e-38
-0.0311191685565 -0.0524112312531 0.885 2.27517144823e-38
-0.0293813809101 -0.0522335660624 0.882 1.81444735433e-38
-0.0276861588823 -0.0521151226019 0.88 1.18665513257e-38
-0.026057561301 -0.0521151226019 0.88 1.15712725159e-38
-0.0243734433476 -0.0519966791415 0.878 1.83962406345e-38
-0.0226708186035 -0.0518190139508 0.875 1.74101679246e-38
-0.0210033567617 -0.0517005704903 0.873 9.37654765069e-39
-0.0193877139339 -0.0517005704903 0.873 1.68371363449e-38
-0.0177313561665 -0.0515821270299 0.871 1.30488927011e-38
-0.0160824011154 -0.0514636835694 0.869 1.18468084316e-38
-0.0144741610039 -0.0514636835694 0.869 1.24896274775e-38
-0.0127918937296 -0.0511675749183 0.864 1.79521691511e-38
-0.0111929070134 -0.0511675749183 0.864 1.91604751857e-38
-0.00957171214834 -0.0510491314578 0.862 2.84941150775e-39
-0.00797642679028 -0.0510491314578 0.862 1.38098944568e-38
-0.00638114143223 -0.0510491314578 0.862 1.40943874723e-38
-0.00478585607417 -0.0510491314578 0.862 1.24345354284e-38
-0.00319057071611 -0.0510491314578 0.862 1.60283306933e-38
-0.00159528535806 -0.0510491314578 0.862 1.46936793853e-39
0.0 -0.0509306879973 0.86 1.75949501466e-38
0.00159158399992 -0.0509306879973 0.86 1.64010606706e-38
0.00318316799983 -0.0509306879973 0.86 1.93469852087e-39
0.00477475199975 -0.0509306879973 0.86 1.86227759455e-38
0.00636633599967 -0.0509306879973 0.86 3.77424046823e-39
0.00795791999959 -0.0509306879973 0.86 2.0274756896e-38
0.0095495039995 -0.0509306879973 0.86 3.03202592102e-39
0.0111410879994 -0.0509306879973 0.86 1.56671628297e-38
0.0127622828645 -0.0510491314578 0.862 8.38290512652e-39
0.0143575682225 -0.0510491314578 0.862 1.61240435824e-38
0.0159528535806 -0.0510491314578 0.862 9.4669720393e-39
0.0175481389386 -0.0510491314578 0.862 1.69895667892e-38
0.0191878405943 -0.0511675749183 0.864 1.73569087739e-38
0.0207868273105 -0.0511675749183 0.864 1.71732377815e-38
0.0224635425477 -0.051345240109 0.867 1.73569115765e-38
0.0241236016732 -0.0514636835694 0.869 1.8369265639e-38
0.0257318417847 -0.0514636835694 0.869 1.93959549849e-38
0.0274030049846 -0.0515821270299 0.871 1.81109642931e-38
0.0290815709008 -0.0517005704903 0.873 1.75610275134e-38
0.0306972137286 -0.0517005704903 0.873 2.15182691532e-38
0.0323868837192 -0.0518190139508 0.875 2.3397166568e-38
0.0340062279052 -0.0518190139508 0.875 5.78707118758e-39
0.0356255720912 -0.0518190139508 0.875 1.70968628113e-38
0.0372449162771 -0.0518190139508 0.875 2.10738375362e-38
0.0388642604631 -0.0518190139508 0.875 2.34788636697e-38
-0.0311894943612 -0.0508881223787 0.887 2.22896671423e-38
-0.0294813175799 -0.0507733802764 0.885 1.84199842356e-38
-0.0276861588823 -0.0504865250206 0.88 1.52785127007e-38
-0.026057561301 -0.0504865250206 0.88 9.73818775187e-39
-0.0243734433476 -0.0503717829183 0.878 1.93301065687e-38
-0.0226708186035 -0.0501996697648 0.875 5.51156469911e-39
-0.0210514744175 -0.0501996697648 0.875 1.64608933124e-38
-0.0193877139339 -0.0500849276625 0.873 1.22141518176e-38
-0.0177720711061 -0.0500849276625 0.873 1.46029691318e-38
-0.0161194146968 -0.0499701855602 0.871 1.51565506888e-38
-0.0145074732272 -0.0499701855602 0.871 1.46018775203e-38
-0.0128659208924 -0.0498554434579 0.869 1.17549435082e-38
-0.0112317712738 -0.0497407013555 0.867 8.90804312733e-39
-0.00959392029717 -0.0495685882021 0.864 6.61215572338e-39
-0.00799493358098 -0.0495685882021 0.864 1.40763976027e-38
-0.00638114143223 -0.0494538460997 0.862 1.66708008159e-38
-0.00478585607417 -0.0494538460997 0.862 1.28961777932e-38
-0.00319057071611 -0.0494538460997 0.862 1.1062026641e-38
-0.00159528535806 -0.0494538460997 0.862 1.48373405038e-38
0.0 -0.0494538460997 0.862 1.90677596741e-38
0.00159528535806 -0.0494538460997 0.862 1.63117503142e-38
0.00319057071611 -0.0494538460997 0.862 3.13890856009e-39
0.00478585607417 -0.0494538460997 0.862 1.30910339498e-38
0.00638114143223 -0.0494538460997 0.862 1.78754228368e-38
0.00797642679028 -0.0494538460997 0.862 1.95295365636e-38
0.00957171214834 -0.0494538460997 0.862 1.28893772917e-38
0.0111669975064 -0.0494538460997 0.862 1.11531923165e-38
0.0127622828645 -0.0494538460997 0.862 1.56724387185e-38
0.0143575682225 -0.0494538460997 0.862 1.57562924186e-38
0.0159528535806 -0.0494538460997 0.862 9.92828229635e-39
0.0175888538782 -0.0495685882021 0.864 1.67140603008e-38
0.0192544650409 -0.0497407013555 0.867 1.71732377815e-38
0.0208590037943 -0.0497407013555 0.867 1.73569087739e-38
0.0225153615616 -0.0498554434579 0.869 1.71732377815e-38
0.0241236016732 -0.0498554434579 0.869 1.73569087739e-38
0.0257910635149 -0.0499701855602 0.871 1.92043960835e-38
0.027465928073 -0.0500849276625 0.873 1.89353481797e-38
0.0290815709008 -0.0500849276625 0.873 1.59843985852e-38
0.0307675395333 -0.0501996697648 0.875 2.34814224407e-38
0.0323868837192 -0.0501996697648 0.875 1.42723145422e-38
0.0340062279052 -0.0501996697648 0.875 1.24896274775e-38
0.0356255720912 -0.0501996697648 0.875 1.70093391106e-38
0.0372449162771 -0.0501996697648 0.875 2.02429628351e-38
-0.0311894943612 -0.0492465700439 0.887 2.19194524958e-38
-0.0294813175799 -0.0491355292998 0.885 1.95252583994e-38
-0.0277490819706 -0.0489689681835 0.882 1.07630778305e-38
-0.026057561301 -0.0488579274393 0.88 1.36182556814e-38
-0.0243734433476 -0.0487468866951 0.878 1.92375409961e-38
-0.0227485471244 -0.0487468866951 0.878 1.12107646639e-38
-0.0210514744175 -0.0485803255789 0.875 1.70334722727e-38
-0.0194321302315 -0.0485803255789 0.875 9.28076609806e-39
-0.0178127860456 -0.0485803255789 0.875 1.34079894456e-38
-0.0161564282782 -0.0484692848347 0.873 1.37753244237e-38
-0.0145074732272 -0.0483582440905 0.871 1.34998431586e-38
-0.0128955317575 -0.0483582440905 0.871 2.09723428897e-38
-0.0112576807808 -0.0482472033463 0.869 1.48020530059e-38
-0.00964944066926 -0.0482472033463 0.869 2.16392754795e-38
-0.00802269376702 -0.0481361626021 0.867 1.98033264614e-38
-0.00641815501362 -0.0481361626021 0.867 1.99887799054e-38
-0.00481361626021 -0.0481361626021 0.867 1.16997855981e-38
-0.00319797343239 -0.0479696014859 0.864 5.02225369614e-42
-0.0015989867162 -0.0479696014859 0.864 5.98402088414e-39
0.0 -0.0478585607417 0.862 9.2933217323e-39
0.00159528535806 -0.0478585607417 0.862 3.22751546458e-39
0.00319057071611 -0.0478585607417 0.862 2.78096228166e-39
0.00478585607417 -0.0478585607417 0.862 4.79810339509e-39
0.00638114143223 -0.0478585607417 0.862 8.0087121937e-39
0.00797642679028 -0.0478585607417 0.862 9.00848820125e-39
0.00957171214834 -0.0478585607417 0.862 7.81821407526e-39
0.0111929070134 -0.0479696014859 0.864 2.30700810856e-39
0.0127918937296 -0.0479696014859 0.864 5.80465468071e-39
0.0143908804458 -0.0479696014859 0.864 1.91596414132e-38
0.015989867162 -0.0479696014859 0.864 1.18636842691e-38
0.0176499262875 -0.0481361626021 0.867 1.53365278584e-38
0.0192544650409 -0.0481361626021 0.867 1.61630473238e-38
0.0209071214501 -0.0482472033463 0.869 1.77336268465e-38
0.0225153615616 -0.0482472033463 0.869 1.88474531348e-38
0.0241236016732 -0.0482472033463 0.869 1.76449708966e-38
0.0257910635149 -0.0483582440905 0.871 1.86576836915e-38
0.0275288511614 -0.0485803255789 0.875 2.00517346402e-38
0.0291481953473 -0.0485803255789 0.875 1.96790032617e-38
0.0307675395333 -0.0485803255789 0.875 2.34864965425e-38
0.0324979244634 -0.0487468866951 0.878 6.98703108855e-39
0.0341228206866 -0.0487468866951 0.878 1.29516748175e-38
0.0357477169098 -0.0487468866951 0.878 2.24489106998e-38
0.0373726131329 -0.0487468866951 0.878 2.17271158738e-38
-0.0311894943612 -0.0476050177091 0.887 2.1827975732e-38
-0.0294813175799 -0.0474976783231 0.885 2.07234484604e-38
-0.0278434666032 -0.0474976783231 0.885 1.00226261168e-38
-0.0261167830312 -0.047336669244 0.882 1.55572155509e-38
-0.0244289637197 -0.047229329858 0.88 1.1960138445e-38
-0.0228003661383 -0.047229329858 0.88 1.47898308807e-38
-0.0211236509012 -0.047121990472 0.878 1.14063368841e-38
-0.0194987546781 -0.047121990472 0.878 2.04403427303e-38
-0.0178127860456 -0.0469609813929 0.875 8.08156009566e-39
-0.0161934418596 -0.0469609813929 0.875 1.12039305313e-38
-0.0145074732272 -0.0467463026208 0.871 1.29488049583e-38
-0.0128955317575 -0.0467463026208 0.871 1.31324759506e-38
-0.0112835902878 -0.0467463026208 0.871 1.37753272263e-38
-0.00964944066926 -0.0466389632348 0.869 1.40508309122e-38
-0.00804120055772 -0.0466389632348 0.869 1.7387539757e-38
-0.00641815501362 -0.0465316238487 0.867 2.0627602448e-38
-0.00481361626021 -0.0465316238487 0.867 1.2059908093e-38
-0.00320907750681 -0.0465316238487 0.867 1.25208680255e-38
-0.0015989867162 -0.0463706147697 0.864 1.17844394396e-38
0.0 -0.0463706147697 0.864 1.16943723821e-38
0.0015989867162 -0.0463706147697 0.864 1.07749342168e-38
0.00319797343239 -0.0463706147697 0.864 1.14174379705e-38
0.00479696014859 -0.0463706147697 0.864 1.1786568012e-38
0.00639594686478 -0.0463706147697 0.864 1.21557036586e-38
0.00799493358098 -0.0463706147697 0.864 1.51955838575e-38
0.00959392029717 -0.0463706147697 0.864 1.73136394799e-38
0.0111929070134 -0.0463706147697 0.864 1.78664573292e-38
0.0127918937296 -0.0463706147697 0.864 1.32445083615e-38
0.0144408487806 -0.0465316238487 0.867 1.33161469429e-38
0.016045387534 -0.0465316238487 0.867 1.92080240452e-38
0.0176499262875 -0.0465316238487 0.867 1.55456688516e-38
0.0192988813385 -0.0466389632348 0.869 1.75761208991e-38
0.0209071214501 -0.0466389632348 0.869 1.60138580828e-38
0.0225153615616 -0.0466389632348 0.869 1.57311335059e-38
0.0241791220453 -0.0467463026208 0.871 1.64478808549e-38
0.0258502852452 -0.0468536420069 0.873 2.17956001323e-38
0.0275288511614 -0.0469609813929 0.875 1.62753305672e-38
0.0291481953473 -0.0469609813929 0.875 2.34867459736e-38
0.0308730282403 -0.047121990472 0.878 1.50999298231e-38
0.0325719516262 -0.047229329858 0.88 1.08365885466e-38
0.0342005492075 -0.047229329858 0.88 1.38750926705e-38
0.0357477169098 -0.047121990472 0.878 2.30899486953e-38
0.0373726131329 -0.047121990472 0.878 1.95105293512e-38
-0.0313301459705 -0.0461707414302 0.891 2.12744516282e-38
-0.0296145664729 -0.0460671034023 0.889 2.06312472253e-38
-0.0279063896916 -0.0459634653743 0.887 1.26931002184e-38
-0.0262056156265 -0.0458598273464 0.885 8.26519745682e-39
-0.0244844840917 -0.0457043703046 0.882 1.62984253671e-38
-0.0228003661383 -0.0456007322767 0.88 1.14069730736e-38
-0.021171768557 -0.0456007322767 0.88 1.58276339247e-38
-0.0194987546781 -0.0454970942488 0.878 1.85972625044e-38
-0.0178738584549 -0.0454970942488 0.878 1.35278425032e-38
-0.0162489622317 -0.0454970942488 0.878 1.67608734786e-38
-0.0145740976737 -0.0453416372069 0.875 1.45290772625e-38
-0.0129547534877 -0.0453416372069 0.875 9.82639808891e-39
-0.0112835902878 -0.0451343611511 0.871 1.23059564852e-38
-0.0096716488181 -0.0451343611511 0.871 1.35916534314e-38
-0.00804120055772 -0.0450307231232 0.869 1.38671599199e-38
-0.00643296044618 -0.0450307231232 0.869 1.33161469429e-38
-0.00482472033463 -0.0450307231232 0.869 1.35916534314e-38
-0.00320907750681 -0.0449270850953 0.867 1.49691914789e-38
-0.0016045387534 -0.0449270850953 0.867 1.41426846252e-38
0.0 -0.0449270850953 0.867 1.50675219935e-38
0.0015989867162 -0.0447716280535 0.864 1.38733004097e-38
0.00319797343239 -0.0447716280535 0.864 1.53459109529e-38
0.00479696014859 -0.0447716280535 0.864 1.39658617785e-38
0.00639594686478 -0.0447716280535 0.864 1.4142693033e-38
0.00802269376702 -0.0449270850953 0.867 1.46018508956e-38
0.00962723252043 -0.0449270850953 0.867 1.48773503776e-38
0.0112317712738 -0.0449270850953 0.867 1.49691858738e-38
0.0128363100272 -0.0449270850953 0.867 1.5703869843e-38
0.0144408487806 -0.0449270850953 0.867 1.70814120945e-38
0.016045387534 -0.0449270850953 0.867 1.97683850842e-38
0.017690641227 -0.0450307231232 0.869 1.31579809839e-38
0.0192988813385 -0.0450307231232 0.869 1.19691067551e-38
0.0209552391059 -0.0451343611511 0.871 8.8337855191e-39
0.0225671805756 -0.0451343611511 0.871 1.48063269662e-38
0.0241791220453 -0.0451343611511 0.871 1.78347809775e-38
0.0258502852452 -0.045237999179 0.873 1.94024514046e-38
0.0276232357939 -0.0454970942488 0.878 1.98630862358e-38
0.0292481320171 -0.0454970942488 0.878 2.27492958412e-38
0.0308730282403 -0.0454970942488 0.878 8.09336183133e-39
0.0325719516262 -0.0456007322767 0.88 1.57100019251e-38
0.0342005492075 -0.0456007322767 0.88 1.65379829448e-38
0.0358291467888 -0.0456007322767 0.88 2.13346065687e-38
0.0374577443701 -0.0456007322767 0.88 1.90383464194e-38
-0.0296811909194 -0.0445217863791 0.891 2.10014646744e-38
-0.0279063896916 -0.0443219130396 0.887 1.32476935129e-38
-0.0262648373568 -0.0443219130396 0.887 1.10357214662e-38
-0.0244844840917 -0.0440720713651 0.882 7.25502101206e-39
-0.0228521851523 -0.0440720713651 0.882 1.60225251138e-38
-0.021171768557 -0.0439721346954 0.88 1.361900958e-38
-0.0195431709757 -0.0439721346954 0.88 1.07447530505e-38
-0.0178738584549 -0.0438721980256 0.878 2.27204879473e-38
-0.0162489622317 -0.0438721980256 0.878 1.21492941195e-38
-0.0146240660085 -0.0438721980256 0.878 2.18207184073e-38
-0.0129547534877 -0.043722293021 0.875 1.48258414486e-38
-0.0113094997948 -0.0436223563512 0.873 2.04432686415e-38
-0.0096716488181 -0.0435224196815 0.871 7.99004689815e-39
-0.00805970734842 -0.0435224196815 0.871 1.20304499967e-38
-0.00643296044618 -0.0434224830117 0.869 1.28569694621e-38
-0.00482472033463 -0.0434224830117 0.869 1.31324759506e-38
-0.00321648022309 -0.0434224830117 0.869 1.37753244237e-38
-0.00160824011154 -0.0434224830117 0.869 1.32243114468e-38
0.0 -0.0434224830117 0.869 1.54283633545e-38
0.0016045387534 -0.0433225463419 0.867 1.42345019045e-38
0.00320907750681 -0.0433225463419 0.867 1.50610213699e-38
0.00482472033463 -0.0434224830117 0.869 1.50610213699e-38
0.00643296044618 -0.0434224830117 0.869 1.51528568661e-38
0.00804120055772 -0.0434224830117 0.869 1.51528568661e-38
0.00964944066926 -0.0434224830117 0.869 1.52446923622e-38
0.0112576807808 -0.0434224830117 0.869 1.43263374006e-38
0.0128659208924 -0.0434224830117 0.869 1.50610213699e-38
0.0144741610039 -0.0434224830117 0.869 1.82039530579e-38
0.0160824011154 -0.0434224830117 0.869 1.6006281262e-38
0.017690641227 -0.0434224830117 0.869 9.56775202355e-39
0.0193432976362 -0.0435224196815 0.871 1.09574911768e-38
0.0209552391059 -0.0435224196815 0.871 8.83201147525e-39
0.0226189995895 -0.0436223563512 0.873 1.78448969511e-38
0.0242346424173 -0.0436223563512 0.873 1.88575046487e-38
0.0259095069754 -0.043722293021 0.875 1.65504783232e-38
0.0276232357939 -0.0438721980256 0.878 2.34832006885e-38
0.0292481320171 -0.0438721980256 0.878 1.35318936571e-38
0.0309433540449 -0.0439721346954 0.88 1.58147910243e-38
0.0325719516262 -0.0439721346954 0.88 2.12524078021e-38
0.0342782777284 -0.0440720713651 0.882 1.65422316818e-38
0.0359105766679 -0.0440720713651 0.882 1.97647977602e-38
0.0375428756073 -0.0440720713651 0.882 2.20785741403e-38
-0.0298477520357 -0.0431134196071 0.896 2.10014590692e-38
-0.0279693127799 -0.0427765960164 0.889 1.33427604033e-38
-0.0262648373568 -0.0426803607048 0.887 1.18657960258e-38
-0.0245677646499 -0.0425841253931 0.885 1.00151081505e-38
-0.0228521851523 -0.0424397724257 0.882 7.62307345502e-39
-0.021171768557 -0.0423435371141 0.88 1.40734702902e-38
-0.0195431709757 -0.0423435371141 0.88 1.79501204528e-38
-0.0178738584549 -0.0422473018025 0.878 8.72473086742e-39
-0.0162489622317 -0.0422473018025 0.878 1.05610820582e-38
-0.0146240660085 -0.0422473018025 0.878 2.19962786841e-38
-0.0129547534877 -0.042102948835 0.875 7.16388616514e-39
-0.0113094997948 -0.0420067135234 0.873 2.11814824816e-38
-0.00969385696694 -0.0420067135234 0.873 7.62270491352e-39
-0.00805970734842 -0.0419104782118 0.871 2.19125805281e-38
-0.00644776587873 -0.0419104782118 0.871 1.51881751926e-38
-0.00483582440905 -0.0419104782118 0.871 2.18225877394e-38
-0.00321648022309 -0.0418142429001 0.869 1.06701367099e-38
-0.00160824011154 -0.0418142429001 0.869 2.16140955474e-38
0.0 -0.0418142429001 0.869 2.18258527649e-38
0.00160824011154 -0.0418142429001 0.869 8.91163045139e-39
0.00322388293937 -0.0419104782118 0.871 1.40508309122e-38
0.00482472033463 -0.0418142429001 0.869 1.81071709782e-38
0.00643296044618 -0.0418142429001 0.869 1.20304892331e-38
0.00804120055772 -0.0418142429001 0.869 2.04963035845e-38
0.00964944066926 -0.0418142429001 0.869 1.36993390145e-38
0.0112576807808 -0.0418142429001 0.869 2.15359241126e-38
0.0128955317575 -0.0419104782118 0.871 1.83235552831e-38
0.0145074732272 -0.0419104782118 0.871 1.48091982268e-38
0.0161194146968 -0.0419104782118 0.871 1.35245900895e-38
0.0177313561665 -0.0419104782118 0.871 1.26058665864e-38
0.0193877139339 -0.0420067135234 0.873 1.72977599657e-38
0.0210033567617 -0.0420067135234 0.873 1.40838356949e-38
0.0226708186035 -0.042102948835 0.875 1.45394286542e-38
0.0242901627894 -0.042102948835 0.875 1.95121870873e-38
0.0259983395707 -0.0422473018025 0.878 1.87760723923e-38
0.0276232357939 -0.0422473018025 0.878 2.16447601617e-38
0.0293147564636 -0.0423435371141 0.88 1.24247053196e-38
0.0309433540449 -0.0423435371141 0.88 2.07043319467e-38
0.032645978789 -0.0424397724257 0.882 1.83000162715e-38
0.0344725990308 -0.0426803607048 0.887 1.67154952304e-38
0.0361141513656 -0.0426803607048 0.887 2.32689519624e-38
0.0377557037004 -0.0426803607048 0.887 1.99646005004e-38
-0.0317521007983 -0.0417790799978 0.903 1.96188805511e-38
-0.0299143764822 -0.0415477451141 0.898 1.98947766005e-38
-0.0281895435892 -0.0414552111606 0.896 1.15006428694e-38
-0.026324059087 -0.0411313423234 0.889 1.49993306063e-38
-0.024623285022 -0.04103880837 0.887 9.09244139354e-39
-0.0229817326872 -0.04103880837 0.887 9.92545027215e-39
-0.0212198862128 -0.0408074734862 0.882 7.25500419648e-39
-0.0195875872734 -0.0408074734862 0.882 9.1835496158e-39
-0.0179145733944 -0.0407149395328 0.88 1.74951538739e-38
-0.0162859758131 -0.0407149395328 0.88 1.6202289286e-38
-0.0146240660085 -0.0406224055793 0.878 1.24896625099e-38
-0.0129991697854 -0.0406224055793 0.878 1.20304499967e-38
-0.0113354093017 -0.0404836046491 0.875 1.93307343505e-38
-0.00969385696694 -0.0403910706956 0.873 1.74837150745e-38
-0.00805970734842 -0.0402985367421 0.871 1.98040173016e-38
-0.00644776587873 -0.0402985367421 0.871 1.02995661336e-38
-0.00483582440905 -0.0402985367421 0.871 2.10908282801e-38
-0.00322388293937 -0.0402985367421 0.871 6.52032022722e-39
-0.00161194146968 -0.0402985367421 0.871 2.34795853385e-38
0.0 -0.0402985367421 0.871 8.37105154281e-39
0.00161194146968 -0.0402985367421 0.871 1.91295022858e-38
0.00322388293937 -0.0402985367421 0.871 2.0717061342e-38
0.00483582440905 -0.0402985367421 0.871 2.14575957323e-38
0.00644776587873 -0.0402985367421 0.871 1.15907379529e-38
0.00805970734842 -0.0402985367421 0.871 2.34813902109e-38
0.0096716488181 -0.0402985367421 0.871 1.49172887851e-38
0.0112835902878 -0.0402985367421 0.871 2.34827214444e-38
0.0128955317575 -0.0402985367421 0.871 1.25158766003e-38
0.0145074732272 -0.0402985367421 0.871 1.75675113214e-38
0.0161194146968 -0.0402985367421 0.871 1.59123438182e-38
0.0177720711061 -0.0403910706956 0.873 1.46183455798e-38
0.0193877139339 -0.0403910706956 0.873 1.86566102969e-38
0.0210514744175 -0.0404836046491 0.875 1.45419355772e-38
0.0226708186035 -0.0404836046491 0.875 1.29875494595e-38
0.0242901627894 -0.0404836046491 0.875 1.15056244855e-38
0.0259983395707 -0.0406224055793 0.878 2.30308195053e-38
0.0276232357939 -0.0406224055793 0.878 1.39943193477e-38
0.0293147564636 -0.0407149395328 0.88 1.35163938948e-38
0.0310136798495 -0.0408074734862 0.882 1.77469041495e-38
0.0327570195332 -0.0409462744165 0.885 1.70900272774e-38
0.0345503275517 -0.0411313423234 0.889 2.11551899185e-38
0.0361955812446 -0.0411313423234 0.889 2.06002168721e-38
0.0378408349376 -0.0411313423234 0.889 2.01475456201e-38
-0.0316817749937 -0.0400190842026 0.901 1.90653564473e-38
-0.0299143764822 -0.0398858353096 0.898 1.95281268573e-38
-0.0282524666776 -0.0398858353096 0.898 1.03060457377e-38
-0.026590556873 -0.0398858353096 0.898 1.51812233509e-38
-0.0246788053941 -0.0394860886305 0.889 8.90984799975e-39
-0.0229817326872 -0.0393972560352 0.887 9.5577621668e-39
-0.0212920626966 -0.0393084234398 0.885 9.27898785031e-39
-0.0195875872734 -0.0391751745468 0.882 1.40742522147e-38
-0.0179552883339 -0.0391751745468 0.882 5.78563625795e-39
-0.0162859758131 -0.0390863419515 0.88 9.27538511196e-39
-0.0146240660085 -0.0389975093561 0.878 1.97850731476e-38
-0.0129991697854 -0.0389975093561 0.878 1.74937441676e-38
-0.0113354093017 -0.0388642604631 0.875 1.30610882016e-38
-0.00971606511577 -0.0388642604631 0.875 1.12957660274e-38
-0.00807821413911 -0.0387754278677 0.873 1.15712725159e-38
-0.00646257131129 -0.0387754278677 0.873 1.2765133966e-38
-0.00484692848347 -0.0387754278677 0.873 2.01583426248e-38
-0.00323128565565 -0.0387754278677 0.873 1.6469187598e-38
-0.00161564282782 -0.0387754278677 0.873 2.21020066532e-38
0.0 -0.0387754278677 0.873 1.4913663626e-38
0.00161564282782 -0.0387754278677 0.873 2.21835566187e-38
0.00323128565565 -0.0387754278677 0.873 1.7858977198e-38
0.00484692848347 -0.0387754278677 0.873 1.30618056664e-38
0.00646257131129 -0.0387754278677 0.873 1.986248648e-38
0.00807821413911 -0.0387754278677 0.873 2.28375636314e-38
0.00969385696694 -0.0387754278677 0.873 8.72760072667e-39
0.0112835902878 -0.0386865952724 0.871 2.34767687285e-38
0.0128955317575 -0.0386865952724 0.871 1.4173182485e-38
0.0145074732272 -0.0386865952724 0.871 1.66512821296e-38
0.0161194146968 -0.0386865952724 0.871 1.82176101127e-38
0.0178127860456 -0.0388642604631 0.875 1.73781006105e-38
0.0194987546781 -0.0389975093561 0.878 2.10533855851e-38
0.0211236509012 -0.0389975093561 0.878 1.11311078527e-38
0.0227485471244 -0.0389975093561 0.878 4.6021780477e-39
0.0243734433476 -0.0389975093561 0.878 1.28875205712e-38
0.026057561301 -0.0390863419515 0.88 2.15607523188e-38
0.0276861588823 -0.0390863419515 0.88 1.15946615886e-38
0.0294813175799 -0.0393084234398 0.885 1.80288397953e-38
0.0311191685565 -0.0393084234398 0.885 1.63592977724e-38
0.032831046696 -0.0393972560352 0.887 2.34550850361e-38
0.0346280560726 -0.0395749212258 0.891 1.8120410446e-38
0.0362770111237 -0.0395749212258 0.891 2.17980538059e-38
0.0385644504538 -0.0402411656909 0.906 1.97830959155e-38
0.0402411656909 -0.0402411656909 0.906 2.34828573704e-38
-0.0316817749937 -0.0383516223608 0.901 1.75887984463e-38
-0.0299143764822 -0.038223925505 0.898 1.8512548407e-38
-0.0282524666776 -0.038223925505 0.898 1.15085517979e-38
-0.026590556873 -0.038223925505 0.898 1.42679242742e-38
-0.0248176063243 -0.0380536630306 0.894 9.74711822699e-39
-0.0230335517011 -0.0378408349376 0.889 7.98974001379e-39
-0.0213401803524 -0.0377557037004 0.887 8.72440156228e-39
-0.0196542117199 -0.0376705724632 0.885 1.60064326022e-38
-0.0179552883339 -0.0375428756073 0.882 1.36251304517e-38
-0.0162859758131 -0.0374577443701 0.88 1.91482390476e-38
-0.0146573782318 -0.0374577443701 0.88 4.22443282327e-39
-0.0129991697854 -0.0373726131329 0.878 1.13008050967e-38
-0.0113742735622 -0.0373726131329 0.878 1.53667286429e-38
-0.00971606511577 -0.0372449162771 0.875 1.95231074062e-38
-0.00809672092981 -0.0372449162771 0.875 1.85111134774e-38
-0.00647737674385 -0.0372449162771 0.875 1.65691800525e-38
-0.00485803255789 -0.0372449162771 0.875 1.09327288317e-38
-0.00323128565565 -0.0371597850399 0.873 1.31324759506e-38
-0.00161564282782 -0.0371597850399 0.873 1.13876015236e-38
0.0 -0.0371597850399 0.873 1.21222854929e-38
0.00161564282782 -0.0371597850399 0.873 1.14794370197e-38
0.00323128565565 -0.0371597850399 0.873 1.23059564852e-38
0.00484692848347 -0.0371597850399 0.873 1.37753244237e-38
0.00646257131129 -0.0371597850399 0.873 1.23059564852e-38
0.00807821413911 -0.0371597850399 0.873 1.17549435082e-38
0.00969385696694 -0.0371597850399 0.873 1.72740738177e-38
0.0113094997948 -0.0371597850399 0.873 1.4147688662e-38
0.0129251426226 -0.0371597850399 0.873 1.81978027589e-38
0.0145407854504 -0.0371597850399 0.873 1.09320113669e-38
0.0161934418596 -0.0372449162771 0.875 1.50926220516e-38
0.0178127860456 -0.0372449162771 0.875 1.49075077218e-38
0.0194987546781 -0.0373726131329 0.878 1.63818993154e-38
0.0211236509012 -0.0373726131329 0.878 9.93652893781e-39
0.0227485471244 -0.0373726131329 0.878 9.74819442421e-39
0.0244289637197 -0.0374577443701 0.88 2.34864811282e-38
0.0261167830312 -0.0375428756073 0.882 1.33514106188e-38
0.0277490819706 -0.0375428756073 0.882 1.41656869395e-38
0.0295479420264 -0.0377557037004 0.887 1.80278042357e-38
0.0311894943612 -0.0377557037004 0.887 2.1243810836e-38
0.0329050738588 -0.0378408349376 0.889 2.10753145048e-38
0.0348223773749 -0.0381387942678 0.896 1.73884772257e-38
0.0368877352167 -0.0385644504538 0.906 2.06139327815e-38
0.0385644504538 -0.0385644504538 0.906 1.86738196434e-38
0.0402411656909 -0.0385644504538 0.906 2.34828573704e-38
-0.0316817749937 -0.036684160519 0.901 1.70381315901e-38
-0.0299143764822 -0.0365620157004 0.898 1.81444735433e-38
-0.0282524666776 -0.0365620157004 0.898 1.21550044107e-38
-0.026590556873 -0.0365620157004 0.898 1.56570090211e-38
-0.0248731266964 -0.0364805858214 0.896 1.66689917395e-38
-0.023163099236 -0.0363991559423 0.894 5.60411766008e-39
-0.021436415664 -0.0362770111237 0.891 1.70266955933e-38
-0.0196986280176 -0.0361141513656 0.887 6.52354881888e-39
-0.0180163607432 -0.0360327214865 0.885 1.18557809457e-38
-0.0163229893945 -0.0359105766679 0.882 1.8965675081e-38
-0.0146573782318 -0.0358291467888 0.88 1.15059832179e-38
-0.0129991697854 -0.0357477169098 0.878 1.1409646751e-38
-0.0113742735622 -0.0357477169098 0.878 1.16857628043e-38
-0.00974937733903 -0.0357477169098 0.878 6.52032022722e-39
-0.00812448111586 -0.0357477169098 0.878 7.16316870032e-39
-0.00649958489268 -0.0357477169098 0.878 1.44286195769e-38
-0.00487468866951 -0.0357477169098 0.878 1.64802858818e-38
-0.00324979244634 -0.0357477169098 0.878 1.96142464571e-38
-0.00161934418596 -0.0356255720912 0.875 2.06298122957e-38
0.0 -0.0356255720912 0.875 1.97996970984e-38
0.00161934418596 -0.0356255720912 0.875 2.03528554633e-38
0.00323868837192 -0.0356255720912 0.875 1.95216724766e-38
0.00485803255789 -0.0356255720912 0.875 2.03507226871e-38
0.00647737674385 -0.0356255720912 0.875 2.08124211038e-38
0.00807821413911 -0.0355441422121 0.873 2.12755376346e-38
0.00969385696694 -0.0355441422121 0.873 2.16435942814e-38
0.0113354093017 -0.0356255720912 0.875 2.22878790854e-38
0.0129547534877 -0.0356255720912 0.875 2.12734216739e-38
0.0145740976737 -0.0356255720912 0.875 1.6294049112e-38
0.0161934418596 -0.0356255720912 0.875 1.56400883421e-38
0.0178738584549 -0.0357477169098 0.878 1.36103075165e-38
0.0195431709757 -0.0358291467888 0.88 1.04760624777e-38
0.021171768557 -0.0358291467888 0.88 1.51787626708e-38
0.0228003661383 -0.0358291467888 0.88 1.7559636024e-38
0.0244289637197 -0.0358291467888 0.88 2.31198510032e-38
0.0261167830312 -0.0359105766679 0.882 1.2518044409e-38
0.0278434666032 -0.0360327214865 0.885 1.40684088001e-38
0.0295479420264 -0.0361141513656 0.887 1.88511203329e-38
0.0311894943612 -0.0361141513656 0.887 2.02444215869e-38
0.0329791010215 -0.0362770111237 0.891 1.53688516101e-38
0.0348223773749 -0.0364805858214 0.896 1.41739279758e-38
0.0368877352167 -0.0368877352167 0.906 1.57293972971e-38
0.0385644504538 -0.0368877352167 0.906 2.00417349744e-38
-0.0316817749937 -0.0350166986772 0.901 1.69452269032e-38
-0.0299143764822 -0.0349001058959 0.898 1.73139898045e-38
-0.0282524666776 -0.0349001058959 0.898 1.28914862459e-38
-0.026590556873 -0.0349001058959 0.898 1.29804799088e-38
-0.0249286470685 -0.0349001058959 0.898 1.31612754366e-38
-0.02321491825 -0.0348223773749 0.896 1.65775233836e-38
-0.0215085921477 -0.034744648854 0.894 7.2611026474e-39
-0.0197430443153 -0.0345503275517 0.889 1.48133068339e-38
-0.0180977906223 -0.0345503275517 0.889 1.22414953545e-38
-0.0163785097666 -0.0343948705098 0.885 7.62239102266e-39
-0.014690690455 -0.0342782777284 0.882 1.70119146971e-38
-0.0130287806505 -0.0342005492075 0.88 1.21504081517e-38
-0.0114001830692 -0.0342005492075 0.88 1.51993127128e-38
-0.00974937733903 -0.0341228206866 0.878 1.7038083946e-38
-0.00812448111586 -0.0341228206866 0.878 1.26102554532e-38
-0.00649958489268 -0.0341228206866 0.878 2.07198148935e-38
-0.00487468866951 -0.0341228206866 0.878 3.489748854e-39
-0.00324979244634 -0.0341228206866 0.878 4.04076183095e-39
-0.00162489622317 -0.0341228206866 0.878 1.78568682439e-38
0.0 -0.0341228206866 0.878 7.16320793668e-39
0.00162489622317 -0.0341228206866 0.878 7.71418167727e-39
0.00323868837192 -0.0340062279052 0.875 8.81620763117e-39
0.00485803255789 -0.0340062279052 0.875 9.27539492105e-39
0.00647737674385 -0.0340062279052 0.875 9.55089160043e-39
0.00809672092981 -0.0340062279052 0.875 9.73456259275e-39
0.00971606511577 -0.0340062279052 0.875 1.00100690812e-38
0.0113354093017 -0.0340062279052 0.875 9.09171411964e-39
0.0129991697854 -0.0341228206866 0.878 1.17549435082e-38
0.0146240660085 -0.0341228206866 0.878 1.93999178569e-38
0.0162489622317 -0.0341228206866 0.878 1.4419249094e-38
0.0179145733944 -0.0342005492075 0.88 1.98547849437e-38
0.0195431709757 -0.0342005492075 0.88 1.90494741305e-38
0.021171768557 -0.0342005492075 0.88 1.25814629736e-38
0.0228003661383 -0.0342005492075 0.88 2.34817937848e-38
0.0244844840917 -0.0342782777284 0.882 1.99894959689e-38
0.0261167830312 -0.0342782777284 0.882 7.25502661726e-39
0.0278434666032 -0.0343948705098 0.885 1.81974664473e-38
0.0295479420264 -0.0344725990308 0.887 2.29173367504e-38
0.0312598201658 -0.0345503275517 0.889 6.97949770801e-39
0.0330901417657 -0.034744648854 0.894 1.53767745516e-38
0.0348223773749 -0.0348223773749 0.896 1.26123602035e-38
0.0368877352167 -0.0352110199796 0.906 1.46280944133e-38
0.0385644504538 -0.0352110199796 0.906 1.95904454026e-38
-0.0300143131519 -0.0333492368355 0.901 1.69452269032e-38
-0.0282524666776 -0.0332381960913 0.898 1.16936661277e-38
-0.026590556873 -0.0332381960913 0.898 1.39974624602e-38
-0.0249286470685 -0.0332381960913 0.898 1.46410199903e-38
-0.0232667372639 -0.0332381960913 0.898 1.3531132752e-38
-0.0215567098035 -0.0331641689285 0.896 1.67626489237e-38
-0.0197874606129 -0.0329791010215 0.891 5.32753497438e-39
-0.0180977906223 -0.0329050738588 0.889 1.48218589584e-38
-0.016415523348 -0.032831046696 0.887 1.9154973688e-38
-0.0147406587899 -0.0327570195332 0.885 5.96931425676e-39
-0.0130583915156 -0.032645978789 0.882 1.49158720724e-38
-0.0114260925761 -0.032645978789 0.882 6.42887008814e-39
-0.0097937936367 -0.032645978789 0.882 1.68590680671e-38
-0.00814298790655 -0.0325719516262 0.88 5.87751659566e-39
-0.00651439032524 -0.0325719516262 0.88 2.21974841241e-38
-0.00488579274393 -0.0325719516262 0.88 1.49137757299e-38
-0.00325719516262 -0.0325719516262 0.88 1.03932036995e-38
-0.00162859758131 -0.0325719516262 0.88 1.54705648591e-38
0.0 -0.0325719516262 0.88 1.43482354917e-38
0.00162489622317 -0.0324979244634 0.878 1.45452888844e-38
0.00324979244634 -0.0324979244634 0.878 1.8519004189e-38
0.00487468866951 -0.0324979244634 0.878 8.90805714031e-39
0.00649958489268 -0.0324979244634 0.878 1.08366403947e-38
0.00809672092981 -0.0323868837192 0.875 1.16631234263e-38
0.00971606511577 -0.0323868837192 0.875 1.02856120035e-38
0.0113354093017 -0.0323868837192 0.875 1.79252235829e-38
0.0129991697854 -0.0324979244634 0.878 1.96895382235e-38
0.0146240660085 -0.0324979244634 0.878 1.70108581181e-38
0.0162489622317 -0.0324979244634 0.878 2.21636217467e-38
0.0179145733944 -0.0325719516262 0.88 2.16306813161e-38
0.0195431709757 -0.0325719516262 0.88 1.04731926185e-38
0.021171768557 -0.0325719516262 0.88 2.07079585072e-38
0.0228521851523 -0.032645978789 0.882 2.2017100578e-38
0.0244844840917 -0.032645978789 0.882 1.34457586431e-38
0.0262056156265 -0.0327570195332 0.885 9.91823358506e-39
0.0279063896916 -0.032831046696 0.887 2.16298629578e-38
0.0296145664729 -0.0329050738588 0.889 1.6918605035e-38
0.0312598201658 -0.0329050738588 0.889 1.2589713819e-38
0.0330901417657 -0.0330901417657 0.894 1.335712091e-38
0.0348223773749 -0.0331641689285 0.896 1.25237406873e-38
0.0368877352167 -0.0335343047424 0.906 1.33384275885e-38
0.0385644504538 -0.0335343047424 0.906 1.83936944752e-38
-0.0300809375984 -0.0317521007983 0.903 1.66707910068e-38
-0.0283468513102 -0.0316817749937 0.901 1.04050755001e-38
-0.0266793894684 -0.0316817749937 0.901 1.56584159247e-38
-0.0249286470685 -0.0315762862867 0.898 7.44297997768e-39
-0.0232667372639 -0.0315762862867 0.898 1.57283210999e-38
-0.0216048274593 -0.0315762862867 0.898 1.49137210792e-38
-0.0198540850594 -0.0314356346774 0.894 1.72265235569e-38
-0.0181995779711 -0.0314356346774 0.894 5.60555258971e-39
-0.0164895505108 -0.0313301459705 0.891 9.82639808891e-39
-0.0148072832364 -0.0312598201658 0.889 9.82639808891e-39
-0.0131324186784 -0.0311894943612 0.887 1.61198270753e-38
-0.0114649568366 -0.0311191685565 0.885 1.3724474105e-38
-0.00982710585995 -0.0311191685565 0.885 4.96234538419e-39
-0.00816149469725 -0.0310136798495 0.882 1.27726897673e-38
-0.0065291957578 -0.0310136798495 0.882 7.4386751888e-39
-0.00489689681835 -0.0310136798495 0.882 1.69172948209e-38
-0.0032645978789 -0.0310136798495 0.882 1.48099815526e-38
-0.00162859758131 -0.0309433540449 0.88 1.43613082051e-38
0.0 -0.0309433540449 0.88 1.93427182549e-38
0.00162859758131 -0.0309433540449 0.88 1.74083140067e-38
0.00324979244634 -0.0308730282403 0.878 1.06823854597e-38
0.00487468866951 -0.0308730282403 0.878 9.64272709659e-39
0.00649958489268 -0.0308730282403 0.878 1.11121454819e-38
0.00812448111586 -0.0308730282403 0.878 1.08366067635e-38
0.00974937733903 -0.0308730282403 0.878 1.2030503246e-38
0.0113742735622 -0.0308730282403 0.878 2.07782252174e-38
0.0129991697854 -0.0308730282403 0.878 1.45114433226e-38
0.0146240660085 -0.0308730282403 0.878 1.5703869843e-38
0.0162489622317 -0.0308730282403 0.878 1.86537586545e-38
0.0179145733944 -0.0309433540449 0.88 1.61766791553e-38
0.0195431709757 -0.0309433540449 0.88 2.20077272926e-38
0.021171768557 -0.0309433540449 0.88 1.86987417366e-38
0.0228521851523 -0.0310136798495 0.882 2.09118095987e-38
0.0244844840917 -0.0310136798495 0.882 4.96342158141e-39
0.0262648373568 -0.0311894943612 0.887 1.95919097595e-38
0.0279063896916 -0.0311894943612 0.887 1.59094739589e-38
0.0296145664729 -0.0312598201658 0.889 1.7179704774e-38
0.0313301459705 -0.0313301459705 0.891 1.38919460871e-38
0.0331641689285 -0.0315059604821 0.896 8.01018215579e-39
0.0348223773749 -0.0315059604821 0.896 1.42672404405e-38
0.0368877352167 -0.0318575895053 0.906 1.91416669578e-38
0.0385644504538 -0.0318575895053 0.906 1.63686009929e-38
-0.0300809375984 -0.0300809375984 0.903 1.56580810144e-38
-0.0284097743985 -0.0300809375984 0.903 1.09578961521e-38
-0.0266793894684 -0.0300143131519 0.901 1.44584392082e-38
-0.0250119276266 -0.0300143131519 0.901 1.20520047697e-38
-0.0233444657848 -0.0300143131519 0.901 1.12136443322e-38
-0.0216048274593 -0.0299143764822 0.898 1.35256873062e-38
-0.0198985013571 -0.0298477520357 0.896 1.25195213776e-38
-0.0182402929107 -0.0298477520357 0.896 1.80512045188e-38
-0.0165450708829 -0.0297811275891 0.894 1.42737340576e-38
-0.0148905637946 -0.0297811275891 0.894 6.79869657495e-39
-0.0131916404086 -0.0296811909194 0.891 5.96930725027e-39
-0.0115167758506 -0.0296145664729 0.889 1.62073689929e-38
-0.00982710585995 -0.0294813175799 0.885 1.23365146008e-38
-0.00818925488329 -0.0294813175799 0.885 1.53729644211e-38
-0.00655140390664 -0.0294813175799 0.885 1.19656441466e-38
-0.00489689681835 -0.0293813809101 0.882 9.10223226591e-39
-0.0032645978789 -0.0293813809101 0.882 6.61617464737e-39
-0.00163229893945 -0.0293813809101 0.882 1.09468455124e-38
0.0 -0.0293813809101 0.882 1.18755868982e-38
0.00163229893945 -0.0293813809101 0.882 1.50069887024e-38
0.00325719516262 -0.0293147564636 0.88 5.9707421799e-39
0.00488579274393 -0.0293147564636 0.88 1.074911249e-38
0.00651439032524 -0.0293147564636 0.88 9.3672374237e-39
0.00812448111586 -0.0292481320171 0.878 1.08365885466e-38
0.00974937733903 -0.0292481320171 0.878 1.78283742409e-38
0.0113742735622 -0.0292481320171 0.878 1.72708242066e-38
0.0129991697854 -0.0292481320171 0.878 1.52446923622e-38
0.0146573782318 -0.0293147564636 0.88 1.34079824391e-38
0.0162859758131 -0.0293147564636 0.88 2.14423075661e-38
0.0179145733944 -0.0293147564636 0.88 2.15514504996e-38
0.0195431709757 -0.0293147564636 0.88 1.77768204704e-38
0.021171768557 -0.0293147564636 0.88 1.84221744651e-38
0.0228521851523 -0.0293813809101 0.882 1.87916730481e-38
0.0245677646499 -0.0294813175799 0.885 6.42848473106e-39
0.0262648373568 -0.0295479420264 0.887 1.49875288707e-38
0.0279693127799 -0.0296145664729 0.889 1.26793969207e-38
0.0296811909194 -0.0296811909194 0.891 1.82247581362e-38
0.0314356346774 -0.0297811275891 0.894 1.18754860047e-38
0.0331641689285 -0.0298477520357 0.896 1.26998768978e-38
0.0349001058959 -0.0299143764822 0.898 1.85806248877e-38
0.0368877352167 -0.0301808742682 0.906 2.15337408896e-38
0.0385644504538 -0.0301808742682 0.906 1.78405038804e-38
0.0403299982863 -0.0302474987147 0.908 2.34821118796e-38
-0.0301808742682 -0.0285041590311 0.906 1.51978189286e-38
-0.0284097743985 -0.0284097743985 0.903 1.13259556015e-38
-0.0267386111986 -0.0284097743985 0.903 1.43641150059e-38
-0.0250674479987 -0.0284097743985 0.903 8.4628562104e-39
-0.0233444657848 -0.0283468513102 0.901 1.1305830153e-38
-0.0216770039431 -0.0283468513102 0.901 9.377272122e-39
-0.0199429176548 -0.0282524666776 0.898 1.45491592708e-38
-0.0182402929107 -0.0281895435892 0.896 1.37212511186e-38
-0.0165820844643 -0.0281895435892 0.896 1.32581247787e-38
-0.0148905637946 -0.0281266205009 0.894 1.51081092022e-38
-0.0131916404086 -0.0280322358683 0.891 1.56609718931e-38
-0.0115167758506 -0.0279693127799 0.889 6.98632343283e-39
-0.00984931400879 -0.0279063896916 0.887 7.16316870032e-39
-0.00820776167399 -0.0279063896916 0.887 7.34683969264e-39
-0.00656620933919 -0.0279063896916 0.887 1.49873256824e-38
-0.00492465700439 -0.0279063896916 0.887 1.40900588614e-38
-0.0032831046696 -0.0279063896916 0.887 1.46490059902e-38
-0.0016415523348 -0.0279063896916 0.887 1.32617709573e-38
0.0 -0.0279063896916 0.887 1.42712733775e-38
0.00163785097666 -0.0278434666032 0.885 1.64810467869e-38
0.00327570195332 -0.0278434666032 0.885 1.57370553932e-38
0.00491355292998 -0.0278434666032 0.885 1.56563658251e-38
0.00655140390664 -0.0278434666032 0.885 1.0494111202e-38
0.00818925488329 -0.0278434666032 0.885 8.44886564654e-39
0.0097937936367 -0.0277490819706 0.882 1.19386145005e-38
0.0114260925761 -0.0277490819706 0.882 1.57056691102e-38
0.0130583915156 -0.0277490819706 0.882 2.08908882126e-38
0.014690690455 -0.0277490819706 0.882 2.34864054581e-38
0.0163229893945 -0.0277490819706 0.882 2.15553741353e-38
0.0179552883339 -0.0277490819706 0.882 1.87898807874e-38
0.0195875872734 -0.0277490819706 0.882 1.93441237573e-38
0.0212198862128 -0.0277490819706 0.882 1.83303291599e-38
0.0229299136732 -0.0278434666032 0.885 1.5381847252e-38
0.024623285022 -0.0279063896916 0.887 7.62808589962e-39
0.0262648373568 -0.0279063896916 0.887 1.36957362761e-38
0.0279693127799 -0.0279693127799 0.889 1.33301851509e-38
0.0297811275891 -0.0281266205009 0.894 1.5091896179e-38
0.0314356346774 -0.0281266205009 0.894 1.48206874729e-38
0.0332381960913 -0.0282524666776 0.898 1.52665862494e-38
0.0350944271982 -0.0284097743985 0.903 1.97676718233e-38
0.0368877352167 -0.0285041590311 0.906 1.94085302373e-38
0.0385644504538 -0.0285041590311 0.906 1.85769927221e-38
0.0403299982863 -0.0285670821194 0.908 2.34849985544e-38
-0.0302474987147 -0.0268866655242 0.908 1.4368786935e-38
-0.0284097743985 -0.0267386111986 0.903 1.25259281142e-38
-0.0267386111986 -0.0267386111986 0.903 1.25248757391e-38
-0.0250674479987 -0.0267386111986 0.903 1.07760636634e-38
-0.0233962847988 -0.0267386111986 0.903 1.05736489028e-38
-0.0216770039431 -0.0266793894684 0.901 1.13097649991e-38
-0.0200095421013 -0.0266793894684 0.901 8.91772890231e-39
-0.0182810078502 -0.026590556873 0.898 1.6394184499e-38
-0.0165820844643 -0.0265313351428 0.896 1.76859560741e-38
-0.0149238760178 -0.0265313351428 0.896 4.14156563728e-39
-0.0132360567063 -0.0264721134126 0.894 5.99226612431e-39
-0.0115426853575 -0.0263832808172 0.891 1.3457575793e-38
-0.00987152215763 -0.026324059087 0.889 1.64983065801e-38
-0.00822626846469 -0.026324059087 0.889 1.49230747465e-38
-0.00656620933919 -0.0262648373568 0.887 1.19622908394e-38
-0.00492465700439 -0.0262648373568 0.887 1.01937526852e-38
-0.0032831046696 -0.0262648373568 0.887 1.00100690812e-38
-0.0016415523348 -0.0262648373568 0.887 8.54070114269e-39
0.0 -0.0262648373568 0.887 7.89785266959e-39
0.0016415523348 -0.0262648373568 0.887 9.73456259275e-39
0.0032831046696 -0.0262648373568 0.887 8.72437213501e-39
0.00492465700439 -0.0262648373568 0.887 1.01019494189e-38
0.00656620933919 -0.0262648373568 0.887 1.454302859e-38
0.00820776167399 -0.0262648373568 0.887 2.02598540868e-38
0.00984931400879 -0.0262648373568 0.887 2.20094873234e-38
