# .PCD v0.7 - Point Cloud Data file format
VERSION 0.7
FIELDS x y z rgb
SIZE 4 4 4 4
TYPE F F F F
COUNT 1 1 1 1
WIDTH 842
HEIGHT 1
VIEWPOINT 0 0 0 1 0 0 0
POINTS 842
DATA ascii
-0.0120479207436 -0.0860565767397 0.93 9.56990722059e-39
-0.0103267892088 -0.0860565767397 0.93 1.16860668861e-38
-0.00860565767397 -0.0860565767397 0.93 1.23336433402e-38
-0.00686972070662 -0.0858715088327 0.928 1.23368551163e-38
-0.00515229052996 -0.0858715088327 0.928 1.28893058255e-38
-0.00343486035331 -0.0858715088327 0.928 1.38991333469e-38
-0.00173593696735 -0.0867968483676 0.938 1.47245303723e-38
0.0 -0.0865192465071 0.935 1.56486684926e-38
0.00173038493014 -0.0865192465071 0.935 1.54675366531e-38
0.00346076986028 -0.0865192465071 0.935 1.63927201421e-38
0.00510787423229 -0.0851312372049 0.92 1.68565639468e-38
0.00681049897639 -0.0851312372049 0.92 1.68572673986e-38
0.00854088390653 -0.0854088390653 0.923 1.7224242243e-38
0.0102490606878 -0.0854088390653 0.923 1.86975730536e-38
0.0119183732087 -0.0851312372049 0.92 1.83230452105e-38
0.0136209979528 -0.0851312372049 0.92 2.05239035591e-38
0.0153236226969 -0.0851312372049 0.92 2.02419034535e-38
0.0170817678131 -0.0854088390653 0.923 2.34809039603e-38
0.0187899445944 -0.0854088390653 0.923 2.35025147852e-38
0.0205425376733 -0.0855939069723 0.925 2.35075706701e-38
0.0222544158128 -0.0855939069723 0.925 2.1834755214e-38
0.0239662939522 -0.0855939069723 0.925 1.69411799533e-38
0.0257614526498 -0.0858715088327 0.928 1.28681280018e-38
0.0274788828265 -0.0858715088327 0.928 1.42635592294e-38
0.0291963130031 -0.0858715088327 0.928 1.55514744311e-38
0.0309803676263 -0.0860565767397 0.93 1.1850007596e-38
0.0327014991611 -0.0860565767397 0.93 1.46018438891e-38
0.0350148479982 -0.0875371199954 0.946 1.57957053392e-38
0.0367655903981 -0.0875371199954 0.946 1.63467183161e-38
0.038516332798 -0.0875371199954 0.946 1.49691858738e-38
-0.0347927665098 -0.085242277949 0.94 2.33916916949e-38
-0.0330531281843 -0.085242277949 0.94 2.24700955299e-38
-0.0312468654123 -0.0850609114002 0.938 2.3492917292e-38
-0.0294165438124 -0.084788861577 0.935 8.73908016369e-39
-0.027626937152 -0.0846074950282 0.933 1.47260059396e-38
-0.02590025358 -0.0846074950282 0.933 9.46013230149e-39
-0.024173570008 -0.0846074950282 0.933 1.60027569964e-38
-0.022446886436 -0.0846074950282 0.933 1.02866517669e-38
-0.020720202864 -0.0846074950282 0.933 1.23977919813e-38
-0.0189324468827 -0.0843354452049 0.93 1.20304499967e-38
-0.0171743017665 -0.0841540786561 0.928 1.20304499967e-38
-0.0154568715899 -0.0841540786561 0.928 1.20304499967e-38
-0.0137394414132 -0.0841540786561 0.928 1.67406177093e-38
-0.0120220112366 -0.0841540786561 0.928 1.73989154979e-38
-0.0103045810599 -0.0841540786561 0.928 1.54686296659e-38
-0.00855939069723 -0.0838820288328 0.925 1.40864014724e-38
-0.00683270712523 -0.083700662284 0.923 1.44530133805e-38
-0.00512453034392 -0.083700662284 0.923 1.40842462754e-38
-0.00340524948819 -0.0834286124608 0.92 1.52817230754e-38
-0.0017026247441 -0.0834286124608 0.92 1.71284845125e-38
0.0 -0.0838820288328 0.925 1.63927173395e-38
0.00170817678131 -0.083700662284 0.923 1.65767905045e-38
0.00341635356261 -0.083700662284 0.923 1.78678488186e-38
0.00510787423229 -0.0834286124608 0.92 1.67618726044e-38
0.00681049897639 -0.0834286124608 0.92 1.76852554248e-38
0.00851312372049 -0.0834286124608 0.92 1.83320625661e-38
0.0102157484646 -0.0834286124608 0.92 1.87893931355e-38
0.0119183732087 -0.0834286124608 0.92 1.91539213128e-38
0.0136209979528 -0.0834286124608 0.92 2.05303425255e-38
0.0153236226969 -0.0834286124608 0.92 1.96033891966e-38
0.017026247441 -0.0834286124608 0.92 1.70197885932e-38
0.0187288721851 -0.0834286124608 0.92 1.29656653814e-38
0.0205425376733 -0.0838820288328 0.925 1.24121412776e-38
0.0222544158128 -0.0838820288328 0.925 1.42617655674e-38
0.0239662939522 -0.0838820288328 0.925 1.74018091793e-38
0.0256781720917 -0.0838820288328 0.925 1.5085144723e-38
0.0273900502311 -0.0838820288328 0.925 1.24896274775e-38
0.0291963130031 -0.0841540786561 0.928 1.49691858738e-38
0.0309803676263 -0.0843354452049 0.93 1.60712118276e-38
0.0327014991611 -0.0843354452049 0.93 1.67140603008e-38
0.0345336714401 -0.0846074950282 0.933 1.67140603008e-38
0.036338083533 -0.084788861577 0.935 1.63467183161e-38
0.0380684684631 -0.084788861577 0.935 1.5703869843e-38
-0.0365324048353 -0.0835026396236 0.94 2.3022925991e-38
-0.0347927665098 -0.0835026396236 0.94 2.28395941129e-38
-0.0330531281843 -0.0835026396236 0.94 2.29307149469e-38
-0.0312468654123 -0.0833249744329 0.938 2.34907382729e-38
-0.0294165438124 -0.0830584766468 0.935 1.1227611074e-38
-0.027626937152 -0.0828808114561 0.933 1.42625082556e-38
-0.0258169730219 -0.0826143136701 0.93 1.53771374879e-38
-0.0240958414871 -0.0826143136701 0.93 7.90000506403e-39
-0.0223747099523 -0.0826143136701 0.93 1.69200665893e-38
-0.0206535784175 -0.0826143136701 0.93 1.12964834922e-38
-0.0188917319432 -0.0824366484794 0.928 1.25814629736e-38
-0.0171743017665 -0.0824366484794 0.928 1.29488049583e-38
-0.0154568715899 -0.0824366484794 0.928 1.32243114468e-38
-0.0136950251156 -0.0821701506934 0.925 1.32243114468e-38
-0.0119831469761 -0.0821701506934 0.925 1.25814629736e-38
-0.0102490606878 -0.0819924855027 0.923 1.26732984698e-38
-0.00854088390653 -0.0819924855027 0.923 1.62656924363e-38
-0.00681049897639 -0.0817259877167 0.92 1.84991141586e-38
-0.00510787423229 -0.0817259877167 0.92 1.85938853751e-38
-0.00340524948819 -0.0817259877167 0.92 1.76762674965e-38
-0.0017026247441 -0.0817259877167 0.92 1.78639013608e-38
0.0 -0.0817259877167 0.92 1.75898101838e-38
0.00170817678131 -0.0819924855027 0.923 1.5743401874e-38
0.00340524948819 -0.0817259877167 0.92 1.70341336856e-38
0.00510787423229 -0.0817259877167 0.92 1.74036448802e-38
0.00681049897639 -0.0817259877167 0.92 1.70341336856e-38
0.00851312372049 -0.0817259877167 0.92 1.61114431066e-38
0.0102157484646 -0.0817259877167 0.92 1.67568251273e-38
0.0118924637017 -0.081548322526 0.918 1.60174874458e-38
0.0135913870877 -0.081548322526 0.918 1.70341659155e-38
0.0152903104736 -0.081548322526 0.918 1.75890913177e-38
0.017026247441 -0.0817259877167 0.92 1.87843933026e-38
0.0187288721851 -0.0817259877167 0.92 1.95219387233e-38
0.0205425376733 -0.0821701506934 0.925 1.74868525818e-38
0.0222544158128 -0.0821701506934 0.925 1.66519995944e-38
0.0239662939522 -0.0821701506934 0.925 1.24917798719e-38
0.0256781720917 -0.0821701506934 0.925 1.53365278584e-38
0.0273900502311 -0.0821701506934 0.925 1.64385538123e-38
0.0291963130031 -0.0824366484794 0.928 1.65303893084e-38
0.0309137431798 -0.0824366484794 0.928 1.65303893084e-38
0.0326311733564 -0.0824366484794 0.928 1.67140603008e-38
0.0344226306959 -0.0826143136701 0.93 1.67140603008e-38
0.0362603550121 -0.0828808114561 0.933 1.63467183161e-38
0.0379870385841 -0.0828808114561 0.933 1.625488282e-38
0.0397137221561 -0.0828808114561 0.933 2.34849957518e-38
-0.0347927665098 -0.0817630012981 0.94 2.26562762478e-38
-0.0330531281843 -0.0817630012981 0.94 2.34867543814e-38
-0.0312468654123 -0.0815890374655 0.938 2.34907312664e-38
-0.0294165438124 -0.0813280917167 0.935 1.27027635726e-38
-0.027626937152 -0.0811541278841 0.933 1.37993707053e-38
-0.0258169730219 -0.0808931821353 0.93 9.2933231336e-39
-0.0240958414871 -0.0808931821353 0.93 7.44082758324e-39
-0.0223747099523 -0.0808931821353 0.93 1.84834742665e-38
-0.0206535784175 -0.0808931821353 0.93 1.39874263606e-38
-0.0188917319432 -0.0807192183028 0.928 1.17793597327e-38
-0.0171187813945 -0.0804582725539 0.925 9.74030231126e-39
-0.015406903255 -0.0804582725539 0.925 1.26732984698e-38
-0.0136950251156 -0.0804582725539 0.925 1.33161469429e-38
-0.0119572374691 -0.0802843087214 0.923 1.3958995416e-38
-0.0102490606878 -0.0802843087214 0.923 1.42345019045e-38
-0.00851312372049 -0.0800233629726 0.92 1.43263374006e-38
-0.00681049897639 -0.0800233629726 0.92 1.38671599199e-38
-0.00510787423229 -0.0800233629726 0.92 1.36834889275e-38
-0.00339784677192 -0.07984939914 0.918 1.38671599199e-38
-0.00169892338596 -0.07984939914 0.918 1.36834889275e-38
0.0 -0.0800233629726 0.92 1.52446923622e-38
0.0017026247441 -0.0800233629726 0.92 1.60805626923e-38
0.00340524948819 -0.0800233629726 0.92 1.73777853184e-38
0.00510787423229 -0.0800233629726 0.92 1.7107993325e-38
0.00681049897639 -0.0800233629726 0.92 1.75700294547e-38
0.00849461692979 -0.07984939914 0.918 1.78459086886e-38
0.0101935403157 -0.07984939914 0.918 1.55374180062e-38
0.0118924637017 -0.07984939914 0.918 1.57160667448e-38
0.0135913870877 -0.07984939914 0.918 1.40519071094e-38
0.0152903104736 -0.07984939914 0.918 1.41426664083e-38
0.017026247441 -0.0800233629726 0.92 1.46018438891e-38
0.0187288721851 -0.0800233629726 0.92 1.47855148814e-38
0.0204981213757 -0.0802843087214 0.923 1.49691858738e-38
0.0222544158128 -0.0804582725539 0.925 1.58875408353e-38
0.0239662939522 -0.0804582725539 0.925 1.63467183161e-38
0.0256781720917 -0.0804582725539 0.925 1.65303893084e-38
0.0273900502311 -0.0804582725539 0.925 1.66222248046e-38
0.0291963130031 -0.0807192183028 0.928 1.66222248046e-38
0.0309137431798 -0.0807192183028 0.928 1.67140603008e-38
0.0326311733564 -0.0807192183028 0.928 1.68058957969e-38
0.0344226306959 -0.0808931821353 0.93 1.66222248046e-38
0.0362603550121 -0.0811541278841 0.933 1.63467183161e-38
0.0379870385841 -0.0811541278841 0.933 1.58875408353e-38
0.0397137221561 -0.0811541278841 0.933 2.34857174205e-38
0.0415292383234 -0.0813280917167 0.935 2.34878600059e-38
-0.0347927665098 -0.0800233629726 0.94 2.31161810025e-38
-0.0330531281843 -0.0800233629726 0.94 2.28395913103e-38
-0.0312468654123 -0.0798531004982 0.938 2.34921732026e-38
-0.0294165438124 -0.0795977067866 0.935 9.84289977962e-39
-0.027626937152 -0.0794274443121 0.933 1.61917851527e-38
-0.0258169730219 -0.0791720506005 0.93 8.83091565985e-39
-0.0240958414871 -0.0791720506005 0.93 1.26069876252e-38
-0.0223747099523 -0.0791720506005 0.93 1.56472209513e-38
-0.0206535784175 -0.0791720506005 0.93 7.89785266959e-39
-0.0188917319432 -0.0790017881261 0.928 7.07133320417e-39
-0.0171187813945 -0.0787463944145 0.925 1.22327974949e-38
-0.015406903255 -0.0787463944145 0.925 1.49022122149e-38
-0.0136950251156 -0.0787463944145 0.925 9.55412019209e-39
-0.0119572374691 -0.0785761319401 0.923 1.29488049583e-38
-0.0102490606878 -0.0785761319401 0.923 1.42345019045e-38
-0.00851312372049 -0.0783207382285 0.92 1.4510008393e-38
-0.00681049897639 -0.0783207382285 0.92 1.47855148814e-38
-0.00510787423229 -0.0783207382285 0.92 1.51528568661e-38
-0.00339784677192 -0.0781504757541 0.918 1.56120343469e-38
-0.00169892338596 -0.0781504757541 0.918 1.54283633545e-38
0.0 -0.0783207382285 0.92 1.53365278584e-38
0.0017026247441 -0.0783207382285 0.92 1.54283633545e-38
0.00339784677192 -0.0781504757541 0.918 1.53365278584e-38
0.00509677015787 -0.0781504757541 0.918 1.51528568661e-38
0.00679569354383 -0.0781504757541 0.918 1.53365278584e-38
0.00849461692979 -0.0781504757541 0.918 1.54283633545e-38
0.0101935403157 -0.0781504757541 0.918 1.57957053392e-38
0.0118924637017 -0.0781504757541 0.918 1.59793763315e-38
0.0135913870877 -0.0781504757541 0.918 1.625488282e-38
0.0152903104736 -0.0781504757541 0.918 1.64385538123e-38
0.017026247441 -0.0783207382285 0.92 1.64385538123e-38
0.0187899445944 -0.0785761319401 0.923 1.63467183161e-38
0.0204981213757 -0.0785761319401 0.923 1.625488282e-38
0.022206298157 -0.0785761319401 0.923 1.67140603008e-38
0.0239662939522 -0.0787463944145 0.925 1.625488282e-38
0.0256781720917 -0.0787463944145 0.925 1.73569087739e-38
0.0273900502311 -0.0787463944145 0.925 1.67140603008e-38
0.0291963130031 -0.0790017881261 0.928 1.69895667892e-38
0.0309137431798 -0.0790017881261 0.928 1.66222248046e-38
0.0326311733564 -0.0790017881261 0.928 1.68058957969e-38
0.0344226306959 -0.0791720506005 0.93 1.68977312931e-38
0.0362603550121 -0.0794274443121 0.933 1.63467183161e-38
0.0379870385841 -0.0794274443121 0.933 1.80944710102e-38
0.0397137221561 -0.0794274443121 0.933 2.34875138852e-38
0.0414404057281 -0.0794274443121 0.933 2.34860467257e-38
0.0431670893001 -0.0794274443121 0.933 2.34856753816e-38
0.0448937728721 -0.0794274443121 0.933 2.34856781842e-38
-0.0347927665098 -0.0782837246471 0.94 2.34856935985e-38
-0.0330531281843 -0.0782837246471 0.94 2.31151090092e-38
-0.0313134898588 -0.0782837246471 0.94 2.34910928014e-38
-0.0294165438124 -0.0778673218564 0.935 1.22371008825e-38
-0.027626937152 -0.0777007607401 0.933 1.36038601423e-38
-0.0258169730219 -0.0774509190657 0.93 1.19659398206e-38
-0.0240958414871 -0.0774509190657 0.93 9.93583809767e-39
-0.0223747099523 -0.0774509190657 0.93 1.4270810949e-38
-0.0206535784175 -0.0774509190657 0.93 6.42848473106e-39
-0.0188917319432 -0.0772843579495 0.928 1.00161675321e-38
-0.0171187813945 -0.0770345162751 0.925 1.16645429417e-38
-0.015406903255 -0.0770345162751 0.925 9.91823358506e-39
-0.0136950251156 -0.0770345162751 0.925 1.14005733435e-38
-0.0119831469761 -0.0770345162751 0.925 1.01098177098e-38
-0.0102490606878 -0.0768679551588 0.923 1.43263374006e-38
-0.00854088390653 -0.0768679551588 0.923 1.4510008393e-38
-0.00681049897639 -0.0766181134844 0.92 1.47855148814e-38
-0.00510787423229 -0.0766181134844 0.92 1.52446923622e-38
-0.00340524948819 -0.0766181134844 0.92 1.55201988507e-38
-0.0017026247441 -0.0766181134844 0.92 1.55201988507e-38
0.0 -0.0766181134844 0.92 1.55201988507e-38
0.0017026247441 -0.0766181134844 0.92 1.58875408353e-38
0.00339784677192 -0.0764515523681 0.918 1.5703869843e-38
0.00509677015787 -0.0764515523681 0.918 1.5703869843e-38
0.00679569354383 -0.0764515523681 0.918 1.59793763315e-38
0.00849461692979 -0.0764515523681 0.918 1.63467183161e-38
0.0101935403157 -0.0764515523681 0.918 1.625488282e-38
0.0118924637017 -0.0764515523681 0.918 1.625488282e-38
0.0135913870877 -0.0764515523681 0.918 1.625488282e-38
0.0153236226969 -0.0766181134844 0.92 1.66222248046e-38
0.017026247441 -0.0766181134844 0.92 1.64385538123e-38
0.0187288721851 -0.0766181134844 0.92 1.60712118276e-38
0.0204981213757 -0.0768679551588 0.923 1.5703869843e-38
0.022206298157 -0.0768679551588 0.923 1.58875408353e-38
0.0239662939522 -0.0770345162751 0.925 1.60712118276e-38
0.0256781720917 -0.0770345162751 0.925 1.70814022854e-38
0.0273900502311 -0.0770345162751 0.925 1.65303893084e-38
0.0291963130031 -0.0772843579495 0.928 1.70814022854e-38
0.0309137431798 -0.0772843579495 0.928 1.66222248046e-38
0.0327014991611 -0.0774509190657 0.93 1.68058957969e-38
0.0345336714401 -0.0777007607401 0.933 1.68977312931e-38
0.0362603550121 -0.0777007607401 0.933 1.7540602187e-38
0.0379870385841 -0.0777007607401 0.933 1.625488282e-38
0.0397137221561 -0.0777007607401 0.933 2.3486447497e-38
0.0414404057281 -0.0777007607401 0.933 2.34885690629e-38
0.0431670893001 -0.0777007607401 0.933 2.31176005179e-38
0.0448937728721 -0.0777007607401 0.933 2.34849677259e-38
-0.034903807254 -0.0767883759588 0.943 2.31161781999e-38
-0.0331586168913 -0.0767883759588 0.943 2.28385221196e-38
-0.0313134898588 -0.0765440863216 0.94 2.34896480627e-38
-0.0294165438124 -0.0761369369263 0.935 1.36214576484e-38
-0.027626937152 -0.0759740771681 0.933 1.24074777563e-38
-0.02590025358 -0.0759740771681 0.933 1.52824657636e-38
-0.024173570008 -0.0759740771681 0.933 1.40863846568e-38
-0.0223747099523 -0.0757297875309 0.93 1.0676668162e-38
-0.0206535784175 -0.0757297875309 0.93 4.22443282327e-39
-0.0188917319432 -0.0755669277728 0.928 8.27165183754e-39
-0.0171743017665 -0.0755669277728 0.928 9.55089160043e-39
-0.015406903255 -0.0753226381356 0.925 9.64272709659e-39
-0.0136950251156 -0.0753226381356 0.925 7.62557477278e-39
-0.0119831469761 -0.0753226381356 0.925 9.93114795171e-39
-0.0102490606878 -0.0751597783775 0.923 1.42345019045e-38
-0.00854088390653 -0.0751597783775 0.923 1.47855148814e-38
-0.00683270712523 -0.0751597783775 0.923 1.49691858738e-38
-0.00512453034392 -0.0751597783775 0.923 1.52446923622e-38
-0.00340524948819 -0.0749154887403 0.92 1.53365320623e-38
-0.0017026247441 -0.0749154887403 0.92 1.58875408353e-38
0.0 -0.0749154887403 0.92 1.57957053392e-38
0.0017026247441 -0.0749154887403 0.92 1.57957053392e-38
0.00340524948819 -0.0749154887403 0.92 1.57957053392e-38
0.00509677015787 -0.0747526289822 0.918 1.58875408353e-38
0.00679569354383 -0.0747526289822 0.918 1.57957053392e-38
0.00849461692979 -0.0747526289822 0.918 1.59793763315e-38
0.0101935403157 -0.0747526289822 0.918 1.61630473238e-38
0.0118924637017 -0.0747526289822 0.918 1.60712118276e-38
0.0135913870877 -0.0747526289822 0.918 1.625488282e-38
0.0153236226969 -0.0749154887403 0.92 1.76324152623e-38
0.017026247441 -0.0749154887403 0.92 1.65303893084e-38
0.0187288721851 -0.0749154887403 0.92 1.60712118276e-38
0.0204981213757 -0.0751597783775 0.923 1.5703869843e-38
0.022206298157 -0.0751597783775 0.923 1.58875408353e-38
0.0239662939522 -0.0753226381356 0.925 1.63467183161e-38
0.0256781720917 -0.0753226381356 0.925 1.68058957969e-38
0.0274788828265 -0.0755669277728 0.928 1.65303893084e-38
0.0291963130031 -0.0755669277728 0.928 1.67140603008e-38
0.0309803676263 -0.0757297875309 0.93 1.68977312931e-38
0.0327014991611 -0.0757297875309 0.93 1.68058957969e-38
0.0345336714401 -0.0759740771681 0.933 1.744874427e-38
0.0362603550121 -0.0759740771681 0.933 1.66222276072e-38
0.0379870385841 -0.0759740771681 0.933 2.15971888815e-38
0.0397137221561 -0.0759740771681 0.933 2.34907354703e-38
0.0414404057281 -0.0759740771681 0.933 2.34892977381e-38
0.0431670893001 -0.0759740771681 0.933 2.34885410369e-38
-0.034903807254 -0.0750431855961 0.943 2.29310834884e-38
-0.0331586168913 -0.0750431855961 0.943 2.32083766324e-38
-0.0314134265286 -0.0750431855961 0.943 2.34921647948e-38
-0.029510928445 -0.0746452895961 0.938 1.3161943856e-38
-0.0276861588823 -0.0744065519961 0.935 1.30467389054e-38
-0.02590025358 -0.0742473935961 0.933 1.01937400735e-38
-0.024173570008 -0.0742473935961 0.933 1.54539244398e-38
-0.022446886436 -0.0742473935961 0.933 1.28878204491e-38
-0.0206535784175 -0.0740086559961 0.93 1.3721915334e-38
-0.0188917319432 -0.0738494975962 0.928 6.52570121332e-39
-0.0171743017665 -0.0738494975962 0.928 5.60196526564e-39
-0.0154568715899 -0.0738494975962 0.928 6.43675799719e-39
-0.0136950251156 -0.0736107599962 0.925 6.63441254688e-39
-0.0119831469761 -0.0736107599962 0.925 9.56381157227e-39
-0.0102712688367 -0.0736107599962 0.925 1.43263374006e-38
-0.00854088390653 -0.0734516015962 0.923 1.47855148814e-38
-0.00683270712523 -0.0734516015962 0.923 1.49691858738e-38
-0.00512453034392 -0.0734516015962 0.923 1.52446923622e-38
-0.00340524948819 -0.0732128639962 0.92 1.55201988507e-38
-0.0017026247441 -0.0732128639962 0.92 1.57957053392e-38
0.0 -0.0732128639962 0.92 1.57957053392e-38
0.0017026247441 -0.0732128639962 0.92 1.58875408353e-38
0.00340524948819 -0.0732128639962 0.92 1.57957053392e-38
0.00509677015787 -0.0730537055962 0.918 1.5703869843e-38
0.00679569354383 -0.0730537055962 0.918 1.60712118276e-38
0.00851312372049 -0.0732128639962 0.92 1.60712118276e-38
0.0102157484646 -0.0732128639962 0.92 1.63467183161e-38
0.0119183732087 -0.0732128639962 0.92 1.61630473238e-38
0.0136209979528 -0.0732128639962 0.92 1.61630473238e-38
0.0153236226969 -0.0732128639962 0.92 1.65303893084e-38
0.017026247441 -0.0732128639962 0.92 1.65303893084e-38
0.0187899445944 -0.0734516015962 0.923 1.56120343469e-38
0.0204981213757 -0.0734516015962 0.923 1.57957053392e-38
0.0222544158128 -0.0736107599962 0.925 1.59793763315e-38
0.0239662939522 -0.0736107599962 0.925 1.63467183161e-38
0.0257614526498 -0.0738494975962 0.928 1.65303893084e-38
0.0274788828265 -0.0738494975962 0.928 1.65303893084e-38
0.0292592360915 -0.0740086559961 0.93 1.67140603008e-38
0.0309803676263 -0.0740086559961 0.93 1.69895667892e-38
0.0328069878681 -0.0742473935961 0.933 1.72650732777e-38
0.0345336714401 -0.0742473935961 0.933 1.68977312931e-38
0.0362603550121 -0.0742473935961 0.933 1.96571724329e-38
0.0380684684631 -0.0744065519961 0.935 2.03961177508e-38
0.0397988533933 -0.0744065519961 0.935 2.34896732861e-38
0.0415292383234 -0.0744065519961 0.935 2.2564118453e-38
0.0432596232536 -0.0744065519961 0.935 2.34849523116e-38
-0.0332641055983 -0.0735311807962 0.946 2.34842446558e-38
-0.0314134265286 -0.0732979952334 0.943 2.34889207888e-38
-0.0295738515333 -0.0730648096706 0.94 1.42682886118e-38
-0.0277749914776 -0.0729093526288 0.938 1.05611058802e-38
-0.0259557739521 -0.072676167066 0.935 1.63661192934e-38
-0.024225389022 -0.072676167066 0.935 1.67472066146e-38
-0.022446886436 -0.0725207100241 0.933 5.60268273045e-39
-0.020720202864 -0.0725207100241 0.933 1.17862947588e-38
-0.0189324468827 -0.0722875244614 0.93 1.42758696365e-38
-0.0171743017665 -0.0721320674195 0.928 1.51066490492e-38
-0.0154568715899 -0.0721320674195 0.928 8.64904533606e-39
-0.0137394414132 -0.0721320674195 0.928 6.99384700428e-39
-0.0119831469761 -0.0718988818567 0.925 9.83572513148e-39
-0.0102712688367 -0.0718988818567 0.925 1.42345019045e-38
-0.00855939069723 -0.0718988818567 0.925 1.4510008393e-38
-0.00683270712523 -0.0717434248149 0.923 1.48773503776e-38
-0.00512453034392 -0.0717434248149 0.923 1.54283633545e-38
-0.00341635356261 -0.0717434248149 0.923 1.54283633545e-38
-0.0017026247441 -0.0715102392521 0.92 1.55201988507e-38
0.0 -0.0715102392521 0.92 1.58875408353e-38
0.00170817678131 -0.0717434248149 0.923 1.60712118276e-38
0.00340524948819 -0.0715102392521 0.92 1.61630473238e-38
0.00510787423229 -0.0715102392521 0.92 1.5703869843e-38
0.00681049897639 -0.0715102392521 0.92 1.61630473238e-38
0.00851312372049 -0.0715102392521 0.92 1.59793763315e-38
0.0102157484646 -0.0715102392521 0.92 1.59793763315e-38
0.0119572374691 -0.0717434248149 0.923 1.59793763315e-38
0.0136209979528 -0.0715102392521 0.92 1.60712118276e-38
0.0153236226969 -0.0715102392521 0.92 1.64385538123e-38
0.0170817678131 -0.0717434248149 0.923 1.64385538123e-38
0.0187899445944 -0.0717434248149 0.923 1.57957081418e-38
0.0205425376733 -0.0718988818567 0.925 1.68058957969e-38
0.0222544158128 -0.0718988818567 0.925 1.60712118276e-38
0.0240440224732 -0.0721320674195 0.928 1.64385538123e-38
0.0257614526498 -0.0721320674195 0.928 1.67140603008e-38
0.0275381045567 -0.0722875244614 0.93 1.67140603008e-38
0.0293536207241 -0.0725207100241 0.933 1.68058957969e-38
0.0310803042961 -0.0725207100241 0.933 1.85514918926e-38
0.0328069878681 -0.0725207100241 0.933 1.69895667892e-38
0.0346076986028 -0.072676167066 0.935 1.94727363316e-38
0.036338083533 -0.072676167066 0.935 1.67140603008e-38
0.0380684684631 -0.072676167066 0.935 2.1963154791e-38
0.0397988533933 -0.072676167066 0.935 2.34896340497e-38
0.0415292383234 -0.072676167066 0.935 2.34846075921e-38
0.0432596232536 -0.072676167066 0.935 2.34856739803e-38
-0.0332641055983 -0.0717804383963 0.946 2.34867375658e-38
-0.0314134265286 -0.0715528048707 0.943 2.34946801255e-38
-0.0295738515333 -0.0713251713451 0.94 1.16868137782e-38
-0.0277749914776 -0.0711734156614 0.938 1.59184548808e-38
-0.0259557739521 -0.0709457821358 0.935 9.00274848274e-39
-0.024225389022 -0.0709457821358 0.935 1.5529562327e-38
-0.0224950040919 -0.0709457821358 0.935 1.32412069023e-38
-0.020720202864 -0.0707940264521 0.933 5.60878118137e-39
-0.0189324468827 -0.0705663929266 0.93 7.91901788159e-39
-0.0172113153479 -0.0705663929266 0.93 1.02242841762e-38
-0.0154568715899 -0.0704146372428 0.928 1.41814515472e-38
-0.0137394414132 -0.0704146372428 0.928 9.39020050163e-39
-0.0120220112366 -0.0704146372428 0.928 1.05696916359e-38
-0.0103045810599 -0.0704146372428 0.928 1.46018438891e-38
-0.00855939069723 -0.0701870037173 0.925 1.4510008393e-38
-0.00684751255778 -0.0701870037173 0.925 1.47855148814e-38
-0.00513563441834 -0.0701870037173 0.925 1.52446923622e-38
-0.00341635356261 -0.0700352480336 0.923 1.51528568661e-38
-0.00170817678131 -0.0700352480336 0.923 1.55201988507e-38
0.0 -0.0700352480336 0.923 1.57957053392e-38
0.00170817678131 -0.0700352480336 0.923 1.59793763315e-38
0.00341635356261 -0.0700352480336 0.923 1.60712118276e-38
0.00512453034392 -0.0700352480336 0.923 1.58875408353e-38
0.00683270712523 -0.0700352480336 0.923 1.625488282e-38
0.00854088390653 -0.0700352480336 0.923 1.64385538123e-38
0.0102490606878 -0.0700352480336 0.923 1.63467183161e-38
0.0119572374691 -0.0700352480336 0.923 1.66222248046e-38
0.0136654142505 -0.0700352480336 0.923 1.64385538123e-38
0.0153735910318 -0.0700352480336 0.923 1.63467183161e-38
0.0170817678131 -0.0700352480336 0.923 1.56120343469e-38
0.0188306595339 -0.0701870037173 0.925 1.5703869843e-38
0.0205425376733 -0.0701870037173 0.925 1.57957053392e-38
0.0223265922965 -0.0704146372428 0.928 1.61630473238e-38
0.0240440224732 -0.0704146372428 0.928 1.63467183161e-38
0.0258169730219 -0.0705663929266 0.93 1.65303893084e-38
0.0275381045567 -0.0705663929266 0.93 1.68058957969e-38
0.0293536207241 -0.0707940264521 0.933 1.68977312931e-38
0.0310803042961 -0.0707940264521 0.933 1.69895667892e-38
0.0328773136727 -0.0709457821358 0.935 1.75405797662e-38
0.0346076986028 -0.0709457821358 0.935 1.70814064893e-38
0.0364546763144 -0.0711734156614 0.938 2.05844915008e-38
0.0381906132817 -0.0711734156614 0.938 2.13234480291e-38
0.0397988533933 -0.0709457821358 0.935 2.34896466614e-38
0.0415292383234 -0.0709457821358 0.935 2.34846075921e-38
-0.0332641055983 -0.0700296959964 0.946 2.34856613686e-38
-0.0314134265286 -0.069807614508 0.943 2.34914627442e-38
-0.0295738515333 -0.0695855330196 0.94 1.25172961157e-38
-0.0278342132079 -0.0695855330196 0.94 1.57365453206e-38
-0.0260390545103 -0.0694374786941 0.938 1.50055061286e-38
-0.0243031175429 -0.0694374786941 0.938 1.07447530505e-38
-0.0224950040919 -0.0692153972057 0.935 1.30406530661e-38
-0.0207646191617 -0.0692153972057 0.935 1.41638316203e-38
-0.018993519292 -0.0690673428801 0.933 1.19608601137e-38
-0.0172113153479 -0.0688452613918 0.93 9.57133934762e-39
-0.0154901838131 -0.0688452613918 0.93 5.80034428663e-39
-0.0137394414132 -0.0686972070662 0.928 9.48712411251e-39
-0.0120220112366 -0.0686972070662 0.928 1.03824333195e-38
-0.0103045810599 -0.0686972070662 0.928 1.42345019045e-38
-0.00858715088327 -0.0686972070662 0.928 1.4510008393e-38
-0.00684751255778 -0.0684751255778 0.925 1.50610213699e-38
-0.00513563441834 -0.0684751255778 0.925 1.52446923622e-38
-0.00342375627889 -0.0684751255778 0.925 1.55201988507e-38
-0.00171187813945 -0.0684751255778 0.925 1.57957053392e-38
0.0 -0.0684751255778 0.925 1.60712118276e-38
0.00171187813945 -0.0684751255778 0.925 1.60712118276e-38
0.00342375627889 -0.0684751255778 0.925 1.60712118276e-38
0.00512453034392 -0.0683270712523 0.923 1.59793763315e-38
0.00683270712523 -0.0683270712523 0.923 1.58875408353e-38
0.00854088390653 -0.0683270712523 0.923 1.625488282e-38
0.0102490606878 -0.0683270712523 0.923 1.63467183161e-38
0.0119572374691 -0.0683270712523 0.923 1.625488282e-38
0.0136654142505 -0.0683270712523 0.923 1.64385538123e-38
0.0153735910318 -0.0683270712523 0.923 1.65303893084e-38
0.0170817678131 -0.0683270712523 0.923 1.58875408353e-38
0.0188306595339 -0.0684751255778 0.925 1.60712118276e-38
0.0205425376733 -0.0684751255778 0.925 1.57957053392e-38
0.0223265922965 -0.0686972070662 0.928 1.61630473238e-38
0.0240440224732 -0.0686972070662 0.928 1.63467183161e-38
0.0258169730219 -0.0688452613918 0.93 1.65303893084e-38
0.0275381045567 -0.0688452613918 0.93 1.67140603008e-38
0.0293536207241 -0.0690673428801 0.933 1.70814022854e-38
0.0311469287426 -0.0692153972057 0.935 1.70814022854e-38
0.0328773136727 -0.0692153972057 0.935 1.72650732777e-38
0.034718739347 -0.0694374786941 0.938 1.90099617177e-38
0.0364546763144 -0.0694374786941 0.938 1.71732377815e-38
0.0381906132817 -0.0694374786941 0.938 2.34425237967e-38
0.0399265502491 -0.0694374786941 0.938 2.34889291966e-38
0.0416624872164 -0.0694374786941 0.938 2.34846075921e-38
-0.0314134265286 -0.0680624241453 0.943 2.34903907509e-38
-0.0295738515333 -0.0678458946941 0.94 1.03042296549e-38
-0.0278342132079 -0.0678458946941 0.94 1.36971698044e-38
-0.0260390545103 -0.0677015417267 0.938 1.61032441092e-38
-0.0243031175429 -0.0677015417267 0.938 1.62943854237e-38
-0.0225671805756 -0.0677015417267 0.938 8.73011185352e-39
-0.0207646191617 -0.0674850122756 0.935 1.23059564852e-38
-0.0190342342316 -0.0674850122756 0.935 1.30406404544e-38
-0.01726683572 -0.0673406593081 0.933 1.24896274775e-38
-0.0154901838131 -0.067124129857 0.93 1.51766144802e-38
-0.0137690522784 -0.067124129857 0.93 1.61075180696e-38
-0.0120479207436 -0.067124129857 0.93 1.21222967032e-38
-0.0103045810599 -0.0669797768895 0.928 1.43263374006e-38
-0.00858715088327 -0.0669797768895 0.928 1.46018438891e-38
-0.00686972070662 -0.0669797768895 0.928 1.48773503776e-38
-0.00513563441834 -0.0667632474384 0.925 1.49691858738e-38
-0.00342375627889 -0.0667632474384 0.925 1.52446923622e-38
-0.00171187813945 -0.0667632474384 0.925 1.51528568661e-38
0.0 -0.0667632474384 0.925 1.58875408353e-38
0.00171187813945 -0.0667632474384 0.925 1.60712118276e-38
0.00342375627889 -0.0667632474384 0.925 1.63467183161e-38
0.00513563441834 -0.0667632474384 0.925 1.60712118276e-38
0.00683270712523 -0.0666188944709 0.923 1.60712118276e-38
0.00854088390653 -0.0666188944709 0.923 1.59793763315e-38
0.0102490606878 -0.0666188944709 0.923 1.60712118276e-38
0.0119831469761 -0.0667632474384 0.925 1.625488282e-38
0.0136950251156 -0.0667632474384 0.925 1.64385538123e-38
0.015406903255 -0.0667632474384 0.925 1.65303893084e-38
0.0171187813945 -0.0667632474384 0.925 1.60712118276e-38
0.0188306595339 -0.0667632474384 0.925 1.57957053392e-38
0.0206091621199 -0.0669797768895 0.928 1.60712118276e-38
0.0223265922965 -0.0669797768895 0.928 1.65303893084e-38
0.0240958414871 -0.067124129857 0.93 1.67140603008e-38
0.02590025358 -0.0673406593081 0.933 1.67140603008e-38
0.027626937152 -0.0673406593081 0.933 1.65303893084e-38
0.0294165438124 -0.0674850122756 0.935 1.68058957969e-38
0.0311469287426 -0.0674850122756 0.935 1.80915927431e-38
0.0328773136727 -0.0674850122756 0.935 1.83670992316e-38
0.034718739347 -0.0677015417267 0.938 1.73569087739e-38
0.0364546763144 -0.0677015417267 0.938 1.85511387654e-38
0.0381906132817 -0.0677015417267 0.938 2.34511670056e-38
0.0400116814863 -0.0678458946941 0.94 2.34914403235e-38
0.0417513198118 -0.0678458946941 0.94 2.34860453244e-38
-0.0353109566493 -0.0670908176337 0.954 2.20091313936e-38
-0.0335454088169 -0.0670908176337 0.954 2.28370549601e-38
-0.0315133631984 -0.0665282111965 0.946 2.34921647948e-38
-0.0296682361659 -0.0663172337826 0.943 1.19651957311e-38
-0.0278342132079 -0.0661062563686 0.94 1.35177937919e-38
-0.0260390545103 -0.0659656047594 0.938 1.14894815271e-38
-0.0243031175429 -0.0659656047594 0.938 1.50858874112e-38
-0.0225671805756 -0.0659656047594 0.938 1.36199932915e-38
-0.0207646191617 -0.0657546273454 0.935 1.30661763164e-38
-0.0190342342316 -0.0657546273454 0.935 1.16631080121e-38
-0.01726683572 -0.0656139757361 0.933 1.28569694621e-38
-0.015540152148 -0.0656139757361 0.933 1.37753244237e-38
-0.0137690522784 -0.0654029983222 0.93 1.3958995416e-38
-0.0120479207436 -0.0654029983222 0.93 1.43263374006e-38
-0.0103267892088 -0.0654029983222 0.93 1.4510008393e-38
-0.00858715088327 -0.0652623467129 0.928 1.48773503776e-38
-0.00686972070662 -0.0652623467129 0.928 1.49691858738e-38
-0.00515229052996 -0.0652623467129 0.928 1.51528568661e-38
-0.00342375627889 -0.0650513692989 0.925 1.55201988507e-38
-0.00171187813945 -0.0650513692989 0.925 1.54283633545e-38
0.0 -0.0650513692989 0.925 1.55201988507e-38
0.00171187813945 -0.0650513692989 0.925 1.5703869843e-38
0.00342375627889 -0.0650513692989 0.925 1.58875408353e-38
0.00513563441834 -0.0650513692989 0.925 1.60712118276e-38
0.00684751255778 -0.0650513692989 0.925 1.58875408353e-38
0.00855939069723 -0.0650513692989 0.925 1.61630501264e-38
0.0102712688367 -0.0650513692989 0.925 1.63467183161e-38
0.0119831469761 -0.0650513692989 0.925 1.65303893084e-38
0.0136950251156 -0.0650513692989 0.925 1.64385538123e-38
0.015406903255 -0.0650513692989 0.925 1.64385538123e-38
0.0171187813945 -0.0650513692989 0.925 1.67140603008e-38
0.0188306595339 -0.0650513692989 0.925 1.64385538123e-38
0.0206091621199 -0.0652623467129 0.928 1.63467183161e-38
0.0223747099523 -0.0654029983222 0.93 1.625488282e-38
0.0240958414871 -0.0654029983222 0.93 1.65303893084e-38
0.02590025358 -0.0656139757361 0.933 1.67140603008e-38
0.0276861588823 -0.0657546273454 0.935 1.68058957969e-38
0.0294165438124 -0.0657546273454 0.935 1.70814022854e-38
0.0311469287426 -0.0657546273454 0.935 1.76324152623e-38
0.0328773136727 -0.0657546273454 0.935 2.02120992365e-38
0.034718739347 -0.0659656047594 0.938 1.68134291775e-38
0.0365324048353 -0.0661062563686 0.94 2.10569210611e-38
0.0382720431608 -0.0661062563686 0.94 2.20761120589e-38
0.0400116814863 -0.0661062563686 0.94 2.34867669931e-38
-0.0353109566493 -0.0653252698012 0.954 2.25626737143e-38
-0.0335454088169 -0.0653252698012 0.954 2.28381661898e-38
-0.0316799243146 -0.0651198444245 0.951 2.34907312664e-38
-0.0297626207984 -0.0647774687966 0.946 1.46381487297e-38
-0.0279230458032 -0.0645720434199 0.943 7.53195682497e-39
-0.0260390545103 -0.064229667792 0.938 1.43540032362e-38
-0.0243031175429 -0.064229667792 0.938 1.37018123063e-38
-0.0225671805756 -0.064229667792 0.938 1.47184893746e-38
-0.0208312436082 -0.064229667792 0.938 1.5644754666e-38
-0.0190342342316 -0.0640242424153 0.935 1.58338220587e-38
-0.0173038493014 -0.0640242424153 0.935 1.60992742307e-38
-0.015540152148 -0.0638872921641 0.933 1.26732984698e-38
-0.013813468576 -0.0638872921641 0.933 1.36834889275e-38
-0.012086785004 -0.0638872921641 0.933 1.4510008393e-38
-0.010360101432 -0.0638872921641 0.933 1.46936793853e-38
-0.00858715088327 -0.0635449165362 0.928 1.49691858738e-38
-0.00686972070662 -0.0635449165362 0.928 1.49691858738e-38
-0.00515229052996 -0.0635449165362 0.928 1.51528568661e-38
-0.00342375627889 -0.0633394911595 0.925 1.54283633545e-38
-0.00171187813945 -0.0633394911595 0.925 1.55201988507e-38
0.0 -0.0633394911595 0.925 1.54283633545e-38
0.00171187813945 -0.0633394911595 0.925 1.61630473238e-38
0.00342375627889 -0.0633394911595 0.925 1.59793763315e-38
0.00513563441834 -0.0633394911595 0.925 1.59793763315e-38
0.00684751255778 -0.0633394911595 0.925 1.58875408353e-38
0.00855939069723 -0.0633394911595 0.925 1.60712118276e-38
0.0102712688367 -0.0633394911595 0.925 1.59793763315e-38
0.0119831469761 -0.0633394911595 0.925 1.625488282e-38
0.0136950251156 -0.0633394911595 0.925 1.63467183161e-38
0.015406903255 -0.0633394911595 0.925 1.66222248046e-38
0.0171187813945 -0.0633394911595 0.925 1.64385538123e-38
0.0188917319432 -0.0635449165362 0.928 1.64385538123e-38
0.0206535784175 -0.0636818667874 0.93 1.63467183161e-38
0.0223747099523 -0.0636818667874 0.93 1.63467183161e-38
0.024173570008 -0.0638872921641 0.933 1.68058957969e-38
0.02590025358 -0.0638872921641 0.933 1.70814022854e-38
0.0276861588823 -0.0640242424153 0.935 1.71732377815e-38
0.0294165438124 -0.0640242424153 0.935 1.70814022854e-38
0.0312468654123 -0.064229667792 0.938 1.8460010925e-38
0.0329828023797 -0.064229667792 0.938 1.71818753853e-38
0.034718739347 -0.064229667792 0.938 1.82106919022e-38
0.0365324048353 -0.0643666180432 0.94 2.11606325618e-38
0.0382720431608 -0.0643666180432 0.94 2.28179987023e-38
0.0400116814863 -0.0643666180432 0.94 2.34892935342e-38
-0.0371542330027 -0.0636929708618 0.956 2.265305186e-38
-0.0353849838121 -0.0636929708618 0.956 2.34845935792e-38
-0.0335454088169 -0.0635597219688 0.954 2.3208726957e-38
-0.0317798609844 -0.0635597219688 0.954 2.3488926394e-38
-0.0297626207984 -0.0630267263967 0.946 1.24240312951e-38
-0.0279230458032 -0.0628268530572 0.943 1.19579916557e-38
-0.0260945748824 -0.0626269797177 0.94 8.26592753332e-39
-0.0243549365569 -0.0626269797177 0.94 1.12125891545e-38
-0.0226152982314 -0.0626269797177 0.94 1.72045918347e-38
-0.0208312436082 -0.0624937308247 0.938 8.45460536505e-39
-0.0190953066409 -0.0624937308247 0.938 1.47135133637e-38
-0.0173038493014 -0.0622938574851 0.935 1.93261184733e-38
-0.0155734643713 -0.0622938574851 0.935 2.08979801841e-38
-0.013813468576 -0.0621606085921 0.933 1.00100704825e-38
-0.012086785004 -0.0621606085921 0.933 1.3958995416e-38
-0.010360101432 -0.0621606085921 0.933 1.4510008393e-38
-0.00860565767397 -0.0619607352526 0.93 1.48773503776e-38
-0.00688452613918 -0.0619607352526 0.93 1.50610213699e-38
-0.00515229052996 -0.0618274863596 0.928 1.51528568661e-38
-0.00343486035331 -0.0618274863596 0.928 1.54283633545e-38
-0.00171743017665 -0.0618274863596 0.928 1.55201988507e-38
0.0 -0.0618274863596 0.928 1.55201988507e-38
0.00171743017665 -0.0618274863596 0.928 1.6352816767e-38
0.00342375627889 -0.06162761302 0.925 1.37792704802e-38
0.00513563441834 -0.06162761302 0.925 1.52446923622e-38
0.00684751255778 -0.06162761302 0.925 1.625488282e-38
0.00855939069723 -0.06162761302 0.925 1.64385538123e-38
0.0102712688367 -0.06162761302 0.925 1.64385538123e-38
0.0119831469761 -0.06162761302 0.925 1.65303893084e-38
0.0137394414132 -0.0618274863596 0.928 1.65303893084e-38
0.0154568715899 -0.0618274863596 0.928 1.67140603008e-38
0.0171743017665 -0.0618274863596 0.928 1.64385538123e-38
0.0189324468827 -0.0619607352526 0.93 1.65303893084e-38
0.0206535784175 -0.0619607352526 0.93 1.66222248046e-38
0.022446886436 -0.0621606085921 0.933 1.66222248046e-38
0.024173570008 -0.0621606085921 0.933 1.69895667892e-38
0.0259557739521 -0.0622938574851 0.935 1.68977312931e-38
0.0276861588823 -0.0622938574851 0.935 1.71732377815e-38
0.0294165438124 -0.0622938574851 0.935 1.68058957969e-38
0.0312468654123 -0.0624937308247 0.938 2.00313079125e-38
0.0330531281843 -0.0626269797177 0.94 1.65566019975e-38
0.0347927665098 -0.0626269797177 0.94 1.63764931059e-38
0.0365324048353 -0.0626269797177 0.94 2.00567484861e-38
0.0383941879794 -0.0628268530572 0.943 2.30949527321e-38
0.0401393783421 -0.0628268530572 0.943 2.34882131331e-38
-0.0371542330027 -0.0619237216712 0.956 2.23768180977e-38
-0.0353849838121 -0.0619237216712 0.956 2.32991275235e-38
-0.0336157346215 -0.0619237216712 0.956 2.23775411677e-38
-0.0317798609844 -0.0617941741363 0.954 2.3490010999e-38
-0.0299199285194 -0.061599852834 0.951 1.42675683444e-38
-0.0280118783985 -0.0612759839968 0.946 9.28112483047e-39
-0.0261778554405 -0.0610816626945 0.943 1.50945152058e-38
-0.0244326650778 -0.0610816626945 0.943 7.90825590939e-39
-0.0226152982314 -0.0608873413922 0.94 9.09171411964e-39
-0.0208312436082 -0.0607577938573 0.938 1.62007856927e-38
-0.0190953066409 -0.0607577938573 0.938 1.51834458102e-38
-0.0173593696735 -0.0607577938573 0.938 1.11120950351e-38
-0.0155734643713 -0.060563472555 0.935 2.17966889412e-38
-0.0138430794411 -0.060563472555 0.935 1.24032276181e-38
-0.012112694511 -0.060563472555 0.935 1.37753244237e-38
-0.0103823095809 -0.060563472555 0.935 1.46936793853e-38
-0.00863341786002 -0.0604339250201 0.933 1.48773503776e-38
-0.00688452613918 -0.0602396037178 0.93 1.51528568661e-38
-0.00516339460438 -0.0602396037178 0.93 1.51528568661e-38
-0.00344226306959 -0.0602396037178 0.93 1.55201988507e-38
-0.00171743017665 -0.0601100561829 0.928 1.6905623406e-38
0.0 -0.0601100561829 0.928 1.51650537679e-38
0.00171743017665 -0.0601100561829 0.928 1.31500538385e-38
0.00343486035331 -0.0601100561829 0.928 1.28698838288e-38
0.00515229052996 -0.0601100561829 0.928 1.4510008393e-38
0.00684751255778 -0.0599157348806 0.925 1.6993514247e-38
0.00855939069723 -0.0599157348806 0.925 1.60712118276e-38
0.0103045810599 -0.0601100561829 0.928 1.625488282e-38
0.0120220112366 -0.0601100561829 0.928 1.625488282e-38
0.0137394414132 -0.0601100561829 0.928 1.64385538123e-38
0.0154568715899 -0.0601100561829 0.928 1.67140603008e-38
0.0171743017665 -0.0601100561829 0.928 1.66222248046e-38
0.018993519292 -0.0604339250201 0.933 1.66222248046e-38
0.020720202864 -0.0604339250201 0.933 1.69895667892e-38
0.022446886436 -0.0604339250201 0.933 1.72650732777e-38
0.024173570008 -0.0604339250201 0.933 1.75405797662e-38
0.0259557739521 -0.060563472555 0.935 1.68977312931e-38
0.0276861588823 -0.060563472555 0.935 1.71732377815e-38
0.029510928445 -0.0607577938573 0.938 1.90174866904e-38
0.0313134898588 -0.0608873413922 0.94 1.76568160725e-38
0.0330531281843 -0.0608873413922 0.94 1.04818021963e-38
0.0347927665098 -0.0608873413922 0.94 1.94149944271e-38
0.0366489976167 -0.0610816626945 0.943 1.58089784382e-38
0.0383941879794 -0.0610816626945 0.943 2.34659086654e-38
0.0401393783421 -0.0610816626945 0.943 2.34878333812e-38
-0.0371542330027 -0.0601544724806 0.956 2.23775201482e-38
-0.0353849838121 -0.0601544724806 0.956 2.29317869402e-38
-0.0336157346215 -0.0601544724806 0.956 2.2009837648e-38
-0.0318464854309 -0.0601544724806 0.956 2.34907214573e-38
-0.0300143131519 -0.0600286263038 0.954 1.20541277368e-38
-0.0281599327241 -0.0598398570387 0.951 1.471669291e-38
-0.0262611359986 -0.0595252415969 0.946 8.99988422868e-39
-0.0245103935987 -0.0595252415969 0.946 1.50022439058e-38
-0.0227596511988 -0.0595252415969 0.946 1.51837260699e-38
-0.0209422843524 -0.0593364723318 0.943 9.28399468972e-39
-0.0191360215804 -0.0591477030667 0.94 1.00100690812e-38
-0.0173593696735 -0.0590218568899 0.938 1.82158654961e-38
-0.0156234327062 -0.0590218568899 0.938 1.58291711491e-38
-0.0138430794411 -0.0588330876248 0.935 1.27762630784e-38
-0.012112694511 -0.0588330876248 0.935 1.29488049583e-38
-0.0103823095809 -0.0588330876248 0.935 1.36834889275e-38
-0.00863341786002 -0.0587072414481 0.933 1.41426664083e-38
-0.00690673428801 -0.0587072414481 0.933 1.46018438891e-38
-0.00516339460438 -0.058518472183 0.93 1.52446923622e-38
-0.00344226306959 -0.058518472183 0.93 1.66322749172e-38
-0.00172113153479 -0.058518472183 0.93 1.5357334338e-38
0.0 -0.0583926260063 0.928 1.30625231313e-38
0.00171743017665 -0.0583926260063 0.928 1.16896542102e-38
0.00343486035331 -0.0583926260063 0.928 1.37132805329e-38
0.00515229052996 -0.0583926260063 0.928 1.48967219276e-38
0.00686972070662 -0.0583926260063 0.928 1.95922362621e-38
0.00858715088327 -0.0583926260063 0.928 1.80267448541e-38
0.0103045810599 -0.0583926260063 0.928 1.71014913002e-38
0.0120220112366 -0.0583926260063 0.928 1.63578390207e-38
0.0137394414132 -0.0583926260063 0.928 1.625488282e-38
0.0154568715899 -0.0583926260063 0.928 1.68058957969e-38
0.0171743017665 -0.0583926260063 0.928 1.68977312931e-38
0.018993519292 -0.0587072414481 0.933 1.68977312931e-38
0.020720202864 -0.0587072414481 0.933 1.72650732777e-38
0.022446886436 -0.0587072414481 0.933 1.744874427e-38
0.024225389022 -0.0588330876248 0.935 1.75405797662e-38
0.0259557739521 -0.0588330876248 0.935 1.744874427e-38
0.0276861588823 -0.0588330876248 0.935 1.68058957969e-38
0.029510928445 -0.0590218568899 0.938 1.95782106657e-38
0.0313134898588 -0.0591477030667 0.94 1.3887607667e-38
0.0330531281843 -0.0591477030667 0.94 1.38022391633e-38
0.0347927665098 -0.0591477030667 0.94 1.48895472794e-38
0.0365324048353 -0.0591477030667 0.94 2.00334336823e-38
0.0383941879794 -0.0593364723318 0.943 2.34810188668e-38
-0.0371542330027 -0.05838522329 0.956 2.2378265639e-38
-0.0353849838121 -0.05838522329 0.956 2.24708115935e-38
-0.0336157346215 -0.05838522329 0.956 2.21027703609e-38
-0.0318464854309 -0.05838522329 0.956 2.3488203324e-38
-0.0300143131519 -0.0582630784714 0.954 1.27909935278e-38
-0.0282487653195 -0.0582630784714 0.954 1.45283037457e-38
-0.0262611359986 -0.057774499197 0.946 1.49914945453e-38
-0.0245103935987 -0.057774499197 0.946 7.53051068496e-39
-0.0227596511988 -0.057774499197 0.946 1.6559956706e-38
-0.0209422843524 -0.0575912819691 0.943 1.2978649813e-38
-0.0191360215804 -0.0574080647412 0.94 1.22281718087e-38
-0.0173593696735 -0.0572859199226 0.938 6.33666464918e-39
-0.0156234327062 -0.0572859199226 0.938 7.53051068496e-39
-0.0138430794411 -0.0571027026947 0.935 1.58115988664e-38
-0.012112694511 -0.0571027026947 0.935 1.87801515721e-38
-0.0103823095809 -0.0571027026947 0.935 1.73979037604e-38
-0.00865192465071 -0.0571027026947 0.935 1.58222515373e-38
-0.00690673428801 -0.0569805578761 0.933 1.54441475804e-38
-0.00518005071601 -0.0569805578761 0.933 1.50707071449e-38
-0.00345336714401 -0.0569805578761 0.933 1.45239989568e-38
-0.001726683572 -0.0569805578761 0.933 1.38911949911e-38
0.0 -0.0567973406482 0.93 1.0488618112e-38
0.00172113153479 -0.0567973406482 0.93 8.46357928041e-39
0.00344226306959 -0.0567973406482 0.93 1.11307491203e-38
0.00516339460438 -0.0567973406482 0.93 1.33229628586e-38
0.00688452613918 -0.0567973406482 0.93 1.88496181409e-38
0.00860565767397 -0.0567973406482 0.93 1.80263034451e-38
0.0103267892088 -0.0567973406482 0.93 1.70975452437e-38
0.0120479207436 -0.0567973406482 0.93 1.97690310828e-38
0.013813468576 -0.0569805578761 0.933 1.55316782877e-38
0.015540152148 -0.0569805578761 0.933 1.67140603008e-38
0.01726683572 -0.0569805578761 0.933 1.69895667892e-38
0.0190342342316 -0.0571027026947 0.935 1.75405797662e-38
0.0207646191617 -0.0571027026947 0.935 1.72650732777e-38
0.0224950040919 -0.0571027026947 0.935 1.75405797662e-38
0.024225389022 -0.0571027026947 0.935 1.77242507585e-38
0.0259557739521 -0.0571027026947 0.935 1.69895667892e-38
0.0277749914776 -0.0572859199226 0.938 1.98461907802e-38
0.0296682361659 -0.0575912819691 0.943 1.82046018591e-38
0.0313134898588 -0.0574080647412 0.94 1.53551819435e-38
0.0330531281843 -0.0574080647412 0.94 1.95957927576e-38
0.0347927665098 -0.0574080647412 0.94 1.50692722153e-38
0.0365324048353 -0.0574080647412 0.94 2.11401694003e-38
0.0382720431608 -0.0574080647412 0.94 2.34828279431e-38
-0.0371542330027 -0.0566159740994 0.956 2.2378613161e-38
-0.0353849838121 -0.0566159740994 0.956 2.19183440687e-38
-0.0336157346215 -0.0566159740994 0.956 2.23804152308e-38
-0.0318464854309 -0.0566159740994 0.956 2.34878515981e-38
-0.0300772362403 -0.0566159740994 0.956 1.29750316603e-38
-0.0282487653195 -0.0564975306389 0.954 1.34234079326e-38
-0.0263999369289 -0.0563198654482 0.951 1.51708579461e-38
-0.0245622126127 -0.0561422002575 0.948 1.55479347512e-38
-0.0228077688546 -0.0561422002575 0.948 6.70399121953e-39
-0.0210089087989 -0.0560237567971 0.946 1.40821233082e-38
-0.0191970939897 -0.0558460916064 0.943 1.53742241884e-38
-0.0173963832549 -0.0556684264157 0.94 1.19634188847e-38
-0.0156567449294 -0.0556684264157 0.94 1.37962051721e-38
-0.0138874957388 -0.0555499829552 0.938 1.21348411271e-38
-0.012112694511 -0.0553723177646 0.935 7.71418167727e-39
-0.0103823095809 -0.0553723177646 0.935 8.44886564654e-39
-0.00865192465071 -0.0553723177646 0.935 1.43382666545e-38
-0.00692153972057 -0.0553723177646 0.935 1.8594584623e-38
-0.00519115479043 -0.0553723177646 0.935 1.94280222989e-38
-0.00345336714401 -0.0552538743041 0.933 1.88787735568e-38
-0.001726683572 -0.0552538743041 0.933 1.70355826282e-38
0.0 -0.0552538743041 0.933 1.58384645605e-38
0.001726683572 -0.0552538743041 0.933 1.26080091718e-38
0.00345336714401 -0.0552538743041 0.933 1.31532978445e-38
0.00518005071601 -0.0552538743041 0.933 1.73780978079e-38
0.00690673428801 -0.0552538743041 0.933 1.80245223947e-38
0.00863341786002 -0.0552538743041 0.933 1.63686009929e-38
0.010360101432 -0.0552538743041 0.933 1.56188502626e-38
0.012086785004 -0.0552538743041 0.933 1.88395596205e-38
0.013813468576 -0.0552538743041 0.933 1.85740878304e-38
0.015540152148 -0.0552538743041 0.933 1.58875408353e-38
0.01726683572 -0.0552538743041 0.933 1.69895667892e-38
0.0190342342316 -0.0553723177646 0.935 1.70814022854e-38
0.0207646191617 -0.0553723177646 0.935 1.72650732777e-38
0.0225671805756 -0.0555499829552 0.938 1.72650732777e-38
0.0243031175429 -0.0555499829552 0.938 1.744874427e-38
0.0260945748824 -0.0556684264157 0.94 1.95642130954e-38
0.0278342132079 -0.0556684264157 0.94 1.82881781021e-38
0.0297626207984 -0.0560237567971 0.946 1.71839997538e-38
0.0315133631984 -0.0560237567971 0.946 2.00438383234e-38
0.0331586168913 -0.0558460916064 0.943 1.70979039761e-38
0.034903807254 -0.0558460916064 0.943 1.49691858738e-38
0.0366489976167 -0.0558460916064 0.943 2.34655807616e-38
0.0383941879794 -0.0558460916064 0.943 2.34784600958e-38
-0.0371542330027 -0.0548467249088 0.956 2.3299496065e-38
-0.0353849838121 -0.0548467249088 0.956 2.1825834548e-38
-0.0337212233285 -0.0550188380623 0.959 2.22871434037e-38
-0.0318464854309 -0.0548467249088 0.956 2.34864054581e-38
-0.0300772362403 -0.0548467249088 0.956 1.34363629369e-38
-0.0282487653195 -0.0547319828065 0.954 1.34234079326e-38
-0.0263999369289 -0.054559869653 0.951 1.5082933474e-38
