# .PCD v0.7 - Point Cloud Data file format
VERSION 0.7
FIELDS x y z rgb
SIZE 4 4 4 4
TYPE F F F F
COUNT 1 1 1 1
WIDTH 842
HEIGHT 1
VIEWPOINT 0 0 0 1 0 0 0
POINTS 842
DATA ascii
0.0300772362403 -0.102616453055 0.956 1.51034400757e-38
0.0318464854309 -0.102616453055 0.956 1.25240657885e-38
0.0336157346215 -0.102616453055 0.956 1.19691221694e-38
0.0353109566493 -0.102401774283 0.954 1.66685223046e-38
0.0370765044818 -0.102401774283 0.954 8.18340366545e-39
0.0388420523143 -0.102401774283 0.954 1.44530540182e-38
-0.0280118783985 -0.0997923167948 0.946 5.9707421799e-39
-0.0262611359986 -0.0997923167948 0.946 1.97953376589e-38
-0.0245103935987 -0.0997923167948 0.946 1.96122594158e-38
-0.0228077688546 -0.100003294209 0.948 8.18451349384e-39
-0.0210533250966 -0.100003294209 0.948 7.36805395009e-39
-0.0193599537478 -0.10031976033 0.951 2.34925655661e-38
-0.0175999579526 -0.10031976033 0.951 1.51859499306e-38
-0.0158399621573 -0.10031976033 0.951 2.34662814108e-38
-0.0141243826597 -0.100636226451 0.954 2.35097104528e-38
-0.0123847443342 -0.100847203865 0.956 1.00290818988e-38
-0.0105932869948 -0.100636226451 0.954 1.62972440725e-38
-0.00879997897629 -0.10031976033 0.951 1.77738539215e-38
-0.00703998318103 -0.10031976033 0.951 1.88801846643e-38
-0.00530774757182 -0.100847203865 0.956 1.79571381555e-38
-0.00353849838121 -0.100847203865 0.956 1.91531730194e-38
-0.00175444375805 -0.100003294209 0.948 1.93379174064e-38
0.0 -0.0997923167948 0.946 1.74933237781e-38
0.00175074239991 -0.0997923167948 0.946 1.43619121648e-38
0.00350148479982 -0.0997923167948 0.946 1.67546839432e-38
0.00526333127414 -0.100003294209 0.948 1.85088728011e-38
0.00709920491126 -0.101163669985 0.959 1.51909147311e-38
0.00887400613907 -0.101163669985 0.959 1.75869291142e-38
0.0105599747715 -0.10031976033 0.951 1.40888999876e-38
0.0123199705668 -0.10031976033 0.951 1.76830651953e-38
0.0141243826597 -0.100636226451 0.954 1.9430135457e-38
0.0159232427154 -0.100847203865 0.956 1.78649355191e-38
0.0177480122781 -0.101163669985 0.959 1.95241037294e-38
0.019522813506 -0.101163669985 0.959 1.79582073462e-38
0.0212309902873 -0.100847203865 0.956 1.73121316827e-38
0.0230002394779 -0.100847203865 0.956 1.8602167049e-38
0.0247694886685 -0.100847203865 0.956 1.75894626618e-38
0.0265387378591 -0.100847203865 0.956 1.92457399934e-38
0.0283079870497 -0.100847203865 0.956 1.65764065487e-38
0.0300772362403 -0.100847203865 0.956 9.57062188281e-39
0.0317798609844 -0.100636226451 0.954 1.64845668487e-38
0.0335454088169 -0.100636226451 0.954 1.13219534931e-38
0.0353109566493 -0.100636226451 0.954 1.4086751797e-38
0.0369599117004 -0.10031976033 0.951 1.39041584032e-38
0.0387199074957 -0.10031976033 0.951 7.54236426867e-39
-0.0279230458032 -0.0977306603112 0.943 1.15913615307e-38
-0.0261778554405 -0.0977306603112 0.943 1.62007674759e-38
-0.0244326650778 -0.0977306603112 0.943 1.77726852386e-38
-0.0227596511988 -0.0980415743949 0.946 7.16998461605e-39
-0.0210533250966 -0.0982488504507 0.948 1.12373599074e-38
-0.0192988813385 -0.0982488504507 0.948 1.38173353517e-38
-0.0175444375805 -0.0982488504507 0.948 1.24286723956e-38
-0.0157899938224 -0.0982488504507 0.948 1.93354315029e-38
-0.0140799663621 -0.0985597645344 0.951 2.04424895196e-38
-0.0123588348273 -0.0988706786181 0.954 1.64737095882e-38
-0.0105932869948 -0.0988706786181 0.954 1.73128757722e-38
-0.00879997897629 -0.0985597645344 0.951 1.8420277107e-38
-0.00703998318103 -0.0985597645344 0.951 1.93422712407e-38
-0.00527998738577 -0.0985597645344 0.951 1.83262794073e-38
-0.0035088875161 -0.0982488504507 0.948 1.83284346044e-38
-0.00175444375805 -0.0982488504507 0.948 1.5377077232e-38
0.0 -0.0980415743949 0.946 1.27884908088e-38
0.00175074239991 -0.0980415743949 0.946 1.62021519588e-38
0.0035088875161 -0.0982488504507 0.948 1.86007237116e-38
0.00526333127414 -0.0982488504507 0.948 1.7957168984e-38
0.00701777503219 -0.0982488504507 0.948 1.38987437859e-38
0.00877221879024 -0.0982488504507 0.948 1.36179025542e-38
0.0105266625483 -0.0982488504507 0.948 1.77728001451e-38
0.0122811063063 -0.0982488504507 0.948 1.75908527499e-38
0.0140355500644 -0.0982488504507 0.948 1.82315628415e-38
0.0157899938224 -0.0982488504507 0.948 1.78642096465e-38
0.0177480122781 -0.0993888687576 0.959 1.73089255118e-38
0.019522813506 -0.0993888687576 0.959 1.85074658975e-38
0.0212309902873 -0.0990779546739 0.956 1.77731112333e-38
0.0230002394779 -0.0990779546739 0.956 1.80507715176e-38
0.0247694886685 -0.0990779546739 0.956 1.80500526514e-38
0.026483217487 -0.0988706786181 0.954 1.73124820073e-38
0.0281599327241 -0.0985597645344 0.951 2.0721925249e-38
0.0299199285194 -0.0985597645344 0.951 9.20220370096e-39
0.0316799243146 -0.0985597645344 0.951 1.57423130651e-38
0.0334399201099 -0.0985597645344 0.951 1.81444889576e-38
0.0351999159051 -0.0985597645344 0.951 9.6534890688e-39
0.036843318919 -0.0982488504507 0.948 1.59346104507e-38
0.0385977626771 -0.0982488504507 0.948 8.92633848008e-39
0.0404799032909 -0.0985597645344 0.951 1.95226996284e-38
-0.0279230458032 -0.0959854699485 0.943 2.12751522775e-38
-0.0261778554405 -0.0959854699485 0.943 6.42848473106e-39
-0.0244326650778 -0.0959854699485 0.943 1.51020177578e-38
-0.0227596511988 -0.096290831995 0.946 6.25414078132e-39
-0.0210089087989 -0.096290831995 0.946 1.013067884e-38
-0.019258166399 -0.096290831995 0.946 9.76040954292e-39
-0.0175444375805 -0.0964944066926 0.948 1.37201104616e-38
-0.0157899938224 -0.0964944066926 0.948 1.36272380046e-38
-0.0140355500644 -0.0964944066926 0.948 9.56272976986e-39
-0.0123199705668 -0.0967997687391 0.951 1.61165200109e-38
-0.0105266625483 -0.0964944066926 0.948 1.62065085957e-38
-0.00877221879024 -0.0964944066926 0.948 1.57440983193e-38
-0.00701777503219 -0.0964944066926 0.948 1.63897928296e-38
-0.00526333127414 -0.0964944066926 0.948 1.61132591894e-38
-0.00350148479982 -0.096290831995 0.946 1.51930979541e-38
-0.00175074239991 -0.096290831995 0.946 1.38995271118e-38
0.0 -0.096290831995 0.946 1.53721208394e-38
0.00175074239991 -0.096290831995 0.946 1.68525940682e-38
0.0035088875161 -0.0964944066926 0.948 1.39923729441e-38
0.00526333127414 -0.0964944066926 0.948 1.19604971774e-38
0.00701777503219 -0.0964944066926 0.948 1.64798108417e-38
0.00875371199954 -0.096290831995 0.946 1.78638859466e-38
0.0105044543995 -0.096290831995 0.946 1.64841716825e-38
0.0122551967994 -0.096290831995 0.946 1.71277418243e-38
0.0140059391993 -0.096290831995 0.946 1.70351902646e-38
0.0157067132643 -0.0959854699485 0.943 1.67586103815e-38
0.017451903627 -0.0959854699485 0.943 1.68504528842e-38
0.0191970939897 -0.0959854699485 0.943 1.67589607061e-38
0.0209422843524 -0.0959854699485 0.943 1.71277418243e-38
0.0229521218221 -0.0971051307856 0.954 1.61125375207e-38
0.0247176696545 -0.0971051307856 0.954 1.72185291492e-38
0.026483217487 -0.0971051307856 0.954 1.67593292476e-38
0.0280711001288 -0.0964944066926 0.948 1.97989081674e-38
0.0298255438868 -0.0964944066926 0.948 8.37173817906e-39
0.0316799243146 -0.0967997687391 0.951 1.51819870585e-38
0.0334399201099 -0.0967997687391 0.951 2.09099640886e-38
0.0350148479982 -0.096290831995 0.946 7.80601717343e-39
0.0367655903981 -0.096290831995 0.946 2.31207492355e-38
0.038516332798 -0.096290831995 0.946 3.76525534248e-39
0.0403522064351 -0.0964944066926 0.948 2.28367228524e-38
-0.0279230458032 -0.0942402795858 0.943 2.34889362031e-38
-0.0260945748824 -0.0939404695765 0.94 5.51012976948e-39
-0.0243549365569 -0.0939404695765 0.94 9.10893327517e-39
-0.0226874747151 -0.0942402795858 0.943 1.2153921207e-38
-0.0209422843524 -0.0942402795858 0.943 1.10468351643e-38
-0.019258166399 -0.0945400895951 0.946 1.31698373702e-38
-0.0175074239991 -0.0945400895951 0.946 4.50352663581e-39
-0.0157566815992 -0.0945400895951 0.946 1.70374225331e-38
-0.0140059391993 -0.0945400895951 0.946 4.96162791938e-39
-0.0122811063063 -0.0947399629346 0.948 1.46403319527e-38
-0.0105044543995 -0.0945400895951 0.946 1.61196981558e-38
-0.00875371199954 -0.0945400895951 0.946 1.71280921489e-38
-0.00700296959964 -0.0945400895951 0.946 1.64845248097e-38
-0.00525222719973 -0.0945400895951 0.946 1.64841688799e-38
-0.00350148479982 -0.0945400895951 0.946 1.64838185553e-38
-0.0017451903627 -0.0942402795858 0.943 1.70383992381e-38
0.0 -0.0942402795858 0.943 1.2979678366e-38
0.00175074239991 -0.0945400895951 0.946 1.41753783197e-38
0.00350148479982 -0.0945400895951 0.946 1.53753382207e-38
0.00526333127414 -0.0947399629346 0.948 1.60231963358e-38
0.00701777503219 -0.0947399629346 0.948 1.62997748176e-38
0.00875371199954 -0.0945400895951 0.946 1.62969063596e-38
0.0105044543995 -0.0945400895951 0.946 1.63901739828e-38
0.0122551967994 -0.0945400895951 0.946 1.61132437751e-38
0.0140059391993 -0.0945400895951 0.946 1.64831024918e-38
0.0157067132643 -0.0942402795858 0.943 1.5839518337e-38
0.0173963832549 -0.0939404695765 0.94 1.64838185553e-38
0.0191360215804 -0.0939404695765 0.94 1.59317167694e-38
0.0208756599059 -0.0939404695765 0.94 1.57458975866e-38
0.0229521218221 -0.0953395829532 0.954 1.71281187736e-38
0.0247176696545 -0.0953395829532 0.954 1.53760388699e-38
0.026483217487 -0.0953395829532 0.954 1.76795297193e-38
0.0280711001288 -0.0947399629346 0.948 2.11836474878e-38
0.0298255438868 -0.0947399629346 0.948 6.79869657495e-39
0.0315133631984 -0.0945400895951 0.946 2.3480005728e-38
0.0332641055983 -0.0945400895951 0.946 1.27077830237e-38
0.0350148479982 -0.0945400895951 0.946 1.60938638173e-38
0.0367655903981 -0.0945400895951 0.946 2.35021798749e-38
0.038516332798 -0.0945400895951 0.946 6.70399121953e-39
0.0402670751979 -0.0945400895951 0.946 2.34914515338e-38
-0.0278342132079 -0.092200831251 0.94 2.3026531532e-38
-0.0260945748824 -0.092200831251 0.94 7.8985701344e-39
-0.0243549365569 -0.092200831251 0.94 9.55304399487e-39
-0.0226874747151 -0.0924950892231 0.943 1.09510592169e-38
-0.0209422843524 -0.0924950892231 0.943 1.18754860047e-38
-0.019258166399 -0.0927893471952 0.946 1.09574911768e-38
-0.0175074239991 -0.0927893471952 0.946 1.02242421372e-38
-0.0157566815992 -0.0927893471952 0.946 9.11144440202e-39
-0.0140059391993 -0.0927893471952 0.946 1.59345698131e-38
-0.0122811063063 -0.0929855191766 0.948 5.6991817479e-39
-0.0104711421762 -0.0924950892231 0.943 1.50069564726e-38
-0.0087259518135 -0.0924950892231 0.943 1.57506143572e-38
-0.0069807614508 -0.0924950892231 0.943 1.46406122124e-38
-0.0052355710881 -0.0924950892231 0.943 1.41756711911e-38
-0.0034903807254 -0.0924950892231 0.943 1.45444859404e-38
-0.0017451903627 -0.0924950892231 0.943 1.16875298417e-38
0.0 -0.0924950892231 0.943 1.38072740287e-38
0.0017451903627 -0.0924950892231 0.943 1.41782467776e-38
0.00350148479982 -0.0927893471952 0.946 1.35353352461e-38
0.00525222719973 -0.0927893471952 0.946 1.49164872424e-38
0.00700296959964 -0.0927893471952 0.946 1.6022117336e-38
0.00875371199954 -0.0927893471952 0.946 1.51916349985e-38
0.0105044543995 -0.0927893471952 0.946 1.49150663258e-38
0.0122551967994 -0.0927893471952 0.946 1.47310492127e-38
0.0139171066039 -0.092200831251 0.94 1.41789656438e-38
0.0156234327062 -0.0920046592696 0.938 1.57455472619e-38
0.0173593696735 -0.0920046592696 0.938 1.52856312969e-38
0.0190342342316 -0.0917104012975 0.935 1.55618566514e-38
0.0207646191617 -0.0917104012975 0.935 1.58384491462e-38
0.0224950040919 -0.0917104012975 0.935 1.60217642087e-38
0.0243031175429 -0.0920046592696 0.938 1.48232602569e-38
0.0262611359986 -0.0927893471952 0.946 2.04468237357e-38
0.0280118783985 -0.0927893471952 0.946 1.23346550777e-38
0.0297626207984 -0.0927893471952 0.946 1.65573026467e-38
0.0315133631984 -0.0927893471952 0.946 2.3502523193e-38
0.0331586168913 -0.0924950892231 0.943 3.30607786169e-39
0.034903807254 -0.0924950892231 0.943 2.35058120405e-38
0.0366489976167 -0.0924950892231 0.943 1.27974731319e-38
0.0383941879794 -0.0924950892231 0.943 2.34752006756e-38
0.0401393783421 -0.0924950892231 0.943 2.31187019384e-38
-0.0276861588823 -0.0899800163674 0.935 2.33052610069e-38
-0.0259557739521 -0.0899800163674 0.935 7.4386751888e-39
-0.024225389022 -0.0899800163674 0.935 1.24935805405e-38
-0.0225671805756 -0.0902687223023 0.938 1.09446356647e-38
-0.0208312436082 -0.0902687223023 0.938 8.18627352471e-39
-0.0190953066409 -0.0902687223023 0.938 1.16921835539e-38
-0.017451903627 -0.0907498988604 0.943 1.04979451546e-38
-0.0157566815992 -0.0910386047953 0.946 1.13284190842e-38
-0.0140059391993 -0.0910386047953 0.946 1.16003536629e-38
-0.0122551967994 -0.0910386047953 0.946 1.65810938921e-38
-0.0104711421762 -0.0907498988604 0.943 9.75680400197e-39
-0.0087259518135 -0.0907498988604 0.943 1.36264504748e-38
-0.00695855330196 -0.0904611929255 0.94 1.52867551382e-38
-0.00520781090205 -0.0902687223023 0.938 1.45498809395e-38
-0.0034718739347 -0.0902687223023 0.938 1.50097674773e-38
-0.00173593696735 -0.0902687223023 0.938 1.43640631579e-38
0.0 -0.0902687223023 0.938 1.39934603517e-38
0.0017451903627 -0.0907498988604 0.943 1.50087137008e-38
0.0034903807254 -0.0907498988604 0.943 1.4916490045e-38
0.00525222719973 -0.0910386047953 0.946 1.4733543524e-38
0.00700296959964 -0.0910386047953 0.946 1.47321043905e-38
0.0087259518135 -0.0907498988604 0.943 1.49161369178e-38
0.0104711421762 -0.0907498988604 0.943 1.44569622396e-38
0.0121774682784 -0.0904611929255 0.94 1.48257643772e-38
0.0138874957388 -0.0902687223023 0.938 1.48268181537e-38
0.0156234327062 -0.0902687223023 0.938 1.4731707823e-38
0.0173038493014 -0.0899800163674 0.935 1.38108879774e-38
0.018993519292 -0.0897875457442 0.933 1.29796615505e-38
0.020720202864 -0.0897875457442 0.933 1.64809669129e-38
0.022446886436 -0.0897875457442 0.933 1.68511591386e-38
0.0243031175429 -0.0902687223023 0.938 1.71309872315e-38
0.0260390545103 -0.0902687223023 0.938 1.18744476426e-38
0.0277749914776 -0.0902687223023 0.938 1.70240191133e-38
0.0295738515333 -0.0904611929255 0.94 2.34979745782e-38
0.0313134898588 -0.0904611929255 0.94 6.71152460008e-39
0.0331586168913 -0.0907498988604 0.943 2.35039132811e-38
0.0347927665098 -0.0904611929255 0.94 2.11008447615e-38
0.0365324048353 -0.0904611929255 0.94 1.4367232895e-38
0.0382720431608 -0.0904611929255 0.94 1.97953782966e-38
0.0401393783421 -0.0907498988604 0.943 1.37990007626e-38
-0.0276861588823 -0.0882496314373 0.935 2.27510054253e-38
-0.02590025358 -0.0880608621722 0.933 7.53194561458e-39
-0.024173570008 -0.0880608621722 0.933 1.01019045774e-38
-0.0224950040919 -0.0882496314373 0.935 9.64272709659e-39
-0.0207646191617 -0.0882496314373 0.935 1.48139248065e-38
-0.0190342342316 -0.0882496314373 0.935 7.72673731151e-39
-0.017451903627 -0.0890047084977 0.943 9.19897510929e-39
-0.0157566815992 -0.0892878623953 0.946 1.10450176802e-38
-0.0140059391993 -0.0892878623953 0.946 1.21517127606e-38
-0.0122551967994 -0.0892878623953 0.946 1.19687508253e-38
-0.0105044543995 -0.0892878623953 0.946 1.44551643737e-38
-0.00869819162745 -0.0887215546 0.94 1.65774393057e-38
-0.00695855330196 -0.0887215546 0.94 1.33502839748e-38
-0.00520781090205 -0.0885327853349 0.938 1.54664366338e-38
-0.0034718739347 -0.0885327853349 0.938 1.58377428918e-38
-0.00173593696735 -0.0885327853349 0.938 1.4179694319e-38
0.0 -0.0885327853349 0.938 1.48228706959e-38
0.00173593696735 -0.0885327853349 0.938 1.55618566514e-38
0.0034718739347 -0.0885327853349 0.938 1.36271959656e-38
0.00521891497647 -0.0887215546 0.94 1.41785999049e-38
0.00695855330196 -0.0887215546 0.94 1.36250729985e-38
0.00867968483676 -0.0885327853349 0.938 1.44519568015e-38
0.0103823095809 -0.0882496314373 0.935 1.44540475388e-38
0.012086785004 -0.0880608621722 0.933 1.42689808532e-38
0.013813468576 -0.0880608621722 0.933 1.44562573865e-38
0.015540152148 -0.0880608621722 0.933 1.54682401049e-38
0.0172113153479 -0.0877777082745 0.93 1.48218169195e-38
0.0188917319432 -0.0875889390094 0.928 1.57448438101e-38
0.0205425376733 -0.0873057851117 0.925 1.48268531861e-38
0.0222544158128 -0.0873057851117 0.925 1.2702746757e-38
0.024225389022 -0.0882496314373 0.935 1.62871687366e-38
0.0259557739521 -0.0882496314373 0.935 2.16484736027e-38
0.0276861588823 -0.0882496314373 0.935 1.6207326954e-38
0.0295738515333 -0.0887215546 0.94 1.49114299562e-38
0.0313134898588 -0.0887215546 0.94 2.34910689794e-38
0.0330531281843 -0.0887215546 0.94 1.87805032981e-38
0.034718739347 -0.0885327853349 0.938 1.61142597165e-38
0.0364546763144 -0.0885327853349 0.938 1.35325816946e-38
0.0381906132817 -0.0885327853349 0.938 1.33319311688e-38
0.0401393783421 -0.0890047084977 0.943 1.65526545397e-38
-0.0294165438124 -0.0865192465071 0.935 2.29332540997e-38
-0.0276861588823 -0.0865192465071 0.935 2.16446662747e-38
-0.02590025358 -0.0863341786002 0.933 1.02066544402e-38
-0.024173570008 -0.0863341786002 0.933 9.64272709659e-39
-0.0224950040919 -0.0865192465071 0.935 1.12957660274e-38
-0.020720202864 -0.0863341786002 0.933 1.03774110659e-38
-0.018993519292 -0.0863341786002 0.933 1.56479216005e-38
-0.01726683572 -0.0863341786002 0.933 1.3623939348e-38
-0.015406903255 -0.0855939069723 0.925 9.56882822077e-39
-0.0136950251156 -0.0855939069723 0.925 9.4723572293e-39
-0.0119572374691 -0.0854088390653 0.923 1.13212360283e-38
-0.00855939069723 -0.0855939069723 0.925 1.25219624396e-38
-0.00692153972057 -0.0865192465071 0.935 1.36261295775e-38
-0.00519115479043 -0.0865192465071 0.935 1.61139472269e-38
-0.00346076986028 -0.0865192465071 0.935 1.64878290715e-38
-0.00173593696735 -0.0867968483676 0.938 1.50126387378e-38
0.0 -0.0867968483676 0.938 1.50050955482e-38
0.00173038493014 -0.0865192465071 0.935 1.67517762489e-38
0.00346076986028 -0.0865192465071 0.935 1.62047107297e-38
0.00519115479043 -0.0865192465071 0.935 1.54685932322e-38
0.00692153972057 -0.0865192465071 0.935 1.41760943832e-38
0.00865192465071 -0.0865192465071 0.935 1.48211078624e-38
0.010360101432 -0.0863341786002 0.933 1.61121843934e-38
0.0120479207436 -0.0860565767397 0.93 1.49165278801e-38
0.0137690522784 -0.0860565767397 0.93 1.62043604051e-38
0.0154568715899 -0.0858715088327 0.928 1.67521419878e-38
0.0171743017665 -0.0858715088327 0.928 1.68371545618e-38
0.0188917319432 -0.0858715088327 0.928 1.75747041864e-38
0.0205425376733 -0.0855939069723 0.925 1.97117193769e-38
0.0222544158128 -0.0855939069723 0.925 1.97222683518e-38
0.0239662939522 -0.0855939069723 0.925 1.81339792191e-38
0.0256781720917 -0.0855939069723 0.925 2.03429973286e-38
0.0273900502311 -0.0855939069723 0.925 2.25679860368e-38
0.0291963130031 -0.0858715088327 0.928 2.17386611718e-38
0.0309137431798 -0.0858715088327 0.928 1.85120621564e-38
0.0327014991611 -0.0860565767397 0.93 1.18694099746e-38
0.0345336714401 -0.0863341786002 0.933 1.14988085697e-38
0.0362603550121 -0.0863341786002 0.933 1.39769320364e-38
0.0379870385841 -0.0863341786002 0.933 1.51618251762e-38
0.0397137221561 -0.0863341786002 0.933 1.90160952011e-38
-0.0294165438124 -0.084788861577 0.935 2.29332218698e-38
-0.027626937152 -0.0846074950282 0.933 2.15528181669e-38
-0.0258169730219 -0.0843354452049 0.93 8.08726338041e-39
-0.0240958414871 -0.0843354452049 0.93 1.02862930345e-38
-0.022446886436 -0.0846074950282 0.933 1.12957660274e-38
-0.0206535784175 -0.0843354452049 0.93 1.11120950351e-38
-0.0188917319432 -0.0841540786561 0.928 1.06529175543e-38
-0.0171187813945 -0.0838820288328 0.925 1.1020259539e-38
-0.015406903255 -0.0838820288328 0.925 1.73964015685e-38
-0.0136950251156 -0.0838820288328 0.925 1.47303457609e-38
-0.0119572374691 -0.083700662284 0.923 1.27030732596e-38
-0.0102490606878 -0.083700662284 0.923 1.0766286804e-38
-0.00855939069723 -0.0838820288328 0.925 9.84433470925e-39
-0.00684751255778 -0.0838820288328 0.925 1.1503124569e-38
-0.00513563441834 -0.0838820288328 0.925 1.18730379363e-38
-0.00346076986028 -0.084788861577 0.935 1.18769909993e-38
-0.00173038493014 -0.084788861577 0.935 1.36272380046e-38
0.0 -0.0846074950282 0.933 1.61110927819e-38
0.001726683572 -0.0846074950282 0.933 1.53688516101e-38
0.00345336714401 -0.0846074950282 0.933 1.72163459262e-38
0.00518005071601 -0.0846074950282 0.933 1.73121527022e-38
0.00688452613918 -0.0843354452049 0.93 1.93426089536e-38
0.00858715088327 -0.0841540786561 0.928 1.91617531699e-38
0.0103045810599 -0.0841540786561 0.928 1.85160628635e-38
0.0119831469761 -0.0838820288328 0.925 1.91603630819e-38
0.0136950251156 -0.0838820288328 0.925 1.93436725392e-38
0.0153735910318 -0.083700662284 0.923 1.92424063044e-38
0.0170817678131 -0.083700662284 0.923 2.07067519892e-38
0.0188306595339 -0.0838820288328 0.925 2.27361012148e-38
0.0204981213757 -0.083700662284 0.923 2.17360603619e-38
0.022206298157 -0.083700662284 0.923 2.046154858e-38
0.0239662939522 -0.0838820288328 0.925 2.18369230227e-38
0.0256781720917 -0.0838820288328 0.925 2.06279583778e-38
0.0273900502311 -0.0838820288328 0.925 1.28799297375e-38
0.0291019283706 -0.0838820288328 0.925 1.24146524045e-38
0.0309137431798 -0.0841540786561 0.928 1.36178408971e-38
0.0326311733564 -0.0841540786561 0.928 1.58233277345e-38
0.0344226306959 -0.0843354452049 0.93 1.12046479961e-38
0.0361437622307 -0.0843354452049 0.93 1.57957053392e-38
0.0378648937655 -0.0843354452049 0.93 1.66222318111e-38
0.0397137221561 -0.0846074950282 0.933 2.34514668835e-38
-0.0293536207241 -0.0828808114561 0.933 2.34878291773e-38
-0.0275381045567 -0.0826143136701 0.93 2.11851118447e-38
-0.0258169730219 -0.0826143136701 0.93 7.81175689194e-39
-0.0240958414871 -0.0826143136701 0.93 9.91823358506e-39
-0.0223747099523 -0.0826143136701 0.93 1.13876015236e-38
-0.0206535784175 -0.0826143136701 0.93 1.11120950351e-38
-0.0188917319432 -0.0824366484794 0.928 1.15712725159e-38
-0.0171187813945 -0.0821701506934 0.925 1.21222854929e-38
-0.015406903255 -0.0821701506934 0.925 1.14794370197e-38
-0.0136654142505 -0.0819924855027 0.923 1.18467790044e-38
-0.0119572374691 -0.0819924855027 0.923 1.68328161417e-38
-0.0102490606878 -0.0819924855027 0.923 1.79492446412e-38
-0.00854088390653 -0.0819924855027 0.923 1.59299413243e-38
-0.00683270712523 -0.0819924855027 0.923 1.51019757188e-38
-0.00512453034392 -0.0819924855027 0.923 1.35350227565e-38
-0.00342375627889 -0.0821701506934 0.925 1.233576911e-38
-0.00171187813945 -0.0821701506934 0.925 1.21513848568e-38
0.0 -0.0826143136701 0.93 1.34406635219e-38
0.00172113153479 -0.0826143136701 0.93 1.40835302118e-38
0.00343486035331 -0.0824366484794 0.928 1.4914011148e-38
0.00513563441834 -0.0821701506934 0.925 1.5286697685e-38
0.00684751255778 -0.0821701506934 0.925 1.62072288631e-38
0.00854088390653 -0.0819924855027 0.923 1.64852674979e-38
0.0102490606878 -0.0819924855027 0.923 1.63941634795e-38
0.0119572374691 -0.0819924855027 0.923 1.74050910203e-38
0.0136209979528 -0.0817259877167 0.92 1.84199449993e-38
0.0153236226969 -0.0817259877167 0.92 1.90613277142e-38
0.0170817678131 -0.0819924855027 0.923 1.82254587854e-38
0.0187899445944 -0.0819924855027 0.923 1.75729021166e-38
0.0204981213757 -0.0819924855027 0.923 1.34298651159e-38
0.022206298157 -0.0819924855027 0.923 9.935811473e-39
0.0239662939522 -0.0821701506934 0.925 1.21466792965e-38
0.0256781720917 -0.0821701506934 0.925 1.57362552518e-38
0.0273900502311 -0.0821701506934 0.925 1.61028335288e-38
0.0291019283706 -0.0821701506934 0.925 1.13915475801e-38
0.03081380651 -0.0821701506934 0.925 1.35916534314e-38
0.0326311733564 -0.0824366484794 0.928 1.49691858738e-38
0.0343486035331 -0.0824366484794 0.928 1.61630473238e-38
0.0360660337097 -0.0824366484794 0.928 1.58875408353e-38
0.0377834638864 -0.0824366484794 0.928 2.19745613605e-38
-0.0310803042961 -0.0811541278841 0.933 2.2378613161e-38
-0.0293536207241 -0.0811541278841 0.933 2.34856739803e-38
-0.0275381045567 -0.0808931821353 0.93 2.10918596357e-38
-0.0258169730219 -0.0808931821353 0.93 8.82732833578e-39
-0.0240958414871 -0.0808931821353 0.93 1.01937400735e-38
-0.0223747099523 -0.0808931821353 0.93 1.14794370197e-38
-0.0206535784175 -0.0808931821353 0.93 1.14794370197e-38
-0.0188917319432 -0.0807192183028 0.928 1.18467790044e-38
-0.0171187813945 -0.0804582725539 0.925 1.2214120989e-38
-0.015406903255 -0.0804582725539 0.925 1.24896274775e-38
-0.0136654142505 -0.0802843087214 0.923 1.28569694621e-38
-0.0119572374691 -0.0802843087214 0.923 1.2765133966e-38
-0.0102157484646 -0.0800233629726 0.92 1.20304499967e-38
-0.00851312372049 -0.0800233629726 0.92 1.12039305313e-38
-0.00681049897639 -0.0800233629726 0.92 1.23977919813e-38
-0.00512453034392 -0.0802843087214 0.923 1.52573278705e-38
-0.00341635356261 -0.0802843087214 0.923 1.78566356283e-38
-0.00170817678131 -0.0802843087214 0.923 1.57437325804e-38
0.0 -0.0804582725539 0.925 1.49157893958e-38
0.00170817678131 -0.0802843087214 0.923 1.61143550048e-38
0.00341635356261 -0.0802843087214 0.923 1.56537425944e-38
0.00510787423229 -0.0800233629726 0.92 1.56494265951e-38
0.00681049897639 -0.0800233629726 0.92 1.61093327511e-38
0.00851312372049 -0.0800233629726 0.92 1.44523323495e-38
0.0102157484646 -0.0800233629726 0.92 1.38040566474e-38
0.0119183732087 -0.0800233629726 0.92 1.55521484557e-38
0.0136209979528 -0.0800233629726 0.92 1.50014830008e-38
0.0153236226969 -0.0800233629726 0.92 1.59209407842e-38
0.017026247441 -0.0800233629726 0.92 1.87797241761e-38
0.0187288721851 -0.0800233629726 0.92 1.7674452815e-38
0.0204981213757 -0.0802843087214 0.923 1.46280313548e-38
0.022206298157 -0.0802843087214 0.923 1.1480513217e-38
0.0239144749383 -0.0802843087214 0.923 1.26732984698e-38
0.0256226517196 -0.0802843087214 0.923 1.3958995416e-38
0.0273308285009 -0.0802843087214 0.923 1.47855148814e-38
0.0291019283706 -0.0804582725539 0.925 1.5703869843e-38
0.03081380651 -0.0804582725539 0.925 1.57957053392e-38
0.0325256846495 -0.0804582725539 0.925 1.60712118276e-38
0.0343486035331 -0.0807192183028 0.928 1.63467183161e-38
0.0360660337097 -0.0807192183028 0.928 2.10687298033e-38
0.0377834638864 -0.0807192183028 0.928 1.25850502977e-38
0.0395008940631 -0.0807192183028 0.928 2.10701647329e-38
0.0432596232536 -0.0813280917167 0.935 2.34932522024e-38
0.0449900081837 -0.0813280917167 0.935 2.34853054388e-38
0.0467203931138 -0.0813280917167 0.935 2.3484601987e-38
-0.0310803042961 -0.0794274443121 0.933 2.18247415352e-38
-0.0293536207241 -0.0794274443121 0.933 2.33005764661e-38
-0.0275381045567 -0.0791720506005 0.93 2.12766040227e-38
-0.0258169730219 -0.0791720506005 0.93 7.9039511205e-39
-0.0240958414871 -0.0791720506005 0.93 1.07447530505e-38
-0.0223747099523 -0.0791720506005 0.93 1.14794370197e-38
-0.0206535784175 -0.0791720506005 0.93 1.19386145005e-38
-0.0188917319432 -0.0790017881261 0.928 1.20304499967e-38
-0.0171187813945 -0.0787463944145 0.925 1.2214120989e-38
-0.015406903255 -0.0787463944145 0.925 1.25814629736e-38
-0.0136950251156 -0.0787463944145 0.925 1.28569694621e-38
-0.0119572374691 -0.0785761319401 0.923 1.32243114468e-38
-0.0102157484646 -0.0783207382285 0.92 1.31324759506e-38
-0.00851312372049 -0.0783207382285 0.92 1.34079824391e-38
-0.00681049897639 -0.0783207382285 0.92 1.35916534314e-38
-0.00510787423229 -0.0783207382285 0.92 1.32243114468e-38
-0.00340524948819 -0.0783207382285 0.92 1.29488049583e-38
-0.0017026247441 -0.0783207382285 0.92 1.18467790044e-38
0.0 -0.0785761319401 0.923 1.19386145005e-38
0.0017026247441 -0.0783207382285 0.92 1.23059564852e-38
0.00340524948819 -0.0783207382285 0.92 1.28569694621e-38
0.00510787423229 -0.0783207382285 0.92 1.26732984698e-38
0.00681049897639 -0.0783207382285 0.92 1.25814629736e-38
0.00851312372049 -0.0783207382285 0.92 1.2765133966e-38
0.0102157484646 -0.0783207382285 0.92 1.32243114468e-38
0.0119183732087 -0.0783207382285 0.92 1.29488049583e-38
0.0136209979528 -0.0783207382285 0.92 1.31324759506e-38
0.0153236226969 -0.0783207382285 0.92 1.34079824391e-38
0.017026247441 -0.0783207382285 0.92 1.42345019045e-38
0.0187288721851 -0.0783207382285 0.92 1.43263374006e-38
0.0204314969292 -0.0783207382285 0.92 1.46018438891e-38
0.0221341216733 -0.0783207382285 0.92 1.47855148814e-38
0.0239144749383 -0.0785761319401 0.923 1.51528568661e-38
0.0256226517196 -0.0785761319401 0.923 1.52446923622e-38
0.0273308285009 -0.0785761319401 0.923 1.58875408353e-38
0.0291019283706 -0.0787463944145 0.925 1.625488282e-38
0.03081380651 -0.0787463944145 0.925 1.59793763315e-38
0.0325256846495 -0.0787463944145 0.925 1.79111503425e-38
0.0343486035331 -0.0790017881261 0.928 2.20740619593e-38
0.0360660337097 -0.0790017881261 0.928 1.11120950351e-38
0.0377834638864 -0.0790017881261 0.928 2.34526229547e-38
0.0395008940631 -0.0790017881261 0.928 2.10832934982e-38
0.0414404057281 -0.0794274443121 0.933 2.07097759913e-38
0.0432596232536 -0.0795977067866 0.935 2.3490372534e-38
0.0449900081837 -0.0795977067866 0.935 2.34845935792e-38
0.0467203931138 -0.0795977067866 0.935 2.34846047896e-38
-0.0310803042961 -0.0777007607401 0.933 2.23782600338e-38
-0.0293536207241 -0.0777007607401 0.933 2.28395913103e-38
-0.0275381045567 -0.0774509190657 0.93 1.98011068047e-38
-0.0258169730219 -0.0774509190657 0.93 1.16828481035e-38
-0.0240958414871 -0.0774509190657 0.93 9.55089160043e-39
-0.0223747099523 -0.0774509190657 0.93 1.1663112216e-38
-0.0206535784175 -0.0774509190657 0.93 1.19386145005e-38
-0.0188917319432 -0.0772843579495 0.928 1.20304499967e-38
-0.0171187813945 -0.0770345162751 0.925 1.21222854929e-38
-0.015406903255 -0.0770345162751 0.925 1.25814629736e-38
-0.0136950251156 -0.0770345162751 0.925 1.28569694621e-38
-0.0119572374691 -0.0768679551588 0.923 1.32243114468e-38
-0.0102157484646 -0.0766181134844 0.92 1.32243114468e-38
-0.00851312372049 -0.0766181134844 0.92 1.34079824391e-38
-0.00681049897639 -0.0766181134844 0.92 1.3958995416e-38
-0.00510787423229 -0.0766181134844 0.92 1.38671599199e-38
-0.00340524948819 -0.0766181134844 0.92 1.38671599199e-38
-0.0017026247441 -0.0766181134844 0.92 1.37753244237e-38
0.0 -0.0766181134844 0.92 1.36834889275e-38
0.0017026247441 -0.0766181134844 0.92 1.40508309122e-38
0.00340524948819 -0.0766181134844 0.92 1.3958995416e-38
0.00509677015787 -0.0764515523681 0.918 1.42345019045e-38
0.00679569354383 -0.0764515523681 0.918 1.42345019045e-38
0.00849461692979 -0.0764515523681 0.918 1.42345019045e-38
0.0101935403157 -0.0764515523681 0.918 1.4510008393e-38
0.0118924637017 -0.0764515523681 0.918 1.46936793853e-38
0.0135913870877 -0.0764515523681 0.918 1.49691858738e-38
0.0152903104736 -0.0764515523681 0.918 1.51528568661e-38
0.0169892338596 -0.0764515523681 0.918 1.53365278584e-38
0.0187288721851 -0.0766181134844 0.92 1.54283633545e-38
0.0204314969292 -0.0766181134844 0.92 1.5703869843e-38
0.0221341216733 -0.0766181134844 0.92 1.55201988507e-38
0.0239144749383 -0.0768679551588 0.923 1.55201988507e-38
0.0256226517196 -0.0768679551588 0.923 1.51528568661e-38
0.0273308285009 -0.0768679551588 0.923 1.58875408353e-38
0.0291019283706 -0.0770345162751 0.925 1.60712118276e-38
0.03081380651 -0.0770345162751 0.925 2.34472377647e-38
0.0325256846495 -0.0770345162751 0.925 1.22151971862e-38
0.0343486035331 -0.0772843579495 0.928 1.55201988507e-38
0.0360660337097 -0.0772843579495 0.928 2.22820440786e-38
0.0377834638864 -0.0772843579495 0.928 1.86832251587e-38
0.0395860253003 -0.0774509190657 0.93 1.76712634597e-38
0.0414404057281 -0.0777007607401 0.933 2.07133731244e-38
0.0432596232536 -0.0778673218564 0.935 2.34889319992e-38
0.0449900081837 -0.0778673218564 0.935 2.33923979493e-38
-0.0311469287426 -0.0761369369263 0.935 2.20080509925e-38
-0.0293536207241 -0.0759740771681 0.933 2.29332190672e-38
-0.027626937152 -0.0759740771681 0.933 2.06315849383e-38
-0.0258169730219 -0.0757297875309 0.93 1.02066600454e-38
-0.0240958414871 -0.0757297875309 0.93 1.18489313988e-38
-0.0223747099523 -0.0757297875309 0.93 1.15712725159e-38
-0.0206535784175 -0.0757297875309 0.93 1.19386145005e-38
-0.0188917319432 -0.0755669277728 0.928 1.2214120989e-38
-0.0171187813945 -0.0753226381356 0.925 1.2214120989e-38
-0.015406903255 -0.0753226381356 0.925 1.28569694621e-38
-0.0136950251156 -0.0753226381356 0.925 1.31324759506e-38
-0.0119831469761 -0.0753226381356 0.925 1.32243114468e-38
-0.0102490606878 -0.0751597783775 0.923 1.34998179352e-38
-0.00854088390653 -0.0751597783775 0.923 1.37753244237e-38
-0.00683270712523 -0.0751597783775 0.923 1.37753244237e-38
-0.00512453034392 -0.0751597783775 0.923 1.3958995416e-38
-0.00340524948819 -0.0749154887403 0.92 1.36834889275e-38
-0.0017026247441 -0.0749154887403 0.92 1.32243114468e-38
0.0 -0.0749154887403 0.92 1.31324759506e-38
0.0017026247441 -0.0749154887403 0.92 1.3958995416e-38
0.00339784677192 -0.0747526289822 0.918 1.41426664083e-38
0.00509677015787 -0.0747526289822 0.918 1.4510008393e-38
0.00679569354383 -0.0747526289822 0.918 1.4510008393e-38
0.00849461692979 -0.0747526289822 0.918 1.4510008393e-38
0.0101935403157 -0.0747526289822 0.918 1.47855148814e-38
0.0118924637017 -0.0747526289822 0.918 1.49691858738e-38
0.0135913870877 -0.0747526289822 0.918 1.49691858738e-38
0.0152903104736 -0.0747526289822 0.918 1.52446923622e-38
0.0169892338596 -0.0747526289822 0.918 1.55201988507e-38
0.0187288721851 -0.0749154887403 0.92 1.52446923622e-38
0.0204314969292 -0.0749154887403 0.92 1.54283633545e-38
0.0221341216733 -0.0749154887403 0.92 1.55201988507e-38
0.0239144749383 -0.0751597783775 0.923 1.5703869843e-38
0.0256226517196 -0.0751597783775 0.923 1.53365278584e-38
0.0273308285009 -0.0751597783775 0.923 1.58875408353e-38
0.0291019283706 -0.0753226381356 0.925 1.58875408353e-38
0.03081380651 -0.0753226381356 0.925 2.34461657714e-38
0.0325256846495 -0.0753226381356 0.925 1.54283633545e-38
0.0343486035331 -0.0755669277728 0.928 1.95155670192e-38
0.0360660337097 -0.0755669277728 0.928 2.05352778987e-38
0.0377834638864 -0.0755669277728 0.928 2.0517851351e-38
0.0395860253003 -0.0757297875309 0.93 1.83241382233e-38
0.0414404057281 -0.0759740771681 0.933 2.17285592112e-38
0.0432596232536 -0.0761369369263 0.935 2.34896508653e-38
0.0449900081837 -0.0761369369263 0.935 2.34874606358e-38
-0.0311469287426 -0.0744065519961 0.935 2.18254547961e-38
-0.0294165438124 -0.0744065519961 0.935 2.26559259232e-38
-0.027626937152 -0.0742473935961 0.933 1.93397769294e-38
-0.02590025358 -0.0742473935961 0.933 1.05682567063e-38
-0.024173570008 -0.0742473935961 0.933 1.11120950351e-38
-0.0223747099523 -0.0740086559961 0.93 1.18467790044e-38
-0.0206535784175 -0.0740086559961 0.93 1.20304499967e-38
-0.0188917319432 -0.0738494975962 0.928 1.2214120989e-38
-0.0171187813945 -0.0736107599962 0.925 1.23977919813e-38
-0.015406903255 -0.0736107599962 0.925 1.32243114468e-38
-0.0136950251156 -0.0736107599962 0.925 1.33161469429e-38
-0.0119831469761 -0.0736107599962 0.925 1.31324759506e-38
-0.0102490606878 -0.0734516015962 0.923 1.34079824391e-38
-0.00854088390653 -0.0734516015962 0.923 1.35916534314e-38
-0.00683270712523 -0.0734516015962 0.923 1.3958995416e-38
-0.00512453034392 -0.0734516015962 0.923 1.42345019045e-38
-0.00340524948819 -0.0732128639962 0.92 1.38671599199e-38
-0.0017026247441 -0.0732128639962 0.92 1.33161469429e-38
0.0 -0.0732128639962 0.92 1.34079824391e-38
0.0017026247441 -0.0732128639962 0.92 1.3958995416e-38
0.00339784677192 -0.0730537055962 0.918 1.4510008393e-38
0.00509677015787 -0.0730537055962 0.918 1.4510008393e-38
0.00679569354383 -0.0730537055962 0.918 1.44181728968e-38
0.00849461692979 -0.0730537055962 0.918 1.4510008393e-38
0.0101935403157 -0.0730537055962 0.918 1.4510008393e-38
0.0118924637017 -0.0730537055962 0.918 1.51528568661e-38
0.0135913870877 -0.0730537055962 0.918 1.51528568661e-38
0.0152903104736 -0.0730537055962 0.918 1.52446923622e-38
0.0169892338596 -0.0730537055962 0.918 1.56120343469e-38
0.0187288721851 -0.0732128639962 0.92 1.57957053392e-38
0.0204314969292 -0.0732128639962 0.92 1.54283633545e-38
0.0221341216733 -0.0732128639962 0.92 1.5703869843e-38
0.0239144749383 -0.0734516015962 0.923 1.5703869843e-38
0.0256226517196 -0.0734516015962 0.923 1.57957053392e-38
0.0273308285009 -0.0734516015962 0.923 1.60712118276e-38
0.0291019283706 -0.0736107599962 0.925 1.59793763315e-38
0.03081380651 -0.0736107599962 0.925 2.34487049242e-38
0.0326311733564 -0.0738494975962 0.928 1.87488129333e-38
0.0343486035331 -0.0738494975962 0.928 5.0513110211e-39
0.0360660337097 -0.0738494975962 0.928 2.34648310669e-38
0.0378648937655 -0.0740086559961 0.93 2.17195698815e-38
0.0397137221561 -0.0742473935961 0.933 1.94308767439e-38
0.0414404057281 -0.0742473935961 0.933 2.07165554732e-38
0.0432596232536 -0.0744065519961 0.935 2.34907242599e-38
0.0449900081837 -0.0744065519961 0.935 2.34881921136e-38
-0.0311469287426 -0.072676167066 0.935 2.20102061895e-38
-0.0294165438124 -0.072676167066 0.935 2.29325352336e-38
-0.0276861588823 -0.072676167066 0.935 2.04457699593e-38
-0.02590025358 -0.0725207100241 0.933 9.92361457117e-39
-0.024173570008 -0.0725207100241 0.933 1.31403680635e-38
-0.022446886436 -0.0725207100241 0.933 1.12039305313e-38
-0.0206535784175 -0.0722875244614 0.93 1.12957660274e-38
-0.0189324468827 -0.0722875244614 0.93 1.23059564852e-38
-0.0171743017665 -0.0721320674195 0.928 1.25814629736e-38
-0.015406903255 -0.0718988818567 0.925 1.2765133966e-38
-0.0136950251156 -0.0718988818567 0.925 1.29488049583e-38
-0.0119831469761 -0.0718988818567 0.925 1.32243114468e-38
-0.0102712688367 -0.0718988818567 0.925 1.34079824391e-38
-0.00855939069723 -0.0718988818567 0.925 1.37753244237e-38
-0.00683270712523 -0.0717434248149 0.923 1.38671599199e-38
-0.00512453034392 -0.0717434248149 0.923 1.3958995416e-38
-0.00341635356261 -0.0717434248149 0.923 1.32243114468e-38
-0.0017026247441 -0.0715102392521 0.92 1.32243114468e-38
0.0 -0.0715102392521 0.92 1.35916534314e-38
0.0017026247441 -0.0715102392521 0.92 1.3958995416e-38
0.00339784677192 -0.0713547822102 0.918 1.42345019045e-38
0.00509677015787 -0.0713547822102 0.918 1.42345019045e-38
0.00679569354383 -0.0713547822102 0.918 1.41426664083e-38
0.00849461692979 -0.0713547822102 0.918 1.43263374006e-38
0.0101935403157 -0.0713547822102 0.918 1.4510008393e-38
0.0118924637017 -0.0713547822102 0.918 1.48773503776e-38
0.0135913870877 -0.0713547822102 0.918 1.52446923622e-38
0.0152903104736 -0.0713547822102 0.918 1.52446923622e-38
0.0169892338596 -0.0713547822102 0.918 1.56120343469e-38
0.0187288721851 -0.0715102392521 0.92 1.54283633545e-38
0.0204314969292 -0.0715102392521 0.92 1.53365278584e-38
0.0221341216733 -0.0715102392521 0.92 1.54283633545e-38
0.0239144749383 -0.0717434248149 0.923 1.57957053392e-38
0.0256226517196 -0.0717434248149 0.923 1.60712118276e-38
0.0273900502311 -0.0718988818567 0.925 1.625488282e-38
0.0291019283706 -0.0718988818567 0.925 1.58875408353e-38
0.03081380651 -0.0718988818567 0.925 2.34526467768e-38
0.0326311733564 -0.0721320674195 0.928 1.84722218398e-38
0.0343486035331 -0.0721320674195 0.928 8.18878465156e-39
0.0361437622307 -0.0722875244614 0.93 2.08956316079e-38
0.0378648937655 -0.0722875244614 0.93 2.10741878608e-38
0.0397137221561 -0.0725207100241 0.933 2.00621813203e-38
0.0415292383234 -0.072676167066 0.935 2.24690137275e-38
0.0432596232536 -0.072676167066 0.935 2.34892893303e-38
0.0449900081837 -0.072676167066 0.935 2.34856851907e-38
-0.0312468654123 -0.0711734156614 0.938 2.19183608843e-38
-0.029510928445 -0.0711734156614 0.938 2.21942190987e-38
-0.0276861588823 -0.0709457821358 0.935 2.02613632853e-38
-0.02590025358 -0.0707940264521 0.933 8.91091298658e-39
-0.024173570008 -0.0707940264521 0.933 1.23995856434e-38
-0.022446886436 -0.0707940264521 0.933 1.11120950351e-38
-0.020720202864 -0.0707940264521 0.933 1.23988681785e-38
-0.0189324468827 -0.0705663929266 0.93 1.2214120989e-38
-0.0171743017665 -0.0704146372428 0.928 1.24896274775e-38
-0.0154568715899 -0.0704146372428 0.928 1.28569694621e-38
-0.0137394414132 -0.0704146372428 0.928 1.31324759506e-38
-0.0119831469761 -0.0701870037173 0.925 1.32243114468e-38
-0.0102712688367 -0.0701870037173 0.925 1.32243114468e-38
-0.00855939069723 -0.0701870037173 0.925 1.34079824391e-38
-0.00683270712523 -0.0700352480336 0.923 1.35916534314e-38
-0.00512453034392 -0.0700352480336 0.923 1.36834889275e-38
-0.00341635356261 -0.0700352480336 0.923 1.32243114468e-38
-0.0017026247441 -0.069807614508 0.92 1.34998179352e-38
0.0 -0.069807614508 0.92 1.40508309122e-38
0.0017026247441 -0.069807614508 0.92 1.41426664083e-38
0.00339784677192 -0.0696558588243 0.918 1.43263374006e-38
0.00509677015787 -0.0696558588243 0.918 1.42345019045e-38
0.00679569354383 -0.0696558588243 0.918 1.42345019045e-38
0.00849461692979 -0.0696558588243 0.918 1.46018438891e-38
0.0101935403157 -0.0696558588243 0.918 1.46018438891e-38
0.0118924637017 -0.0696558588243 0.918 1.47855148814e-38
0.0135913870877 -0.0696558588243 0.918 1.49691858738e-38
0.0152903104736 -0.0696558588243 0.918 1.46936835892e-38
0.017026247441 -0.069807614508 0.92 1.51528568661e-38
0.0187288721851 -0.069807614508 0.92 1.54283633545e-38
0.0204314969292 -0.069807614508 0.92 1.52446923622e-38
0.022206298157 -0.0700352480336 0.923 1.55201988507e-38
0.0239144749383 -0.0700352480336 0.923 1.57957053392e-38
0.0256226517196 -0.0700352480336 0.923 1.60712118276e-38
0.0273900502311 -0.0701870037173 0.925 1.59793763315e-38
0.0291019283706 -0.0701870037173 0.925 1.59793763315e-38
0.03081380651 -0.0701870037173 0.925 2.34547851582e-38
0.0326311733564 -0.0704146372428 0.928 2.02296967426e-38
0.0343486035331 -0.0704146372428 0.928 4.22479155567e-39
0.0361437622307 -0.0705663929266 0.93 2.02548766747e-38
0.0378648937655 -0.0705663929266 0.93 2.16284280281e-38
0.0397137221561 -0.0707940264521 0.933 1.86806509734e-38
0.0415292383234 -0.0709457821358 0.935 2.34777706569e-38
0.0432596232536 -0.0709457821358 0.935 2.34892977381e-38
0.0449900081837 -0.0709457821358 0.935 2.33924343831e-38
-0.0312468654123 -0.0694374786941 0.938 2.19180049545e-38
-0.029510928445 -0.0694374786941 0.938 2.26562734452e-38
-0.0276861588823 -0.0692153972057 0.935 1.98932996319e-38
-0.0259557739521 -0.0692153972057 0.935 1.07558737551e-38
-0.024225389022 -0.0692153972057 0.935 1.30449452433e-38
-0.0224950040919 -0.0692153972057 0.935 1.14794370197e-38
-0.020720202864 -0.0690673428801 0.933 1.12957660274e-38
-0.0189324468827 -0.0688452613918 0.93 1.26732984698e-38
-0.0172113153479 -0.0688452613918 0.93 1.24896274775e-38
-0.0154568715899 -0.0686972070662 0.928 1.26732984698e-38
-0.0137394414132 -0.0686972070662 0.928 1.2765133966e-38
-0.0120220112366 -0.0686972070662 0.928 1.34998179352e-38
-0.0102712688367 -0.0684751255778 0.925 1.34998179352e-38
-0.00855939069723 -0.0684751255778 0.925 1.35916534314e-38
-0.00684751255778 -0.0684751255778 0.925 1.42345019045e-38
-0.00513563441834 -0.0684751255778 0.925 1.38671599199e-38
-0.00341635356261 -0.0683270712523 0.923 1.31324759506e-38
-0.0017026247441 -0.0681049897639 0.92 1.33161469429e-38
0.0 -0.0681049897639 0.92 1.40508309122e-38
0.0017026247441 -0.0681049897639 0.92 1.3958995416e-38
0.00339784677192 -0.0679569354383 0.918 1.54283633545e-38
0.00509677015787 -0.0679569354383 0.918 1.4510008393e-38
0.00679569354383 -0.0679569354383 0.918 1.3958995416e-38
0.00849461692979 -0.0679569354383 0.918 1.4510008393e-38
0.0101935403157 -0.0679569354383 0.918 1.46936793853e-38
0.0118924637017 -0.0679569354383 0.918 1.48773503776e-38
0.0135913870877 -0.0679569354383 0.918 1.49691858738e-38
0.0152903104736 -0.0679569354383 0.918 1.49691858738e-38
0.017026247441 -0.0681049897639 0.92 1.52446923622e-38
0.0187288721851 -0.0681049897639 0.92 1.53365278584e-38
0.0204314969292 -0.0681049897639 0.92 1.48773503776e-38
0.022206298157 -0.0683270712523 0.923 1.5703869843e-38
0.0239144749383 -0.0683270712523 0.923 1.59793763315e-38
0.0256781720917 -0.0684751255778 0.925 1.63467183161e-38
0.0273900502311 -0.0684751255778 0.925 1.64385538123e-38
0.0291963130031 -0.0686972070662 0.928 1.60712118276e-38
0.0309137431798 -0.0686972070662 0.928 2.33596664198e-38
0.0326311733564 -0.0686972070662 0.928 2.04984153413e-38
0.0344226306959 -0.0688452613918 0.93 6.43709430882e-39
0.0362603550121 -0.0690673428801 0.933 1.89656204304e-38
0.0380684684631 -0.0692153972057 0.935 2.27361502603e-38
0.0397988533933 -0.0692153972057 0.935 1.23106200065e-38
0.0415292383234 -0.0692153972057 0.935 2.34760624741e-38
0.0432596232536 -0.0692153972057 0.935 2.34867824074e-38
0.0449900081837 -0.0692153972057 0.935 2.34864110633e-38
-0.0313134898588 -0.0678458946941 0.94 2.1643569058e-38
-0.0295738515333 -0.0678458946941 0.94 2.33941972165e-38
-0.0277749914776 -0.0677015417267 0.938 1.8602580432e-38
-0.0260390545103 -0.0677015417267 0.938 8.0815236619e-39
-0.0243031175429 -0.0677015417267 0.938 1.44239322335e-38
-0.0225671805756 -0.0677015417267 0.938 1.19386145005e-38
-0.0207646191617 -0.0674850122756 0.935 1.32246701792e-38
-0.018993519292 -0.0673406593081 0.933 1.2214120989e-38
-0.0172113153479 -0.067124129857 0.93 1.24896274775e-38
-0.0154568715899 -0.0669797768895 0.928 1.26732984698e-38
-0.0137394414132 -0.0669797768895 0.928 1.29488049583e-38
-0.0120220112366 -0.0669797768895 0.928 1.32243114468e-38
-0.0103045810599 -0.0669797768895 0.928 1.32243114468e-38
-0.00855939069723 -0.0667632474384 0.925 1.30406404544e-38
-0.00684751255778 -0.0667632474384 0.925 1.37753244237e-38
-0.00513563441834 -0.0667632474384 0.925 1.3958995416e-38
-0.00341635356261 -0.0666188944709 0.923 1.33161469429e-38
-0.00170817678131 -0.0666188944709 0.923 1.32243114468e-38
0.0 -0.0666188944709 0.923 1.35916534314e-38
0.0017026247441 -0.0664023650198 0.92 1.38671599199e-38
0.00340524948819 -0.0664023650198 0.92 1.4510008393e-38
0.00510787423229 -0.0664023650198 0.92 1.4510008393e-38
0.00681049897639 -0.0664023650198 0.92 1.41426664083e-38
0.00849461692979 -0.0662580120524 0.918 1.46018438891e-38
0.0101935403157 -0.0662580120524 0.918 1.46936793853e-38
0.0118924637017 -0.0662580120524 0.918 1.47855148814e-38
0.0135913870877 -0.0662580120524 0.918 1.49691858738e-38
0.0152903104736 -0.0662580120524 0.918 1.49691858738e-38
0.017026247441 -0.0664023650198 0.92 1.54283633545e-38
0.0187288721851 -0.0664023650198 0.92 1.53365278584e-38
0.0204314969292 -0.0664023650198 0.92 1.52446923622e-38
0.022206298157 -0.0666188944709 0.923 1.58875408353e-38
0.0239144749383 -0.0666188944709 0.923 1.59793763315e-38
0.0256781720917 -0.0667632474384 0.925 1.625488282e-38
0.0273900502311 -0.0667632474384 0.925 1.60712118276e-38
0.0291963130031 -0.0669797768895 0.928 1.60712118276e-38
0.0309137431798 -0.0669797768895 0.928 2.26246545467e-38
0.0327014991611 -0.067124129857 0.93 2.18935340794e-38
0.0346076986028 -0.0674850122756 0.935 9.56918695318e-39
0.0364546763144 -0.0677015417267 0.938 1.7219232601e-38
0.0381906132817 -0.0677015417267 0.938 1.4705518956e-38
0.0399265502491 -0.0677015417267 0.938 2.08632125679e-38
0.0416624872164 -0.0677015417267 0.938 2.34792602372e-38
0.0433984241838 -0.0677015417267 0.938 2.34871495476e-38
-0.0295738515333 -0.0661062563686 0.94 2.28406731127e-38
-0.0278342132079 -0.0661062563686 0.94 1.86025776294e-38
-0.0260390545103 -0.0659656047594 0.938 1.38923412533e-38
-0.0243031175429 -0.0659656047594 0.938 9.45905610427e-39
-0.0225671805756 -0.0659656047594 0.938 1.36881804748e-38
-0.0207646191617 -0.0657546273454 0.935 1.17549435082e-38
-0.018993519292 -0.0656139757361 0.933 1.20304499967e-38
-0.01726683572 -0.0656139757361 0.933 1.37846598741e-38
-0.0154901838131 -0.0654029983222 0.93 1.20304499967e-38
-0.0137690522784 -0.0654029983222 0.93 1.32243114468e-38
-0.0120220112366 -0.0652623467129 0.928 1.30406404544e-38
-0.0103045810599 -0.0652623467129 0.928 1.34079824391e-38
-0.00858715088327 -0.0652623467129 0.928 1.35916534314e-38
-0.00684751255778 -0.0650513692989 0.925 1.36834889275e-38
-0.00513563441834 -0.0650513692989 0.925 1.36834889275e-38
-0.00342375627889 -0.0650513692989 0.925 1.34079824391e-38
-0.00171187813945 -0.0650513692989 0.925 1.30406404544e-38
0.0 -0.0649107176896 0.923 1.34079824391e-38
0.00170817678131 -0.0649107176896 0.923 1.34079824391e-38
0.00341635356261 -0.0649107176896 0.923 1.43263374006e-38
0.00512453034392 -0.0649107176896 0.923 1.44181728968e-38
0.00681049897639 -0.0646997402757 0.92 1.42345019045e-38
0.00851312372049 -0.0646997402757 0.92 1.4510008393e-38
0.0102157484646 -0.0646997402757 0.92 1.47855148814e-38
0.0119183732087 -0.0646997402757 0.92 1.48773503776e-38
0.0136209979528 -0.0646997402757 0.92 1.47855148814e-38
0.0153236226969 -0.0646997402757 0.92 1.49691858738e-38
0.017026247441 -0.0646997402757 0.92 1.53365278584e-38
0.0187288721851 -0.0646997402757 0.92 1.49691858738e-38
0.0204981213757 -0.0649107176896 0.923 1.49691858738e-38
0.0222544158128 -0.0650513692989 0.925 1.55201988507e-38
