# .PCD v0.7 - Point Cloud Data file format
VERSION 0.7
FIELDS x y z rgb
SIZE 4 4 4 4
TYPE F F F F
COUNT 1 1 1 1
WIDTH 836
HEIGHT 1
VIEWPOINT 0 0 0 1 0 0 0
POINTS 836
DATA ascii
0.0263166563707 -0.0543877564995 0.948 1.9683464996e-38
0.0280711001288 -0.0543877564995 0.948 1.91258182721e-38
0.0299199285194 -0.054559869653 0.951 2.34713148749e-38
-0.0424619805745 -0.0530774757182 0.956 2.21034555958e-38
-0.0406927313839 -0.0530774757182 0.956 2.34856683751e-38
-0.0388420523143 -0.052966434974 0.954 1.57412592886e-38
-0.036843318919 -0.0526333127414 0.948 1.15719899807e-38
-0.0350148479982 -0.0525222719973 0.946 1.3604971372e-38
-0.0332641055983 -0.0525222719973 0.946 1.562640186e-38
-0.0314134265286 -0.052355710881 0.943 1.31511300357e-38
-0.0295738515333 -0.0521891497647 0.94 1.21473967613e-38
-0.0278342132079 -0.0521891497647 0.94 5.51012976948e-39
-0.0260390545103 -0.0520781090205 0.938 1.70341364882e-38
-0.0243031175429 -0.0520781090205 0.938 1.85074084442e-38
-0.0225671805756 -0.0520781090205 0.938 6.43243078753e-39
-0.0208312436082 -0.0520781090205 0.938 1.12046479961e-38
-0.0190953066409 -0.0520781090205 0.938 1.16631080121e-38
-0.0173593696735 -0.0520781090205 0.938 1.40526315807e-38
-0.0155734643713 -0.0519115479043 0.935 7.80601717343e-39
-0.0138430794411 -0.0519115479043 0.935 1.74112245036e-38
-0.012112694511 -0.0519115479043 0.935 2.03431038273e-38
-0.010360101432 -0.0518005071601 0.933 6.88766221185e-39
-0.00863341786002 -0.0518005071601 0.933 8.63253663885e-39
-0.00690673428801 -0.0518005071601 0.933 1.10202847623e-38
-0.00518005071601 -0.0518005071601 0.933 9.73456259275e-39
-0.00345336714401 -0.0518005071601 0.933 1.13019317407e-38
-0.001726683572 -0.0518005071601 0.933 1.46302594194e-38
0.0 -0.0518005071601 0.933 6.06118338408e-39
0.001726683572 -0.0518005071601 0.933 9.64272709659e-39
0.00345336714401 -0.0518005071601 0.933 1.77645731218e-38
0.00518005071601 -0.0518005071601 0.933 1.10353263e-38
0.00692153972057 -0.0519115479043 0.935 1.0103339507e-38
0.00865192465071 -0.0519115479043 0.935 1.99679299856e-38
0.0103823095809 -0.0519115479043 0.935 1.77576184775e-38
0.012112694511 -0.0519115479043 0.935 2.01595295246e-38
0.0138430794411 -0.0519115479043 0.935 1.85982896561e-38
0.0156234327062 -0.0520781090205 0.938 1.64799509715e-38
0.0173593696735 -0.0520781090205 0.938 9.00454214477e-39
0.0191360215804 -0.0521891497647 0.94 8.44887405433e-39
0.0208756599059 -0.0521891497647 0.94 1.42549552569e-38
0.0227596511988 -0.0525222719973 0.946 1.99632916876e-38
0.0245103935987 -0.0525222719973 0.946 1.68242654185e-38
0.0263166563707 -0.0526333127414 0.948 2.04965964559e-38
0.0280711001288 -0.0526333127414 0.948 1.96775935554e-38
0.0298255438868 -0.0526333127414 0.948 2.34731225499e-38
-0.0425952294675 -0.0514692356066 0.959 1.98907955116e-38
-0.0406927313839 -0.0513082265276 0.956 2.34871145151e-38
-0.0388420523143 -0.0512008871415 0.954 1.50055061286e-38
-0.0369599117004 -0.0510398780625 0.951 1.12039305313e-38
-0.0350148479982 -0.0507715295974 0.946 1.72942244897e-38
-0.0332641055983 -0.0507715295974 0.946 1.34277127214e-38
-0.0314134265286 -0.0506105205183 0.943 1.33308549716e-38
-0.0296682361659 -0.0506105205183 0.943 1.16860668861e-38
-0.0278342132079 -0.0504495114392 0.94 6.25701064058e-39
-0.0260945748824 -0.0504495114392 0.94 1.546538566e-38
-0.0243549365569 -0.0504495114392 0.94 1.73136422825e-38
-0.0226152982314 -0.0504495114392 0.94 1.44566063098e-38
-0.0208312436082 -0.0503421720532 0.938 6.33736669972e-39
-0.0190953066409 -0.0503421720532 0.938 7.53051068496e-39
-0.0173593696735 -0.0503421720532 0.938 7.16316870032e-39
-0.0156234327062 -0.0503421720532 0.938 1.46256029046e-38
-0.0138430794411 -0.0501811629741 0.935 1.52835321518e-38
-0.012112694511 -0.0501811629741 0.935 2.03406081147e-38
-0.0103823095809 -0.0501811629741 0.935 7.62270491352e-39
-0.00865192465071 -0.0501811629741 0.935 9.36722060812e-39
-0.00690673428801 -0.0500738235881 0.933 1.90455911324e-38
-0.00518005071601 -0.0500738235881 0.933 1.61119097389e-38
-0.00345336714401 -0.0500738235881 0.933 1.36276639993e-38
-0.001726683572 -0.0500738235881 0.933 1.4827636512e-38
0.0 -0.0500738235881 0.933 1.66747566814e-38
0.001726683572 -0.0500738235881 0.933 1.19630657574e-38
0.00346076986028 -0.0501811629741 0.935 1.91546808166e-38
0.00519115479043 -0.0501811629741 0.935 1.95255708889e-38
0.00692153972057 -0.0501811629741 0.935 2.02627645837e-38
0.00865192465071 -0.0501811629741 0.935 1.52795973057e-38
0.0103823095809 -0.0501811629741 0.935 1.34998179352e-38
0.012112694511 -0.0501811629741 0.935 1.20304668123e-38
0.0138874957388 -0.0503421720532 0.938 9.36722060812e-39
0.0156234327062 -0.0503421720532 0.938 1.11120950351e-38
0.0173593696735 -0.0503421720532 0.938 2.04970532792e-38
0.0191360215804 -0.0504495114392 0.94 1.93189914693e-38
0.0209422843524 -0.0506105205183 0.943 1.93189508317e-38
0.0227596511988 -0.0507715295974 0.946 1.52450510946e-38
0.0245103935987 -0.0507715295974 0.946 2.2984079195e-38
0.0263166563707 -0.0508788689834 0.948 1.91237037127e-38
0.0280711001288 -0.0508788689834 0.948 2.01317754072e-38
0.0298255438868 -0.0508788689834 0.948 2.34716974294e-38
-0.0425952294675 -0.0496944343788 0.959 2.21034555958e-38
-0.0406927313839 -0.049538977337 0.956 2.21031052712e-38
-0.0389234821933 -0.049538977337 0.956 1.69433841957e-38
-0.0369599117004 -0.0492798822672 0.951 1.07540800931e-38
-0.035088875161 -0.0491244252253 0.948 1.56292731206e-38
-0.0333344314029 -0.0491244252253 0.948 1.80422039787e-38
-0.0315133631984 -0.0490207871974 0.946 1.48016578397e-38
-0.0296682361659 -0.0488653301556 0.943 1.16713588574e-38
-0.0279230458032 -0.0488653301556 0.943 8.27057564032e-39
-0.0260945748824 -0.0487098731137 0.94 8.08798084523e-39
-0.0243549365569 -0.0487098731137 0.94 1.79542416715e-38
-0.0226152982314 -0.0487098731137 0.94 1.50026124473e-38
-0.0208756599059 -0.0487098731137 0.94 1.71242231639e-38
-0.0190953066409 -0.0486062350858 0.938 1.30769116639e-38
-0.0173593696735 -0.0486062350858 0.938 1.47335687474e-38
-0.0156234327062 -0.0486062350858 0.938 1.96160457243e-38
-0.0138874957388 -0.0486062350858 0.938 1.41685161611e-38
-0.012112694511 -0.048450778044 0.935 2.01594538545e-38
-0.0103823095809 -0.048450778044 0.935 9.00238975033e-39
-0.00865192465071 -0.048450778044 0.935 1.11120950351e-38
-0.00692153972057 -0.048450778044 0.935 1.05610820582e-38
-0.00519115479043 -0.048450778044 0.935 8.99987862348e-39
-0.00345336714401 -0.0483471400161 0.933 8.90804312733e-39
-0.001726683572 -0.0483471400161 0.933 9.09171411964e-39
0.0 -0.0483471400161 0.933 8.0815236619e-39
0.001726683572 -0.0483471400161 0.933 9.55089160043e-39
0.00346076986028 -0.048450778044 0.935 8.90804312733e-39
0.00519115479043 -0.048450778044 0.935 8.35703015038e-39
0.00692153972057 -0.048450778044 0.935 9.45905610427e-39
0.00865192465071 -0.048450778044 0.935 1.13876015236e-38
0.0103823095809 -0.048450778044 0.935 1.46033390746e-38
0.0121515587715 -0.0486062350858 0.938 1.95962005354e-38
0.0138874957388 -0.0486062350858 0.938 2.22799785647e-38
0.0156234327062 -0.0486062350858 0.938 2.05271643806e-38
0.0173963832549 -0.0487098731137 0.94 1.69210488995e-38
0.0191360215804 -0.0487098731137 0.94 1.69895667892e-38
0.0210089087989 -0.0490207871974 0.946 2.05898094284e-38
0.0227596511988 -0.0490207871974 0.946 2.18842182472e-38
0.0245622126127 -0.0491244252253 0.948 1.80216525355e-38
0.0263166563707 -0.0491244252253 0.948 1.99488008602e-38
0.0280711001288 -0.0491244252253 0.948 1.93013210957e-38
0.0299199285194 -0.0492798822672 0.951 2.3475625269e-38
-0.0425952294675 -0.047919633151 0.959 2.27463068715e-38
-0.0408204282397 -0.047919633151 0.959 2.34878403877e-38
-0.0389234821933 -0.0477697281463 0.956 1.31644353647e-38
-0.0370765044818 -0.0476697914766 0.954 1.50876208174e-38
-0.035088875161 -0.0473699814673 0.948 1.30449452433e-38
-0.0333344314029 -0.0473699814673 0.948 1.25814629736e-38
-0.0315133631984 -0.0472700447975 0.946 1.38700297791e-38
-0.0296682361659 -0.0471201397929 0.943 1.74720941063e-38
-0.0279230458032 -0.0471201397929 0.943 9.09171411964e-39
-0.0261778554405 -0.0471201397929 0.943 1.36935726713e-38
-0.0244326650778 -0.0471201397929 0.943 1.3687434984e-38
-0.0226874747151 -0.0471201397929 0.943 1.79459557937e-38
-0.0208756599059 -0.0469702347883 0.94 1.93315106698e-38
-0.0191360215804 -0.0469702347883 0.94 1.75837173381e-38
-0.0173593696735 -0.0468702981185 0.938 1.49982431987e-38
-0.0156234327062 -0.0468702981185 0.938 1.70168893067e-38
-0.0138874957388 -0.0468702981185 0.938 2.10774697018e-38
-0.0121515587715 -0.0468702981185 0.938 1.37932946752e-38
-0.0103823095809 -0.0467203931138 0.935 1.98684924452e-38
-0.00865192465071 -0.0467203931138 0.935 1.94172224917e-38
-0.00692153972057 -0.0467203931138 0.935 2.05278860493e-38
-0.00519115479043 -0.0467203931138 0.935 2.08062511866e-38
-0.00346076986028 -0.0467203931138 0.935 2.12686558578e-38
-0.00173038493014 -0.0467203931138 0.935 2.05307348891e-38
0.0 -0.0467203931138 0.935 2.09009649498e-38
0.00173038493014 -0.0467203931138 0.935 2.07169043966e-38
0.00346076986028 -0.0467203931138 0.935 2.17289123384e-38
0.00519115479043 -0.0467203931138 0.935 2.07151289514e-38
0.00694374786941 -0.0468702981185 0.938 2.02530774075e-38
0.00867968483676 -0.0468702981185 0.938 2.00632771357e-38
0.0104156218041 -0.0468702981185 0.938 1.71097421455e-38
0.0121515587715 -0.0468702981185 0.938 1.49716970006e-38
0.0138874957388 -0.0468702981185 0.938 1.625488282e-38
0.0156567449294 -0.0469702347883 0.94 1.81848631689e-38
0.0173963832549 -0.0469702347883 0.94 2.04090124993e-38
0.0191970939897 -0.0471201397929 0.943 2.06817304038e-38
0.0210089087989 -0.0472700447975 0.946 1.70989801733e-38
0.0227596511988 -0.0472700447975 0.946 2.00342170081e-38
0.0245622126127 -0.0473699814673 0.948 1.93063027117e-38
0.0263166563707 -0.0473699814673 0.948 1.87455633221e-38
0.0280711001288 -0.0473699814673 0.948 1.73612135627e-38
0.0299199285194 -0.0475198864719 0.951 2.34821132809e-38
-0.0389234821933 -0.0460004789557 0.956 1.14123722765e-38
-0.0370765044818 -0.0459042436441 0.954 1.24989559214e-38
-0.0351999159051 -0.0457598906767 0.951 1.48916996739e-38
-0.0334399201099 -0.0457598906767 0.951 1.12039305313e-38
-0.0315133631984 -0.0455193023976 0.946 1.26732984698e-38
-0.0297626207984 -0.0455193023976 0.946 1.52536732841e-38
-0.0279230458032 -0.0453749494302 0.943 1.71111798778e-38
-0.0261778554405 -0.0453749494302 0.943 1.24089126859e-38
-0.0244326650778 -0.0453749494302 0.943 1.71876010908e-38
-0.0226874747151 -0.0453749494302 0.943 1.29488049583e-38
-0.0209422843524 -0.0453749494302 0.943 1.68123852101e-38
-0.0191360215804 -0.0452305964628 0.94 1.83090616531e-38
-0.0173593696735 -0.0451343611511 0.938 1.90502196213e-38
-0.0156234327062 -0.0451343611511 0.938 1.75732944801e-38
-0.0138874957388 -0.0451343611511 0.938 1.29488049583e-38
-0.0121515587715 -0.0451343611511 0.938 1.50610213699e-38
-0.0103823095809 -0.0449900081837 0.935 1.55201988507e-38
-0.00865192465071 -0.0449900081837 0.935 1.47855148814e-38
-0.00692153972057 -0.0449900081837 0.935 1.48773503776e-38
-0.00519115479043 -0.0449900081837 0.935 1.49691858738e-38
-0.00346076986028 -0.0449900081837 0.935 1.51528568661e-38
-0.00173038493014 -0.0449900081837 0.935 1.53365278584e-38
0.0 -0.0449900081837 0.935 1.50610213699e-38
0.00173593696735 -0.0451343611511 0.938 1.54283633545e-38
0.0034718739347 -0.0451343611511 0.938 1.49691858738e-38
0.00520781090205 -0.0451343611511 0.938 1.57957053392e-38
0.00694374786941 -0.0451343611511 0.938 1.82767000664e-38
0.00867968483676 -0.0451343611511 0.938 1.91204569042e-38
0.0104156218041 -0.0451343611511 0.938 1.65358025244e-38
0.0121515587715 -0.0451343611511 0.938 1.94871514889e-38
0.0138874957388 -0.0451343611511 0.938 1.82006894338e-38
0.0156567449294 -0.0452305964628 0.94 1.65440211399e-38
0.0173963832549 -0.0452305964628 0.94 1.66265295935e-38
0.0191970939897 -0.0453749494302 0.943 2.27097371855e-38
0.0210089087989 -0.0455193023976 0.946 1.77443397733e-38
0.0228077688546 -0.0456155377093 0.948 2.24423722411e-38
0.0245622126127 -0.0456155377093 0.948 1.69077758005e-38
0.0263999369289 -0.0457598906767 0.951 1.68087656562e-38
0.0281599327241 -0.0457598906767 0.951 1.846503458e-38
0.0299199285194 -0.0457598906767 0.951 2.34835762365e-38
0.0319464221007 -0.0461448319232 0.959 2.2471180135e-38
-0.0390456270119 -0.0443700306954 0.959 1.371800431e-38
-0.0371542330027 -0.0442312297651 0.956 1.29764441692e-38
-0.0353109566493 -0.0441386958117 0.954 1.55478324564e-38
-0.0334399201099 -0.0439998948814 0.951 1.26883680335e-38
-0.0315799876449 -0.0438610939512 0.948 1.19386145005e-38
-0.0297626207984 -0.0437685599977 0.946 1.18467790044e-38
-0.0280118783985 -0.0437685599977 0.946 1.55306161035e-38
-0.0262611359986 -0.0437685599977 0.946 1.60963230961e-38
-0.0245103935987 -0.0437685599977 0.946 1.33161469429e-38
-0.0227596511988 -0.0437685599977 0.946 1.44181728968e-38
-0.0209422843524 -0.0436297590675 0.943 1.46018438891e-38
-0.0191970939897 -0.0436297590675 0.943 1.44181728968e-38
-0.0173963832549 -0.0434909581373 0.94 1.43263374006e-38
-0.0156567449294 -0.0434909581373 0.94 1.54283633545e-38
-0.0138874957388 -0.0433984241838 0.938 1.55205575831e-38
-0.0121515587715 -0.0433984241838 0.938 1.71761314629e-38
-0.0104156218041 -0.0433984241838 0.938 1.72812190386e-38
-0.00867968483676 -0.0433984241838 0.938 1.33182993373e-38
-0.00694374786941 -0.0433984241838 0.938 2.06892707908e-38
-0.00520781090205 -0.0433984241838 0.938 1.84865963594e-38
-0.0034718739347 -0.0433984241838 0.938 1.9124817745e-38
-0.00173593696735 -0.0433984241838 0.938 1.94968582834e-38
0.0 -0.0433984241838 0.938 1.99595586285e-38
0.00173593696735 -0.0433984241838 0.938 1.46965744679e-38
0.0034718739347 -0.0433984241838 0.938 2.0315119897e-38
0.00521891497647 -0.0434909581373 0.94 1.62695908486e-38
0.00695855330196 -0.0434909581373 0.94 1.85654782526e-38
0.00869819162745 -0.0434909581373 0.94 1.44199665588e-38
0.0104378299529 -0.0434909581373 0.94 1.93051858769e-38
0.0121774682784 -0.0434909581373 0.94 1.55259385692e-38
0.0139171066039 -0.0434909581373 0.94 2.21583094242e-38
0.0157067132643 -0.0436297590675 0.943 1.67302032591e-38
0.017451903627 -0.0436297590675 0.943 1.86605423404e-38
0.019258166399 -0.0437685599977 0.946 2.17037772479e-38
0.0210089087989 -0.0437685599977 0.946 1.88378192078e-38
0.0228077688546 -0.0438610939512 0.948 1.57957053392e-38
0.0246399411336 -0.0439998948814 0.951 1.75405797662e-38
0.026483217487 -0.0441386958117 0.954 1.59793763315e-38
0.0282487653195 -0.0441386958117 0.954 2.123055175e-38
0.0300143131519 -0.0441386958117 0.954 2.34857188218e-38
0.0319464221007 -0.0443700306954 0.959 2.32080291104e-38
-0.0411609531886 -0.0429505598489 0.967 2.34860733503e-38
-0.0390456270119 -0.0425952294675 0.959 1.4364044941e-38
-0.0371542330027 -0.0424619805745 0.956 6.06329514087e-39
-0.0353109566493 -0.0423731479792 0.954 1.3428077059e-38
-0.0334399201099 -0.0422398990862 0.951 1.60952539054e-38
-0.0315799876449 -0.0421066501932 0.948 1.12039305313e-38
-0.0297626207984 -0.0420178175978 0.946 1.19386145005e-38
-0.0280118783985 -0.0420178175978 0.946 1.17549435082e-38
-0.0262611359986 -0.0420178175978 0.946 1.28569694621e-38
-0.0245103935987 -0.0420178175978 0.946 1.35916534314e-38
-0.0227596511988 -0.0420178175978 0.946 1.42345019045e-38
-0.0210089087989 -0.0420178175978 0.946 1.46936793853e-38
-0.019258166399 -0.0420178175978 0.946 1.51528568661e-38
-0.017451903627 -0.0418845687048 0.943 1.49691858738e-38
-0.0156567449294 -0.0417513198118 0.94 1.49691858738e-38
-0.0139171066039 -0.0417513198118 0.94 1.66279645231e-38
-0.0121515587715 -0.0416624872164 0.938 1.79290869628e-38
-0.0104156218041 -0.0416624872164 0.938 1.85730536721e-38
-0.00867968483676 -0.0416624872164 0.938 1.80295866874e-38
-0.00694374786941 -0.0416624872164 0.938 1.82060760251e-38
-0.00520781090205 -0.0416624872164 0.938 1.76525771446e-38
-0.0034718739347 -0.0416624872164 0.938 1.82053753758e-38
-0.00173593696735 -0.0416624872164 0.938 1.94939744112e-38
0.0 -0.0416624872164 0.938 1.46047319653e-38
0.00173593696735 -0.0416624872164 0.938 1.97666152443e-38
0.0034718739347 -0.0416624872164 0.938 1.94942995124e-38
0.00521891497647 -0.0417513198118 0.94 1.94975210976e-38
0.00695855330196 -0.0417513198118 0.94 1.78333208245e-38
0.00869819162745 -0.0417513198118 0.94 1.48809377017e-38
0.0104378299529 -0.0417513198118 0.94 2.1318428578e-38
0.0121774682784 -0.0417513198118 0.94 1.90289605223e-38
0.0139615229016 -0.0418845687048 0.943 1.81052245746e-38
0.0157067132643 -0.0418845687048 0.943 2.13260250169e-38
0.0175074239991 -0.0420178175978 0.946 1.46018438891e-38
0.019258166399 -0.0420178175978 0.946 1.60712118276e-38
0.0210533250966 -0.0421066501932 0.948 1.75405797662e-38
0.0228077688546 -0.0421066501932 0.948 1.64385538123e-38
0.0246399411336 -0.0422398990862 0.951 1.60737327636e-38
0.026483217487 -0.0423731479792 0.954 1.86494650761e-38
0.0283079870497 -0.0424619805745 0.956 1.92101203877e-38
0.0301716208728 -0.0425952294675 0.959 2.34867978216e-38
-0.0411609531886 -0.0411609531886 0.967 2.34849719298e-38
-0.0392492017096 -0.0410332563327 0.964 1.25190687582e-38
-0.0372708257841 -0.0408204282397 0.959 8.27093437273e-39
-0.0353109566493 -0.0406076001467 0.954 1.67496799064e-38
-0.0335454088169 -0.0406076001467 0.954 1.17660642128e-38
-0.0316799243146 -0.0404799032909 0.951 1.47905371351e-38
-0.0298255438868 -0.0403522064351 0.948 1.08365885466e-38
-0.0280118783985 -0.0402670751979 0.946 1.16631080121e-38
-0.0262611359986 -0.0402670751979 0.946 1.19386145005e-38
-0.0245103935987 -0.0402670751979 0.946 1.23059564852e-38
-0.0227596511988 -0.0402670751979 0.946 1.40508309122e-38
-0.0210089087989 -0.0402670751979 0.946 1.47855148814e-38
-0.019258166399 -0.0402670751979 0.946 1.50610213699e-38
-0.017451903627 -0.0401393783421 0.943 1.49691928802e-38
-0.0157067132643 -0.0401393783421 0.943 1.55201988507e-38
-0.0139171066039 -0.0400116814863 0.94 1.55201988507e-38
-0.0121774682784 -0.0400116814863 0.94 1.54283633545e-38
-0.0104378299529 -0.0400116814863 0.94 2.23383986977e-38
-0.00869819162745 -0.0400116814863 0.94 1.79373490186e-38
-0.00695855330196 -0.0400116814863 0.94 1.83872134698e-38
-0.00521891497647 -0.0400116814863 0.94 1.71029990973e-38
-0.0034718739347 -0.0399265502491 0.938 1.48773503776e-38
-0.00173593696735 -0.0399265502491 0.938 1.83800626437e-38
0.0 -0.0400116814863 0.94 2.06006722941e-38
0.00173963832549 -0.0400116814863 0.94 1.72870386311e-38
0.00347927665098 -0.0400116814863 0.94 1.88496587786e-38
0.00521891497647 -0.0400116814863 0.94 2.06060392673e-38
0.00695855330196 -0.0400116814863 0.94 1.93138683221e-38
0.00869819162745 -0.0400116814863 0.94 1.77397281e-38
0.0104711421762 -0.0401393783421 0.943 1.80937451376e-38
0.0122163325389 -0.0401393783421 0.943 1.66222248046e-38
0.0139615229016 -0.0401393783421 0.943 1.64385538123e-38
0.0157566815992 -0.0402670751979 0.946 1.60712118276e-38
0.0175074239991 -0.0402670751979 0.946 1.60712118276e-38
0.0192988813385 -0.0403522064351 0.948 1.46936793853e-38
0.0210533250966 -0.0403522064351 0.948 1.71732377815e-38
0.0228799453383 -0.0404799032909 0.951 1.63467183161e-38
0.0246399411336 -0.0404799032909 0.951 1.68980942294e-38
0.0265387378591 -0.0406927313839 0.956 2.04940839277e-38
0.028396819645 -0.0408204282397 0.959 1.94953560914e-38
0.0301716208728 -0.0408204282397 0.959 2.34921591896e-38
0.0321129832169 -0.0410332563327 0.964 2.29332218698e-38
-0.0411609531886 -0.0393713465282 0.967 2.34857062101e-38
-0.0392492017096 -0.0392492017096 0.964 1.39030990216e-38
-0.0373874185655 -0.0391677718305 0.962 1.13137026478e-38
-0.0353849838121 -0.0389234821933 0.956 1.22295759098e-38
-0.0336157346215 -0.0389234821933 0.956 1.39711923178e-38
-0.0317798609844 -0.0388420523143 0.954 1.46976450599e-38
-0.0299199285194 -0.0387199074957 0.951 1.24003031082e-38
-0.0280711001288 -0.0385977626771 0.948 1.11120950351e-38
-0.0263166563707 -0.0385977626771 0.948 1.13876015236e-38
-0.0245622126127 -0.0385977626771 0.948 1.11120950351e-38
-0.0228077688546 -0.0385977626771 0.948 1.42345019045e-38
-0.0210089087989 -0.038516332798 0.946 1.51528568661e-38
-0.019258166399 -0.038516332798 0.946 1.43263374006e-38
-0.0175074239991 -0.038516332798 0.946 1.44181728968e-38
-0.0157566815992 -0.038516332798 0.946 1.46936793853e-38
-0.0139615229016 -0.0383941879794 0.943 1.43263374006e-38
-0.0121774682784 -0.0382720431608 0.94 1.32243114468e-38
-0.0104378299529 -0.0382720431608 0.94 1.31324759506e-38
-0.00869819162745 -0.0382720431608 0.94 1.3958995416e-38
-0.00695855330196 -0.0382720431608 0.94 1.46936793853e-38
-0.00521891497647 -0.0382720431608 0.94 1.51528568661e-38
-0.00347927665098 -0.0382720431608 0.94 1.625488282e-38
-0.00173963832549 -0.0382720431608 0.94 1.47855148814e-38
0.0 -0.0382720431608 0.94 1.49691858738e-38
0.00173963832549 -0.0382720431608 0.94 1.49691858738e-38
0.00347927665098 -0.0382720431608 0.94 1.46936793853e-38
0.0052355710881 -0.0383941879794 0.943 1.46936793853e-38
0.0069807614508 -0.0383941879794 0.943 1.46018438891e-38
0.0087259518135 -0.0383941879794 0.943 1.53365278584e-38
0.0104711421762 -0.0383941879794 0.943 1.61630473238e-38
0.0122163325389 -0.0383941879794 0.943 1.59793763315e-38
0.0140059391993 -0.038516332798 0.946 1.55201988507e-38
0.0157566815992 -0.038516332798 0.946 1.49691858738e-38
0.0175444375805 -0.0385977626771 0.948 1.66222248046e-38
0.0192988813385 -0.0385977626771 0.948 1.46936793853e-38
0.0210533250966 -0.0385977626771 0.948 1.68058957969e-38
0.0228799453383 -0.0387199074957 0.951 1.86426071214e-38
0.0247176696545 -0.0388420523143 0.954 2.05905675309e-38
0.0266220184172 -0.0390456270119 0.959 1.64536205734e-38
0.028396819645 -0.0390456270119 0.959 2.20793770843e-38
0.0301716208728 -0.0390456270119 0.959 2.34889137823e-38
0.0321129832169 -0.0392492017096 0.964 2.34874704449e-38
-0.0392492017096 -0.0374651470864 0.964 1.32555646064e-38
-0.0373874185655 -0.0373874185655 0.962 1.02952613447e-38
-0.0354960245563 -0.0372708257841 0.959 1.08441219272e-38
-0.0337212233285 -0.0372708257841 0.959 1.46179952552e-38
-0.0318464854309 -0.0371542330027 0.956 1.69228761927e-38
-0.0299199285194 -0.0369599117004 0.951 1.28670139695e-38
-0.0281599327241 -0.0369599117004 0.951 1.15712725159e-38
-0.0263166563707 -0.036843318919 0.948 1.16631080121e-38
-0.0245622126127 -0.036843318919 0.948 1.12039305313e-38
-0.0228077688546 -0.036843318919 0.948 1.38671599199e-38
-0.0210533250966 -0.036843318919 0.948 1.53365278584e-38
-0.0192988813385 -0.036843318919 0.948 1.47855148814e-38
-0.0175074239991 -0.0367655903981 0.946 1.42345019045e-38
-0.0157566815992 -0.0367655903981 0.946 1.47855148814e-38
-0.0139615229016 -0.0366489976167 0.943 1.33161469429e-38
-0.0122163325389 -0.0366489976167 0.943 1.31324759506e-38
-0.0104711421762 -0.0366489976167 0.943 1.24896274775e-38
-0.0087259518135 -0.0366489976167 0.943 1.25814629736e-38
-0.0069807614508 -0.0366489976167 0.943 1.42345019045e-38
-0.0052355710881 -0.0366489976167 0.943 1.42345019045e-38
-0.0034903807254 -0.0366489976167 0.943 1.46018438891e-38
-0.0017451903627 -0.0366489976167 0.943 1.38671599199e-38
0.0 -0.0366489976167 0.943 1.4510008393e-38
0.0017451903627 -0.0366489976167 0.943 1.43263374006e-38
0.0034903807254 -0.0366489976167 0.943 1.44181728968e-38
0.0052355710881 -0.0366489976167 0.943 1.30406404544e-38
0.0069807614508 -0.0366489976167 0.943 1.46936793853e-38
0.0087259518135 -0.0366489976167 0.943 1.42345019045e-38
0.0104711421762 -0.0366489976167 0.943 1.5703869843e-38
0.0122551967994 -0.0367655903981 0.946 1.625488282e-38
0.0140059391993 -0.0367655903981 0.946 1.53365278584e-38
0.0157899938224 -0.036843318919 0.948 1.50610213699e-38
0.0175444375805 -0.036843318919 0.948 1.73569087739e-38
0.0192988813385 -0.036843318919 0.948 1.68058957969e-38
0.0211199495431 -0.0369599117004 0.951 1.79111559477e-38
0.0229521218221 -0.0370765044818 0.954 1.88367051756e-38
0.0247694886685 -0.0371542330027 0.956 1.73680547018e-38
0.0266220184172 -0.0372708257841 0.959 1.95885900835e-38
0.028396819645 -0.0372708257841 0.959 2.09780265563e-38
0.0301716208728 -0.0372708257841 0.959 2.3484264274e-38
-0.0392492017096 -0.0356810924633 0.964 1.28850038392e-38
-0.0374651470864 -0.0356810924633 0.964 1.04706814916e-38
-0.0356070653005 -0.0356070653005 0.962 1.13936999745e-38
-0.0338267120354 -0.0356070653005 0.962 1.25832566357e-38
-0.0318464854309 -0.0353849838121 0.956 1.66441313035e-38
-0.0300143131519 -0.0353109566493 0.954 1.73885472906e-38
-0.0282487653195 -0.0353109566493 0.954 1.18564647794e-38
-0.0263999369289 -0.0351999159051 0.951 1.13876015236e-38
-0.0245622126127 -0.035088875161 0.948 1.09284240428e-38
-0.0228077688546 -0.035088875161 0.948 1.42359368341e-38
-0.0210533250966 -0.035088875161 0.948 1.47855148814e-38
-0.0192988813385 -0.035088875161 0.948 1.46018438891e-38
-0.0175444375805 -0.035088875161 0.948 1.51528568661e-38
-0.0157566815992 -0.0350148479982 0.946 1.50610493959e-38
-0.0140059391993 -0.0350148479982 0.946 1.35916534314e-38
-0.0122551967994 -0.0350148479982 0.946 1.34998179352e-38
-0.0105044543995 -0.0350148479982 0.946 1.32243114468e-38
-0.0087259518135 -0.034903807254 0.943 1.31324759506e-38
-0.0069807614508 -0.034903807254 0.943 1.41426664083e-38
-0.0052355710881 -0.034903807254 0.943 1.42345019045e-38
-0.0034903807254 -0.034903807254 0.943 1.4510008393e-38
-0.0017451903627 -0.034903807254 0.943 1.43263374006e-38
0.0 -0.034903807254 0.943 1.47855148814e-38
0.0017451903627 -0.034903807254 0.943 1.46018438891e-38
0.00350148479982 -0.0350148479982 0.946 1.42345019045e-38
0.00525222719973 -0.0350148479982 0.946 1.35916534314e-38
0.00700296959964 -0.0350148479982 0.946 1.46936849905e-38
0.00875371199954 -0.0350148479982 0.946 1.54283633545e-38
0.0105044543995 -0.0350148479982 0.946 1.625488282e-38
0.0122551967994 -0.0350148479982 0.946 1.67140603008e-38
0.0140355500644 -0.035088875161 0.948 1.65303893084e-38
0.0157899938224 -0.035088875161 0.948 1.52446923622e-38
0.0175444375805 -0.035088875161 0.948 1.83757424405e-38
0.0193599537478 -0.0351999159051 0.951 1.91164926308e-38
0.0211865739896 -0.0353109566493 0.954 1.5068196018e-38
0.0230002394779 -0.0353849838121 0.956 1.49699061412e-38
0.0247694886685 -0.0353849838121 0.956 2.1616163864e-38
0.0266220184172 -0.0354960245563 0.959 2.10734465739e-38
0.028396819645 -0.0354960245563 0.959 2.34661721096e-38
0.0301716208728 -0.0354960245563 0.959 2.34860074893e-38
-0.0392492017096 -0.0338970378401 0.964 1.2240323869e-38
-0.0374651470864 -0.0338970378401 0.964 1.59065816789e-38
-0.0356070653005 -0.0338267120354 0.962 9.82711555372e-39
-0.0338267120354 -0.0338267120354 0.962 1.11120950351e-38
-0.0319464221007 -0.0337212233285 0.959 1.67295516553e-38
-0.0300772362403 -0.0336157346215 0.956 1.69250313898e-38
-0.0282487653195 -0.0335454088169 0.954 1.45279450133e-38
-0.026483217487 -0.0335454088169 0.954 1.14794370197e-38
-0.0246399411336 -0.0334399201099 0.951 1.07447530505e-38
-0.0228799453383 -0.0334399201099 0.951 1.39597128808e-38
-0.0210533250966 -0.0333344314029 0.948 1.32243114468e-38
-0.0192988813385 -0.0333344314029 0.948 1.33161469429e-38
-0.0175444375805 -0.0333344314029 0.948 1.31324759506e-38
-0.0157899938224 -0.0333344314029 0.948 1.35916534314e-38
-0.0140059391993 -0.0332641055983 0.946 1.34998179352e-38
-0.0122551967994 -0.0332641055983 0.946 1.41426664083e-38
-0.0105044543995 -0.0332641055983 0.946 1.47855148814e-38
-0.00875371199954 -0.0332641055983 0.946 1.46936793853e-38
-0.00700296959964 -0.0332641055983 0.946 1.53365278584e-38
-0.00525222719973 -0.0332641055983 0.946 1.56120343469e-38
-0.00350148479982 -0.0332641055983 0.946 1.5703869843e-38
-0.00175074239991 -0.0332641055983 0.946 1.57957053392e-38
0.0 -0.0332641055983 0.946 1.63467183161e-38
0.00175074239991 -0.0332641055983 0.946 1.59793763315e-38
0.00350148479982 -0.0332641055983 0.946 1.58875408353e-38
0.00525222719973 -0.0332641055983 0.946 1.61630473238e-38
0.00700296959964 -0.0332641055983 0.946 1.46936793853e-38
0.00875371199954 -0.0332641055983 0.946 1.53365278584e-38
0.0105044543995 -0.0332641055983 0.946 1.744874427e-38
0.0122811063063 -0.0333344314029 0.948 1.86440546627e-38
0.0140355500644 -0.0333344314029 0.948 1.93902096612e-38
0.0157899938224 -0.0333344314029 0.948 1.69092107301e-38
0.0175999579526 -0.0334399201099 0.951 1.35941645582e-38
0.0193599537478 -0.0334399201099 0.951 1.62620644746e-38
0.0211865739896 -0.0335454088169 0.954 1.66355147192e-38
0.0230002394779 -0.0336157346215 0.956 2.3002361936e-38
0.0247694886685 -0.0336157346215 0.956 2.06124838389e-38
0.0266220184172 -0.0337212233285 0.959 1.89457346039e-38
0.028396819645 -0.0337212233285 0.959 2.34662519836e-38
-0.0375817398678 -0.0322129198867 0.967 1.37846542689e-38
-0.0356070653005 -0.0320463587704 0.962 1.01998385245e-38
-0.0338267120354 -0.0320463587704 0.962 1.15712725159e-38
-0.0320463587704 -0.0320463587704 0.962 1.50675023753e-38
-0.0301716208728 -0.0319464221007 0.959 1.63714708522e-38
-0.0283079870497 -0.0318464854309 0.956 1.4252805665e-38
-0.026483217487 -0.0317798609844 0.954 1.25814629736e-38
-0.0246399411336 -0.0316799243146 0.951 9.73456259275e-39
-0.0228799453383 -0.0316799243146 0.951 1.37767663598e-38
-0.0211199495431 -0.0316799243146 0.951 1.28569694621e-38
-0.0193599537478 -0.0316799243146 0.951 1.26732984698e-38
-0.0175444375805 -0.0315799876449 0.948 1.12039305313e-38
-0.0157899938224 -0.0315799876449 0.948 1.16631080121e-38
-0.0140355500644 -0.0315799876449 0.948 1.38671767354e-38
-0.0122811063063 -0.0315799876449 0.948 1.46936793853e-38
-0.0105266625483 -0.0315799876449 0.948 1.43263374006e-38
-0.00875371199954 -0.0315133631984 0.946 1.35916534314e-38
-0.00700296959964 -0.0315133631984 0.946 1.57042285754e-38
-0.00525222719973 -0.0315133631984 0.946 1.53365278584e-38
-0.00350148479982 -0.0315133631984 0.946 1.44181728968e-38
-0.00175074239991 -0.0315133631984 0.946 1.47855148814e-38
0.0 -0.0315133631984 0.946 1.56120343469e-38
0.00175074239991 -0.0315133631984 0.946 1.51528568661e-38
0.00350148479982 -0.0315133631984 0.946 1.57957053392e-38
0.00525222719973 -0.0315133631984 0.946 1.59793763315e-38
0.00700296959964 -0.0315133631984 0.946 1.54283633545e-38
0.00875371199954 -0.0315133631984 0.946 1.50610213699e-38
0.0105044543995 -0.0315133631984 0.946 1.80001299924e-38
0.0122811063063 -0.0315799876449 0.948 1.9012817564e-38
0.0140355500644 -0.0315799876449 0.948 1.52446923622e-38
0.0158399621573 -0.0316799243146 0.951 1.65357702945e-38
0.0175999579526 -0.0316799243146 0.951 1.7562462443e-38
0.0193599537478 -0.0316799243146 0.951 2.02407950264e-38
0.0211865739896 -0.0317798609844 0.954 1.85809037461e-38
0.0230002394779 -0.0318464854309 0.956 1.90372113676e-38
0.0247694886685 -0.0318464854309 0.956 1.88513879809e-38
0.0266220184172 -0.0319464221007 0.959 2.15226426058e-38
0.028396819645 -0.0319464221007 0.959 2.20854475093e-38
-0.0375817398678 -0.0304233132263 0.967 1.1944354219e-38
-0.0356810924633 -0.0303289285938 0.964 1.41688636831e-38
-0.0338970378401 -0.0303289285938 0.964 1.07447530505e-38
-0.0320463587704 -0.0302660055054 0.962 1.28569694621e-38
-0.0302660055054 -0.0302660055054 0.962 1.56238725163e-38
-0.0283079870497 -0.0300772362403 0.956 1.34108522983e-38
-0.026483217487 -0.0300143131519 0.954 1.68130830567e-38
-0.0247176696545 -0.0300143131519 0.954 6.79582671569e-39
-0.0229521218221 -0.0300143131519 0.954 1.29559880142e-38
-0.0211199495431 -0.0299199285194 0.951 1.33161469429e-38
-0.0193599537478 -0.0299199285194 0.951 1.28569694621e-38
-0.0175999579526 -0.0299199285194 0.951 1.20304499967e-38
-0.0157899938224 -0.0298255438868 0.948 1.37753244237e-38
-0.0140355500644 -0.0298255438868 0.948 1.42345019045e-38
-0.0122811063063 -0.0298255438868 0.948 1.44181728968e-38
-0.0105266625483 -0.0298255438868 0.948 1.38671599199e-38
-0.00877221879024 -0.0298255438868 0.948 1.21222854929e-38
-0.00701777503219 -0.0298255438868 0.948 1.39597128808e-38
-0.00526333127414 -0.0298255438868 0.948 1.26732984698e-38
-0.00350148479982 -0.0297626207984 0.946 1.38671599199e-38
-0.00175074239991 -0.0297626207984 0.946 1.29488049583e-38
0.0 -0.0297626207984 0.946 1.33161469429e-38
0.00175074239991 -0.0297626207984 0.946 1.38671599199e-38
0.0035088875161 -0.0298255438868 0.948 1.46936793853e-38
0.00526333127414 -0.0298255438868 0.948 1.49691858738e-38
0.00701777503219 -0.0298255438868 0.948 1.48773503776e-38
0.00877221879024 -0.0298255438868 0.948 1.47855148814e-38
0.0105266625483 -0.0298255438868 0.948 1.69895667892e-38
0.0122811063063 -0.0298255438868 0.948 2.01209601857e-38
0.0140799663621 -0.0299199285194 0.951 1.941316293e-38
0.0158399621573 -0.0299199285194 0.951 1.72998703212e-38
0.0175999579526 -0.0299199285194 0.951 2.07038961429e-38
0.0194210261571 -0.0300143131519 0.954 1.61842125358e-38
0.0211865739896 -0.0300143131519 0.954 1.75613960549e-38
0.0230002394779 -0.0300772362403 0.956 2.05126777571e-38
0.0247694886685 -0.0300772362403 0.956 1.95932900385e-38
0.0266220184172 -0.0301716208728 0.959 2.23620596222e-38
0.028396819645 -0.0301716208728 0.959 2.21758032343e-38
-0.0396156361654 -0.0288113717566 0.973 1.35296697964e-38
-0.0375817398678 -0.028633706566 0.967 9.91823358506e-39
-0.0357921332074 -0.028633706566 0.967 1.37918625482e-38
-0.0338970378401 -0.0285448739706 0.964 1.14808719494e-38
-0.0321129832169 -0.0285448739706 0.964 1.30427928489e-38
-0.0302660055054 -0.0284856522404 0.962 1.35916534314e-38
-0.0283079870497 -0.0283079870497 0.956 1.46936793853e-38
-0.026483217487 -0.0282487653195 0.954 1.71822229073e-38
-0.0247176696545 -0.0282487653195 0.954 6.24481373874e-39
-0.0229521218221 -0.0282487653195 0.954 1.29603040135e-38
-0.0211199495431 -0.0281599327241 0.951 1.28569694621e-38
-0.0193599537478 -0.0281599327241 0.951 1.23059564852e-38
-0.0175999579526 -0.0281599327241 0.951 1.23977919813e-38
-0.0157899938224 -0.0280711001288 0.948 1.3407986643e-38
-0.0140355500644 -0.0280711001288 0.948 1.36834889275e-38
-0.0122811063063 -0.0280711001288 0.948 1.34998179352e-38
-0.0105266625483 -0.0280711001288 0.948 1.42345019045e-38
-0.00877221879024 -0.0280711001288 0.948 1.40508309122e-38
-0.00701777503219 -0.0280711001288 0.948 1.35916534314e-38
-0.00526333127414 -0.0280711001288 0.948 1.31324759506e-38
-0.0035088875161 -0.0280711001288 0.948 1.3958995416e-38
-0.00175444375805 -0.0280711001288 0.948 1.59793763315e-38
0.0 -0.0280711001288 0.948 1.37753244237e-38
0.00175444375805 -0.0280711001288 0.948 1.53365278584e-38
0.0035088875161 -0.0280711001288 0.948 1.46936793853e-38
0.00526333127414 -0.0280711001288 0.948 1.46936793853e-38
0.00701777503219 -0.0280711001288 0.948 1.54283633545e-38
0.00877221879024 -0.0280711001288 0.948 1.48773503776e-38
0.0105266625483 -0.0280711001288 0.948 1.76324208675e-38
0.0123199705668 -0.0281599327241 0.951 2.27057028472e-38
0.0140799663621 -0.0281599327241 0.951 1.73863248312e-38
0.0158399621573 -0.0281599327241 0.951 1.25864866286e-38
0.0176554783247 -0.0282487653195 0.954 1.75563639921e-38
0.0194617410967 -0.0283079870497 0.956 1.76532609783e-38
0.0212309902873 -0.0283079870497 0.956 1.87657013824e-38
0.0230002394779 -0.0283079870497 0.956 2.12588888075e-38
0.0247694886685 -0.0283079870497 0.956 1.93170632826e-38
0.0266220184172 -0.028396819645 0.959 1.774616006e-38
-0.0394934913468 -0.0269273804637 0.97 1.29768337302e-38
-0.0375817398678 -0.0268440999056 0.967 1.13015057459e-38
-0.0357921332074 -0.0268440999056 0.967 1.19425647609e-38
-0.0340025265471 -0.0268440999056 0.967 1.21226442253e-38
-0.0321129832169 -0.0267608193474 0.964 1.23977919813e-38
-0.0303289285938 -0.0267608193474 0.964 1.34998179352e-38
-0.0283079870497 -0.0265387378591 0.956 1.42345019045e-38
-0.026483217487 -0.026483217487 0.954 1.76496456283e-38
-0.0247176696545 -0.026483217487 0.954 6.52032022722e-39
-0.0229521218221 -0.026483217487 0.954 1.24107077493e-38
-0.0211865739896 -0.026483217487 0.954 1.20304499967e-38
-0.0194210261571 -0.026483217487 0.954 1.15712725159e-38
-0.0176554783247 -0.026483217487 0.954 1.30406404544e-38
-0.0158399621573 -0.0263999369289 0.951 1.2765133966e-38
-0.0140355500644 -0.0263166563707 0.948 1.29488049583e-38
-0.0122811063063 -0.0263166563707 0.948 1.33161469429e-38
-0.0105266625483 -0.0263166563707 0.948 1.46018438891e-38
-0.00877221879024 -0.0263166563707 0.948 1.46936793853e-38
-0.00701777503219 -0.0263166563707 0.948 1.44181728968e-38
-0.00526333127414 -0.0263166563707 0.948 1.3958995416e-38
-0.0035088875161 -0.0263166563707 0.948 1.35916534314e-38
-0.00175444375805 -0.0263166563707 0.948 1.49691858738e-38
0.0 -0.0263166563707 0.948 1.41426664083e-38
0.00175444375805 -0.0263166563707 0.948 1.52446923622e-38
0.0035088875161 -0.0263166563707 0.948 1.47855148814e-38
0.00526333127414 -0.0263166563707 0.948 1.53365278584e-38
0.00703998318103 -0.0263999369289 0.951 1.625488282e-38
0.00879997897629 -0.0263999369289 0.951 1.63467183161e-38
0.0105599747715 -0.0263999369289 0.951 1.75405797662e-38
0.0123199705668 -0.0263999369289 0.951 1.8919194011e-38
0.0141243826597 -0.026483217487 0.954 1.62627749329e-38
0.0158899304922 -0.026483217487 0.954 1.96876352602e-38
0.0176924919061 -0.0265387378591 0.956 1.76657773762e-38
0.0194617410967 -0.0265387378591 0.956 1.86799138904e-38
0.0212976147338 -0.0266220184172 0.959 1.88614703233e-38
0.0230724159616 -0.0266220184172 0.959 1.9141602498e-38
0.0248472171894 -0.0266220184172 0.959 1.67255411391e-38
0.0266220184172 -0.0266220184172 0.959 2.15265087882e-38
-0.0394934913468 -0.0251322217661 0.97 1.35310598845e-38
-0.0375817398678 -0.0250544932452 0.967 1.06604509349e-38
-0.0357921332074 -0.0250544932452 0.967 1.2215914651e-38
-0.0340025265471 -0.0250544932452 0.967 1.12039305313e-38
-0.0321129832169 -0.0249767647243 0.964 1.17549435082e-38
-0.0303289285938 -0.0249767647243 0.964 1.34079824391e-38
-0.0284856522404 -0.0249249457103 0.962 1.39600716132e-38
-0.026483217487 -0.0247176696545 0.954 1.79266010593e-38
-0.0247176696545 -0.0247176696545 0.954 7.07133320417e-39
-0.0229521218221 -0.0247176696545 0.954 1.24132174748e-38
-0.0211865739896 -0.0247176696545 0.954 1.23059564852e-38
-0.0194210261571 -0.0247176696545 0.954 1.26732984698e-38
-0.0176554783247 -0.0247176696545 0.954 1.29488049583e-38
-0.0158399621573 -0.0246399411336 0.951 1.24896274775e-38
-0.0140799663621 -0.0246399411336 0.951 1.20304499967e-38
-0.0123199705668 -0.0246399411336 0.951 1.34998179352e-38
-0.0105599747715 -0.0246399411336 0.951 1.44181728968e-38
-0.00879997897629 -0.0246399411336 0.951 1.44181728968e-38
-0.00701777503219 -0.0245622126127 0.948 1.40508309122e-38
-0.00526333127414 -0.0245622126127 0.948 1.43263374006e-38
-0.0035088875161 -0.0245622126127 0.948 1.40508309122e-38
-0.00175444375805 -0.0245622126127 0.948 1.43263374006e-38
0.0 -0.0245622126127 0.948 1.42345131149e-38
0.00175444375805 -0.0245622126127 0.948 1.51528568661e-38
0.0035088875161 -0.0245622126127 0.948 1.4510008393e-38
0.00526333127414 -0.0245622126127 0.948 1.68977312931e-38
0.00703998318103 -0.0246399411336 0.951 1.744874427e-38
0.00879997897629 -0.0246399411336 0.951 1.81834282393e-38
0.0105599747715 -0.0246399411336 0.951 1.79079217508e-38
0.0123588348273 -0.0247176696545 0.954 2.17880415284e-38
0.0141539935248 -0.0247694886685 0.956 1.9224469684e-38
0.0159232427154 -0.0247694886685 0.956 1.99702939761e-38
0.0176924919061 -0.0247694886685 0.956 1.77612534457e-38
0.019522813506 -0.0248472171894 0.959 2.02447172608e-38
0.0212976147338 -0.0248472171894 0.959 1.62774829616e-38
0.0231445924453 -0.0249249457103 0.962 1.74702682144e-38
0.0249767647243 -0.0249767647243 0.964 2.13428462037e-38
0.0268440999056 -0.0250544932452 0.967 1.94117350069e-38
0.028633706566 -0.0250544932452 0.967 2.26343459268e-38
-0.0394934913468 -0.0233370630686 0.97 1.25158485744e-38
-0.0376983326492 -0.0233370630686 0.97 1.25990408616e-38
-0.0357921332074 -0.0232648865848 0.967 1.19400606406e-38
-0.0340025265471 -0.0232648865848 0.967 1.18492901312e-38
-0.0322129198867 -0.0232648865848 0.967 1.15712725159e-38
-0.0303289285938 -0.0231927101011 0.964 1.30406404544e-38
-0.0284856522404 -0.0231445924453 0.962 1.40529833066e-38
-0.0265387378591 -0.0230002394779 0.956 1.80162827598e-38
-0.0247176696545 -0.0229521218221 0.954 7.16316870032e-39
-0.0229521218221 -0.0229521218221 0.954 1.18607695682e-38
-0.0212309902873 -0.0230002394779 0.956 1.32243114468e-38
-0.0194617410967 -0.0230002394779 0.956 1.30406404544e-38
-0.0176554783247 -0.0229521218221 0.954 1.34079824391e-38
-0.0158899304922 -0.0229521218221 0.954 1.36834889275e-38
-0.0140799663621 -0.0228799453383 0.951 1.2214120989e-38
-0.0123199705668 -0.0228799453383 0.951 1.42345019045e-38
-0.0105932869948 -0.0229521218221 0.954 1.44181728968e-38
-0.00879997897629 -0.0228799453383 0.951 1.43263374006e-38
-0.00703998318103 -0.0228799453383 0.951 1.41426664083e-38
-0.00527998738577 -0.0228799453383 0.951 1.4510008393e-38
-0.00351999159051 -0.0228799453383 0.951 1.46018438891e-38
-0.00175444375805 -0.0228077688546 0.948 1.46018438891e-38
0.0 -0.0228077688546 0.948 1.49691858738e-38
0.00175444375805 -0.0228077688546 0.948 1.57957053392e-38
0.0035088875161 -0.0228077688546 0.948 1.53365278584e-38
0.00527998738577 -0.0228799453383 0.951 1.70814022854e-38
0.00706219132986 -0.0229521218221 0.954 1.67140603008e-38
0.00882773916233 -0.0229521218221 0.954 1.55201988507e-38
0.0105932869948 -0.0229521218221 0.954 1.75405839701e-38
0.0123847443342 -0.0230002394779 0.956 2.13356603452e-38
0.0141539935248 -0.0230002394779 0.956 1.8954702914e-38
0.0159232427154 -0.0230002394779 0.956 1.95082494386e-38
0.0176924919061 -0.0230002394779 0.956 1.68259848117e-38
0.019522813506 -0.0230724159616 0.959 1.67223223565e-38
0.0212976147338 -0.0230724159616 0.959 1.8853581013e-38
0.0231445924453 -0.0231445924453 0.962 2.17130482385e-38
0.0249767647243 -0.0231927101011 0.964 1.89439409418e-38
0.0268440999056 -0.0232648865848 0.967 2.29105166308e-38
0.028633706566 -0.0232648865848 0.967 2.00538590087e-38
-0.0396156361654 -0.0216085288175 0.973 1.08570517081e-38
-0.0376983326492 -0.021541904371 0.97 1.34234079326e-38
-0.0359031739516 -0.021541904371 0.97 1.21230057603e-38
-0.0340025265471 -0.0214752799245 0.967 1.16649016741e-38
-0.0322129198867 -0.0214752799245 0.967 1.17553022406e-38
-0.0304233132263 -0.0214752799245 0.967 1.33175818725e-38
-0.0285448739706 -0.021408655478 0.964 1.3872540906e-38
-0.0265387378591 -0.0212309902873 0.956 1.4979947846e-38
-0.0247694886685 -0.0212309902873 0.956 7.0731268662e-39
-0.0230002394779 -0.0212309902873 0.956 1.17685753397e-38
-0.0212309902873 -0.0212309902873 0.956 1.32243114468e-38
-0.0194617410967 -0.0212309902873 0.956 1.3958995416e-38
-0.0176924919061 -0.0212309902873 0.956 1.38671599199e-38
-0.0158899304922 -0.0211865739896 0.954 1.43263374006e-38
-0.0141243826597 -0.0211865739896 0.954 1.23977919813e-38
-0.0123588348273 -0.0211865739896 0.954 1.3958995416e-38
-0.0105932869948 -0.0211865739896 0.954 1.46018438891e-38
-0.00879997897629 -0.0211199495431 0.951 1.38671599199e-38
-0.00703998318103 -0.0211199495431 0.951 1.46936793853e-38
-0.00527998738577 -0.0211199495431 0.951 1.53365278584e-38
-0.00351999159051 -0.0211199495431 0.951 1.52446923622e-38
-0.00175999579526 -0.0211199495431 0.951 1.51528568661e-38
0.0 -0.0211199495431 0.951 1.55201988507e-38
0.00175999579526 -0.0211199495431 0.951 1.63467183161e-38
0.00351999159051 -0.0211199495431 0.951 1.58875408353e-38
0.0052966434974 -0.0211865739896 0.954 1.66222248046e-38
0.00706219132986 -0.0211865739896 0.954 1.43263374006e-38
0.00882773916233 -0.0211865739896 0.954 1.52446923622e-38
0.0106154951436 -0.0212309902873 0.956 1.79997586483e-38
0.0123847443342 -0.0212309902873 0.956 1.81048658422e-38
0.0141539935248 -0.0212309902873 0.956 1.43288485275e-38
0.0159232427154 -0.0212309902873 0.956 1.78268482269e-38
0.0177480122781 -0.0212976147338 0.959 1.93109396083e-38
0.019522813506 -0.0212976147338 0.959 1.88585640303e-38
0.0213642391803 -0.0213642391803 0.962 1.9045462213e-38
0.0231927101011 -0.021408655478 0.964 1.88510292485e-38
0.0251322217661 -0.021541904371 0.97 2.34700817323e-38
0.0269273804637 -0.021541904371 0.97 1.58083072163e-38
0.0287225391613 -0.021541904371 0.97 2.34579843226e-38
-0.0416291749932 -0.0199096054315 0.978 1.62050862777e-38
-0.0396970660444 -0.0198485330222 0.975 9.10247609185e-39
-0.0378149254306 -0.0198078180827 0.973 1.39676218094e-38
-0.0359031739516 -0.0197467456734 0.97 1.23088263444e-38
-0.034108015254 -0.0197467456734 0.97 1.18471377368e-38
-0.0322129198867 -0.0196856732641 0.967 1.21237204225e-38
-0.0304233132263 -0.0196856732641 0.967 1.27672863604e-38
-0.0285448739706 -0.0196246008548 0.964 1.51629069787e-38
-0.0265387378591 -0.0194617410967 0.956 1.13972872986e-38
-0.0247694886685 -0.0194617410967 0.956 5.42798004831e-39
-0.0230724159616 -0.019522813506 0.959 1.20440818282e-38
-0.0212309902873 -0.0194617410967 0.956 1.32243114468e-38
-0.0194617410967 -0.0194617410967 0.956 1.37753244237e-38
-0.0176924919061 -0.0194617410967 0.956 1.36834889275e-38
-0.0159232427154 -0.0194617410967 0.956 1.35916534314e-38
-0.0141243826597 -0.0194210261571 0.954 1.31324759506e-38
-0.0123588348273 -0.0194210261571 0.954 1.40508309122e-38
-0.0105932869948 -0.0194210261571 0.954 1.46936793853e-38
-0.00882773916233 -0.0194210261571 0.954 1.48773503776e-38
-0.00703998318103 -0.0193599537478 0.951 1.49691858738e-38
-0.00527998738577 -0.0193599537478 0.951 1.56120343469e-38
-0.00351999159051 -0.0193599537478 0.951 1.58875408353e-38
-0.00176554783247 -0.0194210261571 0.954 1.57957053392e-38
0.0 -0.0194210261571 0.954 1.61630473238e-38
0.00176554783247 -0.0194210261571 0.954 1.65303893084e-38
0.00353109566493 -0.0194210261571 0.954 1.64385538123e-38
0.0052966434974 -0.0194210261571 0.954 1.60712118276e-38
0.00706219132986 -0.0194210261571 0.954 1.49691858738e-38
0.00882773916233 -0.0194210261571 0.954 1.81837869717e-38
0.0106154951436 -0.0194617410967 0.956 1.83670992316e-38
0.0123847443342 -0.0194617410967 0.956 1.86662820589e-38
0.0141984098225 -0.019522813506 0.959 2.00564163784e-38
0.0159732110503 -0.019522813506 0.959 1.94135903261e-38
0.0177480122781 -0.019522813506 0.959 1.87670858653e-38
0.0195838859153 -0.0195838859153 0.962 1.41516347185e-38
0.0213642391803 -0.0195838859153 0.962 1.70989913837e-38
0.0232648865848 -0.0196856732641 0.967 2.34673043587e-38
0.0251322217661 -0.0197467456734 0.97 1.68267022765e-38
0.0270106610218 -0.0198078180827 0.973 1.61644822534e-38
0.0288113717566 -0.0198078180827 0.973 2.34666401432e-38
-0.0416291749932 -0.0180996413014 0.978 1.50984234272e-38
-0.0396970660444 -0.0180441209293 0.975 9.65636032935e-39
-0.0378149254306 -0.0180071073479 0.973 1.23124136685e-38
-0.0360142146958 -0.0180071073479 0.973 1.47065937519e-38
-0.034108015254 -0.0179515869758 0.97 1.1387960256e-38
-0.0322129198867 -0.0178960666037 0.967 1.16663366037e-38
-0.0304233132263 -0.0178960666037 0.967 1.25864852273e-38
-0.0285448739706 -0.0178405462316 0.964 1.47080426945e-38
-0.0265387378591 -0.0176924919061 0.956 8.09228563411e-39
-0.0247694886685 -0.0176924919061 0.956 4.4246055063e-39
-0.0230724159616 -0.0177480122781 0.959 1.19511701348e-38
-0.0212309902873 -0.0176924919061 0.956 1.37753244237e-38
-0.0194617410967 -0.0176924919061 0.956 1.35916534314e-38
-0.0176924919061 -0.0176924919061 0.956 1.2765133966e-38
-0.0159232427154 -0.0176924919061 0.956 1.26732984698e-38
-0.0141539935248 -0.0176924919061 0.956 1.37753244237e-38
-0.0123847443342 -0.0176924919061 0.956 1.4510008393e-38
-0.0106154951436 -0.0176924919061 0.956 1.4510008393e-38
-0.00882773916233 -0.0176554783247 0.954 1.51528568661e-38
-0.00706219132986 -0.0176554783247 0.954 1.49691858738e-38
-0.0052966434974 -0.0176554783247 0.954 1.63467183161e-38
-0.00353109566493 -0.0176554783247 0.954 1.47855148814e-38
-0.00176554783247 -0.0176554783247 0.954 1.51528568661e-38
0.0 -0.0176924919061 0.956 1.53365278584e-38
0.00176924919061 -0.0176924919061 0.956 1.52446923622e-38
0.00353109566493 -0.0176554783247 0.954 1.64385538123e-38
0.0052966434974 -0.0176554783247 0.954 1.66222248046e-38
0.00707699676242 -0.0176924919061 0.956 1.744874427e-38
0.00884624595303 -0.0176924919061 0.956 1.79079217508e-38
0.0106154951436 -0.0176924919061 0.956 1.86426057201e-38
