# .PCD v0.7 - Point Cloud Data file format
VERSION 0.7
FIELDS x y z rgb
SIZE 4 4 4 4
TYPE F F F F
COUNT 1 1 1 1
WIDTH 854
HEIGHT 1
VIEWPOINT 0 0 0 1 0 0 0
POINTS 854
DATA ascii
0.0287243898404 -0.0219657098779 0.913 2.35098407736e-38
0.030414059831 -0.0219657098779 0.913 2.35098365697e-38
0.0321037298216 -0.0219657098779 0.913 2.35098491814e-38
0.0337933998122 -0.0219657098779 0.913 2.35098141489e-38
0.0354830698028 -0.0219657098779 0.913 2.35098085437e-38
0.0370505949748 -0.0218935333942 0.91 2.35097973333e-38
0.0387347129282 -0.0218935333942 0.91 2.35097889256e-38
0.0404188308816 -0.0218935333942 0.91 2.35098183528e-38
0.042102948835 -0.0218935333942 0.91 2.35097777152e-38
0.0439314197559 -0.0219657098779 0.913 2.35097314723e-38
0.0456210897465 -0.0219657098779 0.913 2.35097524918e-38
0.0473107597371 -0.0219657098779 0.913 2.35097833204e-38
0.0490004297277 -0.0219657098779 0.913 2.35097903269e-38
0.0506900997183 -0.0219657098779 0.913 2.35098351684e-38
0.0522076565554 -0.0218935333942 0.91 2.35098477801e-38
0.0538917745088 -0.0218935333942 0.91 1.85200579655e-38
0.0554537476436 -0.0218454157384 0.908 8.08690464801e-39
0.0571341642389 -0.0218454157384 0.908 2.35097623009e-38
0.0588145808341 -0.0218454157384 0.908 2.35098856151e-38
0.0604949974294 -0.0218454157384 0.908 2.11974979218e-39
0.0621754140247 -0.0218454157384 0.908 2.35098631944e-38
0.0638558306199 -0.0218454157384 0.908 2.35098856151e-38
0.0655362472152 -0.0218454157384 0.908 8.74604181446e-39
0.0672166638105 -0.0218454157384 0.908 2.35098856151e-38
0.0688970804057 -0.0218454157384 0.908 2.35098856151e-38
0.070577497001 -0.0218454157384 0.908 1.74211863344e-38
0.0722579135962 -0.0218454157384 0.908 2.34712251918e-38
0.00337933998122 -0.0202760398873 0.913 2.3497194055e-38
0.0050523538602 -0.0202094154408 0.91 2.34957605266e-38
0.0067364718136 -0.0202094154408 0.91 1.83983439835e-38
0.008420589767 -0.0202094154408 0.91 2.01482658875e-38
0.0101047077204 -0.0202094154408 0.91 1.9503946051e-38
0.0117888256738 -0.0202094154408 0.91 1.94190623966e-38
0.0134729436272 -0.0202094154408 0.91 2.35029155566e-38
0.0151570615806 -0.0202094154408 0.91 2.05345604339e-38
0.016841179534 -0.0202094154408 0.91 1.53645622355e-38
0.0185252974874 -0.0202094154408 0.91 2.35031775994e-38
0.0202094154408 -0.0202094154408 0.91 1.86035347163e-38
0.0218935333942 -0.0202094154408 0.91 2.35088836867e-38
0.0235776513476 -0.0202094154408 0.91 2.35097833204e-38
0.0253450498591 -0.0202760398873 0.913 1.74125921709e-38
0.0270347198498 -0.0202760398873 0.913 1.8317235427e-38
0.0286300052078 -0.0202094154408 0.91 2.35095815334e-38
0.0303141231612 -0.0202094154408 0.91 2.35097566957e-38
0.0319982411146 -0.0202094154408 0.91 2.35098533853e-38
0.033682359068 -0.0202094154408 0.91 2.35098407736e-38
0.0352887485005 -0.0201649991431 0.908 2.35098505827e-38
0.0369691650957 -0.0201649991431 0.908 2.35098085437e-38
0.038649581691 -0.0201649991431 0.908 2.35097875243e-38
0.0404188308816 -0.0202094154408 0.91 2.35097987346e-38
0.042102948835 -0.0202094154408 0.91 2.35097987346e-38
0.0437870667884 -0.0202094154408 0.91 2.35098169515e-38
0.0456210897465 -0.0202760398873 0.913 2.35098351684e-38
0.0471553026952 -0.0202094154408 0.91 2.35098505827e-38
0.0488394206486 -0.0202094154408 0.91 2.35098631944e-38
0.050523538602 -0.0202094154408 0.91 2.35097777152e-38
0.0522076565554 -0.0202094154408 0.91 1.3999532178e-38
0.0537733310484 -0.0201649991431 0.908 1.9507899114e-38
0.0554537476436 -0.0201649991431 0.908 2.35097973333e-38
0.0570083180621 -0.0201205828455 0.906 2.35098856151e-38
0.0586850332993 -0.0201205828455 0.906 5.24825511247e-39
0.0603617485364 -0.0201205828455 0.906 2.35098295632e-38
0.0621754140247 -0.0201649991431 0.908 2.35098856151e-38
0.0638558306199 -0.0201649991431 0.908 6.62376688245e-39
0.0655362472152 -0.0201649991431 0.908 2.35097496892e-38
0.0672166638105 -0.0201649991431 0.908 2.35098856151e-38
0.0688970804057 -0.0201649991431 0.908 1.96322783657e-38
0.070577497001 -0.0201649991431 0.908 1.92298506701e-38
0.0722579135962 -0.0201649991431 0.908 2.3477057396e-38
0.0050523538602 -0.0185252974874 0.91 2.35000933415e-38
0.0067364718136 -0.0185252974874 0.91 1.75736448047e-38
0.008420589767 -0.0185252974874 0.91 2.0051729035e-38
0.0101047077204 -0.0185252974874 0.91 1.71101289039e-38
0.0117888256738 -0.0185252974874 0.91 2.26443021524e-38
0.0134433327621 -0.0184845825479 0.908 1.8309760901e-38
0.0151237493574 -0.0184845825479 0.908 2.35000541051e-38
0.0168041659526 -0.0184845825479 0.908 2.10898781997e-38
0.0185252974874 -0.0185252974874 0.91 1.64694440356e-38
0.0202094154408 -0.0185252974874 0.91 2.35016852165e-38
0.0218935333942 -0.0185252974874 0.91 1.86000174571e-38
0.0235776513476 -0.0185252974874 0.91 2.34869393528e-38
0.025261769301 -0.0185252974874 0.91 2.35097735113e-38
0.0269458872544 -0.0185252974874 0.91 2.35097608996e-38
0.0286300052078 -0.0185252974874 0.91 1.62129111284e-38
0.0302474987147 -0.0184845825479 0.908 1.6655298251e-38
0.03192791531 -0.0184845825479 0.908 2.34939416412e-38
0.0336083319052 -0.0184845825479 0.908 2.35096950386e-38
0.0352887485005 -0.0184845825479 0.908 2.35098001359e-38
0.0369691650957 -0.0184845825479 0.908 2.35098127476e-38
0.038649581691 -0.0184845825479 0.908 2.35097973333e-38
0.0403299982863 -0.0184845825479 0.908 2.3509837971e-38
0.0420104148815 -0.0184845825479 0.908 2.35098393723e-38
0.0436908314768 -0.0184845825479 0.908 2.35098057411e-38
0.0454711847418 -0.0185252974874 0.91 2.35097679061e-38
0.0470516646673 -0.0184845825479 0.908 2.05568270665e-38
0.0487320812626 -0.0184845825479 0.908 1.13183661691e-38
0.0504124978578 -0.0184845825479 0.908 1.67409680339e-38
0.0520929144531 -0.0184845825479 0.908 2.35096726178e-38
0.0537733310484 -0.0184845825479 0.908 2.35098856151e-38
0.0554537476436 -0.0184845825479 0.908 1.87124856719e-38
0.0570083180621 -0.0184438676083 0.906 1.141091913e-38
0.0586850332993 -0.0184438676083 0.906 2.35098435762e-38
0.0603617485364 -0.0184438676083 0.906 2.35098856151e-38
0.0621754140247 -0.0184845825479 0.908 6.99362419783e-39
0.0638558306199 -0.0184845825479 0.908 2.35096712165e-38
0.0655362472152 -0.0184845825479 0.908 2.35098856151e-38
0.0672166638105 -0.0184845825479 0.908 2.0188687743e-38
0.0688970804057 -0.0184845825479 0.908 1.8671663045e-38
0.070577497001 -0.0184845825479 0.908 2.34622652894e-38
0.0722579135962 -0.0184845825479 0.908 2.3482456599e-38
0.00675867996244 -0.0168966999061 0.913 1.67456848045e-38
0.008420589767 -0.016841179534 0.91 2.04169186252e-38
0.0101047077204 -0.016841179534 0.91 1.89454445351e-38
0.0117888256738 -0.016841179534 0.91 1.78462492041e-38
0.0134433327621 -0.0168041659526 0.908 2.23748829045e-38
0.0151237493574 -0.0168041659526 0.908 1.81289849913e-38
0.0168041659526 -0.0168041659526 0.908 2.35025442125e-38
0.0184845825479 -0.0168041659526 0.908 2.13664608854e-38
0.0201649991431 -0.0168041659526 0.908 1.8318376084e-38
0.0218454157384 -0.0168041659526 0.908 2.19214227214e-38
0.0235776513476 -0.016841179534 0.91 2.34838943312e-38
0.025261769301 -0.016841179534 0.91 2.01557390122e-38
0.0268866655242 -0.0168041659526 0.908 2.35097146567e-38
0.0285670821194 -0.0168041659526 0.908 2.35097945307e-38
0.0302474987147 -0.0168041659526 0.908 2.35097637022e-38
0.03192791531 -0.0168041659526 0.908 1.9264391276e-38
0.0336083319052 -0.0168041659526 0.908 1.43583192355e-38
0.0352887485005 -0.0168041659526 0.908 1.72887496166e-38
0.0368877352167 -0.0167671523712 0.906 1.8573729098e-38
0.0385644504538 -0.0167671523712 0.906 1.70214939734e-38
0.0403299982863 -0.0168041659526 0.908 1.60116622481e-38
0.0420104148815 -0.0168041659526 0.908 1.47169969917e-38
0.0436908314768 -0.0168041659526 0.908 1.72783463768e-38
0.0453712480721 -0.0168041659526 0.908 1.77554604779e-38
0.0470516646673 -0.0168041659526 0.908 2.20192613802e-38
0.0487320812626 -0.0168041659526 0.908 2.35098127476e-38
0.0504124978578 -0.0168041659526 0.908 2.35098856151e-38
0.0519781723508 -0.0167671523712 0.906 2.35098856151e-38
0.0536548875879 -0.0167671523712 0.906 1.79735697813e-38
0.0554537476436 -0.0168041659526 0.908 2.27590895161e-38
0.0570083180621 -0.0167671523712 0.906 2.35098856151e-38
0.0586850332993 -0.0167671523712 0.906 2.35098856151e-38
0.0604949974294 -0.0168041659526 0.908 6.16339829797e-39
0.0621754140247 -0.0168041659526 0.908 2.35098029385e-38
0.0638558306199 -0.0168041659526 0.908 2.35098856151e-38
0.0655362472152 -0.0168041659526 0.908 2.35098716022e-38
0.0672166638105 -0.0168041659526 0.908 1.4906766435e-38
0.0688970804057 -0.0168041659526 0.908 2.34618477025e-38
0.070577497001 -0.0168041659526 0.908 2.34852886232e-38
0.0722579135962 -0.0168041659526 0.908 2.3476320313e-38
0.008420589767 -0.0151570615806 0.91 2.16161904886e-38
0.0101047077204 -0.0151570615806 0.91 1.90369381144e-38
0.0117888256738 -0.0151570615806 0.91 1.86670653848e-38
0.0134433327621 -0.0151237493574 0.908 1.66477214302e-38
0.0151237493574 -0.0151237493574 0.908 2.18192134127e-38
0.0168041659526 -0.0151237493574 0.908 1.85856261219e-38
0.0184845825479 -0.0151237493574 0.908 2.3503260276e-38
0.0201649991431 -0.0151237493574 0.908 2.08137285153e-38
0.0218454157384 -0.0151237493574 0.908 2.04449081607e-38
0.0235258323337 -0.0151237493574 0.908 1.75761685433e-38
0.0252062489289 -0.0151237493574 0.908 2.35016599932e-38
0.0268866655242 -0.0151237493574 0.908 2.07180184288e-38
0.0285670821194 -0.0151237493574 0.908 1.97876795628e-38
0.0302474987147 -0.0151237493574 0.908 2.3485606718e-38
0.03192791531 -0.0151237493574 0.908 2.35097608996e-38
0.0336083319052 -0.0151237493574 0.908 2.3509837971e-38
0.0352110199796 -0.0150904371341 0.906 2.35098561879e-38
0.0368877352167 -0.0150904371341 0.906 2.3509837971e-38
0.0385644504538 -0.0150904371341 0.906 2.35098505827e-38
0.0403299982863 -0.0151237493574 0.908 2.3509865997e-38
0.0420104148815 -0.0151237493574 0.908 2.35098702009e-38
0.0436908314768 -0.0151237493574 0.908 2.35098856151e-38
0.0452713114023 -0.0150904371341 0.906 2.35098856151e-38
0.0469480266394 -0.0150904371341 0.906 2.35098856151e-38
0.0486247418765 -0.0150904371341 0.906 1.78837241289e-38
0.0503014571137 -0.0150904371341 0.906 1.98988866089e-38
0.0519781723508 -0.0150904371341 0.906 2.11806374987e-38
0.0536548875879 -0.0150904371341 0.906 2.35098617931e-38
0.055331602825 -0.0150904371341 0.906 2.35098589905e-38
0.0570083180621 -0.0150904371341 0.906 2.09237262408e-38
0.0586850332993 -0.0150904371341 0.906 1.41774634518e-38
0.0603617485364 -0.0150904371341 0.906 2.35098141489e-38
0.0621754140247 -0.0151237493574 0.908 2.35098856151e-38
0.0638558306199 -0.0151237493574 0.908 2.09254988834e-38
0.0655362472152 -0.0151237493574 0.908 1.50868501032e-38
0.0672166638105 -0.0151237493574 0.908 2.32670728211e-38
0.0688970804057 -0.0151237493574 0.908 2.34687336831e-38
0.070577497001 -0.0151237493574 0.908 2.34798852163e-38
0.00844834995305 -0.0135173599249 0.913 1.99609655322e-38
0.0101380199437 -0.0135173599249 0.913 1.83919204313e-38
0.0117888256738 -0.0134729436272 0.91 1.89436312549e-38
0.0134433327621 -0.0134433327621 0.908 1.82943115855e-38
0.0151237493574 -0.0134433327621 0.908 1.82088982402e-38
0.0168041659526 -0.0134433327621 0.908 2.19038812673e-38
0.0184845825479 -0.0134433327621 0.908 1.83180201542e-38
0.0201649991431 -0.0134433327621 0.908 2.27519470979e-38
0.0218454157384 -0.0134433327621 0.908 2.34954186098e-38
0.0235258323337 -0.0134433327621 0.908 2.08919588046e-38
0.0252062489289 -0.0134433327621 0.908 2.13604577228e-38
0.0268866655242 -0.0134433327621 0.908 1.89637426904e-38
0.0285041590311 -0.013413721897 0.906 2.34955811604e-38
0.0301808742682 -0.013413721897 0.906 2.34982268119e-38
0.0318575895053 -0.013413721897 0.906 2.02548164189e-38
0.0335343047424 -0.013413721897 0.906 2.18030382246e-38
0.0352110199796 -0.013413721897 0.906 2.02412196199e-38
0.0368877352167 -0.013413721897 0.906 1.89705978425e-38
0.0385644504538 -0.013413721897 0.906 1.86972941952e-38
0.0402411656909 -0.013413721897 0.906 1.84192807838e-38
0.041917880928 -0.013413721897 0.906 1.76820534578e-38
0.0435945961652 -0.013413721897 0.906 1.59249092615e-38
0.0452713114023 -0.013413721897 0.906 1.97820015014e-38
0.0469480266394 -0.013413721897 0.906 1.9883102383e-38
0.0486247418765 -0.013413721897 0.906 2.35097048476e-38
0.0503014571137 -0.013413721897 0.906 2.350977211e-38
0.0519781723508 -0.013413721897 0.906 2.35097735113e-38
0.0536548875879 -0.013413721897 0.906 2.35097791165e-38
0.055331602825 -0.013413721897 0.906 2.13833213085e-38
0.0570083180621 -0.013413721897 0.906 2.35095633165e-38
0.0586850332993 -0.013413721897 0.906 2.35098856151e-38
0.0603617485364 -0.013413721897 0.906 2.350988001e-38
0.0621754140247 -0.0134433327621 0.908 1.66707279483e-38
0.0638558306199 -0.0134433327621 0.908 1.73680294785e-38
0.0655362472152 -0.0134433327621 0.908 2.34575471175e-38
0.0672166638105 -0.0134433327621 0.908 2.2347654274e-38
0.0688970804057 -0.0134433327621 0.908 2.34834823495e-38
0.070577497001 -0.0134433327621 0.908 2.34838663053e-38
0.00846685674374 -0.0118535994412 0.915 1.80295992991e-38
0.0101380199437 -0.0118276899343 0.913 1.84830034302e-38
0.0117888256738 -0.0117888256738 0.91 1.92194782589e-38
0.0134729436272 -0.0117888256738 0.91 1.81116957709e-38
0.0151570615806 -0.0117888256738 0.91 1.82906892289e-38
0.016841179534 -0.0117888256738 0.91 1.67241048081e-38
0.0184845825479 -0.0117629161668 0.908 2.04266072028e-38
0.0201649991431 -0.0117629161668 0.908 1.86939044543e-38
0.0218454157384 -0.0117629161668 0.908 1.84983952925e-38
0.0235258323337 -0.0117629161668 0.908 2.34922306558e-38
0.0252062489289 -0.0117629161668 0.908 2.34870318385e-38
0.026827443794 -0.0117370066599 0.906 2.23720536829e-38
0.0285041590311 -0.0117370066599 0.906 2.08094097134e-38
0.0301808742682 -0.0117370066599 0.906 2.10929386356e-38
0.0318575895053 -0.0117370066599 0.906 2.2740501292e-38
0.0335343047424 -0.0117370066599 0.906 2.34898736718e-38
0.0352110199796 -0.0117370066599 0.906 2.35050497341e-38
0.0367655903981 -0.0116981423994 0.903 2.35097230645e-38
0.038436753598 -0.0116981423994 0.903 2.35096824269e-38
0.0402411656909 -0.0117370066599 0.906 2.35096908347e-38
0.041917880928 -0.0117370066599 0.906 2.35097132554e-38
0.0435945961652 -0.0117370066599 0.906 2.35097216632e-38
0.0452713114023 -0.0117370066599 0.906 2.35098015372e-38
0.0469480266394 -0.0117370066599 0.906 2.35097763139e-38
0.0486247418765 -0.0117370066599 0.906 2.35097230645e-38
0.0503014571137 -0.0117370066599 0.906 1.56612255282e-38
0.0518060591973 -0.0116981423994 0.903 1.96129768806e-38
0.0534772223972 -0.0116981423994 0.903 2.34949757995e-38
0.055331602825 -0.0117370066599 0.906 2.35098645957e-38
0.0570083180621 -0.0117370066599 0.906 2.35098716022e-38
0.0586850332993 -0.0117370066599 0.906 2.08303268956e-38
0.0603617485364 -0.0117370066599 0.906 1.5737641136e-38
0.0621754140247 -0.0117629161668 0.908 1.87376698079e-38
0.0638558306199 -0.0117629161668 0.908 2.34475404452e-38
0.0655362472152 -0.0117629161668 0.908 2.34727007591e-38
0.0675867996244 -0.0118276899343 0.913 1.75654037685e-38
0.069276469615 -0.0118276899343 0.913 2.3481329955e-38
0.0709661396056 -0.0118276899343 0.913 2.34708594529e-38
0.0101047077204 -0.0101047077204 0.91 1.78426716891e-38
0.0117888256738 -0.0101047077204 0.91 1.94913707986e-38
0.0134729436272 -0.0101047077204 0.91 1.78336837608e-38
0.0151570615806 -0.0101047077204 0.91 1.8292496904e-38
0.016841179534 -0.0101047077204 0.91 1.82885690644e-38
0.0184845825479 -0.0100824995716 0.908 1.76417423049e-38
0.0201649991431 -0.0100824995716 0.908 1.81063231926e-38
0.0218454157384 -0.0100824995716 0.908 2.08887554363e-38
0.0235258323337 -0.0100824995716 0.908 1.79524241874e-38
0.0252062489289 -0.0100824995716 0.908 2.04352027676e-38
0.026827443794 -0.0100602914227 0.906 2.3492813596e-38
0.0285041590311 -0.0100602914227 0.906 2.34882243435e-38
0.0301808742682 -0.0100602914227 0.906 2.34881626864e-38
0.0318575895053 -0.0100602914227 0.906 2.34744734017e-38
0.0334232639983 -0.0100269791995 0.903 2.09815592297e-38
0.0350944271982 -0.0100269791995 0.903 1.94117280004e-38
0.0367655903981 -0.0100269791995 0.903 2.1902443535e-38
0.038436753598 -0.0100269791995 0.903 2.13600037021e-38
0.0402411656909 -0.0100602914227 0.906 2.12706793328e-38
0.041917880928 -0.0100602914227 0.906 1.94235661698e-38
0.0435945961652 -0.0100602914227 0.906 1.79394902026e-38
0.0452713114023 -0.0100602914227 0.906 2.06037957884e-38
0.0469480266394 -0.0100602914227 0.906 2.25463864222e-38
0.0484637327975 -0.0100269791995 0.903 2.31100068815e-38
0.0501348959974 -0.0100269791995 0.903 2.35096473944e-38
0.0518060591973 -0.0100269791995 0.903 2.350977211e-38
0.0534772223972 -0.0100269791995 0.903 2.35097847217e-38
0.0551483855971 -0.0100269791995 0.903 2.16665195243e-38
0.0570083180621 -0.0100602914227 0.906 1.76697444521e-38
0.0586850332993 -0.0100602914227 0.906 1.96560247695e-38
0.0604949974294 -0.0100824995716 0.908 1.9111850129e-38
0.0621754140247 -0.0100824995716 0.908 2.34511207627e-38
0.0639964822292 -0.0101047077204 0.91 2.34684197923e-38
0.0656806001826 -0.0101047077204 0.91 2.34839671988e-38
0.06773485395 -0.0101602280925 0.915 1.61050167518e-38
0.0694282252987 -0.0101602280925 0.915 2.21001905704e-38
0.0711215966475 -0.0101602280925 0.915 2.34636287528e-38
0.0101380199437 -0.00844834995305 0.913 1.83075972962e-38
0.0118276899343 -0.00844834995305 0.913 1.68264037999e-38
0.0135173599249 -0.00844834995305 0.913 1.82046172734e-38
0.0152403421387 -0.00846685674374 0.915 1.83846771195e-38
0.0169337134875 -0.00846685674374 0.915 1.83811024072e-38
0.0185252974874 -0.008420589767 0.91 1.86551655582e-38
0.0201649991431 -0.00840208297631 0.908 1.78221847056e-38
0.0218454157384 -0.00840208297631 0.908 1.82774161299e-38
0.0235258323337 -0.00840208297631 0.908 1.85665544498e-38
0.0252062489289 -0.00840208297631 0.908 1.99656122379e-38
0.026827443794 -0.00838357618561 0.906 1.93356767301e-38
0.0285041590311 -0.00838357618561 0.906 1.97967459639e-38
0.0301808742682 -0.00838357618561 0.906 2.24606521796e-38
0.0318575895053 -0.00838357618561 0.906 2.34795713255e-38
0.0334232639983 -0.00835581599956 0.903 2.3509622171e-38
0.0350944271982 -0.00835581599956 0.903 2.35097594983e-38
0.0367655903981 -0.00835581599956 0.903 2.35097146567e-38
0.038436753598 -0.00835581599956 0.903 2.35097132554e-38
0.0401079167979 -0.00835581599956 0.903 2.3509702045e-38
0.0417790799978 -0.00835581599956 0.903 2.35097048476e-38
0.0434502431977 -0.00835581599956 0.903 2.35097048476e-38
0.0451214063976 -0.00835581599956 0.903 2.35096866308e-38
0.0467925695976 -0.00835581599956 0.903 2.35097847217e-38
0.0484637327975 -0.00835581599956 0.903 2.29497053436e-38
0.0501348959974 -0.00835581599956 0.903 2.3492837418e-38
0.0518060591973 -0.00835581599956 0.903 2.17260564921e-38
0.0534772223972 -0.00835581599956 0.903 2.17105693415e-38
0.0551483855971 -0.00835581599956 0.903 1.80033571827e-38
0.0570083180621 -0.00838357618561 0.906 2.00201381624e-38
0.0586850332993 -0.00838357618561 0.906 2.29710933621e-38
0.0604949974294 -0.00840208297631 0.908 2.34690125415e-38
0.0623123642758 -0.008420589767 0.91 2.34618575116e-38
0.0642074596432 -0.00844834995305 0.913 1.9877491584e-38
0.0658971296338 -0.00844834995305 0.913 2.34848836479e-38
0.0679569354383 -0.00849461692979 0.918 1.59202499441e-38
0.0696558588243 -0.00849461692979 0.918 2.30103717581e-38
0.0715102392521 -0.00851312372049 0.92 2.34691512701e-38
0.00865192465071 -0.00692153972057 0.935 2.01551252435e-38
0.0103823095809 -0.00692153972057 0.935 1.75754230525e-38
0.0118924637017 -0.00679569354383 0.918 1.67499587648e-38
0.0135913870877 -0.00679569354383 0.918 1.67388632836e-38
0.0152403421387 -0.006773485395 0.915 1.79248256142e-38
0.0169337134875 -0.006773485395 0.915 1.86566327177e-38
0.0186270848362 -0.006773485395 0.915 1.85647607878e-38
0.0202760398873 -0.00675867996244 0.913 1.91150675103e-38
0.0218935333942 -0.0067364718136 0.91 1.89274518628e-38
0.0235258323337 -0.00672166638105 0.908 2.01205944468e-38
0.0252062489289 -0.00672166638105 0.908 1.69895667892e-38
0.026827443794 -0.00670686094849 0.906 1.58875408353e-38
0.0285041590311 -0.00670686094849 0.906 1.80151827405e-38
0.0301808742682 -0.00670686094849 0.906 2.15279941646e-38
0.0318575895053 -0.00670686094849 0.906 2.18170848404e-38
0.0334232639983 -0.00668465279965 0.903 2.16308943134e-38
0.0350944271982 -0.00668465279965 0.903 2.16330270897e-38
0.0367655903981 -0.00668465279965 0.903 2.13589933659e-38
0.038436753598 -0.00668465279965 0.903 2.30170755699e-38
0.0401079167979 -0.00668465279965 0.903 2.34837079585e-38
0.0417790799978 -0.00668465279965 0.903 2.20979232695e-38
0.0434502431977 -0.00668465279965 0.903 2.3481949329e-38
0.0451214063976 -0.00668465279965 0.903 2.16323264405e-38
0.0467925695976 -0.00668465279965 0.903 2.29183709087e-38
0.0484637327975 -0.00668465279965 0.903 2.02368125362e-38
0.0501348959974 -0.00668465279965 0.903 1.76396417585e-38
0.0519781723508 -0.00670686094849 0.906 1.88287878392e-38
0.0536548875879 -0.00670686094849 0.906 2.04850553617e-38
0.055331602825 -0.00670686094849 0.906 2.12190218662e-38
0.0570083180621 -0.00670686094849 0.906 2.31580209721e-38
0.0588145808341 -0.00672166638105 0.908 2.22338786478e-38
0.0606282463224 -0.0067364718136 0.91 2.34719874982e-38
0.0623123642758 -0.0067364718136 0.91 2.34597905963e-38
0.0642074596432 -0.00675867996244 0.913 1.7674452815e-38
0.0660414826012 -0.006773485395 0.915 2.34871033047e-38
0.0679569354383 -0.00679569354383 0.918 1.72026902727e-38
0.069807614508 -0.00681049897639 0.92 2.34637548697e-38
0.0715102392521 -0.00681049897639 0.92 2.34781391984e-38
0.00865192465071 -0.00519115479043 0.935 1.82154619222e-38
0.0103823095809 -0.00519115479043 0.935 1.58226242827e-38
0.012086785004 -0.00518005071601 0.933 1.76730487139e-38
0.0135913870877 -0.00509677015787 0.918 1.52716785681e-38
0.0152903104736 -0.00509677015787 0.918 1.70990278175e-38
0.0169337134875 -0.00508011404625 0.915 1.88374058248e-38
0.0186270848362 -0.00508011404625 0.915 1.8744844456e-38
0.0202760398873 -0.00506900997183 0.913 1.85600972665e-38
0.0218935333942 -0.0050523538602 0.91 1.94752236364e-38
0.0235776513476 -0.0050523538602 0.91 1.90138937612e-38
0.0252062489289 -0.00504124978578 0.908 2.17768717783e-38
0.0268866655242 -0.00504124978578 0.908 1.92929875737e-38
0.0285041590311 -0.00503014571137 0.906 1.93891278588e-38
0.0301808742682 -0.00503014571137 0.906 1.68977312931e-38
0.0318575895053 -0.00503014571137 0.906 1.83670992316e-38
0.0335343047424 -0.00503014571137 0.906 1.88262767124e-38
0.0352110199796 -0.00503014571137 0.906 1.78160862547e-38
0.0367655903981 -0.00501348959974 0.903 1.90124588316e-38
0.038436753598 -0.00501348959974 0.903 1.77242507585e-38
0.0401079167979 -0.00501348959974 0.903 1.88280703744e-38
0.0417790799978 -0.00501348959974 0.903 1.80001159794e-38
0.0434502431977 -0.00501348959974 0.903 1.85536400832e-38
0.0451214063976 -0.00501348959974 0.903 1.85507702239e-38
0.0467925695976 -0.00501348959974 0.903 1.94691251855e-38
0.0484637327975 -0.00501348959974 0.903 2.0938493124e-38
0.0501348959974 -0.00501348959974 0.903 2.22256249999e-38
0.0519781723508 -0.00503014571137 0.906 2.19584141983e-38
0.0536548875879 -0.00503014571137 0.906 2.14967073738e-38
0.055331602825 -0.00503014571137 0.906 2.1685392212e-38
0.0571341642389 -0.00504124978578 0.908 2.22374813862e-38
0.0588145808341 -0.00504124978578 0.908 2.25122521929e-38
0.0608281196619 -0.00506900997183 0.913 2.34676729002e-38
0.0625177896526 -0.00506900997183 0.913 2.34594402717e-38
0.0643481112525 -0.00508011404625 0.915 1.93364908845e-38
0.0662580120524 -0.00509677015787 0.918 2.32738747239e-38
0.0681049897639 -0.00510787423229 0.92 2.31838917443e-38
0.069807614508 -0.00510787423229 0.92 2.34658414031e-38
0.0717434248149 -0.00512453034392 0.923 2.34734868875e-38
0.00865192465071 -0.00346076986028 0.935 1.72030630181e-38
0.0103823095809 -0.00346076986028 0.935 2.05228315657e-38
0.012086785004 -0.00345336714401 0.933 1.38876553112e-38
0.0136950251156 -0.00342375627889 0.925 1.63769373175e-38
0.0152903104736 -0.00339784677192 0.918 1.82128611122e-38
0.0169337134875 -0.0033867426975 0.915 1.7279422574e-38
0.0186270848362 -0.0033867426975 0.915 1.86530131638e-38
0.0202760398873 -0.00337933998122 0.913 1.90214271417e-38
0.0219657098779 -0.00337933998122 0.913 1.92929875737e-38
0.0235776513476 -0.0033682359068 0.91 1.96610470232e-38
0.025261769301 -0.0033682359068 0.91 1.97496539277e-38
0.0268866655242 -0.00336083319052 0.908 1.94784592346e-38
0.0285670821194 -0.00336083319052 0.908 1.90211174548e-38
0.0301808742682 -0.00335343047424 0.906 1.86504992343e-38
0.0318575895053 -0.00335343047424 0.906 2.15971468425e-38
0.0336083319052 -0.00336083319052 0.908 1.99361961805e-38
0.0352110199796 -0.00335343047424 0.906 2.02992375802e-38
0.0367655903981 -0.00334232639983 0.903 2.03914262035e-38
0.038436753598 -0.00334232639983 0.903 1.96527961778e-38
0.0401079167979 -0.00334232639983 0.903 2.31533238196e-38
0.0417790799978 -0.00334232639983 0.903 1.88262767124e-38
0.0434502431977 -0.00334232639983 0.903 2.14045117439e-38
0.0452713114023 -0.00335343047424 0.906 2.16807104738e-38
0.0469480266394 -0.00335343047424 0.906 2.15910287734e-38
0.0486247418765 -0.00335343047424 0.906 2.11325673561e-38
0.0503014571137 -0.00335343047424 0.906 2.23261163166e-38
0.0519781723508 -0.00335343047424 0.906 2.15924749134e-38
0.0536548875879 -0.00335343047424 0.906 2.32508822187e-38
0.0554537476436 -0.00336083319052 0.908 2.08538434864e-38
0.0571341642389 -0.00336083319052 0.908 2.24211341616e-38
0.058944128369 -0.0033682359068 0.91 2.34324232373e-38
0.0608281196619 -0.00337933998122 0.913 2.34712770399e-38
0.0626547399037 -0.0033867426975 0.915 2.345942766e-38
0.0645590886664 -0.00339784677192 0.918 2.10702768368e-38
0.0662580120524 -0.00339784677192 0.918 2.34643728423e-38
0.0681049897639 -0.00340524948819 0.92 2.3464103793e-38
0.0700352480336 -0.00341635356261 0.923 2.3474916212e-38
0.0104156218041 -0.00173593696735 0.938 1.87618141804e-38
0.012112694511 -0.00173038493014 0.935 1.90430155459e-38
0.0137690522784 -0.00172113153479 0.93 1.5358822517e-38
0.0154568715899 -0.00171743017665 0.928 1.77536836314e-38
0.0170817678131 -0.00170817678131 0.923 2.0238628619e-38
0.0186881572455 -0.00169892338596 0.918 1.56245899811e-38
0.020320456185 -0.00169337134875 0.915 1.90210740145e-38
0.0220138275337 -0.00169337134875 0.915 1.91025090735e-38
0.0236553798685 -0.00168966999061 0.913 1.85554337452e-38
0.025261769301 -0.0016841179534 0.91 1.96542311074e-38
0.0268866655242 -0.00168041659526 0.908 1.87401809347e-38
0.0285670821194 -0.00168041659526 0.908 1.84643311281e-38
0.0302474987147 -0.00168041659526 0.908 2.02109880068e-38
0.03192791531 -0.00168041659526 0.908 2.05776083227e-38
0.0336083319052 -0.00168041659526 0.908 2.01188049886e-38
0.0352110199796 -0.00167671523712 0.906 2.00248016837e-38
0.0368877352167 -0.00167671523712 0.906 2.05768908579e-38
0.0385644504538 -0.00167671523712 0.906 2.01137673206e-38
0.0402411656909 -0.00167671523712 0.906 2.10335782313e-38
0.041917880928 -0.00167671523712 0.906 2.15924805186e-38
0.0435945961652 -0.00167671523712 0.906 2.11311324265e-38
0.0452713114023 -0.00167671523712 0.906 2.16842977979e-38
0.0469480266394 -0.00167671523712 0.906 2.10421667896e-38
0.0487320812626 -0.00168041659526 0.908 2.13223367994e-38
0.0504124978578 -0.00168041659526 0.908 2.15931993847e-38
0.0520929144531 -0.00168041659526 0.908 2.16846887602e-38
0.0537733310484 -0.00168041659526 0.908 2.15910287734e-38
0.0555758924622 -0.0016841179534 0.91 2.27870776504e-38
0.0572600104156 -0.0016841179534 0.91 2.14999317615e-38
0.058944128369 -0.0016841179534 0.91 2.34295757989e-38
0.0608281196619 -0.00168966999061 0.913 2.34709056958e-38
0.0626547399037 -0.00169337134875 0.915 1.85586623369e-38
0.0645590886664 -0.00169892338596 0.918 2.3446112522e-38
0.0662580120524 -0.00169892338596 0.918 2.34841521701e-38
0.0683270712523 -0.00170817678131 0.923 2.34773180375e-38
0.0701870037173 -0.00171187813945 0.925 2.34752202937e-38
0.0104156218041 0.0 0.938 1.7379192222e-38
0.012112694511 0.0 0.935 1.93113529914e-38
0.013813468576 0.0 0.933 1.75636241194e-38
0.0154901838131 0.0 0.93 1.65555005769e-38
0.0172113153479 0.0 0.93 2.15319416224e-38
0.0188917319432 0.0 0.928 1.96893868833e-38
0.0206091621199 0.0 0.928 1.73623037729e-38
0.0222544158128 0.0 0.925 1.84629060076e-38
0.0239144749383 0.0 0.923 1.96639252902e-38
0.0255393711615 0.0 0.92 1.93866167319e-38
0.02709394158 0.0 0.915 1.77278380826e-38
0.0287243898404 0.0 0.913 2.01238314462e-38
0.0303141231612 0.0 0.91 1.85532813508e-38
0.0319982411146 0.0 0.91 2.05768908579e-38
0.0337933998122 0.0 0.913 2.03928611332e-38
0.0353664770214 0.0 0.91 1.95667004002e-38
0.0370505949748 0.0 0.91 2.0122018166e-38
0.0387347129282 0.0 0.91 2.04872077562e-38
0.0403299982863 0.0 0.908 2.03038954963e-38
0.0420104148815 0.0 0.908 2.05772495903e-38
0.0439314197559 0.0 0.913 2.17747081735e-38
0.0456210897465 0.0 0.913 2.04901182531e-38
0.0473107597371 0.0 0.913 2.10396556628e-38
0.0490004297277 0.0 0.913 2.05794019847e-38
0.0506900997183 0.0 0.913 2.34324596711e-38
0.0523797697089 0.0 0.913 2.14088417562e-38
0.0540694396995 0.0 0.913 2.22371044369e-38
0.0557591096901 0.0 0.913 2.2421492894e-38
0.0574487796807 0.0 0.913 2.1500985538e-38
0.0591384496713 0.0 0.913 2.34338777851e-38
0.060961368555 0.0 0.915 2.347413709e-38
0.0626547399037 0.0 0.915 2.0405475622e-38
0.0645590886664 0.0 0.918 2.34767140779e-38
0.0667632474384 0.0 0.925 2.08880183533e-38
0.0684751255778 0.0 0.925 2.34727680214e-38
0.0701870037173 0.0 0.925 2.34691218428e-38
0.0104378299529 0.00173963832549 0.94 1.71994672862e-38
0.0121515587715 0.00173593696735 0.938 1.68217206605e-38
0.0138430794411 0.00173038493014 0.935 2.02289778765e-38
0.0155734643713 0.00173038493014 0.935 1.86698763895e-38
0.01726683572 0.001726683572 0.933 1.52651765432e-38
0.0189324468827 0.00172113153479 0.93 1.95094027073e-38
0.0206091621199 0.00171743017665 0.928 1.95864306825e-38
0.0222544158128 0.00171187813945 0.925 1.95864306825e-38
0.0239662939522 0.00171187813945 0.925 1.87394634699e-38
0.0256226517196 0.00170817678131 0.923 1.98422068886e-38
0.0272419959056 0.0017026247441 0.92 1.88291675911e-38
0.0288816975613 0.00169892338596 0.918 1.89220792845e-38
0.0304806842775 0.00169337134875 0.915 1.94719950447e-38
0.0321740556262 0.00169337134875 0.915 1.98411306914e-38
0.033867426975 0.00169337134875 0.915 2.05754559283e-38
0.0354830698028 0.00168966999061 0.913 2.00265953458e-38
0.0371727397934 0.00168966999061 0.913 2.03074828203e-38
0.038862409784 0.00168966999061 0.913 1.98440005507e-38
0.0405520797746 0.00168966999061 0.913 2.00262436199e-38
0.0422417497652 0.00168966999061 0.913 2.00240842189e-38
0.0440276550675 0.00169337134875 0.915 2.23271490736e-38
0.0457210264162 0.00169337134875 0.915 2.00269540782e-38
0.047414397765 0.00169337134875 0.915 2.17714697728e-38
0.0492687781928 0.00169892338596 0.918 2.10353508739e-38
0.0509677015787 0.00169892338596 0.918 2.22324773494e-38
0.0526666249647 0.00169892338596 0.918 2.18640227337e-38
0.0543655483507 0.00169892338596 0.918 2.20523810694e-38
0.0560644717366 0.00169892338596 0.918 2.22382549029e-38
0.0577633951226 0.00169892338596 0.918 2.2421534933e-38
0.0594623185085 0.00169892338596 0.918 2.29732639734e-38
0.0611612418945 0.00169892338596 0.918 2.08588545297e-38
0.0629971155316 0.0017026247441 0.92 2.34670030795e-38
0.0650513692989 0.00171187813945 0.925 2.3483165656e-38
0.0669797768895 0.00171743017665 0.928 2.29123355162e-38
0.0692153972057 0.00173038493014 0.935 2.22630845104e-38
0.0711734156614 0.00173593696735 0.938 2.34727582123e-38
0.0104378299529 0.00347927665098 0.94 1.76633026831e-38
0.0121515587715 0.0034718739347 0.938 1.66391258654e-38
0.0138430794411 0.00346076986028 0.935 1.77382665457e-38
0.0155734643713 0.00346076986028 0.935 1.92094463632e-38
0.01726683572 0.00345336714401 0.933 2.08826191504e-38
0.018993519292 0.00345336714401 0.933 1.99739387534e-38
0.0206535784175 0.00344226306959 0.93 1.65368563009e-38
0.0223265922965 0.00343486035331 0.928 2.15232521706e-38
0.0239662939522 0.00342375627889 0.925 1.75470369495e-38
0.0256781720917 0.00342375627889 0.925 2.07598457867e-38
0.0273308285009 0.00341635356261 0.923 1.99347598496e-38
0.0289446206497 0.00340524948819 0.92 1.94759859428e-38
0.0306472453938 0.00340524948819 0.92 2.12204708088e-38
0.0322795443332 0.00339784677192 0.918 1.99365535116e-38
0.0339784677192 0.00339784677192 0.918 1.98414894238e-38
0.0355607983237 0.0033867426975 0.915 2.03024605666e-38
0.0372541696725 0.0033867426975 0.915 2.05808789533e-38
0.0389475410212 0.0033867426975 0.915 1.98411306914e-38
0.04064091237 0.0033867426975 0.915 2.10375635242e-38
0.0423342837187 0.0033867426975 0.915 2.01213077077e-38
0.0440276550675 0.0033867426975 0.915 2.07648778495e-38
0.0458709314209 0.00339784677192 0.918 2.01209629882e-38
0.0475698548068 0.00339784677192 0.918 2.17711110404e-38
0.0492687781928 0.00339784677192 0.918 2.14948940936e-38
0.0509677015787 0.00339784677192 0.918 2.18640479571e-38
0.0526666249647 0.00339784677192 0.918 2.23253918453e-38
0.0543655483507 0.00339784677192 0.918 2.19623392353e-38
0.0561866165552 0.00340524948819 0.92 2.28825158849e-38
0.0577633951226 0.00339784677192 0.918 2.27013364012e-38
0.0594623185085 0.00339784677192 0.918 2.33452862949e-38
0.0612944907875 0.00340524948819 0.92 2.34461013116e-38
0.0632025409083 0.00341635356261 0.923 2.15038553972e-38
0.0652623467129 0.00343486035331 0.928 2.3480714785e-38
0.0669797768895 0.00343486035331 0.928 2.19007591743e-38
0.0686972070662 0.00343486035331 0.928 1.80212811914e-38
0.0121515587715 0.00520781090205 0.938 1.66416454e-38
0.0138430794411 0.00519115479043 0.935 1.81116999748e-38
0.0155734643713 0.00519115479043 0.935 1.76453492472e-38
0.0173038493014 0.00519115479043 0.935 1.86512251069e-38
0.0190342342316 0.00519115479043 0.935 1.8481927233e-38
0.0207646191617 0.00519115479043 0.935 1.62685146514e-38
0.0223747099523 0.00516339460438 0.93 1.95871481474e-38
0.0240440224732 0.00515229052996 0.928 1.8473284024e-38
0.0257614526498 0.00515229052996 0.928 1.99297375959e-38
0.0273900502311 0.00513563441834 0.925 1.98418481562e-38
0.0291019283706 0.00513563441834 0.925 1.99318899904e-38
0.0307471820635 0.00512453034392 0.923 2.00237254865e-38
0.0323498701378 0.00510787423229 0.92 2.08531148112e-38
0.0340524948819 0.00510787423229 0.92 1.97503798003e-38
0.0356773911051 0.00509677015787 0.918 2.01205832364e-38
0.0373763144911 0.00509677015787 0.918 2.01213007012e-38
0.039075237877 0.00509677015787 0.918 2.06723136781e-38
0.040774161263 0.00509677015787 0.918 1.96560247695e-38
0.042473084649 0.00509677015787 0.918 2.10410905924e-38
0.0441720080349 0.00509677015787 0.918 2.08567133456e-38
0.0458709314209 0.00509677015787 0.918 1.9941588377e-38
0.0475698548068 0.00509677015787 0.918 2.13209046723e-38
0.0492687781928 0.00509677015787 0.918 2.08581370649e-38
0.0510787423229 0.00510787423229 0.92 2.33459477078e-38
0.052781367067 0.00510787423229 0.92 2.16832216007e-38
0.0544839918111 0.00510787423229 0.92 2.34407427463e-38
0.0561866165552 0.00510787423229 0.92 2.23375803394e-38
0.0578892412993 0.00510787423229 0.92 2.14091780678e-38
0.0595918660434 0.00510787423229 0.92 2.34364197406e-38
0.061494364127 0.00512453034392 0.923 2.28856926285e-38
0.0632025409083 0.00512453034392 0.923 2.34608541819e-38
0.0657546273454 0.00519115479043 0.935 2.34643910592e-38
0.0674850122756 0.00519115479043 0.935 1.78451435796e-38
0.0701777503219 0.00526333127414 0.948 2.3107065556e-38
0.0139615229016 0.0069807614508 0.943 1.62635148185e-38
0.0157067132643 0.0069807614508 0.943 1.78282957682e-38
0.017451903627 0.0069807614508 0.943 1.96664280093e-38
0.0191360215804 0.00695855330196 0.94 1.4510008393e-38
0.0208312436082 0.00694374786941 0.938 1.69978274437e-38
0.022446886436 0.00690673428801 0.933 1.97694024269e-38
0.0240958414871 0.00688452613918 0.93 1.86540851571e-38
0.0258169730219 0.00688452613918 0.93 2.00262366134e-38
0.0275381045567 0.00688452613918 0.93 2.00255191485e-38
0.0291963130031 0.00686972070662 0.928 1.91964885563e-38
0.03081380651 0.00684751255778 0.925 2.10396696757e-38
0.0324553588448 0.00683270712523 0.923 2.01137673206e-38
0.0341635356261 0.00683270712523 0.923 2.02963621157e-38
0.035755119626 0.00681049897639 0.92 1.94691251855e-38
0.0373763144911 0.00679569354383 0.918 2.07573388637e-38
0.039075237877 0.00679569354383 0.918 2.05733063364e-38
0.040774161263 0.00679569354383 0.918 2.09485376314e-38
0.042473084649 0.00679569354383 0.918 2.11397462082e-38
0.0441720080349 0.00679569354383 0.918 1.97661654275e-38
0.0459708680906 0.00681049897639 0.92 1.90426371953e-38
0.0476734928347 0.00681049897639 0.92 1.94992587077e-38
0.0495371266579 0.00683270712523 0.923 2.34550920426e-38
0.0512453034392 0.00683270712523 0.923 2.34679937976e-38
0.0529534802205 0.00683270712523 0.923 2.34590535134e-38
0.0546616570018 0.00683270712523 0.923 2.25276776864e-38
0.0564919786017 0.00684751255778 0.925 2.34536304883e-38
0.0582038567412 0.00684751255778 0.925 2.20631416403e-38
0.0601100561829 0.00686972070662 0.928 2.34420964006e-38
0.0621606085921 0.00690673428801 0.933 2.3470991175e-38
0.0640242424153 0.00692153972057 0.935 2.22677508343e-38
0.0659656047594 0.00694374786941 0.938 1.58089784382e-38
0.0677015417267 0.00694374786941 0.938 2.04134490102e-38
0.0701777503219 0.00701777503219 0.948 2.34773712869e-38
0.07193219408 0.00701777503219 0.948 2.34871971917e-38
0.073686637838 0.00701777503219 0.948 2.34838621014e-38
0.0140059391993 0.00875371199954 0.946 1.79326798921e-38
0.0157566815992 0.00875371199954 0.946 1.65389988862e-38
0.0175074239991 0.00875371199954 0.946 1.88363366341e-38
0.0191970939897 0.0087259518135 0.943 2.05073780463e-38
0.0208756599059 0.00869819162745 0.94 1.72973591943e-38
0.0224950040919 0.00865192465071 0.935 1.70035573531e-38
0.024173570008 0.00863341786002 0.933 1.92922701089e-38
0.0258169730219 0.00860565767397 0.93 1.88305815013e-38
0.0275381045567 0.00860565767397 0.93 1.92011520776e-38
0.0292592360915 0.00860565767397 0.93 2.03028192991e-38
0.0309137431798 0.00858715088327 0.928 1.91979276898e-38
0.0325256846495 0.00855939069723 0.925 2.11282625673e-38
0.0342375627889 0.00855939069723 0.925 2.07673777659e-38
0.0358717124074 0.00854088390653 0.923 1.99315312579e-38
0.0375798891887 0.00854088390653 0.923 2.15017240223e-38
0.03928806597 0.00854088390653 0.923 2.2065271614e-38
0.0409962427514 0.00854088390653 0.923 2.02332252121e-38
0.0427044195327 0.00854088390653 0.923 1.96886778263e-38
0.044412596314 0.00854088390653 0.923 1.59144569762e-38
0.046220709765 0.00855939069723 0.925 1.61921354773e-38
0.0479325879045 0.00855939069723 0.925 1.89464800947e-38
0.0496444660439 0.00855939069723 0.925 2.34514766926e-38
0.0513563441834 0.00855939069723 0.925 2.17922762524e-38
0.0532403354763 0.00858715088327 0.928 1.99379884413e-38
0.054957765653 0.00858715088327 0.928 2.31598384562e-38
0.0567973406482 0.00860565767397 0.93 2.34485675969e-38
0.0588330876248 0.00865192465071 0.935 2.34707935919e-38
0.060563472555 0.00865192465071 0.935 2.34781293893e-38
0.0624937308247 0.00867968483676 0.938 1.39651274981e-38
0.0643666180432 0.00869819162745 0.94 1.9756162959e-38
0.0665282111965 0.00875371199954 0.946 1.82092863998e-38
0.068639836015 0.00879997897629 0.951 2.3466235168e-38
0.0706219132986 0.00882773916233 0.954 2.34881949162e-38
0.07193219408 0.00877221879024 0.948 2.3492865444e-38
0.073686637838 0.00877221879024 0.948 2.29263386918e-38
0.0140355500644 0.0105266625483 0.948 1.830720213e-38
0.0157899938224 0.0105266625483 0.948 1.89478869983e-38
0.0175444375805 0.0105266625483 0.948 1.82010061272e-38
0.019258166399 0.0105044543995 0.946 1.79298044276e-38
0.0209422843524 0.0104711421762 0.943 1.68453759798e-38
0.0226152982314 0.0104378299529 0.94 1.83984014367e-38
0.024173570008 0.010360101432 0.933 1.7267943137e-38
0.02590025358 0.010360101432 0.933 1.89206233354e-38
0.027626937152 0.010360101432 0.933 1.90135350288e-38
0.0293536207241 0.010360101432 0.933 2.10357096063e-38
0.0309803676263 0.0103267892088 0.93 1.93848426881e-38
0.0327014991611 0.0103267892088 0.93 2.06683676217e-38
0.0343486035331 0.0103045810599 0.928 2.03017431018e-38
0.0360660337097 0.0103045810599 0.928 2.34403573892e-38
0.0376613190678 0.0102712688367 0.925 2.05019157849e-38
0.0393731972073 0.0102712688367 0.925 2.11473146212e-38
0.0410850753467 0.0102712688367 0.925 1.95864306825e-38
0.0427969534861 0.0102712688367 0.925 2.08789463471e-38
0.0445088316256 0.0102712688367 0.925 1.90379288324e-38
0.046220709765 0.0102712688367 0.925 2.02404012616e-38
0.0480880449463 0.0103045810599 0.928 2.19852742873e-38
0.049805475123 0.0103045810599 0.928 2.04029056406e-38
0.0515229052996 0.0103045810599 0.928 1.77242507585e-38
0.0533550775786 0.0103267892088 0.93 2.21434836865e-38
0.0550762091134 0.0103267892088 0.93 2.3468714065e-38
0.0571027026947 0.0103823095809 0.935 2.34709084984e-38
0.0588330876248 0.0103823095809 0.935 1.97702460086e-38
0.0607577938573 0.0104156218041 0.938 1.75517074773e-38
0.0624937308247 0.0104156218041 0.938 2.01282020961e-38
0.0645720434199 0.0104711421762 0.943 1.91136507976e-38
0.0665282111965 0.0105044543995 0.946 2.34688107546e-38
0.068639836015 0.0105599747715 0.951 2.34885984902e-38
0.0706219132986 0.0105932869948 0.954 2.07075661436e-38
0.0721598276055 0.0105599747715 0.951 2.34906359781e-38
0.0739198234008 0.0105599747715 0.951 2.34773292479e-38
0.0140799663621 0.0123199705668 0.951 2.11627457199e-38
0.0158399621573 0.0123199705668 0.951 1.82132030291e-38
0.0175444375805 0.0122811063063 0.948 1.69163853782e-38
0.0192988813385 0.0122811063063 0.948 1.8198136268e-38
0.0210089087989 0.0122551967994 0.946 1.62767654968e-38
0.0226152982314 0.0121774682784 0.94 2.26378365613e-38
0.0243031175429 0.0121515587715 0.938 2.34727624162e-38
0.0260390545103 0.0121515587715 0.938 1.63722079352e-38
0.0277749914776 0.0121515587715 0.938 1.82752637354e-38
0.0294165438124 0.012112694511 0.935 1.88262767124e-38
0.0311469287426 0.012112694511 0.935 1.95609606817e-38
0.0328069878681 0.012086785004 0.933 1.9744631674e-38
0.0344226306959 0.0120479207436 0.93 2.03896325415e-38
0.0361437622307 0.0120479207436 0.93 1.94723537772e-38
0.0377834638864 0.0120220112366 0.928 2.3453657113e-38
0.0395008940631 0.0120220112366 0.928 2.24477868584e-38
0.0412183242397 0.0120220112366 0.928 1.66308343824e-38
0.0427969534861 0.0119831469761 0.925 2.01180861225e-38
0.0445088316256 0.0119831469761 0.925 1.86436819173e-38
0.0463706147697 0.0120220112366 0.928 1.92015416385e-38
0.0480880449463 0.0120220112366 0.928 1.89249505451e-38
0.049805475123 0.0120220112366 0.928 1.89234931946e-38
0.0516339460438 0.0120479207436 0.93 2.34633092568e-38
0.0535271907321 0.012086785004 0.933 2.34731435694e-38
0.0553723177646 0.012112694511 0.935 2.29098019686e-38
0.0572859199226 0.0121515587715 0.938 2.02317916838e-38
0.0591477030667 0.0121774682784 0.94 2.28024695127e-38
0.0608873413922 0.0121774682784 0.94 2.3465094511e-38
0.0628268530572 0.0122163325389 0.943 2.26267803164e-38
0.0647774687966 0.0122551967994 0.946 2.34769845285e-38
0.0670908176337 0.0123588348273 0.954 2.3486771197e-38
0.0688563654662 0.0123588348273 0.954 2.04266856755e-38
0.0706219132986 0.0123588348273 0.954 2.2725392492e-38
0.0725392168148 0.0123847443342 0.956 2.34885620564e-38
0.0141539935248 0.0141539935248 0.956 1.86731526253e-38
0.0159232427154 0.0141539935248 0.956 1.94099343384e-38
0.0175999579526 0.0140799663621 0.951 1.5994801825e-38
0.0192988813385 0.0140355500644 0.948 1.97615355373e-38
0.0210089087989 0.0140059391993 0.946 1.86648541358e-38
0.0227596511988 0.0140059391993 0.946 1.8475443425e-38
0.0244326650778 0.0139615229016 0.943 2.05126777571e-38
0.0260945748824 0.0139171066039 0.94 2.34765417182e-38
0.0278342132079 0.0139171066039 0.94 2.34838943312e-38
0.029510928445 0.0138874957388 0.938 1.94189348784e-38
0.0312468654123 0.0138874957388 0.938 1.89403648282e-38
0.0328773136727 0.0138430794411 0.935 1.97632857591e-38
0.0345336714401 0.013813468576 0.933 2.00466843606e-38
0.0362603550121 0.013813468576 0.933 1.80076493599e-38
0.0378648937655 0.0137690522784 0.93 1.86426057201e-38
0.0395860253003 0.0137690522784 0.93 1.95681353298e-38
0.0413071568351 0.0137690522784 0.93 1.98526101284e-38
0.0429357544164 0.0137394414132 0.928 1.93001622219e-38
0.044653184593 0.0137394414132 0.928 1.84596521926e-38
0.0463706147697 0.0137394414132 0.928 2.07757253009e-38
0.0481916829742 0.0137690522784 0.93 2.23626635819e-38
0.0500738235881 0.013813468576 0.933 2.19936484469e-38
0.0518005071601 0.013813468576 0.933 1.87620636116e-38
0.0536419328344 0.0138430794411 0.935 2.34456865273e-38
0.0555499829552 0.0138874957388 0.938 2.34633078555e-38
0.0574080647412 0.0139171066039 0.94 2.26249053791e-38
0.0593364723318 0.0139615229016 0.943 2.3461559035e-38
0.0610816626945 0.0139615229016 0.943 2.3461826683e-38
0.0630267263967 0.0140059391993 0.946 2.34718936112e-38
0.0649144190478 0.0140355500644 0.948 2.34799146436e-38
0.067231469243 0.0141539935248 0.956 2.03319691097e-38
0.0690007184336 0.0141539935248 0.956 2.12455680643e-38
0.0707699676242 0.0141539935248 0.956 2.34756070521e-38
0.0725392168148 0.0141539935248 0.956 2.34759629819e-38
0.0141539935248 0.0159232427154 0.956 1.91362369262e-38
0.0159232427154 0.0159232427154 0.956 1.9411369268e-38
0.0176554783247 0.0158899304922 0.954 1.61795490145e-38
0.0194210261571 0.0158899304922 0.954 1.64407062067e-38
0.0210533250966 0.0157899938224 0.948 1.71850955691e-38
0.0228077688546 0.0157899938224 0.948 1.68134291775e-38
0.0245103935987 0.0157566815992 0.946 2.22626445027e-38
0.0262611359986 0.0157566815992 0.946 1.96833598986e-38
0.0279230458032 0.0157067132643 0.943 2.11555262302e-38
0.0295738515333 0.0156567449294 0.94 2.34853278596e-38
0.0312468654123 0.0156234327062 0.938 2.34889530187e-38
0.0329828023797 0.0156234327062 0.938 2.34849831401e-38
0.0346076986028 0.0155734643713 0.935 2.34899941834e-38
0.036338083533 0.0155734643713 0.935 2.34878572033e-38
0.0379870385841 0.015540152148 0.933 2.34899787692e-38
0.0397137221561 0.015540152148 0.933 2.34802803825e-38
0.0414404057281 0.015540152148 0.933 2.34712924541e-38
0.0430282883699 0.0154901838131 0.93 2.33704816413e-38
0.0447494199046 0.0154901838131 0.93 2.34590843419e-38
0.0466204564441 0.015540152148 0.933 1.62713845107e-38
0.048450778044 0.0155734643713 0.935 1.71126876749e-38
0.0501811629741 0.0155734643713 0.935 1.96987937999e-38
0.0520781090205 0.0156234327062 0.938 1.40723548566e-38
0.0539287880902 0.0156567449294 0.94 2.17966791321e-38
0.0556684264157 0.0156567449294 0.94 1.94852681438e-38
0.0575912819691 0.0157067132643 0.943 2.3066904342e-38
0.0593364723318 0.0157067132643 0.943 1.98436502261e-38
0.0612759839968 0.0157566815992 0.946 2.3476564139e-38
0.0631599752897 0.0157899938224 0.948 2.3486071949e-38
0.0654622200524 0.0159232427154 0.956 1.99656921119e-38
0.067231469243 0.0159232427154 0.956 2.21632433961e-38
0.0690007184336 0.0159232427154 0.956 2.24448903745e-38
0.0159732110503 0.0177480122781 0.959 1.88617912207e-38
0.0176924919061 0.0176924919061 0.956 1.58129244947e-38
0.0194617410967 0.0176924919061 0.956 1.76392367833e-38
0.0211865739896 0.0176554783247 0.954 1.56235151852e-38
0.0228799453383 0.0175999579526 0.951 1.45175417735e-38
0.0246399411336 0.0175999579526 0.951 1.68991662227e-38
0.0262611359986 0.0175074239991 0.946 2.01266957003e-38
0.0280118783985 0.0175074239991 0.946 1.75502655412e-38
0.0296682361659 0.017451903627 0.943 2.34647161604e-38
0.0314134265286 0.017451903627 0.943 2.09938219926e-38
0.0330531281843 0.0173963832549 0.94 2.12797667533e-38
0.034718739347 0.0173593696735 0.938 2.10953754936e-38
0.0364546763144 0.0173593696735 0.938 2.3488137463e-38
0.0381906132817 0.0173593696735 0.938 1.52640639122e-38
0.0397988533933 0.0173038493014 0.935 1.91943361618e-38
0.0415292383234 0.0173038493014 0.935 2.1228354514e-38
0.0432596232536 0.0173038493014 0.935 1.81041483774e-38
0.0449900081837 0.0173038493014 0.935 2.04129781739e-38
0.0467203931138 0.0173038493014 0.935 1.60056142439e-38
0.0486062350858 0.0173593696735 0.938 1.36232723299e-38
0.0504495114392 0.0173963832549 0.94 1.29760686212e-38
