# .PCD v0.7 - Point Cloud Data file format
VERSION 0.7
FIELDS x y z rgb
SIZE 4 4 4 4
TYPE F F F F
COUNT 1 1 1 1
WIDTH 837
HEIGHT 1
VIEWPOINT 0 0 0 1 0 0 0
POINTS 837
DATA ascii
-0.00483582440905 -0.0386865952724 0.871 2.21741062618e-38
-0.00322388293937 -0.0386865952724 0.871 1.62087758966e-38
-0.00161194146968 -0.0386865952724 0.871 1.73963959633e-38
0.0 -0.0385977626771 0.869 1.61169137758e-38
0.00160824011154 -0.0385977626771 0.869 1.5437361092e-38
0.00321648022309 -0.0385977626771 0.869 2.15518064294e-38
0.00482472033463 -0.0385977626771 0.869 8.63253663885e-39
0.00643296044618 -0.0385977626771 0.869 2.24740710137e-38
0.00804120055772 -0.0385977626771 0.869 6.61215572338e-39
0.00964944066926 -0.0385977626771 0.869 2.34832273132e-38
0.0112576807808 -0.0385977626771 0.869 5.32645877716e-39
0.0128659208924 -0.0385977626771 0.869 2.34721388384e-38
0.0144741610039 -0.0385977626771 0.869 1.65763673124e-38
0.0161194146968 -0.0386865952724 0.871 1.18546795251e-38
0.0177313561665 -0.0386865952724 0.871 2.18025351584e-38
0.0193432976362 -0.0386865952724 0.871 1.89653247564e-38
0.0209552391059 -0.0386865952724 0.871 1.77382483289e-38
0.0225671805756 -0.0386865952724 0.871 1.45204620795e-38
0.0242346424173 -0.0387754278677 0.873 1.25814629736e-38
0.0259095069754 -0.0388642604631 0.875 1.59198603831e-38
0.0275288511614 -0.0388642604631 0.875 1.63794162145e-38
0.0292481320171 -0.0389975093561 0.878 1.63847859902e-38
0.0309433540449 -0.0390863419515 0.88 1.33441659057e-38
0.0327570195332 -0.0393084234398 0.885 2.34803224214e-38
0.0345503275517 -0.0394860886305 0.889 1.37194966929e-38
0.0361955812446 -0.0394860886305 0.889 1.76607817471e-38
0.0378408349376 -0.0394860886305 0.889 1.8960505691e-38
-0.0246788053941 -0.0378408349376 0.889 1.12193574261e-38
-0.0230335517011 -0.0378408349376 0.889 1.13051267012e-38
-0.0213401803524 -0.0377557037004 0.887 1.68385964979e-38
-0.0196986280176 -0.0377557037004 0.887 8.72831819148e-39
-0.0179552883339 -0.0375428756073 0.882 8.90807535719e-39
-0.0162859758131 -0.0374577443701 0.88 7.4386751888e-39
-0.0146240660085 -0.0373726131329 0.878 8.81620763117e-39
-0.0129991697854 -0.0373726131329 0.878 1.67543490329e-38
-0.0113354093017 -0.0372449162771 0.875 1.77728604009e-38
-0.00969385696694 -0.0371597850399 0.873 1.45434517821e-38
-0.00807821413911 -0.0371597850399 0.873 1.01019045774e-38
-0.00644776587873 -0.0370746538027 0.871 1.12039305313e-38
-0.00483582440905 -0.0370746538027 0.871 1.41433838731e-38
-0.00322388293937 -0.0370746538027 0.871 1.13876155366e-38
-0.00161194146968 -0.0370746538027 0.871 2.23516774019e-38
0.0 -0.0370746538027 0.871 1.78621861715e-38
0.00161194146968 -0.0370746538027 0.871 2.02495461353e-38
0.00322388293937 -0.0370746538027 0.871 1.79543972157e-38
0.00483582440905 -0.0370746538027 0.871 2.05257784964e-38
0.00644776587873 -0.0370746538027 0.871 1.99848268424e-38
0.00805970734842 -0.0370746538027 0.871 1.7765301797e-38
0.0096716488181 -0.0370746538027 0.871 2.20098502597e-38
0.0112835902878 -0.0370746538027 0.871 1.83224412508e-38
0.0128955317575 -0.0370746538027 0.871 1.68400034015e-38
0.0145074732272 -0.0370746538027 0.871 1.83141988133e-38
0.0161194146968 -0.0370746538027 0.871 1.23059761033e-38
0.0177313561665 -0.0370746538027 0.871 1.34079824391e-38
0.0193877139339 -0.0371597850399 0.873 1.36834889275e-38
0.0210033567617 -0.0371597850399 0.873 2.05080604786e-38
0.0226189995895 -0.0371597850399 0.873 2.1447654921e-38
0.0242901627894 -0.0372449162771 0.875 2.23757292888e-38
0.0259983395707 -0.0373726131329 0.878 1.65695724161e-38
0.0276232357939 -0.0373726131329 0.878 1.3148628718e-38
0.0293147564636 -0.0374577443701 0.88 1.09284240428e-38
0.0310136798495 -0.0375428756073 0.882 1.61741820414e-38
0.032831046696 -0.0377557037004 0.887 2.34943550243e-38
0.0345503275517 -0.0378408349376 0.889 7.90861464179e-39
0.0363991559423 -0.0380536630306 0.894 2.27229318119e-38
0.038223925505 -0.038223925505 0.898 1.25990408616e-38
-0.0248731266964 -0.0364805858214 0.896 1.24190090414e-38
-0.0230853707151 -0.0362770111237 0.891 1.07544682527e-38
-0.0213882980082 -0.0361955812446 0.889 1.58190944118e-38
-0.0196986280176 -0.0361141513656 0.887 1.31540755651e-38
-0.0180570756828 -0.0361141513656 0.887 9.36722481201e-39
-0.0163229893945 -0.0359105766679 0.882 9.0917491521e-39
-0.0146573782318 -0.0358291467888 0.88 8.90804312733e-39
-0.0129991697854 -0.0357477169098 0.878 7.80601717343e-39
-0.0113354093017 -0.0356255720912 0.875 7.25500419648e-39
-0.00971606511577 -0.0356255720912 0.875 1.27766554419e-38
-0.00807821413911 -0.0355441422121 0.873 1.75862985299e-38
-0.00646257131129 -0.0355441422121 0.873 1.78650560308e-38
-0.00483582440905 -0.035462712333 0.871 1.72146237304e-38
-0.00322388293937 -0.035462712333 0.871 1.61035523949e-38
-0.00161194146968 -0.035462712333 0.871 1.14834040957e-38
0.0 -0.035462712333 0.871 1.23059564852e-38
0.00161194146968 -0.035462712333 0.871 1.15712725159e-38
0.00322388293937 -0.035462712333 0.871 1.17549435082e-38
0.00483582440905 -0.035462712333 0.871 1.1020259539e-38
0.00644776587873 -0.035462712333 0.871 1.13876015236e-38
0.00805970734842 -0.035462712333 0.871 1.18467790044e-38
0.00969385696694 -0.0355441422121 0.873 1.23977919813e-38
0.0113094997948 -0.0355441422121 0.873 1.25814629736e-38
0.0129251426226 -0.0355441422121 0.873 1.3958995416e-38
0.0145407854504 -0.0355441422121 0.873 1.65422442934e-38
0.0161564282782 -0.0355441422121 0.873 2.11692001006e-38
0.0177720711061 -0.0355441422121 0.873 2.17307424342e-38
0.0194321302315 -0.0356255720912 0.875 2.07202254739e-38
0.0210514744175 -0.0356255720912 0.875 1.99826856584e-38
0.0226708186035 -0.0356255720912 0.875 8.35775181909e-39
0.0243734433476 -0.0357477169098 0.878 1.6449750187e-38
0.026057561301 -0.0358291467888 0.88 1.45157579206e-38
0.0276861588823 -0.0358291467888 0.88 2.34439559237e-38
0.0293813809101 -0.0359105766679 0.882 1.83072806028e-38
0.0311191685565 -0.0360327214865 0.885 2.25467773845e-38
0.032831046696 -0.0361141513656 0.887 2.31202041304e-38
0.0345503275517 -0.0361955812446 0.889 7.71418167727e-39
0.0363991559423 -0.0363991559423 0.894 2.14430110179e-38
0.038223925505 -0.0365620157004 0.898 1.56332359926e-38
-0.0248731266964 -0.0348223773749 0.896 9.75429287512e-39
-0.023163099236 -0.034744648854 0.894 1.0115194492e-38
-0.021436415664 -0.0346280560726 0.891 1.2316359725e-38
-0.0197430443153 -0.0345503275517 0.889 1.67485084209e-38
-0.0180977906223 -0.0345503275517 0.889 8.72437213501e-39
-0.016415523348 -0.0344725990308 0.887 1.00115334381e-38
-0.014690690455 -0.0342782777284 0.882 9.92076012619e-39
-0.0130287806505 -0.0342005492075 0.88 9.73924713351e-39
-0.0113742735622 -0.0341228206866 0.878 8.26521847629e-39
-0.00974937733903 -0.0341228206866 0.878 1.40731199655e-38
-0.00809672092981 -0.0340062279052 0.875 8.81620763117e-39
-0.00647737674385 -0.0340062279052 0.875 6.88766221185e-39
-0.00485803255789 -0.0340062279052 0.875 7.62234618111e-39
-0.00323868837192 -0.0340062279052 0.875 1.38769549961e-38
-0.00161934418596 -0.0340062279052 0.875 1.67526100215e-38
0.0 -0.0340062279052 0.875 1.86933691582e-38
0.00161934418596 -0.0340062279052 0.875 1.97086098956e-38
0.00322388293937 -0.0338507708634 0.871 1.97100041876e-38
0.00483582440905 -0.0338507708634 0.871 1.98929689255e-38
0.00646257131129 -0.0339284993843 0.873 2.06301780346e-38
0.00807821413911 -0.0339284993843 0.873 2.09067481086e-38
0.00969385696694 -0.0339284993843 0.873 2.15528433903e-38
0.0113094997948 -0.0339284993843 0.873 2.10915065085e-38
0.0129251426226 -0.0339284993843 0.873 2.01670699116e-38
0.0145407854504 -0.0339284993843 0.873 1.72182236661e-38
0.0161934418596 -0.0340062279052 0.875 1.32437656733e-38
0.0178127860456 -0.0340062279052 0.875 9.27543696e-39
0.0194987546781 -0.0341228206866 0.878 9.73457100054e-39
0.0211236509012 -0.0341228206866 0.878 8.99987862348e-39
0.0227485471244 -0.0341228206866 0.878 1.82893117525e-38
0.0244289637197 -0.0342005492075 0.88 2.17170685638e-38
0.026057561301 -0.0342005492075 0.88 1.75631799078e-38
0.0276861588823 -0.0342005492075 0.88 2.25476223675e-38
0.0294813175799 -0.0343948705098 0.885 1.74828238487e-38
0.0311894943612 -0.0344725990308 0.887 2.18219697668e-38
0.0329050738588 -0.0345503275517 0.889 1.97114811562e-38
0.0345503275517 -0.0345503275517 0.889 1.48999743413e-38
0.0363991559423 -0.034744648854 0.894 1.72927979678e-38
0.038223925505 -0.0349001058959 0.898 1.55468235215e-38
-0.0285041590311 -0.0335343047424 0.906 1.70366938579e-38
-0.0267386111986 -0.0334232639983 0.903 1.16933130005e-38
-0.0248731266964 -0.0331641689285 0.896 1.22464265238e-38
-0.023163099236 -0.0330901417657 0.894 1.08609991659e-38
-0.021436415664 -0.0329791010215 0.891 1.00143850805e-38
-0.0197874606129 -0.0329791010215 0.891 1.48045725406e-38
-0.0180977906223 -0.0329050738588 0.889 1.14826726179e-38
-0.0164525369294 -0.0329050738588 0.889 9.82641910838e-39
-0.0147739710132 -0.032831046696 0.887 9.46158124411e-39
-0.0131028078133 -0.0327570195332 0.885 9.91896646416e-39
-0.0114001830692 -0.0325719516262 0.88 8.26520446331e-39
-0.00974937733903 -0.0324979244634 0.878 1.75823328552e-38
-0.00812448111586 -0.0324979244634 0.878 1.29722206556e-38
-0.00649958489268 -0.0324979244634 0.878 2.10818431543e-38
-0.00487468866951 -0.0324979244634 0.878 1.02175495357e-38
-0.00324979244634 -0.0324979244634 0.878 1.27952941128e-38
-0.00162489622317 -0.0324979244634 0.878 1.38924141208e-38
0.0 -0.0324979244634 0.878 4.59182105075e-39
0.00162489622317 -0.0324979244634 0.878 6.15297824259e-39
0.00323868837192 -0.0323868837192 0.875 6.3366492349e-39
0.00485803255789 -0.0323868837192 0.875 2.06190279027e-38
0.00647737674385 -0.0323868837192 0.875 6.24481373874e-39
0.00809672092981 -0.0323868837192 0.875 6.5204253246e-39
0.00969385696694 -0.0323128565565 0.873 1.63867436042e-38
0.0113094997948 -0.0323128565565 0.873 6.88766221185e-39
0.0129547534877 -0.0323868837192 0.875 7.98968816575e-39
0.0145740976737 -0.0323868837192 0.875 1.14794846639e-38
0.0161934418596 -0.0323868837192 0.875 1.1112099239e-38
0.0178738584549 -0.0324979244634 0.878 1.15712977393e-38
0.0194987546781 -0.0324979244634 0.878 1.09284268454e-38
0.0211236509012 -0.0324979244634 0.878 1.40508799576e-38
0.0228003661383 -0.0325719516262 0.88 2.34724331111e-38
0.0244289637197 -0.0325719516262 0.88 1.22141420085e-38
0.0261167830312 -0.032645978789 0.882 2.1875921159e-38
0.0278434666032 -0.0327570195332 0.885 1.85812624785e-38
0.0294813175799 -0.0327570195332 0.885 2.21918004575e-38
0.0311894943612 -0.032831046696 0.887 2.07252603393e-38
0.0329050738588 -0.0329050738588 0.889 1.04039642705e-38
0.0346280560726 -0.0329791010215 0.891 1.48027564577e-38
0.0363991559423 -0.0330901417657 0.894 1.69286047008e-38
0.038223925505 -0.0332381960913 0.898 1.40860665621e-38
-0.0285041590311 -0.0318575895053 0.906 1.63931125057e-38
-0.0267386111986 -0.0317521007983 0.903 1.11415881639e-38
-0.0249286470685 -0.0315762862867 0.898 1.07745418532e-38
-0.02321491825 -0.0315059604821 0.896 1.11454753658e-38
-0.0215085921477 -0.0314356346774 0.894 8.73336987245e-39
-0.0197874606129 -0.0313301459705 0.891 1.34241758441e-38
-0.0181385055618 -0.0313301459705 0.891 1.28756235473e-38
-0.0164525369294 -0.0312598201658 0.889 8.35703435427e-39
-0.0148072832364 -0.0312598201658 0.889 8.99987862348e-39
-0.0131324186784 -0.0311894943612 0.887 1.0378890837e-38
-0.0114908663436 -0.0311894943612 0.887 9.00136960505e-39
-0.0097937936367 -0.0310136798495 0.882 7.80606061368e-39
-0.00816149469725 -0.0310136798495 0.882 1.23093139963e-38
-0.00651439032524 -0.0309433540449 0.88 1.92375578117e-38
-0.00487468866951 -0.0308730282403 0.878 1.20605989332e-38
-0.00324979244634 -0.0308730282403 0.878 1.55695231553e-38
-0.00162489622317 -0.0308730282403 0.878 2.04438697986e-38
0.0 -0.0308730282403 0.878 8.45755089442e-39
0.00162489622317 -0.0308730282403 0.878 1.66669206204e-38
0.00324979244634 -0.0308730282403 0.878 1.4185882453e-38
0.00487468866951 -0.0308730282403 0.878 2.00841368646e-38
0.00649958489268 -0.0308730282403 0.878 1.49197522678e-38
0.00812448111586 -0.0308730282403 0.878 1.34304396483e-38
0.00974937733903 -0.0308730282403 0.878 9.75805115761e-39
0.0113354093017 -0.0307675395333 0.875 1.91614028453e-38
0.0129547534877 -0.0307675395333 0.875 1.61987622178e-38
0.0145740976737 -0.0307675395333 0.875 1.38080951896e-38
0.0161934418596 -0.0307675395333 0.875 1.12039305313e-38
0.0178738584549 -0.0308730282403 0.878 1.17567862157e-38
0.0194987546781 -0.0308730282403 0.878 1.03774292827e-38
0.021171768557 -0.0309433540449 0.88 1.8469800396e-38
0.0228003661383 -0.0309433540449 0.88 1.51528568661e-38
0.0244289637197 -0.0309433540449 0.88 1.48773503776e-38
0.0262056156265 -0.0311191685565 0.885 2.2530628821e-38
0.0278434666032 -0.0311191685565 0.885 2.2655277122e-38
0.0295479420264 -0.0311894943612 0.887 1.96181967174e-38
0.0311894943612 -0.0311894943612 0.887 2.05416005574e-38
0.0329050738588 -0.0312598201658 0.889 9.01782505292e-39
0.0346280560726 -0.0313301459705 0.891 1.55356649819e-38
0.0364805858214 -0.0315059604821 0.896 1.49936525449e-38
0.038223925505 -0.0315762862867 0.898 1.53753228064e-38
0.0401079167979 -0.0317521007983 0.903 1.79417070568e-38
-0.0284097743985 -0.0300809375984 0.903 1.63030818819e-38
-0.0267386111986 -0.0300809375984 0.903 1.2340483078e-38
-0.0249286470685 -0.0299143764822 0.898 1.02231701439e-38
-0.0232667372639 -0.0299143764822 0.898 8.93530679025e-39
-0.0215567098035 -0.0298477520357 0.896 1.53813988365e-38
-0.0198540850594 -0.0297811275891 0.894 1.55633868694e-38
-0.0181995779711 -0.0297811275891 0.894 1.59300015801e-38
-0.0164895505108 -0.0296811909194 0.891 1.72207796345e-38
-0.0148405954597 -0.0296811909194 0.891 8.73764523406e-39
-0.0131620295435 -0.0296145664729 0.889 1.37951065541e-38
-0.0114908663436 -0.0295479420264 0.887 1.51913799622e-38
-0.00982710585995 -0.0294813175799 0.885 1.62970030492e-38
-0.00816149469725 -0.0293813809101 0.882 1.57383628047e-38
-0.0065291957578 -0.0293813809101 0.882 9.27545097298e-39
-0.00488579274393 -0.0293147564636 0.88 5.6938007618e-39
-0.00325719516262 -0.0293147564636 0.88 1.20445260398e-38
-0.00162859758131 -0.0293147564636 0.88 1.51873568343e-38
0.0 -0.0293147564636 0.88 1.29733220762e-38
0.00162859758131 -0.0293147564636 0.88 1.40868639009e-38
0.00324979244634 -0.0292481320171 0.878 1.50117124795e-38
0.00487468866951 -0.0292481320171 0.878 1.46447124117e-38
0.00649958489268 -0.0292481320171 0.878 1.49205538105e-38
0.00812448111586 -0.0292481320171 0.878 1.88824673795e-38
0.00974937733903 -0.0292481320171 0.878 1.39085346583e-38
0.0113354093017 -0.0291481953473 0.875 1.72279304606e-38
0.0129547534877 -0.0291481953473 0.875 2.11850698057e-38
0.0146240660085 -0.0292481320171 0.878 5.87747175411e-39
0.0162489622317 -0.0292481320171 0.878 9.36722060812e-39
0.0178738584549 -0.0292481320171 0.878 1.12039389391e-38
0.0195431709757 -0.0293147564636 0.88 1.18468322537e-38
0.021171768557 -0.0293147564636 0.88 1.64454594111e-38
0.0228003661383 -0.0293147564636 0.88 1.54283633545e-38
0.0244844840917 -0.0293813809101 0.882 2.19939987715e-38
0.0262056156265 -0.0294813175799 0.885 2.34861251984e-38
0.0278434666032 -0.0294813175799 0.885 2.07234876967e-38
0.0295479420264 -0.0295479420264 0.887 2.0540528564e-38
0.0312598201658 -0.0296145664729 0.889 1.50098403448e-38
0.0329791010215 -0.0296811909194 0.891 9.10462848629e-39
0.034744648854 -0.0297811275891 0.894 1.49803135849e-38
0.0365620157004 -0.0299143764822 0.898 2.30049235096e-38
0.0383516223608 -0.0300143131519 0.901 1.45369651715e-38
0.0401079167979 -0.0300809375984 0.903 1.78419878555e-38
-0.0284097743985 -0.0284097743985 0.903 1.52903522714e-38
-0.0267386111986 -0.0284097743985 0.903 1.28940071818e-38
-0.0249286470685 -0.0282524666776 0.898 8.93102442214e-39
-0.0232667372639 -0.0282524666776 0.898 9.21015186585e-39
-0.0216048274593 -0.0282524666776 0.898 1.51062987246e-38
-0.0198985013571 -0.0281895435892 0.896 1.27906782357e-38
-0.0182402929107 -0.0281895435892 0.896 1.3343148563e-38
-0.0165450708829 -0.0281266205009 0.894 1.28825305474e-38
-0.0148405954597 -0.0280322358683 0.891 1.89706342763e-38
-0.0131916404086 -0.0280322358683 0.891 1.44559673177e-38
-0.0115167758506 -0.0279693127799 0.889 7.34719842505e-39
-0.00984931400879 -0.0279063896916 0.887 1.15716312483e-38
-0.00820776167399 -0.0279063896916 0.887 1.78531996445e-38
-0.00656620933919 -0.0279063896916 0.887 1.998406874e-38
-0.00491355292998 -0.0278434666032 0.885 5.41829427332e-39
-0.00327570195332 -0.0278434666032 0.885 2.09932446576e-38
-0.00163785097666 -0.0278434666032 0.885 9.8472045685e-39
0.0 -0.0277490819706 0.882 1.36180132568e-38
0.00163229893945 -0.0277490819706 0.882 8.72440716747e-39
0.0032645978789 -0.0277490819706 0.882 1.24087151029e-38
0.00489689681835 -0.0277490819706 0.882 7.80603679161e-39
0.0065291957578 -0.0277490819706 0.882 7.80601717343e-39
0.00816149469725 -0.0277490819706 0.882 7.4386751888e-39
0.00977158548786 -0.0276861588823 0.88 9.74469257935e-39
0.0114001830692 -0.0276861588823 0.88 1.13198851766e-38
0.0130287806505 -0.0276861588823 0.88 1.35225273781e-38
0.0146573782318 -0.0276861588823 0.88 1.73935723469e-38
0.0162859758131 -0.0276861588823 0.88 2.03517960817e-38
0.0179145733944 -0.0276861588823 0.88 6.1536957074e-39
0.0195431709757 -0.0276861588823 0.88 9.27538511196e-39
0.021171768557 -0.0276861588823 0.88 1.99492212498e-38
0.0228521851523 -0.0277490819706 0.882 2.34860831594e-38
0.0245677646499 -0.0278434666032 0.885 2.30265469462e-38
0.0262648373568 -0.0279063896916 0.887 2.13623312588e-38
0.0279063896916 -0.0279063896916 0.887 1.96095044631e-38
0.0296145664729 -0.0279693127799 0.889 2.04363714505e-38
0.0313301459705 -0.0280322358683 0.891 4.86728129637e-39
0.0330901417657 -0.0281266205009 0.894 9.47167759954e-39
0.0348223773749 -0.0281895435892 0.896 1.8398013277e-38
0.0365620157004 -0.0282524666776 0.898 1.99674829713e-38
0.0383516223608 -0.0283468513102 0.901 1.43449914858e-38
0.0401079167979 -0.0284097743985 0.903 1.81142559432e-38
-0.0284097743985 -0.0267386111986 0.903 1.45495824629e-38
-0.0267386111986 -0.0267386111986 0.903 1.25241456626e-38
-0.0250119276266 -0.0266793894684 0.901 8.93174328825e-39
-0.0233444657848 -0.0266793894684 0.901 7.64139683374e-39
-0.0216770039431 -0.0266793894684 0.901 1.40914209235e-38
-0.0199429176548 -0.026590556873 0.898 1.46367586417e-38
-0.0182810078502 -0.026590556873 0.898 1.34460935534e-38
-0.0165820844643 -0.0265313351428 0.896 1.26228152913e-38
-0.0148905637946 -0.0264721134126 0.894 1.3723070004e-38
-0.0131916404086 -0.0263832808172 0.891 1.2796050814e-38
-0.0115426853575 -0.0263832808172 0.891 1.98029607225e-38
-0.00987152215763 -0.026324059087 0.889 1.21507010231e-38
-0.00822626846469 -0.026324059087 0.889 7.98971198782e-39
-0.00656620933919 -0.0262648373568 0.887 7.4386751888e-39
-0.00492465700439 -0.0262648373568 0.887 7.98968816575e-39
-0.0032831046696 -0.0262648373568 0.887 1.34342974229e-38
-0.0016415523348 -0.0262648373568 0.887 1.7129200576e-38
0.0 -0.0262056156265 0.885 1.74069239186e-38
0.00163785097666 -0.0262056156265 0.885 1.85128651005e-38
0.00327570195332 -0.0262056156265 0.885 1.88834454858e-38
0.00491355292998 -0.0262056156265 0.885 1.87894477861e-38
0.00655140390664 -0.0262056156265 0.885 1.84206694706e-38
0.00818925488329 -0.0262056156265 0.885 1.80551421675e-38
0.0097937936367 -0.0261167830312 0.882 1.66754727449e-38
0.0114260925761 -0.0261167830312 0.882 1.27985899668e-38
0.0130583915156 -0.0261167830312 0.882 1.74926595626e-38
0.014690690455 -0.0261167830312 0.882 1.50944002993e-38
0.0163229893945 -0.0261167830312 0.882 1.21413081195e-38
0.0179552883339 -0.0261167830312 0.882 1.69336844078e-38
0.0195875872734 -0.0261167830312 0.882 2.1360247528e-38
0.0212198862128 -0.0261167830312 0.882 2.12683447695e-38
0.0229299136732 -0.0262056156265 0.885 1.76666349708e-38
0.024623285022 -0.0262648373568 0.887 1.5994801825e-38
0.0262648373568 -0.0262648373568 0.887 1.87484317801e-38
0.0279693127799 -0.026324059087 0.889 2.04169592629e-38
0.0296811909194 -0.0263832808172 0.891 1.94996174401e-38
0.0314356346774 -0.0264721134126 0.894 1.80389571702e-38
0.0332381960913 -0.026590556873 0.898 9.19469834638e-39
0.0350166986772 -0.0266793894684 0.901 1.76551134949e-38
0.0367655903981 -0.0267386111986 0.903 1.67316746225e-38
0.038436753598 -0.0267386111986 0.903 1.63657815804e-38
0.0401079167979 -0.0267386111986 0.903 1.90351206303e-38
-0.0284097743985 -0.0250674479987 0.903 1.43666233302e-38
-0.0267386111986 -0.0250674479987 0.903 1.26170769741e-38
-0.0250674479987 -0.0250674479987 0.903 9.39418579446e-39
-0.0233444657848 -0.0250119276266 0.901 7.45915376455e-39
-0.0216770039431 -0.0250119276266 0.901 1.37209007939e-38
-0.0200095421013 -0.0250119276266 0.901 1.66672134918e-38
-0.0182810078502 -0.0249286470685 0.898 3.39791335785e-39
-0.0165820844643 -0.0248731266964 0.896 9.10967316076e-39
-0.0149238760178 -0.0248731266964 0.896 1.13115670689e-38
-0.0132360567063 -0.0248176063243 0.894 1.4366228164e-38
-0.0115426853575 -0.0247343257662 0.891 1.52911187816e-38
-0.00987152215763 -0.0246788053941 0.889 1.50998093114e-38
-0.00822626846469 -0.0246788053941 0.889 1.83285467082e-38
-0.00658101477175 -0.0246788053941 0.889 1.71346600348e-38
-0.00492465700439 -0.024623285022 0.887 1.29851083976e-38
-0.0032831046696 -0.024623285022 0.887 8.63578344739e-39
-0.0016415523348 -0.024623285022 0.887 9.73458781612e-39
0.0 -0.024623285022 0.887 7.07134441455e-39
0.0016415523348 -0.024623285022 0.887 7.25500419648e-39
0.0032831046696 -0.024623285022 0.887 7.98968816575e-39
0.00491355292998 -0.0245677646499 0.885 8.90804312733e-39
0.00655140390664 -0.0245677646499 0.885 9.36722060812e-39
0.00820776167399 -0.024623285022 0.887 8.90804312733e-39
0.00984931400879 -0.024623285022 0.887 8.54070114269e-39
0.0114649568366 -0.0245677646499 0.885 7.4386751888e-39
0.0131028078133 -0.0245677646499 0.885 1.22155559186e-38
0.0147406587899 -0.0245677646499 0.885 1.99808485561e-38
0.0163785097666 -0.0245677646499 0.885 1.90643391046e-38
0.0180163607432 -0.0245677646499 0.885 1.6655711634e-38
0.0196542117199 -0.0245677646499 0.885 1.75534941328e-38
0.0212920626966 -0.0245677646499 0.885 1.76435359669e-38
0.0229817326872 -0.024623285022 0.887 1.87491492449e-38
0.0246788053941 -0.0246788053941 0.889 1.72844448277e-38
0.026324059087 -0.0246788053941 0.889 2.19018157533e-38
0.0279693127799 -0.0246788053941 0.889 1.89462054402e-38
0.0297811275891 -0.0248176063243 0.894 1.93116879017e-38
0.0314356346774 -0.0248176063243 0.894 1.67421395194e-38
0.0333492368355 -0.0250119276266 0.901 1.12972009571e-38
0.0350166986772 -0.0250119276266 0.901 1.78333908894e-38
0.0367655903981 -0.0250674479987 0.903 1.71011830145e-38
0.038436753598 -0.0250674479987 0.903 1.67306236486e-38
0.0401079167979 -0.0250674479987 0.903 2.19782187495e-38
-0.0250674479987 -0.0233962847988 0.903 8.84101481788e-39
-0.0233962847988 -0.0233962847988 0.903 6.90740930981e-39
-0.0217251215989 -0.0233962847988 0.903 1.18809118324e-38
-0.0200095421013 -0.0233444657848 0.901 1.62105317236e-38
-0.0182810078502 -0.0232667372639 0.898 4.50209170618e-39
-0.0166190980456 -0.0232667372639 0.898 1.37075828533e-38
-0.0149238760178 -0.02321491825 0.896 1.25018243793e-38
-0.0132360567063 -0.023163099236 0.894 8.83019819503e-39
-0.0115426853575 -0.0230853707151 0.891 1.17915482267e-38
-0.00989373030646 -0.0230853707151 0.891 1.33503568423e-38
-0.00822626846469 -0.0230335517011 0.889 1.66703355848e-38
-0.00658101477175 -0.0230335517011 0.889 1.2525950535e-38
-0.00493576107881 -0.0230335517011 0.889 9.6692732947e-39
-0.00329050738588 -0.0230335517011 0.889 1.38216667652e-38
-0.0016415523348 -0.0229817326872 0.887 1.62166245693e-38
0.0 -0.0229817326872 0.887 1.67698389861e-38
0.0016415523348 -0.0229817326872 0.887 1.80609253262e-38
0.0032831046696 -0.0229817326872 0.887 1.81516636057e-38
0.00492465700439 -0.0229817326872 0.887 1.83281767655e-38
0.00656620933919 -0.0229817326872 0.887 1.30571729737e-38
0.00820776167399 -0.0229817326872 0.887 2.05199771208e-38
0.00984931400879 -0.0229817326872 0.887 2.08080882889e-38
0.0114908663436 -0.0229817326872 0.887 2.09960920961e-38
0.0131324186784 -0.0229817326872 0.887 1.76734564918e-38
0.0147739710132 -0.0229817326872 0.887 1.4709134306e-38
0.016415523348 -0.0229817326872 0.887 1.60834087295e-38
0.0180570756828 -0.0229817326872 0.887 1.79133041382e-38
0.0196986280176 -0.0229817326872 0.887 1.54344618055e-38
0.0213401803524 -0.0229817326872 0.887 1.72657907425e-38
0.0230335517011 -0.0230335517011 0.889 1.74523315941e-38
0.0247343257662 -0.0230853707151 0.891 1.8937908352e-38
0.0263832808172 -0.0230853707151 0.891 1.682275622e-38
0.0281266205009 -0.023163099236 0.894 1.80072906275e-38
0.0297811275891 -0.023163099236 0.894 2.2897944181e-38
0.0315059604821 -0.02321491825 0.896 1.00165683035e-38
0.0334232639983 -0.0233962847988 0.903 1.58075729359e-38
0.0350944271982 -0.0233962847988 0.903 1.75592899033e-38
0.0367655903981 -0.0233962847988 0.903 1.8660948717e-38
0.038436753598 -0.0233962847988 0.903 1.96707622254e-38
0.0401079167979 -0.0233962847988 0.903 2.31856475713e-38
-0.0251507285568 -0.0217972980826 0.906 8.93321044774e-39
-0.0234740133197 -0.0217972980826 0.906 8.84170285543e-39
-0.0217972980826 -0.0217972980826 0.906 8.37964570629e-39
-0.020053958399 -0.0217251215989 0.903 1.47375372246e-38
-0.0183420802595 -0.0216770039431 0.901 6.99277080706e-39
-0.0166190980456 -0.0216048274593 0.898 1.00158087997e-38
-0.0149238760178 -0.0215567098035 0.896 1.25857677625e-38
-0.0132656675714 -0.0215567098035 0.896 1.14945318068e-38
-0.011581549618 -0.0215085921477 0.894 8.27595662643e-39
-0.00992704252972 -0.0215085921477 0.894 1.54639605394e-38
-0.00824477525538 -0.021436415664 0.891 1.40925475675e-38
-0.00659582020431 -0.021436415664 0.891 1.74991195485e-38
-0.00493576107881 -0.0213882980082 0.889 9.67076287496e-39
-0.00329050738588 -0.0213882980082 0.889 1.19924243616e-39
-0.00164525369294 -0.0213882980082 0.889 2.3141827567e-39
0.0 -0.0213882980082 0.889 5.80572527274e-39
0.00164525369294 -0.0213882980082 0.889 7.73211829761e-39
0.00329050738588 -0.0213882980082 0.889 1.04918467036e-38
0.00493576107881 -0.0213882980082 0.889 1.35080687806e-38
0.00658101477175 -0.0213882980082 0.889 1.65372094281e-38
0.00822626846469 -0.0213882980082 0.889 1.52446923622e-38
0.00987152215763 -0.0213882980082 0.889 1.68988074903e-38
0.0115167758506 -0.0213882980082 0.889 1.49691858738e-38
0.0131620295435 -0.0213882980082 0.889 1.85565225541e-38
0.0148072832364 -0.0213882980082 0.889 1.78308321184e-38
0.0164525369294 -0.0213882980082 0.889 1.79247877791e-38
0.0180977906223 -0.0213882980082 0.889 1.72776289119e-38
0.0197430443153 -0.0213882980082 0.889 1.79251409063e-38
0.021436415664 -0.021436415664 0.891 1.68145053747e-38
0.0230853707151 -0.021436415664 0.891 1.91200869614e-38
0.0248176063243 -0.0215085921477 0.894 1.81052245746e-38
0.0264721134126 -0.0215085921477 0.894 1.82846033897e-38
0.0281895435892 -0.0215567098035 0.896 1.82882033255e-38
0.0299143764822 -0.0216048274593 0.898 2.23620750365e-38
0.0315762862867 -0.0216048274593 0.898 7.53051068496e-39
0.0334232639983 -0.0217251215989 0.903 1.6912468749e-38
0.0352110199796 -0.0217972980826 0.906 2.11577669064e-38
0.0368877352167 -0.0217972980826 0.906 2.05101736367e-38
0.038436753598 -0.0217251215989 0.903 2.29033167593e-38
0.0401079167979 -0.0217251215989 0.903 2.10716991547e-38
-0.0251507285568 -0.0201205828455 0.906 8.74843102834e-39
-0.0234740133197 -0.0201205828455 0.906 9.39487383201e-39
-0.0217972980826 -0.0201205828455 0.906 6.26059796465e-39
-0.0201205828455 -0.0201205828455 0.906 1.51041309159e-38
-0.0183420802595 -0.0200095421013 0.901 1.46446521559e-38
-0.0166190980456 -0.0199429176548 0.898 6.33987782656e-39
-0.0149571882411 -0.0199429176548 0.898 1.17614329214e-38
-0.0132656675714 -0.0198985013571 0.896 1.00100690812e-38
-0.011607459125 -0.0198985013571 0.896 1.39755349418e-38
-0.00992704252972 -0.0198540850594 0.894 9.18426708061e-39
-0.00827253544143 -0.0198540850594 0.894 1.64896591673e-38
-0.00661802835314 -0.0198540850594 0.894 1.22429120673e-38
-0.00494686515323 -0.0197874606129 0.891 1.82373880392e-38
-0.00329791010215 -0.0197874606129 0.891 8.00654858887e-39
-0.00164525369294 -0.0197430443153 0.889 1.18773385213e-38
0.0 -0.0197430443153 0.889 1.42650095734e-38
0.00164525369294 -0.0197430443153 0.889 1.55511002844e-38
0.00329050738588 -0.0197430443153 0.889 1.54550034396e-38
0.00493576107881 -0.0197430443153 0.889 1.51532155985e-38
0.00658101477175 -0.0197430443153 0.889 1.61630473238e-38
0.00822626846469 -0.0197430443153 0.889 1.56149042061e-38
0.00987152215763 -0.0197430443153 0.889 1.68069719941e-38
0.0115167758506 -0.0197430443153 0.889 1.61677108451e-38
0.0131620295435 -0.0197430443153 0.889 1.51582378522e-38
0.0148072832364 -0.0197430443153 0.889 1.83907811756e-38
0.0164525369294 -0.0197430443153 0.889 1.73665945488e-38
0.0181385055618 -0.0197874606129 0.891 1.68105593182e-38
0.0197874606129 -0.0197874606129 0.891 1.72690193342e-38
0.0215085921477 -0.0198540850594 0.894 1.92065638922e-38
0.023163099236 -0.0198540850594 0.894 1.91161324971e-38
0.0248731266964 -0.0198985013571 0.896 1.66250946639e-38
0.0265313351428 -0.0198985013571 0.896 1.98487271304e-38
0.0281895435892 -0.0198985013571 0.896 2.19792851376e-38
0.0299143764822 -0.0199429176548 0.898 9.74105480853e-39
0.0317521007983 -0.020053958399 0.903 1.15712725159e-38
0.0335343047424 -0.0201205828455 0.906 1.60852332201e-38
0.0352110199796 -0.0201205828455 0.906 2.16216205202e-38
0.0368877352167 -0.0201205828455 0.906 1.91258182721e-38
0.038436753598 -0.020053958399 0.903 2.3274297916e-38
0.0401079167979 -0.020053958399 0.903 1.86680911352e-38
-0.0235258323337 -0.0184845825479 0.908 9.67358929397e-39
-0.0217972980826 -0.0184438676083 0.906 6.53789811515e-39
-0.0201205828455 -0.0184438676083 0.906 1.12351935e-38
-0.018382795199 -0.018382795199 0.903 1.34447048666e-38
-0.0166746184177 -0.0183420802595 0.901 1.16890404414e-38
-0.0149571882411 -0.0182810078502 0.898 6.24481373874e-39
-0.0132952784365 -0.0182810078502 0.898 9.73850864922e-39
-0.011607459125 -0.0182402929107 0.896 1.24035401076e-38
-0.00994925067855 -0.0182402929107 0.896 9.64272709659e-39
-0.00829104223213 -0.0182402929107 0.896 1.59321063304e-38
-0.00661802835314 -0.0181995779711 0.894 1.56598788803e-38
-0.00494686515323 -0.0181385055618 0.891 2.0261375897e-38
-0.00329791010215 -0.0181385055618 0.891 1.62073297566e-38
-0.00164895505108 -0.0181385055618 0.891 1.28673727019e-38
0.0 -0.0181385055618 0.891 1.52515208896e-38
0.00164895505108 -0.0181385055618 0.891 1.74666991072e-38
0.00329050738588 -0.0180977906223 0.889 1.64489738677e-38
0.00493576107881 -0.0180977906223 0.889 1.62624176018e-38
0.00658101477175 -0.0180977906223 0.889 1.65411751027e-38
0.00822626846469 -0.0180977906223 0.889 1.62649273274e-38
0.00987152215763 -0.0180977906223 0.889 1.82946352854e-38
0.0115167758506 -0.0180977906223 0.889 1.71014913002e-38
0.0131620295435 -0.0180977906223 0.889 1.55342286509e-38
0.0148405954597 -0.0181385055618 0.891 1.67280578711e-38
0.0164895505108 -0.0181385055618 0.891 1.72650732777e-38
0.0181385055618 -0.0181385055618 0.891 1.69895667892e-38
0.0198540850594 -0.0181995779711 0.894 1.625488282e-38
0.0215085921477 -0.0181995779711 0.894 1.5703869843e-38
0.02321491825 -0.0182402929107 0.896 1.78160890572e-38
0.0248731266964 -0.0182402929107 0.896 1.94813585211e-38
0.026590556873 -0.0182810078502 0.898 1.91197786757e-38
0.0282524666776 -0.0182810078502 0.898 2.02516116493e-38
0.0300143131519 -0.0183420802595 0.901 6.88873840907e-39
0.0318575895053 -0.0184438676083 0.906 1.64655330116e-38
0.0335343047424 -0.0184438676083 0.906 1.85953329164e-38
0.0352110199796 -0.0184438676083 0.906 1.79420349606e-38
0.0368877352167 -0.0184438676083 0.906 2.00445712025e-38
0.038436753598 -0.018382795199 0.903 2.02282520039e-38
0.0401079167979 -0.018382795199 0.903 1.83810996046e-38
-0.0235258323337 -0.0168041659526 0.908 7.91797951943e-39
-0.0218454157384 -0.0168041659526 0.908 1.07792151836e-38
-0.0201649991431 -0.0168041659526 0.908 0.0
-0.0184438676083 -0.0167671523712 0.906 1.28957672127e-38
-0.0167116319991 -0.0167116319991 0.903 1.58406744082e-38
-0.015007156576 -0.0166746184177 0.901 1.10479688148e-38
-0.0132952784365 -0.0166190980456 0.898 6.79726164532e-39
-0.011633368632 -0.0166190980456 0.898 6.52032022722e-39
-0.00994925067855 -0.0165820844643 0.896 7.34971375579e-39
-0.00829104223213 -0.0165820844643 0.896 1.60297558139e-38
-0.0066328337857 -0.0165820844643 0.896 1.46432256341e-38
-0.00497462533928 -0.0165820844643 0.896 1.61031964651e-38
-0.00330901417657 -0.0165450708829 0.894 1.57398271616e-38
-0.00165450708829 -0.0165450708829 0.894 1.58990258775e-38
0.0 -0.0165450708829 0.894 1.53476695825e-38
0.00165450708829 -0.0165450708829 0.894 1.58993790048e-38
0.00329791010215 -0.0164895505108 0.891 1.62624162005e-38
0.00494686515323 -0.0164895505108 0.891 1.67273418076e-38
0.00659582020431 -0.0164895505108 0.891 1.61741680284e-38
0.00824477525538 -0.0164895505108 0.891 1.65411512806e-38
0.00989373030646 -0.0164895505108 0.891 1.58900519622e-38
0.0115426853575 -0.0164895505108 0.891 1.65411512806e-38
0.0131916404086 -0.0164895505108 0.891 1.68202450932e-38
0.0148405954597 -0.0164895505108 0.891 1.82921283625e-38
0.0164895505108 -0.0164895505108 0.891 1.71761076408e-38
0.0181995779711 -0.0165450708829 0.894 1.70814022854e-38
0.0198540850594 -0.0165450708829 0.894 1.62638805574e-38
0.0215567098035 -0.0165820844643 0.896 1.76589656643e-38
0.0232667372639 -0.0166190980456 0.898 1.9216605597e-38
0.0249286470685 -0.0166190980456 0.898 1.8293219974e-38
0.0266793894684 -0.0166746184177 0.901 2.2825899223e-38
0.0283468513102 -0.0166746184177 0.901 4.86728129637e-39
0.0300809375984 -0.0167116319991 0.903 1.31529769471e-38
0.0318575895053 -0.0167671523712 0.906 1.41702986127e-38
0.0335343047424 -0.0167671523712 0.906 1.3716492309e-38
0.0352110199796 -0.0167671523712 0.906 1.92373980636e-38
0.0368877352167 -0.0167671523712 0.906 1.86637709321e-38
0.038436753598 -0.0167116319991 0.903 2.0406907749e-38
0.0401079167979 -0.0167116319991 0.903 2.022864717e-38
-0.0256226517196 -0.0153735910318 0.923 9.39131453391e-39
-0.0239144749383 -0.0153735910318 0.923 7.54955713368e-39
-0.0218935333942 -0.0151570615806 0.91 8.74913448017e-39
-0.0201649991431 -0.0151237493574 0.908 4.23340113344e-39
-0.0184438676083 -0.0150904371341 0.906 5.79641084185e-39
-0.0167671523712 -0.0150904371341 0.906 1.2618541331e-38
-0.0150404687992 -0.0150404687992 0.903 1.63938131549e-38
-0.0133396947342 -0.015007156576 0.901 1.56602712439e-38
-0.011633368632 -0.0149571882411 0.898 1.41861949425e-38
-0.00997145882739 -0.0149571882411 0.898 1.50173779292e-38
-0.00830954902282 -0.0149571882411 0.898 1.62134029841e-38
-0.0066328337857 -0.0149238760178 0.896 1.33459805872e-38
-0.00497462533928 -0.0149238760178 0.896 1.97014072215e-38
-0.00331641689285 -0.0149238760178 0.896 1.41732245239e-38
-0.00165820844643 -0.0149238760178 0.896 1.42345019045e-38
0.0 -0.0149238760178 0.896 1.58900561661e-38
0.00165820844643 -0.0149238760178 0.896 1.50610213699e-38
0.00330901417657 -0.0148905637946 0.894 1.625488282e-38
0.00496352126486 -0.0148905637946 0.894 1.50610213699e-38
0.00661802835314 -0.0148905637946 0.894 1.6907431081e-38
0.00827253544143 -0.0148905637946 0.894 1.66319105796e-38
0.00992704252972 -0.0148905637946 0.894 1.74587901787e-38
0.011581549618 -0.0148905637946 0.894 1.70972299515e-38
0.0132360567063 -0.0148905637946 0.894 1.80169988233e-38
0.0148905637946 -0.0148905637946 0.894 1.57063809699e-38
0.0165450708829 -0.0148905637946 0.894 1.70814022854e-38
0.0182402929107 -0.0149238760178 0.896 2.04051028766e-38
0.0198985013571 -0.0149238760178 0.896 1.59926494305e-38
0.0216048274593 -0.0149571882411 0.898 1.55295258933e-38
0.0232667372639 -0.0149571882411 0.898 1.84672248095e-38
0.0249286470685 -0.0149571882411 0.898 2.24503232086e-38
0.0266793894684 -0.015007156576 0.901 1.01091338762e-38
0.0284097743985 -0.0150404687992 0.903 9.18534327783e-39
0.0301808742682 -0.0150904371341 0.906 1.10447093946e-38
0.0318575895053 -0.0150904371341 0.906 1.39037898617e-38
0.0335343047424 -0.0150904371341 0.906 8.00331999721e-39
0.0352887485005 -0.0151237493574 0.908 1.80231701417e-38
0.0368877352167 -0.0150904371341 0.906 2.01349423417e-38
0.0385644504538 -0.0150904371341 0.906 1.99484253122e-38
0.0402411656909 -0.0150904371341 0.906 2.15305543369e-38
-0.0239144749383 -0.0136654142505 0.923 7.9172774689e-39
-0.0218935333942 -0.0134729436272 0.91 7.36514625578e-39
-0.0202094154408 -0.0134729436272 0.91 5.43049117515e-39
-0.0184845825479 -0.0134433327621 0.908 4.231248739e-39
-0.0167671523712 -0.013413721897 0.906 9.58174398872e-39
-0.0150404687992 -0.0133693055993 0.903 1.33564300699e-38
-0.0133693055993 -0.0133693055993 0.903 1.66744161659e-38
-0.0116722328924 -0.0133396947342 0.901 1.26130664579e-38
-0.00997145882739 -0.0132952784365 0.898 1.39881550358e-38
-0.00830954902282 -0.0132952784365 0.898 1.38938014063e-38
-0.00664763921826 -0.0132952784365 0.898 1.78592700694e-38
-0.00498572941369 -0.0132952784365 0.898 1.85990029171e-38
-0.00331641689285 -0.0132656675714 0.896 1.03813571223e-38
-0.00165820844643 -0.0132656675714 0.896 1.45100111956e-38
0.0 -0.0132656675714 0.896 1.50610213699e-38
0.00165820844643 -0.0132656675714 0.896 1.59808112611e-38
0.00331641689285 -0.0132656675714 0.896 1.60737229545e-38
0.00497462533928 -0.0132656675714 0.896 1.55219925127e-38
0.0066328337857 -0.0132656675714 0.896 1.57049460402e-38
0.00827253544143 -0.0132360567063 0.894 1.65354115621e-38
0.00992704252972 -0.0132360567063 0.894 1.70882182011e-38
0.011581549618 -0.0132360567063 0.894 1.75513417384e-38
0.0132360567063 -0.0132360567063 0.894 1.67140603008e-38
0.0149238760178 -0.0132656675714 0.896 1.64385538123e-38
0.0165820844643 -0.0132656675714 0.896 1.90171517801e-38
0.0182402929107 -0.0132656675714 0.896 1.75499068088e-38
0.0198985013571 -0.0132656675714 0.896 1.92101203877e-38
0.0216048274593 -0.0132952784365 0.898 1.69978176346e-38
0.0232667372639 -0.0132952784365 0.898 2.07818139427e-38
0.0250119276266 -0.0133396947342 0.901 1.2594122304e-38
0.0267386111986 -0.0133693055993 0.903 1.11120950351e-38
0.0285041590311 -0.013413721897 0.906 1.14998987799e-38
0.0301808742682 -0.013413721897 0.906 8.92922655621e-39
0.0318575895053 -0.013413721897 0.906 1.1230892915e-38
0.0336083319052 -0.0134433327621 0.908 1.11246548733e-38
0.0352887485005 -0.0134433327621 0.908 2.13392911095e-38
0.0369691650957 -0.0134433327621 0.908 1.65425862103e-38
0.038649581691 -0.0134433327621 0.908 1.77350323489e-38
-0.0220138275337 -0.0118535994412 0.915 7.73537071135e-39
-0.020320456185 -0.0118535994412 0.915 5.06063806367e-39
-0.0185252974874 -0.0117888256738 0.91 5.24470141956e-39
-0.0168041659526 -0.0117629161668 0.908 5.1560608839e-39
-0.0150904371341 -0.0117370066599 0.906 1.04986934479e-38
-0.0133693055993 -0.0116981423994 0.903 1.43741791315e-38
-0.0116981423994 -0.0116981423994 0.903 1.72225130407e-38
-0.0100047710506 -0.0116722328924 0.901 1.77710022792e-38
-0.00830954902282 -0.011633368632 0.898 1.81398072194e-38
-0.00664763921826 -0.011633368632 0.898 1.69387430952e-38
-0.00498572941369 -0.011633368632 0.898 1.130509307e-38
-0.00332381960913 -0.011633368632 0.898 1.34998179352e-38
-0.00166190980456 -0.011633368632 0.898 1.39604303456e-38
0.0 -0.011633368632 0.898 1.59926634435e-38
0.00166190980456 -0.011633368632 0.898 1.64504368233e-38
0.00332381960913 -0.011633368632 0.898 1.70968277789e-38
0.00498572941369 -0.011633368632 0.898 1.59890705143e-38
0.0066328337857 -0.011607459125 0.896 1.64503919817e-38
0.00829104223213 -0.011607459125 0.896 1.53429850417e-38
0.00994925067855 -0.011607459125 0.896 1.66308343824e-38
0.011607459125 -0.011607459125 0.896 1.68084069238e-38
0.0132656675714 -0.011607459125 0.896 1.68991662227e-38
0.0149238760178 -0.011607459125 0.896 1.74598649746e-38
0.0165820844643 -0.011607459125 0.896 1.7364083422e-38
0.0182810078502 -0.011633368632 0.898 1.79165313286e-38
0.0199429176548 -0.011633368632 0.898 1.7728196815e-38
0.0216770039431 -0.0116722328924 0.901 2.05105842172e-38
0.0233444657848 -0.0116722328924 0.901 1.23157011147e-38
0.0250119276266 -0.0116722328924 0.901 1.02855755697e-38
0.0267386111986 -0.0116981423994 0.903 1.50818923092e-38
0.0285041590311 -0.0117370066599 0.906 1.05800948757e-38
0.0302474987147 -0.0117629161668 0.908 1.1318769743e-38
0.03192791531 -0.0117629161668 0.908 1.3974803464e-38
0.0336083319052 -0.0117629161668 0.908 2.25374237173e-38
0.0352887485005 -0.0117629161668 0.908 1.94078674231e-38
0.0369691650957 -0.0117629161668 0.908 1.56203104156e-38
0.0387347129282 -0.0117888256738 0.91 2.0687830256e-38
-0.0220860040175 -0.0101935403157 0.918 7.63778428629e-39
-0.020320456185 -0.0101602280925 0.915 7.73572103597e-39
-0.0185252974874 -0.0101047077204 0.91 4.78584904001e-39
-0.016841179534 -0.0101047077204 0.91 2.47955839627e-39
-0.0151237493574 -0.0100824995716 0.908 9.85618549036e-39
-0.013413721897 -0.0100602914227 0.906 2.57139389242e-39
-0.0116981423994 -0.0100269791995 0.903 1.3237336516e-38
-0.0100269791995 -0.0100269791995 0.903 1.20354722504e-38
-0.00833730920887 -0.0100047710506 0.901 1.16631080121e-38
-0.00666984736709 -0.0100047710506 0.901 1.11120950351e-38
-0.00500238552532 -0.0100047710506 0.901 1.46969303977e-38
-0.00333492368355 -0.0100047710506 0.901 1.487770911e-38
-0.00166746184177 -0.0100047710506 0.901 1.38682361171e-38
0.0 -0.00997145882739 0.898 1.47858736138e-38
0.00166190980456 -0.00997145882739 0.898 1.57053047726e-38
0.00332381960913 -0.00997145882739 0.898 1.46936793853e-38
0.00498572941369 -0.00997145882739 0.898 1.55201988507e-38
0.00664763921826 -0.00997145882739 0.898 1.50610213699e-38
0.00830954902282 -0.00997145882739 0.898 1.55201988507e-38
0.00997145882739 -0.00997145882739 0.898 1.71861521482e-38
0.011633368632 -0.00997145882739 0.898 1.62606225385e-38
0.0132952784365 -0.00997145882739 0.898 1.75495480763e-38
0.0149571882411 -0.00997145882739 0.898 1.74598649746e-38
0.0166190980456 -0.00997145882739 0.898 1.57045873078e-38
0.0182810078502 -0.00997145882739 0.898 1.66222248046e-38
0.0200095421013 -0.0100047710506 0.901 1.94103855565e-38
0.0217251215989 -0.0100269791995 0.903 9.73748430005e-39
0.0233962847988 -0.0100269791995 0.903 9.64272709659e-39
0.0250674479987 -0.0100269791995 0.903 1.23271637361e-38
0.026827443794 -0.0100602914227 0.906 1.35282236564e-38
0.0285041590311 -0.0100602914227 0.906 1.39937952621e-38
0.0302474987147 -0.0100824995716 0.908 1.76686878731e-38
0.03192791531 -0.0100824995716 0.908 1.9774421878e-38
0.0336083319052 -0.0100824995716 0.908 2.14324830626e-38
0.0353664770214 -0.0101047077204 0.91 1.85748263147e-38
0.0370505949748 -0.0101047077204 0.91 2.08832497347e-38
-0.0203870806315 -0.00849461692979 0.918 7.45737411551e-39
-0.0186270848362 -0.00846685674374 0.915 6.90739249423e-39
-0.0168966999061 -0.00844834995305 0.913 5.79676396906e-39
-0.0151570615806 -0.008420589767 0.91 1.04990886141e-38
-0.0134433327621 -0.00840208297631 0.908 1.05944693954e-38
-0.0117629161668 -0.00840208297631 0.908 8.55792029822e-39
-0.0100602914227 -0.00838357618561 0.906 1.38018832335e-38
-0.00835581599956 -0.00835581599956 0.903 1.4531173605e-38
-0.00668465279965 -0.00835581599956 0.903 1.21319712678e-38
-0.00501348959974 -0.00835581599956 0.903 1.45182592383e-38
-0.00334232639983 -0.00835581599956 0.903 1.52497146159e-38
-0.00167116319991 -0.00835581599956 0.903 1.56177740654e-38
0.0 -0.00833730920887 0.901 1.48773503776e-38
0.00166746184177 -0.00833730920887 0.901 1.55212750479e-38
0.00334232639983 -0.00835581599956 0.903 1.43263374006e-38
0.00500238552532 -0.00833730920887 0.901 1.47916133324e-38
0.00666984736709 -0.00833730920887 0.901 1.45161068439e-38
0.00830954902282 -0.00830954902282 0.898 1.46958317797e-38
0.00997145882739 -0.00830954902282 0.898 1.52446923622e-38
0.0116722328924 -0.00833730920887 0.901 1.5703869843e-38
0.0133396947342 -0.00833730920887 0.901 1.57957053392e-38
0.015007156576 -0.00833730920887 0.901 1.56123930793e-38
0.0166746184177 -0.00833730920887 0.901 1.96808613835e-38
0.0183420802595 -0.00833730920887 0.901 1.87794481203e-38
0.020053958399 -0.00835581599956 0.903 6.06329514087e-39
0.0217972980826 -0.00838357618561 0.906 1.01937400735e-38
0.0234740133197 -0.00838357618561 0.906 1.36049923915e-38
0.0251507285568 -0.00838357618561 0.906 1.4623027318e-38
0.026827443794 -0.00838357618561 0.906 1.06590230117e-38
0.0285670821194 -0.00840208297631 0.908 1.60070029307e-38
0.0303141231612 -0.008420589767 0.91 1.92104847253e-38
0.0319982411146 -0.008420589767 0.91 2.12444946697e-38
0.033682359068 -0.008420589767 0.91 1.94024009578e-38
0.0353664770214 -0.008420589767 0.91 1.88521054457e-38
0.0371727397934 -0.00844834995305 0.913 1.77576128723e-38
-0.0203870806315 -0.00679569354383 0.918 6.16087035554e-39
-0.0186270848362 -0.006773485395 0.915 6.62759663115e-39
-0.0169337134875 -0.006773485395 0.915 5.79747442738e-39
-0.0152070299155 -0.00675867996244 0.913 9.02325788706e-39
-0.0134729436272 -0.0067364718136 0.91 9.02965341325e-39
-0.0117629161668 -0.00672166638105 0.908 9.21619426482e-39
-0.0100824995716 -0.00672166638105 0.908 1.08649424198e-38
-0.00838357618561 -0.00670686094849 0.906 1.28756305538e-38
-0.00670686094849 -0.00670686094849 0.906 1.41491277955e-38
-0.00503014571137 -0.00670686094849 0.906 1.45153893791e-38
-0.00335343047424 -0.00670686094849 0.906 1.49734906626e-38
-0.00167671523712 -0.00670686094849 0.906 1.54315919462e-38
0.0 -0.00668465279965 0.903 1.41430251407e-38
0.00167116319991 -0.00668465279965 0.903 1.57132094973e-38
0.00334232639983 -0.00668465279965 0.903 1.52590416585e-38
0.00501348959974 -0.00668465279965 0.903 1.48917052791e-38
0.00668465279965 -0.00668465279965 0.903 1.57225351386e-38
0.00835581599956 -0.00668465279965 0.903 1.58089924512e-38
0.0100269791995 -0.00668465279965 0.903 1.5990139705e-38
0.0116981423994 -0.00668465279965 0.903 1.66401628262e-38
0.0133693055993 -0.00668465279965 0.903 1.76565021816e-38
0.0150404687992 -0.00668465279965 0.903 1.88744029068e-38
0.0167116319991 -0.00668465279965 0.903 1.02110208862e-38
0.018382795199 -0.00668465279965 0.903 7.53051068496e-39
0.0201205828455 -0.00670686094849 0.906 1.26783291313e-38
0.0217972980826 -0.00670686094849 0.906 1.39661700642e-38
0.0235258323337 -0.00672166638105 0.908 1.71822229073e-38
0.0252062489289 -0.00672166638105 0.908 1.69996112966e-38
0.0268866655242 -0.00672166638105 0.908 2.00578078678e-38
0.0286300052078 -0.0067364718136 0.91 1.71890220074e-38
0.030414059831 -0.00675867996244 0.913 1.91086005179e-38
0.0321037298216 -0.00675867996244 0.913 1.85554337452e-38
0.0337933998122 -0.00675867996244 0.913 1.82853614922e-38
0.0354830698028 -0.00675867996244 0.913 1.62871687366e-38
0.0372541696725 -0.006773485395 0.915 2.22867706584e-38
-0.0169337134875 -0.00508011404625 0.915 5.70743539585e-39
-0.0152403421387 -0.00508011404625 0.915 9.95124957818e-39
-0.01354697079 -0.00508011404625 0.915 4.78656650483e-39
-0.0118276899343 -0.00506900997183 0.913 8.56692364086e-39
-0.0100824995716 -0.00504124978578 0.908 8.19885017843e-39
-0.00840208297631 -0.00504124978578 0.908 1.27064153564e-38
-0.00672166638105 -0.00504124978578 0.908 1.33423904605e-38
-0.00503014571137 -0.00503014571137 0.906 1.13937041784e-38
-0.00335343047424 -0.00503014571137 0.906 1.34115697631e-38
-0.00167671523712 -0.00503014571137 0.906 1.7186188582e-38
0.0 -0.00503014571137 0.906 1.38757694976e-38
0.00167671523712 -0.00503014571137 0.906 1.38685948495e-38
0.00335343047424 -0.00503014571137 0.906 1.55219925127e-38
0.00503014571137 -0.00503014571137 0.906 1.66326392548e-38
0.00670686094849 -0.00503014571137 0.906 1.62692503331e-38
0.00838357618561 -0.00503014571137 0.906 1.76565049842e-38
0.0100602914227 -0.00503014571137 0.906 1.79442223875e-38
0.0117370066599 -0.00503014571137 0.906 1.74018890533e-38
0.013413721897 -0.00503014571137 0.906 1.04883308458e-38
0.0150904371341 -0.00503014571137 0.906 4.13259732711e-39
0.0167671523712 -0.00503014571137 0.906 4.77544580022e-39
0.0184438676083 -0.00503014571137 0.906 1.19418613091e-38
0.0201649991431 -0.00504124978578 0.908 1.71915415421e-38
