# .PCD v0.7 - Point Cloud Data file format
VERSION 0.7
FIELDS x y z rgb
SIZE 4 4 4 4
TYPE F F F F
COUNT 1 1 1 1
WIDTH 836
HEIGHT 1
VIEWPOINT 0 0 0 1 0 0 0
POINTS 836
DATA ascii
-0.0207646191617 -0.0519115479043 0.935 5.14745130614e-39
-0.0190342342316 -0.0519115479043 0.935 1.14844704838e-38
-0.0173038493014 -0.0519115479043 0.935 1.28569694621e-38
-0.0155734643713 -0.0519115479043 0.935 1.20304499967e-38
-0.0138430794411 -0.0519115479043 0.935 1.38750520328e-38
-0.012112694511 -0.0519115479043 0.935 1.69297131279e-38
-0.010360101432 -0.0518005071601 0.933 1.56537425944e-38
-0.00863341786002 -0.0518005071601 0.933 1.92396877853e-38
-0.00690673428801 -0.0518005071601 0.933 9.55089160043e-39
-0.00518005071601 -0.0518005071601 0.933 8.72437213501e-39
-0.00345336714401 -0.0518005071601 0.933 1.02855755697e-38
-0.001726683572 -0.0518005071601 0.933 9.36722060812e-39
0.0 -0.0518005071601 0.933 8.90804312733e-39
0.001726683572 -0.0518005071601 0.933 1.63680320658e-38
0.00345336714401 -0.0518005071601 0.933 9.45909954453e-39
0.00518005071601 -0.0518005071601 0.933 1.54449617349e-38
0.00690673428801 -0.0518005071601 0.933 9.93052997909e-39
0.00863341786002 -0.0518005071601 0.933 1.88554587529e-38
0.0103823095809 -0.0519115479043 0.935 1.82261804541e-38
0.012112694511 -0.0519115479043 0.935 9.65887566009e-39
0.0138430794411 -0.0519115479043 0.935 1.81391037676e-38
0.0155734643713 -0.0519115479043 0.935 1.94280433184e-38
0.0173593696735 -0.0520781090205 0.938 1.18611661357e-38
0.0190953066409 -0.0520781090205 0.938 1.02855755697e-38
0.0208756599059 -0.0521891497647 0.94 1.35916534314e-38
0.0226874747151 -0.052355710881 0.943 1.99636616304e-38
0.0245103935987 -0.0525222719973 0.946 1.7012618149e-38
0.0262611359986 -0.0525222719973 0.946 1.9215159457e-38
0.0280118783985 -0.0525222719973 0.946 2.07810950766e-38
0.0298255438868 -0.0526333127414 0.948 2.3475986804e-38
-0.0424619805745 -0.0513082265276 0.956 2.14566792831e-38
-0.0406927313839 -0.0513082265276 0.956 2.33006044921e-38
-0.0387199074957 -0.0510398780625 0.951 1.28842429341e-38
-0.036843318919 -0.0508788689834 0.948 1.35984693471e-38
-0.035088875161 -0.0508788689834 0.948 1.37807054098e-38
-0.0332641055983 -0.0507715295974 0.946 1.35077142521e-38
-0.0314134265286 -0.0506105205183 0.943 1.56235179878e-38
-0.0296682361659 -0.0506105205183 0.943 1.36088725869e-38
-0.0278342132079 -0.0504495114392 0.94 1.205844794e-38
-0.0260390545103 -0.0503421720532 0.938 1.37753244237e-39
-0.0243031175429 -0.0503421720532 0.938 1.47367931351e-38
-0.0225671805756 -0.0503421720532 0.938 1.54654108833e-38
-0.0208312436082 -0.0503421720532 0.938 1.56544656644e-38
-0.0190953066409 -0.0503421720532 0.938 5.60196526564e-39
-0.0173038493014 -0.0501811629741 0.935 1.09284240428e-38
-0.0155734643713 -0.0501811629741 0.935 1.19386145005e-38
-0.0138430794411 -0.0501811629741 0.935 9.55089160043e-39
-0.012112694511 -0.0501811629741 0.935 1.84084599571e-38
-0.0103823095809 -0.0501811629741 0.935 1.42686599559e-38
-0.00865192465071 -0.0501811629741 0.935 1.93336616629e-38
-0.00692153972057 -0.0501811629741 0.935 9.36722060812e-39
-0.00519115479043 -0.0501811629741 0.935 1.01937456787e-38
-0.00346076986028 -0.0501811629741 0.935 1.98857606462e-38
-0.00173038493014 -0.0501811629741 0.935 1.98900500208e-38
0.0 -0.0500738235881 0.933 1.80489960724e-38
0.001726683572 -0.0500738235881 0.933 1.98907562752e-38
0.00346076986028 -0.0501811629741 0.935 1.8504951968e-38
0.00519115479043 -0.0501811629741 0.935 1.98906834077e-38
0.00692153972057 -0.0501811629741 0.935 1.52846293685e-38
0.00865192465071 -0.0501811629741 0.935 1.79514853175e-38
0.0103823095809 -0.0501811629741 0.935 1.80487003984e-38
0.012112694511 -0.0501811629741 0.935 6.52032022722e-39
0.0138430794411 -0.0501811629741 0.935 8.63253663885e-39
0.0156234327062 -0.0503421720532 0.938 1.00100690812e-38
0.0173593696735 -0.0503421720532 0.938 1.76461507899e-38
0.0191360215804 -0.0504495114392 0.94 1.97835247128e-38
0.0209422843524 -0.0506105205183 0.943 1.99650461133e-38
0.0227596511988 -0.0507715295974 0.946 1.44196078264e-38
0.0245103935987 -0.0507715295974 0.946 2.16118899037e-38
0.0262611359986 -0.0507715295974 0.946 1.87595861159e-38
0.0280118783985 -0.0507715295974 0.946 2.04101447484e-38
0.0298255438868 -0.0508788689834 0.948 2.34774371479e-38
-0.0424619805745 -0.049538977337 0.956 2.29314366156e-38
-0.0406927313839 -0.049538977337 0.956 2.30243749336e-38
-0.0388420523143 -0.0494353393091 0.954 1.39902597861e-38
-0.0369599117004 -0.0492798822672 0.951 1.33208104642e-38
-0.035088875161 -0.0491244252253 0.948 1.1020259539e-38
-0.0333344314029 -0.0491244252253 0.948 2.09745092972e-38
-0.0314134265286 -0.0488653301556 0.943 1.25079228302e-38
-0.0296682361659 -0.0488653301556 0.943 1.2497160858e-38
-0.0278342132079 -0.0487098731137 0.94 1.29739204307e-38
-0.0260945748824 -0.0487098731137 0.94 8.47182452057e-39
-0.0243031175429 -0.0486062350858 0.938 8.38250015126e-39
-0.0225671805756 -0.0486062350858 0.938 1.82405521712e-38
-0.0208312436082 -0.0486062350858 0.938 1.66635981418e-38
-0.0190953066409 -0.0486062350858 0.938 1.40814394745e-38
-0.0173038493014 -0.048450778044 0.935 8.54679959361e-39
-0.0155734643713 -0.048450778044 0.935 8.81620763117e-39
-0.0138430794411 -0.048450778044 0.935 1.54553313435e-38
-0.012112694511 -0.048450778044 0.935 1.78654035528e-38
-0.0103823095809 -0.048450778044 0.935 1.56415400873e-38
-0.00865192465071 -0.048450778044 0.935 1.66567836273e-38
-0.00692153972057 -0.048450778044 0.935 9.64272709659e-39
-0.00519115479043 -0.048450778044 0.935 9.36722060812e-39
-0.00346076986028 -0.048450778044 0.935 1.0469246562e-38
-0.00173038493014 -0.048450778044 0.935 1.01937400735e-38
0.0 -0.048450778044 0.935 1.07447530505e-38
0.00173038493014 -0.048450778044 0.935 1.1020259539e-38
0.00346076986028 -0.048450778044 0.935 1.03774110659e-38
0.00519115479043 -0.048450778044 0.935 1.08365885466e-38
0.00692153972057 -0.048450778044 0.935 9.91823358506e-39
0.00865192465071 -0.048450778044 0.935 1.01937400735e-38
0.0103823095809 -0.048450778044 0.935 1.2765133966e-38
0.012112694511 -0.048450778044 0.935 1.9398936948e-38
0.0138874957388 -0.0486062350858 0.938 2.18182423129e-38
0.0156234327062 -0.0486062350858 0.938 2.08977279504e-38
0.0173963832549 -0.0487098731137 0.94 1.78487309037e-38
0.0191360215804 -0.0487098731137 0.94 1.46936793853e-38
0.0210089087989 -0.0490207871974 0.946 2.14066739474e-38
0.0227596511988 -0.0490207871974 0.946 2.07767790773e-38
0.0245103935987 -0.0490207871974 0.946 1.94074232115e-38
0.0262611359986 -0.0490207871974 0.946 1.73691533198e-38
0.0280711001288 -0.0491244252253 0.948 1.92901835755e-38
0.0298255438868 -0.0491244252253 0.948 2.34824720133e-38
-0.0389234821933 -0.0477697281463 0.956 1.40835302118e-38
-0.0370765044818 -0.0476697914766 0.954 1.60113791858e-38
-0.0351999159051 -0.0475198864719 0.951 1.01937400735e-38
-0.0333344314029 -0.0473699814673 0.948 1.91259121591e-38
-0.0315133631984 -0.0472700447975 0.946 1.67529295176e-38
-0.0296682361659 -0.0471201397929 0.943 1.52568892641e-38
-0.0278342132079 -0.0469702347883 0.94 1.35105799074e-38
-0.0260945748824 -0.0469702347883 0.94 7.90000506403e-39
-0.0243031175429 -0.0468702981185 0.938 8.73154678315e-39
-0.0225671805756 -0.0468702981185 0.938 1.00100690812e-38
-0.0208312436082 -0.0468702981185 0.938 2.02452427478e-38
-0.0190953066409 -0.0468702981185 0.938 1.53648733237e-38
-0.0173593696735 -0.0468702981185 0.938 1.89684566585e-38
-0.0156234327062 -0.0468702981185 0.938 1.68551570431e-38
-0.0138430794411 -0.0467203931138 0.935 1.67572160896e-38
-0.012112694511 -0.0467203931138 0.935 1.46277440886e-38
-0.0103823095809 -0.0467203931138 0.935 2.22792540934e-38
-0.00865192465071 -0.0467203931138 0.935 1.93318609944e-38
-0.00692153972057 -0.0467203931138 0.935 2.08980936893e-38
-0.00519115479043 -0.0467203931138 0.935 2.02559430628e-38
-0.00346076986028 -0.0467203931138 0.935 2.08084007785e-38
-0.00173038493014 -0.0467203931138 0.935 1.90549293854e-38
0.0 -0.0467203931138 0.935 1.94244125541e-38
0.00173038493014 -0.0467203931138 0.935 2.03442178596e-38
0.0034718739347 -0.0468702981185 0.938 2.11761099033e-38
0.00520781090205 -0.0468702981185 0.938 2.10845995084e-38
0.00694374786941 -0.0468702981185 0.938 2.10835401268e-38
0.00867968483676 -0.0468702981185 0.938 2.04363616414e-38
0.0104156218041 -0.0468702981185 0.938 1.80349130228e-38
0.0121515587715 -0.0468702981185 0.938 1.48823796378e-38
0.0138874957388 -0.0468702981185 0.938 1.68058957969e-38
0.0156567449294 -0.0469702347883 0.94 1.92951441721e-38
0.0173963832549 -0.0469702347883 0.94 2.02325077473e-38
0.0191970939897 -0.0471201397929 0.943 2.02293856543e-38
0.0210089087989 -0.0472700447975 0.946 1.90275382043e-38
0.0227596511988 -0.0472700447975 0.946 2.13335836208e-38
0.0245103935987 -0.0472700447975 0.946 1.99595614311e-38
0.0262611359986 -0.0472700447975 0.946 1.80116514683e-38
0.0280711001288 -0.0473699814673 0.948 1.61630473238e-38
0.0298255438868 -0.0473699814673 0.948 2.348606214e-38
-0.0409481250955 -0.0462891848906 0.962 2.34849859427e-38
-0.0389234821933 -0.0460004789557 0.956 1.13169368446e-38
-0.0370765044818 -0.0459042436441 0.954 1.48981694689e-38
-0.0351999159051 -0.0457598906767 0.951 1.40705611946e-38
-0.0334399201099 -0.0457598906767 0.951 1.25814657762e-38
-0.0315133631984 -0.0455193023976 0.946 1.30406404544e-38
-0.0296682361659 -0.0453749494302 0.943 1.36834889275e-38
-0.0279230458032 -0.0453749494302 0.943 1.74709996922e-38
-0.0261778554405 -0.0453749494302 0.943 1.3142520458e-38
-0.0243549365569 -0.0452305964628 0.94 1.23131311333e-38
-0.0226152982314 -0.0452305964628 0.94 1.61720324496e-38
-0.0208312436082 -0.0451343611511 0.938 1.45157579206e-38
-0.0190953066409 -0.0451343611511 0.938 1.88604333625e-38
-0.0173593696735 -0.0451343611511 0.938 1.92399862619e-38
-0.0156234327062 -0.0451343611511 0.938 1.85056932549e-38
-0.0138874957388 -0.0451343611511 0.938 1.92417981408e-38
-0.0121515587715 -0.0451343611511 0.938 1.84999549377e-38
-0.0103823095809 -0.0449900081837 0.935 1.23063152176e-38
-0.00865192465071 -0.0449900081837 0.935 1.46018438891e-38
-0.00694374786941 -0.0451343611511 0.938 1.51528568661e-38
-0.00520781090205 -0.0451343611511 0.938 1.47855148814e-38
-0.0034718739347 -0.0451343611511 0.938 1.50610213699e-38
-0.00173593696735 -0.0451343611511 0.938 1.51528568661e-38
0.0 -0.0451343611511 0.938 1.52446923622e-38
0.00173593696735 -0.0451343611511 0.938 1.55201988507e-38
0.0034718739347 -0.0451343611511 0.938 1.58875408353e-38
0.00520781090205 -0.0451343611511 0.938 1.54283633545e-38
0.00694374786941 -0.0451343611511 0.938 1.59793763315e-38
0.00867968483676 -0.0451343611511 0.938 1.63467183161e-38
0.0104156218041 -0.0451343611511 0.938 2.17913037512e-38
0.0121515587715 -0.0451343611511 0.938 1.81095447778e-38
0.0139171066039 -0.0452305964628 0.94 2.04097944238e-38
0.0156567449294 -0.0452305964628 0.94 1.70842721446e-38
0.017451903627 -0.0453749494302 0.943 1.97711778721e-38
0.019258166399 -0.0455193023976 0.946 2.11527264358e-38
0.0210089087989 -0.0455193023976 0.946 1.77357301955e-38
0.0228077688546 -0.0456155377093 0.948 2.21625301352e-38
0.0245622126127 -0.0456155377093 0.948 1.59883446417e-38
0.0263166563707 -0.0456155377093 0.948 1.78160862547e-38
0.0280711001288 -0.0456155377093 0.948 1.83775024714e-38
0.0298255438868 -0.0456155377093 0.948 2.34846286116e-38
-0.0409481250955 -0.0445088316256 0.962 2.34871411398e-38
-0.0390456270119 -0.0443700306954 0.959 1.18719112923e-38
-0.0371542330027 -0.0442312297651 0.956 1.18586171738e-38
-0.0353109566493 -0.0441386958117 0.954 1.29606599433e-38
-0.0334399201099 -0.0439998948814 0.951 1.43349469784e-38
-0.0315133631984 -0.0437685599977 0.946 1.18467790044e-38
-0.0297626207984 -0.0437685599977 0.946 1.30406404544e-38
-0.0279230458032 -0.0436297590675 0.943 1.3958995416e-38
-0.0261778554405 -0.0436297590675 0.943 1.7931623313e-38
-0.0244326650778 -0.0436297590675 0.943 1.72938335274e-38
-0.0226874747151 -0.0436297590675 0.943 1.35916534314e-38
-0.0208756599059 -0.0434909581373 0.94 1.636070888e-38
-0.0191360215804 -0.0434909581373 0.94 1.37753244237e-38
-0.0173593696735 -0.0433984241838 0.938 1.40508309122e-38
-0.0156234327062 -0.0433984241838 0.938 1.46936793853e-38
-0.0138874957388 -0.0433984241838 0.938 1.42345019045e-38
-0.0121515587715 -0.0433984241838 0.938 1.4510008393e-38
-0.0104156218041 -0.0433984241838 0.938 1.4510008393e-38
-0.00867968483676 -0.0433984241838 0.938 2.04080189787e-38
-0.00694374786941 -0.0433984241838 0.938 1.99591648637e-38
-0.00520781090205 -0.0433984241838 0.938 1.77443397733e-38
-0.0034718739347 -0.0433984241838 0.938 1.91308643479e-38
-0.00173593696735 -0.0433984241838 0.938 1.87631440127e-38
0.0 -0.0433984241838 0.938 1.99591858831e-38
0.00173593696735 -0.0433984241838 0.938 1.98681211011e-38
0.0034718739347 -0.0433984241838 0.938 1.94967573899e-38
0.00520781090205 -0.0433984241838 0.938 1.79226297795e-38
0.00694374786941 -0.0433984241838 0.938 1.83850428584e-38
0.00867968483676 -0.0433984241838 0.938 1.58032387197e-38
0.0104156218041 -0.0433984241838 0.938 1.68162990367e-38
0.0121774682784 -0.0434909581373 0.94 2.01292040245e-38
0.0139171066039 -0.0434909581373 0.94 1.96754705883e-38
0.0157067132643 -0.0436297590675 0.943 1.89306762506e-38
0.0175074239991 -0.0437685599977 0.946 1.81920420209e-38
0.019258166399 -0.0437685599977 0.946 2.10569434819e-38
0.0210533250966 -0.0438610939512 0.948 1.93005321647e-38
0.0228077688546 -0.0438610939512 0.948 1.59793763315e-38
0.0245622126127 -0.0438610939512 0.948 1.70814022854e-38
0.0263166563707 -0.0438610939512 0.948 1.89228247753e-38
0.0280711001288 -0.0438610939512 0.948 1.90225033389e-38
0.0298255438868 -0.0438610939512 0.948 2.34885816746e-38
-0.0390456270119 -0.0425952294675 0.959 1.18729958973e-38
-0.0371542330027 -0.0424619805745 0.956 1.29724883036e-38
-0.0353109566493 -0.0423731479792 0.954 1.02952851668e-38
-0.0334399201099 -0.0422398990862 0.951 1.7292737712e-38
-0.0315133631984 -0.0420178175978 0.946 1.30546310183e-38
-0.0297626207984 -0.0420178175978 0.946 1.17549435082e-38
-0.0280118783985 -0.0420178175978 0.946 1.2214120989e-38
-0.0261778554405 -0.0418845687048 0.943 1.31324759506e-38
-0.0244326650778 -0.0418845687048 0.943 1.62731781727e-38
-0.0226874747151 -0.0418845687048 0.943 1.2674374667e-38
-0.0208756599059 -0.0417513198118 0.94 1.46936793853e-38
-0.0191360215804 -0.0417513198118 0.94 1.46018438891e-38
-0.0173963832549 -0.0417513198118 0.94 1.48773503776e-38
-0.0156234327062 -0.0416624872164 0.938 1.52446923622e-38
-0.0138874957388 -0.0416624872164 0.938 1.53365278584e-38
-0.0121515587715 -0.0416624872164 0.938 2.06824184414e-38
-0.0104156218041 -0.0416624872164 0.938 2.03290277842e-38
-0.00867968483676 -0.0416624872164 0.938 1.68292428306e-38
-0.00694374786941 -0.0416624872164 0.938 1.92223593285e-38
-0.00520781090205 -0.0416624872164 0.938 1.76554512078e-38
-0.0034718739347 -0.0416624872164 0.938 1.46068661428e-38
-0.00173593696735 -0.0416624872164 0.938 1.83790523075e-38
0.0 -0.0416624872164 0.938 1.82031921528e-38
0.00173593696735 -0.0416624872164 0.938 1.82939612608e-38
0.0034718739347 -0.0416624872164 0.938 1.78211659616e-38
0.00521891497647 -0.0417513198118 0.94 2.11488084053e-38
0.00694374786941 -0.0416624872164 0.938 1.89411831865e-38
0.00867968483676 -0.0416624872164 0.938 1.75571220945e-38
0.0104378299529 -0.0417513198118 0.94 1.60769515462e-38
0.0121774682784 -0.0417513198118 0.94 1.78160862547e-38
0.0139615229016 -0.0418845687048 0.943 2.02279241e-38
0.0157067132643 -0.0418845687048 0.943 2.03193756404e-38
0.0175074239991 -0.0420178175978 0.946 1.69931611198e-38
0.0192988813385 -0.0421066501932 0.948 1.625488282e-38
0.0210533250966 -0.0421066501932 0.948 1.67140603008e-38
0.0228077688546 -0.0421066501932 0.948 1.68977368983e-38
0.0245622126127 -0.0421066501932 0.948 1.52447021713e-38
0.0263166563707 -0.0421066501932 0.948 1.87416256735e-38
0.0281599327241 -0.0422398990862 0.951 2.05920318878e-38
-0.0410332563327 -0.0410332563327 0.964 2.34874858592e-38
-0.0391677718305 -0.0409481250955 0.962 1.17797310768e-38
-0.0372708257841 -0.0408204282397 0.959 1.13159012851e-38
-0.0353849838121 -0.0406927313839 0.956 7.26217884462e-39
-0.0335454088169 -0.0406076001467 0.954 1.32436956084e-38
-0.0316799243146 -0.0404799032909 0.951 1.63678835281e-38
-0.0297626207984 -0.0402670751979 0.946 1.17549435082e-38
-0.0280118783985 -0.0402670751979 0.946 1.2214120989e-38
-0.0261778554405 -0.0401393783421 0.943 1.15712725159e-38
-0.0244326650778 -0.0401393783421 0.943 1.26732984698e-38
-0.0226874747151 -0.0401393783421 0.943 1.31324759506e-38
-0.0209422843524 -0.0401393783421 0.943 1.3958995416e-38
-0.0191970939897 -0.0401393783421 0.943 1.46018438891e-38
-0.0173963832549 -0.0400116814863 0.94 1.52446923622e-38
-0.0156567449294 -0.0400116814863 0.94 1.54283633545e-38
-0.0139171066039 -0.0400116814863 0.94 1.5703869843e-38
-0.0121515587715 -0.0399265502491 0.938 1.5703869843e-38
-0.0104156218041 -0.0399265502491 0.938 1.55201988507e-38
-0.00867968483676 -0.0399265502491 0.938 1.55201988507e-38
-0.00694374786941 -0.0399265502491 0.938 1.81059420394e-38
-0.00521891497647 -0.0400116814863 0.94 1.46036375512e-38
-0.0034718739347 -0.0399265502491 0.938 2.02214178713e-38
-0.00173593696735 -0.0399265502491 0.938 1.46958317797e-38
0.0 -0.0399265502491 0.938 1.76324194662e-38
0.00173593696735 -0.0399265502491 0.938 1.78282985708e-38
0.00347927665098 -0.0400116814863 0.94 2.06957517962e-38
0.00521891497647 -0.0400116814863 0.94 1.90397659347e-38
0.00695855330196 -0.0400116814863 0.94 1.97723507589e-38
0.00869819162745 -0.0400116814863 0.94 2.01429129274e-38
0.0104711421762 -0.0401393783421 0.943 1.80173491479e-38
0.0122163325389 -0.0401393783421 0.943 1.57971402688e-38
0.0140059391993 -0.0402670751979 0.946 1.60712118276e-38
0.0157566815992 -0.0402670751979 0.946 1.5703869843e-38
0.0175074239991 -0.0402670751979 0.946 1.60712118276e-38
0.0192988813385 -0.0403522064351 0.948 1.43263374006e-38
0.0210533250966 -0.0403522064351 0.948 1.64424998688e-38
0.0228077688546 -0.0403522064351 0.948 1.49691858738e-38
0.0245622126127 -0.0403522064351 0.948 1.68084419562e-38
0.0263999369289 -0.0404799032909 0.951 1.93934788905e-38
0.0282487653195 -0.0406076001467 0.954 1.95846426257e-38
-0.0410332563327 -0.0392492017096 0.964 2.29332540997e-38
-0.0391677718305 -0.0391677718305 0.962 1.31626655247e-38
-0.0373874185655 -0.0391677718305 0.962 8.7344166424e-39
-0.0353849838121 -0.0389234821933 0.956 8.28169634494e-39
-0.0336157346215 -0.0389234821933 0.956 1.68454936889e-38
-0.0317798609844 -0.0388420523143 0.954 1.22177083131e-38
-0.0297626207984 -0.038516332798 0.946 1.58025268601e-38
-0.0280118783985 -0.038516332798 0.946 1.06529175543e-38
-0.0262611359986 -0.038516332798 0.946 1.11120950351e-38
-0.0244326650778 -0.0383941879794 0.943 1.20304499967e-38
-0.0226874747151 -0.0383941879794 0.943 1.20304499967e-38
-0.0209422843524 -0.0383941879794 0.943 1.35916534314e-38
-0.0191970939897 -0.0383941879794 0.943 1.46018438891e-38
-0.017451903627 -0.0383941879794 0.943 1.51528568661e-38
-0.0157067132643 -0.0383941879794 0.943 1.5703869843e-38
-0.0139171066039 -0.0382720431608 0.94 1.48773503776e-38
-0.0121774682784 -0.0382720431608 0.94 1.51528568661e-38
-0.0104378299529 -0.0382720431608 0.94 1.42345019045e-38
-0.00869819162745 -0.0382720431608 0.94 1.42345019045e-38
-0.00695855330196 -0.0382720431608 0.94 1.52446923622e-38
-0.00521891497647 -0.0382720431608 0.94 1.64385538123e-38
-0.00347927665098 -0.0382720431608 0.94 1.76331327271e-38
-0.00173963832549 -0.0382720431608 0.94 1.61630473238e-38
0.0 -0.0382720431608 0.94 1.69895667892e-38
0.00173963832549 -0.0382720431608 0.94 1.58875408353e-38
0.00347927665098 -0.0382720431608 0.94 1.64385538123e-38
0.00521891497647 -0.0382720431608 0.94 1.54283633545e-38
0.0069807614508 -0.0383941879794 0.943 1.49691858738e-38
0.0087259518135 -0.0383941879794 0.943 1.44181728968e-38
0.0104711421762 -0.0383941879794 0.943 1.59793763315e-38
0.0122551967994 -0.038516332798 0.946 1.66222248046e-38
0.0140059391993 -0.038516332798 0.946 1.48773503776e-38
0.0157566815992 -0.038516332798 0.946 1.51528568661e-38
0.0175444375805 -0.0385977626771 0.948 1.57957053392e-38
0.0192988813385 -0.0385977626771 0.948 1.53365278584e-38
0.0210533250966 -0.0385977626771 0.948 1.61630473238e-38
0.0228799453383 -0.0387199074957 0.951 1.74508994671e-38
0.0246399411336 -0.0387199074957 0.951 1.93966962718e-38
0.0265387378591 -0.0389234821933 0.956 1.57157080124e-38
0.0283079870497 -0.0389234821933 0.956 2.34684155884e-38
-0.0410332563327 -0.0374651470864 0.964 2.27492159672e-38
-0.0392492017096 -0.0374651470864 0.964 1.37161896285e-38
-0.0373874185655 -0.0373874185655 0.962 9.10175862703e-39
-0.0354960245563 -0.0372708257841 0.959 9.10785707795e-39
-0.0336157346215 -0.0371542330027 0.956 1.38883251319e-38
-0.0317798609844 -0.0370765044818 0.954 1.3227181306e-38
-0.0298255438868 -0.036843318919 0.948 1.46983429066e-38
-0.0280118783985 -0.0367655903981 0.946 1.36910223081e-38
-0.0262611359986 -0.0367655903981 0.946 1.07447530505e-38
-0.0244326650778 -0.0366489976167 0.943 1.18485726664e-38
-0.0226874747151 -0.0366489976167 0.943 1.07447530505e-38
-0.0209422843524 -0.0366489976167 0.943 1.35916534314e-38
-0.0191970939897 -0.0366489976167 0.943 1.46018438891e-38
-0.0175074239991 -0.0367655903981 0.946 1.50610213699e-38
-0.0157067132643 -0.0366489976167 0.943 1.54283633545e-38
-0.0139615229016 -0.0366489976167 0.943 1.31324759506e-38
-0.0121774682784 -0.0365324048353 0.94 1.23059564852e-38
-0.0104378299529 -0.0365324048353 0.94 1.25814629736e-38
-0.00869819162745 -0.0365324048353 0.94 1.29488049583e-38
-0.00695855330196 -0.0365324048353 0.94 1.31324759506e-38
-0.0052355710881 -0.0366489976167 0.943 1.46018438891e-38
-0.00347927665098 -0.0365324048353 0.94 1.52446923622e-38
-0.00173963832549 -0.0365324048353 0.94 1.5703869843e-38
0.0 -0.0365324048353 0.94 1.54283633545e-38
0.00173963832549 -0.0365324048353 0.94 1.46936793853e-38
0.0034903807254 -0.0366489976167 0.943 1.6530392111e-38
0.0052355710881 -0.0366489976167 0.943 1.43263374006e-38
0.0069807614508 -0.0366489976167 0.943 1.38671599199e-38
0.0087259518135 -0.0366489976167 0.943 1.34998179352e-38
0.0104711421762 -0.0366489976167 0.943 1.54283633545e-38
0.0122551967994 -0.0367655903981 0.946 1.65303893084e-38
0.0140059391993 -0.0367655903981 0.946 1.51528568661e-38
0.0157899938224 -0.036843318919 0.948 1.47855148814e-38
0.0175444375805 -0.036843318919 0.948 1.65303893084e-38
0.0192988813385 -0.036843318919 0.948 1.78160862547e-38
0.0211199495431 -0.0369599117004 0.951 1.77310666742e-38
0.0229521218221 -0.0370765044818 0.954 1.85622636739e-38
0.0247176696545 -0.0370765044818 0.954 1.58089784382e-38
0.0266220184172 -0.0372708257841 0.959 2.04215905543e-38
0.028396819645 -0.0372708257841 0.959 2.17159573341e-38
-0.0411609531886 -0.0357921332074 0.967 2.33945881788e-38
-0.0392492017096 -0.0356810924633 0.964 1.07655595301e-38
-0.0374651470864 -0.0356810924633 0.964 1.21341236623e-38
-0.0356070653005 -0.0356070653005 0.962 7.8099688351e-39
-0.0337212233285 -0.0354960245563 0.959 1.19429192894e-38
-0.0318464854309 -0.0353849838121 0.956 1.61731156533e-38
-0.0299199285194 -0.0351999159051 0.951 1.72015832469e-38
-0.0281599327241 -0.0351999159051 0.951 1.50843389764e-38
-0.0262611359986 -0.0350148479982 0.946 1.18467790044e-38
-0.0245103935987 -0.0350148479982 0.946 1.18467790044e-38
-0.0227596511988 -0.0350148479982 0.946 1.12039305313e-38
-0.0210089087989 -0.0350148479982 0.946 1.33161469429e-38
-0.019258166399 -0.0350148479982 0.946 1.47855148814e-38
-0.0175074239991 -0.0350148479982 0.946 1.51528568661e-38
-0.0157566815992 -0.0350148479982 0.946 1.52446923622e-38
-0.0139615229016 -0.034903807254 0.943 1.46018438891e-38
-0.0122163325389 -0.034903807254 0.943 1.43263374006e-38
-0.0104711421762 -0.034903807254 0.943 1.35916534314e-38
-0.0087259518135 -0.034903807254 0.943 1.37753244237e-38
-0.0069807614508 -0.034903807254 0.943 1.2765133966e-38
-0.0052355710881 -0.034903807254 0.943 1.49691858738e-38
-0.0034903807254 -0.034903807254 0.943 1.51528568661e-38
-0.0017451903627 -0.034903807254 0.943 1.48773503776e-38
0.0 -0.034903807254 0.943 1.52446923622e-38
0.0017451903627 -0.034903807254 0.943 1.48773503776e-38
0.0034903807254 -0.034903807254 0.943 1.55201988507e-38
0.0052355710881 -0.034903807254 0.943 1.43263374006e-38
0.0069807614508 -0.034903807254 0.943 1.40508309122e-38
0.0087259518135 -0.034903807254 0.943 1.35916534314e-38
0.0105044543995 -0.0350148479982 0.946 1.57957053392e-38
0.0122551967994 -0.0350148479982 0.946 1.68058957969e-38
0.0140059391993 -0.0350148479982 0.946 1.68977312931e-38
0.0157899938224 -0.035088875161 0.948 1.66222248046e-38
0.0175444375805 -0.035088875161 0.948 1.77303576172e-38
0.0193599537478 -0.0351999159051 0.951 1.79212102641e-38
0.0211199495431 -0.0351999159051 0.951 1.61770378877e-38
0.0230002394779 -0.0353849838121 0.956 1.53415501121e-38
0.0248472171894 -0.0354960245563 0.959 2.05148427632e-38
0.0266220184172 -0.0354960245563 0.959 2.15348100803e-38
0.0284856522404 -0.0356070653005 0.962 2.34683259053e-38
-0.0411609531886 -0.0340025265471 0.967 2.31186991358e-38
-0.0393713465282 -0.0340025265471 0.967 1.12254628835e-38
-0.0374651470864 -0.0338970378401 0.964 1.23142073305e-38
-0.0356070653005 -0.0338267120354 0.962 9.55090000822e-39
-0.0337212233285 -0.0337212233285 0.959 1.07447530505e-38
-0.0318464854309 -0.0336157346215 0.956 1.37753286276e-38
-0.0300143131519 -0.0335454088169 0.954 1.62753305672e-38
-0.0282487653195 -0.0335454088169 0.954 1.70208395671e-38
-0.0263999369289 -0.0334399201099 0.951 1.50811103847e-38
-0.0245103935987 -0.0332641055983 0.946 1.21222854929e-38
-0.0227596511988 -0.0332641055983 0.946 1.1020259539e-38
-0.0210089087989 -0.0332641055983 0.946 1.3225387644e-38
-0.019258166399 -0.0332641055983 0.946 1.49691858738e-38
-0.0175074239991 -0.0332641055983 0.946 1.41426664083e-38
-0.0157566815992 -0.0332641055983 0.946 1.47855148814e-38
-0.0140059391993 -0.0332641055983 0.946 1.51528568661e-38
-0.0122163325389 -0.0331586168913 0.943 1.61630473238e-38
-0.0104711421762 -0.0331586168913 0.943 1.51528568661e-38
-0.0087259518135 -0.0331586168913 0.943 1.49691858738e-38
-0.0069807614508 -0.0331586168913 0.943 1.52446923622e-38
-0.00525222719973 -0.0332641055983 0.946 1.57957053392e-38
-0.0034903807254 -0.0331586168913 0.943 1.61630473238e-38
-0.0017451903627 -0.0331586168913 0.943 1.47855148814e-38
0.0 -0.0332641055983 0.946 1.5703869843e-38
0.00175074239991 -0.0332641055983 0.946 1.61630473238e-38
0.00350148479982 -0.0332641055983 0.946 1.69895667892e-38
0.00525222719973 -0.0332641055983 0.946 1.60712118276e-38
0.00700296959964 -0.0332641055983 0.946 1.49691858738e-38
0.00875371199954 -0.0332641055983 0.946 1.46018438891e-38
0.0105044543995 -0.0332641055983 0.946 1.53365278584e-38
0.0122551967994 -0.0332641055983 0.946 1.54283633545e-38
0.0140059391993 -0.0332641055983 0.946 1.809410387e-38
0.0157899938224 -0.0333344314029 0.948 1.84686205027e-38
0.0175444375805 -0.0333344314029 0.948 1.49767192543e-38
0.0193599537478 -0.0334399201099 0.951 1.56260305159e-38
0.0212309902873 -0.0336157346215 0.956 1.76503715009e-38
0.0230724159616 -0.0337212233285 0.959 1.91362397288e-38
0.0248472171894 -0.0337212233285 0.959 2.18084626509e-38
0.0266220184172 -0.0337212233285 0.959 1.94988999753e-38
0.0284856522404 -0.0338267120354 0.962 2.34662744043e-38
-0.0394934913468 -0.0323128565565 0.97 1.13173081887e-38
-0.0374651470864 -0.0321129832169 0.964 1.37846570715e-38
-0.0356810924633 -0.0321129832169 0.964 1.37028660827e-38
-0.0338267120354 -0.0320463587704 0.962 1.0469246562e-38
-0.0319464221007 -0.0319464221007 0.959 1.26732984698e-38
-0.0301716208728 -0.0319464221007 0.959 1.72805310011e-38
-0.0282487653195 -0.0317798609844 0.954 1.60941819121e-38
-0.0263999369289 -0.0316799243146 0.951 1.57282636467e-38
-0.0245622126127 -0.0315799876449 0.948 1.31324759506e-38
-0.0228077688546 -0.0315799876449 0.948 1.03774110659e-38
-0.0210533250966 -0.0315799876449 0.948 1.29488049583e-38
-0.0192988813385 -0.0315799876449 0.948 1.52446923622e-38
-0.0175444375805 -0.0315799876449 0.948 1.24896274775e-38
-0.0157899938224 -0.0315799876449 0.948 1.32243114468e-38
-0.0140059391993 -0.0315133631984 0.946 1.31324759506e-38
-0.0122551967994 -0.0315133631984 0.946 1.42345019045e-38
-0.0105044543995 -0.0315133631984 0.946 1.50610213699e-38
-0.00875371199954 -0.0315133631984 0.946 1.40508309122e-38
-0.00700296959964 -0.0315133631984 0.946 1.41426664083e-38
-0.00525222719973 -0.0315133631984 0.946 1.48773503776e-38
-0.00350148479982 -0.0315133631984 0.946 1.40508309122e-38
-0.00175074239991 -0.0315133631984 0.946 1.50613801023e-38
0.0 -0.0315133631984 0.946 1.47855148814e-38
0.00175074239991 -0.0315133631984 0.946 1.51528568661e-38
0.00350148479982 -0.0315133631984 0.946 1.57957053392e-38
0.00525222719973 -0.0315133631984 0.946 1.51528568661e-38
0.00700296959964 -0.0315133631984 0.946 1.53365278584e-38
0.00875371199954 -0.0315133631984 0.946 1.53365278584e-38
0.0105044543995 -0.0315133631984 0.946 1.43263374006e-38
0.0122551967994 -0.0315133631984 0.946 1.46936793853e-38
0.0140355500644 -0.0315799876449 0.948 1.87369663561e-38
0.0157899938224 -0.0315799876449 0.948 1.68073307265e-38
0.0175444375805 -0.0315799876449 0.948 1.76453646614e-38
0.0193599537478 -0.0316799243146 0.951 2.03340612483e-38
0.0212309902873 -0.0318464854309 0.956 1.96911805453e-38
0.0230724159616 -0.0319464221007 0.959 1.75653323023e-38
0.0248472171894 -0.0319464221007 0.959 1.88535403753e-38
0.0266220184172 -0.0319464221007 0.959 2.17077008836e-38
0.0284856522404 -0.0320463587704 0.962 2.25478760025e-38
-0.0393713465282 -0.0304233132263 0.967 1.15928006642e-38
-0.0374651470864 -0.0303289285938 0.964 1.17560197054e-38
-0.0356810924633 -0.0303289285938 0.964 1.41599009781e-38
-0.0338970378401 -0.0303289285938 0.964 1.08398171383e-38
-0.0320463587704 -0.0302660055054 0.962 1.15712725159e-38
-0.0301716208728 -0.0301716208728 0.959 1.39590024225e-38
-0.0283079870497 -0.0300772362403 0.956 1.64554184393e-38
-0.026483217487 -0.0300143131519 0.954 1.52655478873e-38
-0.0246399411336 -0.0299199285194 0.951 1.68123641906e-38
-0.0228799453383 -0.0299199285194 0.951 9.36722060812e-39
-0.0210533250966 -0.0298255438868 0.948 1.092950024e-38
-0.0192988813385 -0.0298255438868 0.948 1.46018438891e-38
-0.0175444375805 -0.0298255438868 0.948 1.29488049583e-38
-0.0157899938224 -0.0298255438868 0.948 1.28569694621e-38
-0.0140355500644 -0.0298255438868 0.948 1.35916534314e-38
-0.0122811063063 -0.0298255438868 0.948 1.46018438891e-38
-0.0105266625483 -0.0298255438868 0.948 1.35916534314e-38
-0.00877221879024 -0.0298255438868 0.948 1.20304499967e-38
-0.00701777503219 -0.0298255438868 0.948 1.23059564852e-38
-0.00526333127414 -0.0298255438868 0.948 1.2214120989e-38
-0.00350148479982 -0.0297626207984 0.946 1.31324759506e-38
-0.00175074239991 -0.0297626207984 0.946 1.25814629736e-38
0.0 -0.0297626207984 0.946 1.2765133966e-38
0.00175074239991 -0.0297626207984 0.946 1.26732984698e-38
0.0035088875161 -0.0298255438868 0.948 1.26732984698e-38
0.00526333127414 -0.0298255438868 0.948 1.51528624713e-38
0.00701777503219 -0.0298255438868 0.948 1.53365278584e-38
0.00877221879024 -0.0298255438868 0.948 1.49691858738e-38
0.0105266625483 -0.0298255438868 0.948 1.3958995416e-38
0.0122811063063 -0.0298255438868 0.948 1.625488282e-38
0.0140799663621 -0.0299199285194 0.951 2.14985220553e-38
0.0158399621573 -0.0299199285194 0.951 2.10669193257e-38
0.0175999579526 -0.0299199285194 0.951 1.86742092043e-38
0.0194210261571 -0.0300143131519 0.954 1.71972728528e-38
0.0212309902873 -0.0300772362403 0.956 1.57192981391e-38
0.0230724159616 -0.0301716208728 0.959 1.97765686673e-38
0.0248472171894 -0.0301716208728 0.959 2.13446608852e-38
0.0267052989754 -0.0302660055054 0.962 1.98723852524e-38
-0.0393713465282 -0.028633706566 0.967 1.23292740916e-38
-0.0374651470864 -0.0285448739706 0.964 1.1020259539e-38
-0.0356810924633 -0.0285448739706 0.964 1.25893775074e-38
-0.0338970378401 -0.0285448739706 0.964 1.2869166364e-38
-0.0320463587704 -0.0284856522404 0.962 1.19386145005e-38
-0.0302660055054 -0.0284856522404 0.962 1.33161469429e-38
-0.0283079870497 -0.0283079870497 0.956 1.43281310627e-38
-0.026483217487 -0.0282487653195 0.954 1.54369729323e-38
-0.0246399411336 -0.0281599327241 0.951 1.70875091441e-38
-0.0228799453383 -0.0281599327241 0.951 7.71418167727e-39
-0.0211199495431 -0.0281599327241 0.951 8.82015368764e-39
-0.0193599537478 -0.0281599327241 0.951 1.48827313637e-38
-0.0175999579526 -0.0281599327241 0.951 1.28569694621e-38
-0.0157899938224 -0.0280711001288 0.948 1.23059564852e-38
-0.0140355500644 -0.0280711001288 0.948 1.37753244237e-38
-0.0122811063063 -0.0280711001288 0.948 1.58875408353e-38
-0.0105266625483 -0.0280711001288 0.948 1.3958995416e-38
-0.00877221879024 -0.0280711001288 0.948 1.24896274775e-38
-0.00701777503219 -0.0280711001288 0.948 1.28569694621e-38
-0.00526333127414 -0.0280711001288 0.948 1.3958995416e-38
-0.0035088875161 -0.0280711001288 0.948 1.3958995416e-38
-0.00175444375805 -0.0280711001288 0.948 1.26732984698e-38
0.0 -0.0280711001288 0.948 1.41430251407e-38
0.00175444375805 -0.0280711001288 0.948 1.35916534314e-38
0.0035088875161 -0.0280711001288 0.948 1.30406404544e-38
0.00526333127414 -0.0280711001288 0.948 1.49691858738e-38
0.00701777503219 -0.0280711001288 0.948 1.58875408353e-38
0.00877221879024 -0.0280711001288 0.948 1.5703869843e-38
0.0105599747715 -0.0281599327241 0.951 1.40508309122e-38
0.0123199705668 -0.0281599327241 0.951 1.61630473238e-38
0.0140799663621 -0.0281599327241 0.951 2.13137622541e-38
0.0158399621573 -0.0281599327241 0.951 1.64518269113e-38
0.0176554783247 -0.0282487653195 0.954 1.7653245564e-38
0.0194617410967 -0.0283079870497 0.956 1.74709856792e-38
0.0212976147338 -0.028396819645 0.959 1.97794805655e-38
0.0231445924453 -0.0284856522404 0.962 1.78491302737e-38
0.0249249457103 -0.0284856522404 0.962 2.16230428381e-38
0.0267052989754 -0.0284856522404 0.962 1.59040621442e-38
-0.0393713465282 -0.0268440999056 0.967 1.13140683867e-38
-0.0375817398678 -0.0268440999056 0.967 1.15723487131e-38
-0.0357921332074 -0.0268440999056 0.967 1.19425647609e-38
-0.0340025265471 -0.0268440999056 0.967 1.36981969562e-38
-0.0321129832169 -0.0267608193474 0.964 1.21222854929e-38
-0.0302660055054 -0.0267052989754 0.962 1.31353458098e-38
-0.0283079870497 -0.0265387378591 0.956 1.37753244237e-38
-0.026483217487 -0.026483217487 0.954 1.4510008393e-38
-0.0246399411336 -0.0263999369289 0.951 1.93938264125e-38
-0.0228799453383 -0.0263999369289 0.951 8.35703015038e-39
-0.0211865739896 -0.026483217487 0.954 9.19036553153e-39
-0.0193599537478 -0.0263999369289 0.951 1.42377304962e-38
-0.0175999579526 -0.0263999369289 0.951 1.23059564852e-38
-0.0158399621573 -0.0263999369289 0.951 1.23059564852e-38
-0.0140355500644 -0.0263166563707 0.948 1.34998179352e-38
-0.0122811063063 -0.0263166563707 0.948 1.44181728968e-38
-0.0105266625483 -0.0263166563707 0.948 1.37753314302e-38
-0.00877221879024 -0.0263166563707 0.948 1.33161469429e-38
-0.00701777503219 -0.0263166563707 0.948 1.31324759506e-38
-0.00526333127414 -0.0263166563707 0.948 1.43263374006e-38
-0.0035088875161 -0.0263166563707 0.948 1.38671641238e-38
-0.00175444375805 -0.0263166563707 0.948 1.31324759506e-38
0.0 -0.0263166563707 0.948 1.37753244237e-38
0.00175444375805 -0.0263166563707 0.948 1.37753244237e-38
0.0035088875161 -0.0263166563707 0.948 1.38671599199e-38
0.00526333127414 -0.0263166563707 0.948 1.53365278584e-38
0.00703998318103 -0.0263999369289 0.951 1.58875408353e-38
0.00879997897629 -0.0263999369289 0.951 1.68058957969e-38
0.0105599747715 -0.0263999369289 0.951 1.625488282e-38
0.0123588348273 -0.026483217487 0.954 1.75405797662e-38
0.0141243826597 -0.026483217487 0.954 1.9838630775e-38
0.0158899304922 -0.026483217487 0.954 1.73802263803e-38
0.0176924919061 -0.0265387378591 0.956 1.99660606534e-38
0.019522813506 -0.0266220184172 0.959 1.74796471051e-38
0.0212976147338 -0.0266220184172 0.959 1.996780527e-38
0.0231445924453 -0.0267052989754 0.962 1.88632261503e-38
0.0249249457103 -0.0267052989754 0.962 1.74695507496e-38
0.0267052989754 -0.0267052989754 0.962 2.16205247048e-38
-0.0411609531886 -0.0250544932452 0.967 1.91542478154e-38
-0.0393713465282 -0.0250544932452 0.967 1.25151255043e-38
-0.0375817398678 -0.0250544932452 0.967 1.1116399824e-38
-0.0357921332074 -0.0250544932452 0.967 1.18489412079e-38
-0.0340025265471 -0.0250544932452 0.967 1.18478552016e-38
-0.0321129832169 -0.0249767647243 0.964 1.13876015236e-38
-0.0303289285938 -0.0249767647243 0.964 1.24896274775e-38
-0.0284856522404 -0.0249249457103 0.962 1.35916534314e-38
-0.026483217487 -0.0247176696545 0.954 1.4510008393e-38
-0.0247176696545 -0.0247176696545 0.954 1.89367915171e-38
-0.0229521218221 -0.0247176696545 0.954 1.03806396575e-38
-0.0211865739896 -0.0247176696545 0.954 9.74604202977e-39
-0.0194210261571 -0.0247176696545 0.954 1.40547769686e-38
-0.0176554783247 -0.0247176696545 0.954 1.19386145005e-38
-0.0158399621573 -0.0246399411336 0.951 1.18467790044e-38
-0.0140799663621 -0.0246399411336 0.951 1.31324759506e-38
-0.0123199705668 -0.0246399411336 0.951 1.32243114468e-38
-0.0105599747715 -0.0246399411336 0.951 1.37753244237e-38
-0.00879997897629 -0.0246399411336 0.951 1.42345019045e-38
-0.00701777503219 -0.0245622126127 0.948 1.30406404544e-38
-0.00526333127414 -0.0245622126127 0.948 1.34998179352e-38
-0.0035088875161 -0.0245622126127 0.948 1.24896274775e-38
-0.00175444375805 -0.0245622126127 0.948 1.33161469429e-38
0.0 -0.0245622126127 0.948 1.34079824391e-38
0.00175444375805 -0.0245622126127 0.948 1.38671599199e-38
0.00351999159051 -0.0246399411336 0.951 1.47855148814e-38
0.00527998738577 -0.0246399411336 0.951 1.55201988507e-38
0.00703998318103 -0.0246399411336 0.951 1.53365278584e-38
0.00882773916233 -0.0247176696545 0.954 1.81834282393e-38
0.0105932869948 -0.0247176696545 0.954 1.83670992316e-38
0.0123847443342 -0.0247694886685 0.956 1.80915927431e-38
0.0141539935248 -0.0247694886685 0.956 2.34353379381e-38
0.0159232427154 -0.0247694886685 0.956 1.92288039002e-38
0.0177480122781 -0.0248472171894 0.959 1.98759725764e-38
0.019522813506 -0.0248472171894 0.959 1.86770440311e-38
0.0213642391803 -0.0249249457103 0.962 1.59044012585e-38
0.0231927101011 -0.0249767647243 0.964 1.66351461777e-38
0.0250544932452 -0.0250544932452 0.967 2.23562736609e-38
0.0268440999056 -0.0250544932452 0.967 1.85816464343e-38
-0.0411609531886 -0.0232648865848 0.967 1.75876900192e-38
-0.0393713465282 -0.0232648865848 0.967 1.27920501069e-38
-0.0375817398678 -0.0232648865848 0.967 1.4259613173e-38
-0.0357921332074 -0.0232648865848 0.967 1.00100718838e-38
-0.0340025265471 -0.0232648865848 0.967 1.16631080121e-38
-0.0321129832169 -0.0231927101011 0.964 1.14794370197e-38
-0.0303289285938 -0.0231927101011 0.964 1.23059564852e-38
-0.0284856522404 -0.0231445924453 0.962 1.32243114468e-38
-0.0265387378591 -0.0230002394779 0.956 1.56163447409e-38
-0.0247176696545 -0.0229521218221 0.954 1.62663986907e-38
-0.0229521218221 -0.0229521218221 0.954 1.0195892468e-38
-0.0212309902873 -0.0230002394779 0.956 1.12211496868e-38
-0.0194210261571 -0.0229521218221 0.954 1.41441055419e-38
-0.0176554783247 -0.0229521218221 0.954 1.19386145005e-38
-0.0158899304922 -0.0229521218221 0.954 1.14794370197e-38
-0.0141243826597 -0.0229521218221 0.954 1.32243114468e-38
-0.0123588348273 -0.0229521218221 0.954 1.29488049583e-38
-0.0105932869948 -0.0229521218221 0.954 1.4510008393e-38
-0.00882773916233 -0.0229521218221 0.954 1.4510008393e-38
-0.00703998318103 -0.0228799453383 0.951 1.34998179352e-38
-0.00526333127414 -0.0228077688546 0.948 1.3775325825e-38
-0.0035088875161 -0.0228077688546 0.948 1.34998179352e-38
-0.00175999579526 -0.0228799453383 0.951 1.36834889275e-38
0.0 -0.0228799453383 0.951 1.37753244237e-38
0.00175999579526 -0.0228799453383 0.951 1.4510008393e-38
0.00351999159051 -0.0228799453383 0.951 1.50610213699e-38
0.00527998738577 -0.0228799453383 0.951 1.60712118276e-38
0.00706219132986 -0.0229521218221 0.954 1.54283633545e-38
0.00882773916233 -0.0229521218221 0.954 1.56120343469e-38
0.0105932869948 -0.0229521218221 0.954 1.68058957969e-38
0.0123847443342 -0.0230002394779 0.956 1.76324152623e-38
0.0141539935248 -0.0230002394779 0.956 2.34353351355e-38
0.0159232427154 -0.0230002394779 0.956 2.03329682355e-38
0.0177480122781 -0.0230724159616 0.959 1.68252673469e-38
0.019522813506 -0.0230724159616 0.959 1.70914467928e-38
0.0213642391803 -0.0231445924453 0.962 1.80277467825e-38
0.0231927101011 -0.0231927101011 0.964 2.10727375169e-38
0.0250544932452 -0.0232648865848 0.967 1.89468108011e-38
0.0268440999056 -0.0232648865848 0.967 2.29129759096e-38
-0.0393713465282 -0.0214752799245 0.967 1.09456431983e-38
-0.0375817398678 -0.0214752799245 0.967 1.573078178e-38
-0.0357921332074 -0.0214752799245 0.967 1.13919091151e-38
-0.0340025265471 -0.0214752799245 0.967 1.16631080121e-38
-0.0322129198867 -0.0214752799245 0.967 1.15712725159e-38
-0.0303289285938 -0.021408655478 0.964 1.23059564852e-38
-0.0285448739706 -0.021408655478 0.964 1.41448188028e-38
-0.0265387378591 -0.0212309902873 0.956 1.36852825896e-38
-0.0247176696545 -0.0211865739896 0.954 1.74659774385e-38
-0.0229521218221 -0.0211865739896 0.954 8.0815236619e-39
-0.0212309902873 -0.0212309902873 0.956 1.08538077022e-38
-0.0194617410967 -0.0212309902873 0.956 1.40508309122e-38
-0.0176924919061 -0.0212309902873 0.956 1.30406404544e-38
-0.0159232427154 -0.0212309902873 0.956 1.2214120989e-38
-0.0141243826597 -0.0211865739896 0.954 1.35916534314e-38
-0.0123588348273 -0.0211865739896 0.954 1.42345019045e-38
-0.0105932869948 -0.0211865739896 0.954 1.42345019045e-38
-0.00882773916233 -0.0211865739896 0.954 1.4510008393e-38
-0.00703998318103 -0.0211199495431 0.951 1.41426664083e-38
-0.00527998738577 -0.0211199495431 0.951 1.4510008393e-38
-0.00351999159051 -0.0211199495431 0.951 1.46018438891e-38
-0.00175999579526 -0.0211199495431 0.951 1.47855148814e-38
0.0 -0.0211199495431 0.951 1.4510008393e-38
0.00175999579526 -0.0211199495431 0.951 1.50610213699e-38
0.00351999159051 -0.0211199495431 0.951 1.56120343469e-38
0.00527998738577 -0.0211199495431 0.951 1.65303893084e-38
0.00706219132986 -0.0211865739896 0.954 1.50610213699e-38
0.00882773916233 -0.0211865739896 0.954 1.41426664083e-38
0.0106154951436 -0.0212309902873 0.956 1.46936793853e-38
0.0123847443342 -0.0212309902873 0.956 1.744874427e-38
0.0141539935248 -0.0212309902873 0.956 1.91017832009e-38
0.0159732110503 -0.0212976147338 0.959 1.71732377815e-38
0.0177480122781 -0.0212976147338 0.959 2.0414771836e-38
0.0195838859153 -0.0213642391803 0.962 1.93202512366e-38
0.0213642391803 -0.0213642391803 0.962 1.84011788103e-38
0.0231927101011 -0.021408655478 0.964 1.70972187412e-38
0.0251322217661 -0.021541904371 0.97 2.34672062678e-38
0.0270106610218 -0.0216085288175 0.973 1.65494287507e-38
0.0288113717566 -0.0216085288175 0.973 2.34705721867e-38
-0.0394934913468 -0.0197467456734 0.97 9.37834131273e-39
-0.0375817398678 -0.0196856732641 0.967 1.40619544194e-38
-0.0357921332074 -0.0196856732641 0.967 1.15741423752e-38
-0.0340025265471 -0.0196856732641 0.967 1.21233616901e-38
-0.0322129198867 -0.0196856732641 0.967 1.18478552016e-38
-0.0303289285938 -0.0196246008548 0.964 1.18478552016e-38
-0.0285448739706 -0.0196246008548 0.964 1.28569694621e-38
-0.0265387378591 -0.0194617410967 0.956 1.44214014885e-38
-0.0247176696545 -0.0194210261571 0.954 1.68245891184e-38
-0.0229521218221 -0.0194210261571 0.954 6.61287318819e-39
-0.0212309902873 -0.0194617410967 0.956 1.05779424813e-38
-0.0194617410967 -0.0194617410967 0.956 1.42345019045e-38
-0.0176924919061 -0.0194617410967 0.956 1.2765133966e-38
-0.0159232427154 -0.0194617410967 0.956 1.32243114468e-38
-0.0141539935248 -0.0194617410967 0.956 1.44181728968e-38
-0.0123847443342 -0.0194617410967 0.956 1.47855148814e-38
-0.0106154951436 -0.0194617410967 0.956 1.46936793853e-38
-0.00882773916233 -0.0194210261571 0.954 1.50610213699e-38
-0.00706219132986 -0.0194210261571 0.954 1.53365278584e-38
-0.00527998738577 -0.0193599537478 0.951 1.52446923622e-38
-0.00351999159051 -0.0193599537478 0.951 1.49691858738e-38
-0.00175999579526 -0.0193599537478 0.951 1.51528568661e-38
0.0 -0.0193599537478 0.951 1.52446923622e-38
0.00175999579526 -0.0193599537478 0.951 1.58875408353e-38
0.00351999159051 -0.0193599537478 0.951 1.625488282e-38
0.00527998738577 -0.0193599537478 0.951 1.67140603008e-38
0.00706219132986 -0.0194210261571 0.954 1.58875408353e-38
0.00884624595303 -0.0194617410967 0.956 1.46936793853e-38
0.0106154951436 -0.0194617410967 0.956 1.68977312931e-38
0.0123847443342 -0.0194617410967 0.956 1.82752637354e-38
0.0141984098225 -0.019522813506 0.959 2.34382568428e-38
0.0159732110503 -0.019522813506 0.959 1.97762589803e-38
0.0177480122781 -0.019522813506 0.959 1.96886694185e-38
0.0195838859153 -0.0195838859153 0.962 1.40633865464e-38
0.021408655478 -0.0196246008548 0.964 1.78362046967e-38
0.0232648865848 -0.0196856732641 0.967 2.34691106324e-38
0.0251322217661 -0.0197467456734 0.97 1.6641955087e-38
0.0270106610218 -0.0198078180827 0.973 1.65393576186e-38
0.0288113717566 -0.0198078180827 0.973 2.34774133258e-38
-0.0416291749932 -0.0180996413014 0.978 1.49157893958e-38
-0.0394934913468 -0.0179515869758 0.97 8.73334044518e-39
-0.0376983326492 -0.0179515869758 0.97 1.32325622921e-38
-0.0359031739516 -0.0179515869758 0.97 1.29570558036e-38
-0.0340025265471 -0.0178960666037 0.967 1.13893951856e-38
-0.0322129198867 -0.0178960666037 0.967 1.17549435082e-38
-0.0303289285938 -0.0178405462316 0.964 1.18467790044e-38
-0.0285448739706 -0.0178405462316 0.964 1.3132834683e-38
-0.0265387378591 -0.0176924919061 0.956 1.4885601223e-38
-0.0247694886685 -0.0176924919061 0.956 1.29624367897e-38
-0.0230002394779 -0.0176924919061 0.956 5.79568076535e-39
-0.0212309902873 -0.0176924919061 0.956 1.11307491203e-38
-0.0194617410967 -0.0176924919061 0.956 1.33161469429e-38
-0.0176924919061 -0.0176924919061 0.956 1.26732984698e-38
-0.0159232427154 -0.0176924919061 0.956 1.32243114468e-38
-0.0141539935248 -0.0176924919061 0.956 1.42345019045e-38
-0.0123847443342 -0.0176924919061 0.956 1.46018438891e-38
-0.0106154951436 -0.0176924919061 0.956 1.46936793853e-38
-0.00884624595303 -0.0176924919061 0.956 1.4510008393e-38
-0.00706219132986 -0.0176554783247 0.954 1.47855148814e-38
-0.0052966434974 -0.0176554783247 0.954 1.51528568661e-38
-0.00353109566493 -0.0176554783247 0.954 1.4510008393e-38
-0.00176554783247 -0.0176554783247 0.954 1.46936793853e-38
0.0 -0.0176554783247 0.954 1.47855148814e-38
0.00176554783247 -0.0176554783247 0.954 1.54283633545e-38
0.00353109566493 -0.0176554783247 0.954 1.58875408353e-38
0.0052966434974 -0.0176554783247 0.954 1.625488282e-38
0.00706219132986 -0.0176554783247 0.954 1.71732377815e-38
0.00884624595303 -0.0176924919061 0.956 1.66222248046e-38
0.0106154951436 -0.0176924919061 0.956 1.79079217508e-38
0.0124236085947 -0.0177480122781 0.959 1.81834282393e-38
0.0141984098225 -0.0177480122781 0.959 2.22371590875e-38
0.0160231793852 -0.0178035326502 0.962 1.68202450932e-38
0.0178035326502 -0.0178035326502 0.962 1.62699495811e-38
0.0196246008548 -0.0178405462316 0.964 2.00582576846e-38
0.0214752799245 -0.0178960666037 0.967 2.29188039099e-38
0.0233370630686 -0.0179515869758 0.97 1.44264237422e-38
0.0251322217661 -0.0179515869758 0.97 1.65303893084e-38
0.0269273804637 -0.0179515869758 0.97 1.83742794849e-38
-0.0396156361654 -0.0162063966131 0.973 9.1993338417e-39
-0.0378149254306 -0.0162063966131 0.973 1.17624838953e-38
-0.0359031739516 -0.0161564282782 0.97 1.2308467612e-38
-0.034108015254 -0.0161564282782 0.97 1.33200929994e-38
-0.0322129198867 -0.0161064599433 0.967 1.25814629736e-38
-0.0304233132263 -0.0161064599433 0.967 1.17560197054e-38
-0.0285448739706 -0.0160564916085 0.964 1.26736572022e-38
-0.0265387378591 -0.0159232427154 0.956 1.43385343025e-38
-0.0247694886685 -0.0159232427154 0.956 8.91952256434e-39
-0.0230002394779 -0.0159232427154 0.956 4.42675790074e-39
-0.0212309902873 -0.0159232427154 0.956 1.06715716395e-38
-0.0194617410967 -0.0159232427154 0.956 1.37753244237e-38
-0.0176924919061 -0.0159232427154 0.956 1.35916534314e-38
