# .PCD v0.7 - Point Cloud Data file format
VERSION 0.7
FIELDS x y z rgb
SIZE 4 4 4 4
TYPE F F F F
COUNT 1 1 1 1
WIDTH 843
HEIGHT 1
VIEWPOINT 0 0 0 1 0 0 0
POINTS 843
DATA ascii
-0.00818925488329 -0.0540490822297 0.885 1.40705766088e-38
-0.0065291957578 -0.0538658650018 0.882 1.20477462236e-38
-0.00488579274393 -0.0537437201832 0.88 1.56527336595e-38
-0.00325719516262 -0.0537437201832 0.88 1.15071448943e-38
-0.00162489622317 -0.0536215753646 0.878 6.79585053777e-39
0.0 -0.0536215753646 0.878 1.6751184901e-38
0.00161934418596 -0.0534383581368 0.875 9.92720189523e-39
0.00323128565565 -0.0533162133182 0.873 1.36834889275e-38
0.00483582440905 -0.0531940684996 0.871 1.40508309122e-38
0.00644776587873 -0.0531940684996 0.871 1.46018438891e-38
0.00804120055772 -0.053071923681 0.869 1.46018438891e-38
0.00962723252043 -0.0529497788624 0.867 1.46018438891e-38
0.0111929070134 -0.0527665616345 0.864 1.49691858738e-38
0.0127918937296 -0.0527665616345 0.864 1.45128782522e-38
0.0143908804458 -0.0527665616345 0.864 1.5805770866e-38
0.0159528535806 -0.0526444168159 0.862 1.35141672315e-38
0.0175481389386 -0.0526444168159 0.862 1.34083411715e-38
0.0191434242967 -0.0526444168159 0.862 1.50610213699e-38
0.0207387096547 -0.0526444168159 0.862 1.53365278584e-38
0.0223339950128 -0.0526444168159 0.862 1.5703869843e-38
0.0239292803708 -0.0526444168159 0.862 1.57957053392e-38
0.0255245657289 -0.0526444168159 0.862 1.55201988507e-38
0.027119851087 -0.0526444168159 0.862 1.57957053392e-38
0.028715136445 -0.0526444168159 0.862 1.63467183161e-38
0.0303104218031 -0.0526444168159 0.862 1.59793917458e-38
0.0319057071611 -0.0526444168159 0.862 1.57957053392e-38
0.0335009925192 -0.0526444168159 0.862 1.60715705601e-38
0.0350962778772 -0.0526444168159 0.862 1.57038782508e-38
0.0367766944725 -0.0527665616345 0.864 1.63467183161e-38
0.0383756811887 -0.0527665616345 0.864 1.66222248046e-38
0.0399746679049 -0.0527665616345 0.864 1.65303893084e-38
0.0415736546211 -0.0527665616345 0.864 1.64385538123e-38
0.0433225463419 -0.0529497788624 0.867 1.68977382996e-38
0.0449270850953 -0.0529497788624 0.867 1.88356485965e-38
0.0466389632348 -0.053071923681 0.869 1.65555510237e-38
0.0483582440905 -0.0531940684996 0.871 1.17779135927e-38
0.0503717829183 -0.0536215753646 0.878 1.61935998342e-38
0.0519966791415 -0.0536215753646 0.878 1.60798396223e-38
0.0536215753646 -0.0536215753646 0.878 1.89278624433e-38
0.0553723177646 -0.0537437201832 0.88 2.34702470855e-38
0.0571304628807 -0.0538658650018 0.882 1.29661446255e-38
-0.00820776167399 -0.0525296747135 0.887 1.54563837186e-38
-0.00655140390664 -0.0524112312531 0.885 1.4440883741e-38
-0.00488579274393 -0.0521151226019 0.88 1.07505235976e-38
-0.00325719516262 -0.0521151226019 0.88 1.45395813958e-38
-0.00162859758131 -0.0521151226019 0.88 1.27045614385e-38
0.0 -0.0519966791415 0.878 6.42848473106e-39
0.00162489622317 -0.0519966791415 0.878 1.57376439386e-38
0.00323128565565 -0.0517005704903 0.873 1.63798660313e-38
0.00484692848347 -0.0517005704903 0.873 1.19386229083e-38
0.00644776587873 -0.0515821270299 0.871 1.31324759506e-38
0.00805970734842 -0.0515821270299 0.871 1.35916534314e-38
0.00964944066926 -0.0514636835694 0.869 1.59912411256e-38
0.0112317712738 -0.051345240109 0.867 1.4710181076e-38
0.0128363100272 -0.051345240109 0.867 1.36106662489e-38
0.0143908804458 -0.0511675749183 0.864 1.3155793557e-38
0.015989867162 -0.0511675749183 0.864 1.15920789955e-38
0.0175888538782 -0.0511675749183 0.864 1.27787714026e-38
0.0191878405943 -0.0511675749183 0.864 1.57160779552e-38
0.0207868273105 -0.0511675749183 0.864 1.48845250257e-38
0.0224635425477 -0.051345240109 0.867 1.53365278584e-38
0.0240680813011 -0.051345240109 0.867 1.53365278584e-38
0.0256726200545 -0.051345240109 0.867 1.58875450392e-38
0.0272771588079 -0.051345240109 0.867 1.5703869843e-38
0.0288816975613 -0.051345240109 0.867 1.59793763315e-38
0.0304862363147 -0.051345240109 0.867 1.60712118276e-38
0.0320907750681 -0.051345240109 0.867 1.63467183161e-38
0.0336953138215 -0.051345240109 0.867 1.60712118276e-38
0.0352998525749 -0.051345240109 0.867 1.64385538123e-38
0.0369043913283 -0.051345240109 0.867 1.67140603008e-38
0.0385089300817 -0.051345240109 0.867 1.67140603008e-38
0.0401134688351 -0.051345240109 0.867 1.66222248046e-38
0.0418142429001 -0.0514636835694 0.869 1.66222248046e-38
0.0434224830117 -0.0514636835694 0.869 1.84629088102e-38
0.045237999179 -0.0517005704903 0.873 1.87599784794e-38
0.0469609813929 -0.0518190139508 0.875 1.44493826162e-38
0.0487468866951 -0.0519966791415 0.878 1.20534481071e-38
0.0503717829183 -0.0519966791415 0.878 1.74771485899e-38
0.0519966791415 -0.0519966791415 0.878 1.56167132824e-38
0.0537437201832 -0.0521151226019 0.88 2.26131933265e-38
0.0553723177646 -0.0521151226019 0.88 2.19151182796e-38
0.0571304628807 -0.0522335660624 0.882 1.30567834127e-38
-0.011633368632 -0.0515192039415 0.898 2.17372318474e-38
-0.00994925067855 -0.0514044618392 0.896 1.60210873816e-38
-0.00822626846469 -0.0510028644811 0.889 1.48038536744e-38
-0.00656620933919 -0.0508881223787 0.887 1.20444840008e-38
-0.00491355292998 -0.0507733802764 0.885 1.61899676686e-38
-0.0032645978789 -0.0506012671229 0.882 1.12125751415e-38
-0.00162859758131 -0.0504865250206 0.88 1.32459306795e-38
0.0 -0.0503717829183 0.878 1.39907334249e-38
0.00162489622317 -0.0503717829183 0.878 7.53132624066e-39
0.00323868837192 -0.0501996697648 0.875 8.99987862348e-39
0.00484692848347 -0.0500849276625 0.873 1.84956809774e-38
0.00646257131129 -0.0500849276625 0.873 1.81376940613e-38
0.00805970734842 -0.0499701855602 0.871 1.51851455853e-38
0.0096716488181 -0.0499701855602 0.871 1.33341087866e-38
0.0112576807808 -0.0498554434579 0.869 1.3059653272e-38
0.0128659208924 -0.0498554434579 0.869 1.16867843509e-38
0.0144408487806 -0.0497407013555 0.867 9.57531483137e-39
0.016045387534 -0.0497407013555 0.867 1.187983003e-38
0.0176499262875 -0.0497407013555 0.867 1.30679111238e-38
0.0192544650409 -0.0497407013555 0.867 1.67417289389e-38
0.0208590037943 -0.0497407013555 0.867 1.84023320789e-38
0.0225153615616 -0.0498554434579 0.869 1.60970629817e-38
0.0241236016732 -0.0498554434579 0.869 1.64582840947e-38
0.0257318417847 -0.0498554434579 0.869 1.62703083135e-38
0.0273400818963 -0.0498554434579 0.869 1.51528568661e-38
0.0289483220078 -0.0498554434579 0.869 1.63467183161e-38
0.0305565621193 -0.0498554434579 0.869 1.61630473238e-38
0.0321648022309 -0.0498554434579 0.869 1.64385538123e-38
0.0337730423424 -0.0498554434579 0.869 1.63467183161e-38
0.035381282454 -0.0498554434579 0.869 1.68977312931e-38
0.0369043913283 -0.0497407013555 0.867 1.67140603008e-38
0.0385089300817 -0.0497407013555 0.867 1.66222248046e-38
0.0402060027886 -0.0498554434579 0.869 1.66222248046e-38
0.0419104782118 -0.0499701855602 0.871 1.67140603008e-38
0.0436223563512 -0.0500849276625 0.873 1.92162678841e-38
0.0453416372069 -0.0501996697648 0.875 1.66513479906e-38
0.047121990472 -0.0503717829183 0.878 1.43496550071e-38
0.0487468866951 -0.0503717829183 0.878 1.96926757308e-38
0.0504865250206 -0.0504865250206 0.88 1.54470552748e-38
0.0521151226019 -0.0504865250206 0.88 1.46018438891e-38
0.0537437201832 -0.0504865250206 0.88 2.34853670959e-38
0.0553723177646 -0.0504865250206 0.88 1.38908362587e-38
-0.011633368632 -0.0498572941369 0.898 2.25658938982e-38
-0.00994925067855 -0.0497462533928 0.896 1.71285265514e-38
-0.00824477525538 -0.0494686515323 0.891 1.2318153387e-38
-0.00658101477175 -0.0493576107881 0.889 1.37915486573e-38
-0.00493576107881 -0.0493576107881 0.889 1.47202648197e-38
-0.0032645978789 -0.0489689681835 0.882 1.51758801998e-38
-0.00162859758131 -0.0488579274393 0.88 1.50837546349e-38
0.0 -0.0488579274393 0.88 7.62306364593e-39
0.00162489622317 -0.0487468866951 0.878 1.78579108099e-38
0.00323868837192 -0.0485803255789 0.875 1.44570589292e-38
0.00485803255789 -0.0485803255789 0.875 5.87749557619e-39
0.00646257131129 -0.0484692848347 0.873 7.98968816575e-39
0.00807821413911 -0.0484692848347 0.873 1.48039055225e-38
0.00969385696694 -0.0484692848347 0.873 1.8510379197e-38
0.0112835902878 -0.0483582440905 0.871 1.74083560457e-38
0.0128955317575 -0.0483582440905 0.871 1.49193991406e-38
0.0144741610039 -0.0482472033463 0.869 9.56742131712e-39
0.0160824011154 -0.0482472033463 0.869 9.28399468972e-39
0.017690641227 -0.0482472033463 0.869 1.16663366037e-38
0.0192988813385 -0.0482472033463 0.869 1.80177877543e-38
0.0209071214501 -0.0482472033463 0.869 1.71105366818e-38
0.0225153615616 -0.0482472033463 0.869 1.68328609833e-38
0.0241236016732 -0.0482472033463 0.869 1.59047838129e-38
0.0257318417847 -0.0482472033463 0.869 1.81177914192e-38
0.0273400818963 -0.0482472033463 0.869 1.47959181212e-38
0.0289483220078 -0.0482472033463 0.869 1.63467183161e-38
0.0305565621193 -0.0482472033463 0.869 1.63467183161e-38
0.0321648022309 -0.0482472033463 0.869 1.61630473238e-38
0.0337730423424 -0.0482472033463 0.869 1.68977312931e-38
0.035381282454 -0.0482472033463 0.869 1.689774951e-38
0.0369895225655 -0.0482472033463 0.869 1.66222248046e-38
0.0385977626771 -0.0482472033463 0.869 1.68058957969e-38
0.0402985367421 -0.0483582440905 0.871 1.68059014021e-38
0.0419104782118 -0.0483582440905 0.871 1.97654759886e-38
0.043722293021 -0.0485803255789 0.875 1.71908212747e-38
0.0454970942488 -0.0487468866951 0.878 1.68263491493e-38
0.047121990472 -0.0487468866951 0.878 1.85751766393e-38
0.0488579274393 -0.0488579274393 0.88 1.4790193817e-38
0.0504865250206 -0.0488579274393 0.88 1.37753440419e-38
0.0521151226019 -0.0488579274393 0.88 2.18932061756e-38
0.0538658650018 -0.0489689681835 0.882 1.91406552203e-38
-0.0100047710506 -0.0483563934114 0.901 1.82348839189e-38
-0.00829104223213 -0.0480880449463 0.896 1.05704301202e-38
-0.0066328337857 -0.0480880449463 0.896 1.4347166301e-38
-0.00496352126486 -0.0479807055603 0.894 1.41688917091e-38
-0.0032831046696 -0.0476050177091 0.887 1.53616657515e-38
-0.00163229893945 -0.047336669244 0.882 1.27737477476e-38
0.0 -0.047229329858 0.88 1.83159112e-38
0.00162859758131 -0.047229329858 0.88 6.88909714148e-39
0.00324979244634 -0.047121990472 0.878 1.1942560557e-38
0.00485803255789 -0.0469609813929 0.875 1.68483201079e-38
0.00647737674385 -0.0469609813929 0.875 1.92479470385e-38
0.00809672092981 -0.0469609813929 0.875 6.88766221185e-39
0.00969385696694 -0.0468536420069 0.873 7.62234618111e-39
0.0112835902878 -0.0467463026208 0.871 8.81623845973e-39
0.0128955317575 -0.0467463026208 0.871 1.22184678168e-38
0.0145074732272 -0.0467463026208 0.871 1.83191944423e-38
0.0161194146968 -0.0467463026208 0.871 1.96153478776e-38
0.017690641227 -0.0466389632348 0.869 1.88766688065e-38
0.0192988813385 -0.0466389632348 0.869 1.81373016977e-38
0.0209071214501 -0.0466389632348 0.869 1.83209334537e-38
0.0225671805756 -0.0467463026208 0.871 1.6010647708e-38
0.0241791220453 -0.0467463026208 0.871 1.52464860243e-38
0.0257910635149 -0.0467463026208 0.871 1.9031879427e-38
0.0274030049846 -0.0467463026208 0.871 1.73846250562e-38
0.0290149464543 -0.0467463026208 0.871 1.4510008393e-38
0.030626887924 -0.0467463026208 0.871 1.625488282e-38
0.0322388293937 -0.0467463026208 0.871 1.68058957969e-38
0.0338507708634 -0.0467463026208 0.871 1.65303893084e-38
0.035462712333 -0.0467463026208 0.871 1.64385538123e-38
0.0370746538027 -0.0467463026208 0.871 1.67140603008e-38
0.0386865952724 -0.0467463026208 0.871 1.69895667892e-38
0.0403910706956 -0.0468536420069 0.873 2.01263874146e-38
0.042102948835 -0.0469609813929 0.875 1.60819892141e-38
0.0438721980256 -0.047121990472 0.878 2.14314643186e-38
0.0456007322767 -0.047229329858 0.88 1.58972266103e-38
0.047229329858 -0.047229329858 0.88 1.59793987523e-38
0.0488579274393 -0.047229329858 0.88 1.47866219072e-38
0.0504865250206 -0.047229329858 0.88 1.64518913711e-38
0.0522335660624 -0.047336669244 0.882 1.85802591488e-38
0.0538658650018 -0.047336669244 0.882 1.98659154574e-38
-0.0100047710506 -0.0466889315697 0.901 1.86040251708e-38
-0.00830954902282 -0.0465334745278 0.898 1.01119701042e-38
-0.0066328337857 -0.0464298364999 0.896 1.20394435302e-38
-0.00497462533928 -0.0464298364999 0.896 1.4714185987e-38
-0.00329050738588 -0.0460671034023 0.889 1.4445104452e-38
-0.0016415523348 -0.0459634653743 0.887 1.41620561752e-38
0.0 -0.0457043703046 0.882 1.12957800404e-38
0.00162859758131 -0.0456007322767 0.88 1.73803216686e-38
0.00324979244634 -0.0454970942488 0.878 1.90535771324e-38
0.00487468866951 -0.0454970942488 0.878 9.19287805968e-39
0.00649958489268 -0.0454970942488 0.878 1.03774755256e-38
0.00809672092981 -0.0453416372069 0.875 9.73456259275e-39
0.00971606511577 -0.0453416372069 0.875 9.64272709659e-39
0.0113094997948 -0.045237999179 0.873 1.01937947242e-38
0.0128955317575 -0.0451343611511 0.871 9.64276913554e-39
0.0145074732272 -0.0451343611511 0.871 9.27538511196e-39
0.0161194146968 -0.0451343611511 0.871 8.72437213501e-39
0.0177313561665 -0.0451343611511 0.871 9.73456259275e-39
0.0193432976362 -0.0451343611511 0.871 9.73459482261e-39
0.0209552391059 -0.0451343611511 0.871 1.47055792118e-38
0.0225671805756 -0.0451343611511 0.871 1.87869744944e-38
0.0241791220453 -0.0451343611511 0.871 1.38671599199e-38
0.0257910635149 -0.0451343611511 0.871 1.70925468121e-38
0.0274030049846 -0.0451343611511 0.871 1.74713500168e-38
0.0290149464543 -0.0451343611511 0.871 1.43288485275e-38
0.030626887924 -0.0451343611511 0.871 1.61630473238e-38
0.0322388293937 -0.0451343611511 0.871 1.63467183161e-38
0.0338507708634 -0.0451343611511 0.871 1.65303893084e-38
0.0355441422121 -0.045237999179 0.873 1.67140603008e-38
0.0371597850399 -0.045237999179 0.873 1.67140883267e-38
0.0387754278677 -0.045237999179 0.873 1.66222248046e-38
0.0406224055793 -0.0454970942488 0.878 2.00331408109e-38
0.0422473018025 -0.0454970942488 0.878 2.11588473075e-38
0.0438721980256 -0.0454970942488 0.878 1.93192254862e-38
0.0456007322767 -0.0456007322767 0.88 1.38671599199e-38
0.047229329858 -0.0456007322767 0.88 1.55219925127e-38
0.0488579274393 -0.0456007322767 0.88 1.45100294124e-38
0.0506012671229 -0.0457043703046 0.882 2.1910805083e-38
0.0522335660624 -0.0457043703046 0.882 1.24993328707e-38
0.0538658650018 -0.0457043703046 0.882 2.34666597614e-38
-0.0100047710506 -0.0450214697279 0.901 1.89745901419e-38
-0.00833730920887 -0.0450214697279 0.901 1.14959793481e-38
-0.00664763921826 -0.0448715647232 0.898 1.12078765878e-38
-0.00497462533928 -0.0447716280535 0.896 1.12039501495e-38
-0.00329050738588 -0.0444218497093 0.889 1.66524325956e-38
-0.0016415523348 -0.0443219130396 0.887 1.52723680069e-38
0.0 -0.0442219763698 0.885 1.31461274002e-38
0.00163785097666 -0.0442219763698 0.885 1.62736307921e-38
0.00325719516262 -0.0439721346954 0.88 1.12039305313e-38
0.00488579274393 -0.0439721346954 0.88 1.62682133723e-38
0.00649958489268 -0.0438721980256 0.878 1.97906685324e-38
0.00812448111586 -0.0438721980256 0.878 1.81365856342e-38
0.00974937733903 -0.0438721980256 0.878 1.16810516389e-38
0.0113354093017 -0.043722293021 0.875 1.01019620306e-38
0.0129547534877 -0.043722293021 0.875 9.55089580433e-39
0.0145407854504 -0.0436223563512 0.873 9.09171411964e-39
0.0161194146968 -0.0435224196815 0.871 9.27538511196e-39
0.0177313561665 -0.0435224196815 0.871 9.09171411964e-39
0.0193432976362 -0.0435224196815 0.871 9.73457800703e-39
0.0209552391059 -0.0435224196815 0.871 9.64776756717e-39
0.0225671805756 -0.0435224196815 0.871 1.70388644692e-38
0.0242346424173 -0.0436223563512 0.873 1.28569694621e-38
0.0258502852452 -0.0436223563512 0.873 1.57975312311e-38
0.027465928073 -0.0436223563512 0.873 1.72851622925e-38
0.0290815709008 -0.0436223563512 0.873 1.50610213699e-38
0.0306972137286 -0.0436223563512 0.873 1.5703869843e-38
0.0323128565565 -0.0436223563512 0.873 1.63467183161e-38
0.0339284993843 -0.0436223563512 0.873 1.66222248046e-38
0.0356255720912 -0.043722293021 0.875 1.68058957969e-38
0.0372449162771 -0.043722293021 0.875 1.67140603008e-38
0.0389975093561 -0.0438721980256 0.878 1.66222248046e-38
0.0406224055793 -0.0438721980256 0.878 1.68977425035e-38
0.0423435371141 -0.0439721346954 0.88 1.8560841356e-38
0.0439721346954 -0.0439721346954 0.88 1.49699033386e-38
0.0456007322767 -0.0439721346954 0.88 1.56120343469e-38
0.047336669244 -0.0440720713651 0.882 1.56120343469e-38
0.0491355292998 -0.0442219763698 0.885 2.02373520361e-38
0.0507733802764 -0.0442219763698 0.885 1.70294939864e-38
0.0525296747135 -0.0443219130396 0.887 1.2048428656e-38
0.054720878732 -0.0447716280535 0.896 1.74760793992e-38
0.0563790871785 -0.0447716280535 0.896 2.03161540552e-38
0.0581668431598 -0.0448715647232 0.898 2.34720701748e-38
0.0600286263038 -0.0450214697279 0.901 2.34875307007e-38
-0.0100269791995 -0.0434502431977 0.903 1.75909522421e-38
-0.00833730920887 -0.0433540078861 0.901 1.16799922573e-38
-0.00664763921826 -0.0432096549187 0.898 1.27794902687e-38
-0.00497462533928 -0.0431134196071 0.896 1.15741675985e-38
-0.00329791010215 -0.042872831328 0.891 1.15712725159e-38
-0.00164525369294 -0.0427765960164 0.889 1.61828196451e-38
0.0 -0.0426803607048 0.887 1.31436036617e-38
0.0016415523348 -0.0426803607048 0.887 1.59963306416e-38
0.0032645978789 -0.0424397724257 0.882 1.39794627814e-38
0.00489689681835 -0.0424397724257 0.882 1.59966529403e-38
0.00651439032524 -0.0423435371141 0.88 1.31324759506e-38
0.00814298790655 -0.0423435371141 0.88 1.51528568661e-38
0.00977158548786 -0.0423435371141 0.88 1.6733137578e-38
0.0113742735622 -0.0422473018025 0.878 1.94189797199e-38
0.0129547534877 -0.042102948835 0.875 1.98843565451e-38
0.0145740976737 -0.042102948835 0.875 1.94280433184e-38
0.0161934418596 -0.042102948835 0.875 1.85064415483e-38
0.0178127860456 -0.042102948835 0.875 1.73993709199e-38
0.0194321302315 -0.042102948835 0.875 1.71191911011e-38
0.0210033567617 -0.0420067135234 0.873 1.76716390076e-38
0.0226189995895 -0.0420067135234 0.873 1.79561964829e-38
0.0242346424173 -0.0420067135234 0.873 1.19386145005e-38
0.0258502852452 -0.0420067135234 0.873 1.5070007897e-38
0.0275288511614 -0.042102948835 0.875 1.59933668954e-38
0.0291481953473 -0.042102948835 0.875 1.57957053392e-38
0.0306972137286 -0.0420067135234 0.873 1.57957053392e-38
0.0323128565565 -0.0420067135234 0.873 1.65303893084e-38
0.0340062279052 -0.042102948835 0.875 1.625488282e-38
0.0356255720912 -0.042102948835 0.875 1.69895667892e-38
0.0372449162771 -0.042102948835 0.875 1.65303893084e-38
0.0389975093561 -0.0422473018025 0.878 1.5703869843e-38
0.0407149395328 -0.0423435371141 0.88 1.53365278584e-38
0.0423435371141 -0.0423435371141 0.88 1.58875408353e-38
0.0439721346954 -0.0423435371141 0.88 1.92112035914e-38
0.0457043703046 -0.0424397724257 0.882 2.042696033e-38
0.0474976783231 -0.0425841253931 0.885 2.22737876281e-38
0.0492465700439 -0.0426803607048 0.887 1.10292796972e-38
0.0508881223787 -0.0426803607048 0.887 1.40850366077e-38
0.0527665616345 -0.042872831328 0.891 1.28896589527e-38
0.0545987339134 -0.0430171842954 0.894 1.49014513099e-38
0.0562532410017 -0.0430171842954 0.894 2.20692933406e-38
0.0580372956249 -0.0431134196071 0.896 2.24650480529e-38
0.0600286263038 -0.0433540078861 0.901 2.34886040954e-38
-0.0117370066599 -0.041917880928 0.906 1.80519107732e-38
-0.0100269791995 -0.0417790799978 0.903 1.77757134446e-38
-0.00835581599956 -0.0417790799978 0.903 1.14984820672e-38
-0.00666984736709 -0.0416865460443 0.901 1.33362611811e-38
-0.00498572941369 -0.0415477451141 0.898 1.12053864804e-38
-0.00331641689285 -0.0414552111606 0.896 1.23981647267e-38
-0.00164895505108 -0.0412238762769 0.891 1.20304499967e-38
0.0 -0.0411313423234 0.889 1.35916884638e-38
0.0016415523348 -0.04103880837 0.887 1.7097626519e-38
0.0032831046696 -0.04103880837 0.887 1.46233776426e-38
0.00491355292998 -0.0409462744165 0.885 1.51698013671e-38
0.0065291957578 -0.0408074734862 0.882 1.53530589764e-38
0.00816149469725 -0.0408074734862 0.882 1.66488606858e-38
0.00977158548786 -0.0407149395328 0.88 1.34998529677e-38
0.0114001830692 -0.0407149395328 0.88 1.3958995416e-38
0.0129991697854 -0.0406224055793 0.878 1.38671599199e-38
0.0146240660085 -0.0406224055793 0.878 1.38671599199e-38
0.0161934418596 -0.0404836046491 0.875 1.60719292925e-38
0.0178127860456 -0.0404836046491 0.875 1.44181728968e-38
0.0194321302315 -0.0404836046491 0.875 1.58900533635e-38
0.0210033567617 -0.0403910706956 0.873 1.58043261273e-38
0.0226189995895 -0.0403910706956 0.873 1.21222854929e-38
0.0242346424173 -0.0403910706956 0.873 1.3224312848e-38
0.0259095069754 -0.0404836046491 0.875 1.46047319653e-38
0.0275288511614 -0.0404836046491 0.875 1.55237861748e-38
0.0291481953473 -0.0404836046491 0.875 1.61630473238e-38
0.0307675395333 -0.0404836046491 0.875 1.625488282e-38
0.0323868837192 -0.0404836046491 0.875 1.71732377815e-38
0.0341228206866 -0.0406224055793 0.878 1.625488282e-38
0.0357477169098 -0.0406224055793 0.878 1.70814078906e-38
0.0373726131329 -0.0406224055793 0.878 1.53365278584e-38
0.0390863419515 -0.0407149395328 0.88 1.70857070743e-38
0.0407149395328 -0.0407149395328 0.88 1.59793763315e-38
0.0423435371141 -0.0407149395328 0.88 2.11437847503e-38
0.0440720713651 -0.0408074734862 0.882 2.32016013543e-38
0.0458598273464 -0.0409462744165 0.885 2.11729597844e-38
0.0476050177091 -0.04103880837 0.887 1.70173026897e-38
0.0492465700439 -0.04103880837 0.887 1.48963631952e-38
0.0510028644811 -0.0411313423234 0.889 1.17869211392e-38
0.0529442268251 -0.0413626772071 0.894 1.16010823381e-38
0.0545987339134 -0.0413626772071 0.894 1.36067496197e-38
0.0562532410017 -0.0413626772071 0.894 2.16141151656e-38
0.0580372956249 -0.0414552111606 0.896 2.07144423152e-38
0.0596955040713 -0.0414552111606 0.896 2.34900292159e-38
-0.0117370066599 -0.0402411656909 0.906 1.8327432676e-38
-0.0100602914227 -0.0402411656909 0.906 1.80540785819e-38
-0.00835581599956 -0.0401079167979 0.903 1.16821474543e-38
-0.00666984736709 -0.0400190842026 0.901 1.26963147971e-38
-0.00500238552532 -0.0400190842026 0.901 1.2594427787e-38
-0.00332381960913 -0.0398858353096 0.898 1.16663478141e-38
-0.00165820844643 -0.0397970027142 0.896 1.17549435082e-38
0.0 -0.0394860886305 0.889 1.14794370197e-38
0.00164525369294 -0.0394860886305 0.889 1.24896316814e-38
0.0032831046696 -0.0393972560352 0.887 1.52626584098e-38
0.00492465700439 -0.0393972560352 0.887 1.76565175959e-38
0.00655140390664 -0.0393084234398 0.885 1.21305363382e-38
0.00818925488329 -0.0393084234398 0.885 1.80267742814e-38
0.00982710585995 -0.0393084234398 0.885 1.6917478391e-38
0.0114260925761 -0.0391751745468 0.882 1.34101348335e-38
0.0130287806505 -0.0390863419515 0.88 1.44181967189e-38
0.0146240660085 -0.0389975093561 0.878 1.53365278584e-38
0.0162489622317 -0.0389975093561 0.878 1.56120343469e-38
0.0178738584549 -0.0389975093561 0.878 1.53365278584e-38
0.0194987546781 -0.0389975093561 0.878 1.53365362662e-38
0.0210514744175 -0.0388642604631 0.875 1.59793861406e-38
0.0226708186035 -0.0388642604631 0.875 1.19386145005e-38
0.0242901627894 -0.0388642604631 0.875 1.37767593533e-38
0.0259983395707 -0.0389975093561 0.878 1.44185652604e-38
0.0276232357939 -0.0389975093561 0.878 1.60712118276e-38
0.0292481320171 -0.0389975093561 0.878 1.61630473238e-38
0.0308730282403 -0.0389975093561 0.878 1.61630473238e-38
0.0324979244634 -0.0389975093561 0.878 1.65303893084e-38
0.0341228206866 -0.0389975093561 0.878 1.61630473238e-38
0.0357477169098 -0.0389975093561 0.878 1.625488282e-38
0.0373726131329 -0.0389975093561 0.878 1.46018438891e-38
0.0390863419515 -0.0390863419515 0.88 2.00593703155e-38
0.0408074734862 -0.0391751745468 0.882 2.17278991996e-38
0.0425841253931 -0.0393084234398 0.885 2.34921914194e-38
0.0442219763698 -0.0393084234398 0.885 1.5643054891e-38
0.0459634653743 -0.0393972560352 0.887 1.61738723544e-38
0.0476050177091 -0.0393972560352 0.887 1.54412777212e-38
0.0493576107881 -0.0394860886305 0.889 1.29739806865e-38
0.0511176065834 -0.0395749212258 0.891 1.10461162982e-38
0.0529442268251 -0.0397081701189 0.894 1.57387523657e-38
0.0545987339134 -0.0397081701189 0.894 1.57332859004e-38
0.0563790871785 -0.0397970027142 0.896 2.34720449514e-38
0.0580372956249 -0.0397970027142 0.896 1.73035529335e-38
0.0596955040713 -0.0397970027142 0.896 2.34925501518e-38
-0.0100602914227 -0.0385644504538 0.906 1.722288999e-38
-0.00838357618561 -0.0385644504538 0.906 1.17754571164e-38
-0.00666984736709 -0.0383516223608 0.901 1.38962522773e-38
-0.00500238552532 -0.0383516223608 0.901 1.02941893514e-38
-0.00332381960913 -0.038223925505 0.898 1.3327664215e-38
-0.00165820844643 -0.0381387942678 0.896 1.07447530505e-38
0.0 -0.0379259661748 0.891 1.22148496642e-38
0.00164525369294 -0.0378408349376 0.889 1.13876015236e-38
0.00329050738588 -0.0378408349376 0.889 1.23059676956e-38
0.00492465700439 -0.0377557037004 0.887 1.36835057431e-38
0.00656620933919 -0.0377557037004 0.887 1.60827487179e-38
0.00818925488329 -0.0376705724632 0.885 1.48809853458e-38
0.00982710585995 -0.0376705724632 0.885 1.54283815714e-38
0.0114260925761 -0.0375428756073 0.882 1.66337392741e-38
0.0130287806505 -0.0374577443701 0.88 1.5900535076e-38
0.0146573782318 -0.0374577443701 0.88 1.51528568661e-38
0.0162859758131 -0.0374577443701 0.88 1.55202212715e-38
0.0178738584549 -0.0373726131329 0.878 1.56120343469e-38
0.0194987546781 -0.0373726131329 0.878 1.55201988507e-38
0.0211236509012 -0.0373726131329 0.878 1.56120343469e-38
0.0227485471244 -0.0373726131329 0.878 1.31324829571e-38
0.0243734433476 -0.0373726131329 0.878 2.07879502287e-38
0.0259983395707 -0.0373726131329 0.878 1.10245643278e-38
0.0276232357939 -0.0373726131329 0.878 1.48773503776e-38
0.0293147564636 -0.0374577443701 0.88 1.54283633545e-38
0.0308730282403 -0.0373726131329 0.878 1.51528568661e-38
0.0324979244634 -0.0373726131329 0.878 1.46018438891e-38
0.0342005492075 -0.0374577443701 0.88 1.46018438891e-38
0.0358291467888 -0.0374577443701 0.88 1.83775865493e-38
0.0374577443701 -0.0374577443701 0.88 2.09806820169e-38
0.0390863419515 -0.0374577443701 0.88 2.27535936236e-38
0.0408074734862 -0.0375428756073 0.882 2.20177998259e-38
0.0425841253931 -0.0376705724632 0.885 1.78661224189e-38
0.0442219763698 -0.0376705724632 0.885 1.57957053392e-38
0.0459634653743 -0.0377557037004 0.887 1.6813070445e-38
0.0477123570952 -0.0378408349376 0.889 1.47181544643e-38
0.0494686515323 -0.0379259661748 0.891 1.44526630559e-38
0.0511176065834 -0.0379259661748 0.891 1.3793261044e-38
0.0529442268251 -0.0380536630306 0.894 2.01461373152e-38
0.054720878732 -0.0381387942678 0.896 1.84981402562e-38
0.0563790871785 -0.0381387942678 0.896 2.34853544842e-38
0.0580372956249 -0.0381387942678 0.896 1.55604959906e-38
0.0596955040713 -0.0381387942678 0.896 2.34932367881e-38
-0.0100602914227 -0.0368877352167 0.906 1.63952901235e-38
-0.00838357618561 -0.0368877352167 0.906 1.18712260574e-38
-0.00668465279965 -0.0367655903981 0.903 1.21431480244e-38
-0.00501348959974 -0.0367655903981 0.903 1.40770618181e-38
-0.00333492368355 -0.036684160519 0.901 1.11253681342e-38
-0.00165820844643 -0.0364805858214 0.896 1.20387008421e-38
0.0 -0.0362770111237 0.891 1.26768857939e-38
0.00164525369294 -0.0361955812446 0.889 1.2214120989e-38
0.00329050738588 -0.0361955812446 0.889 1.30406404544e-38
0.00493576107881 -0.0361955812446 0.889 1.23059578865e-38
0.00656620933919 -0.0361141513656 0.887 1.29488077609e-38
0.00818925488329 -0.0360327214865 0.885 1.34998179352e-38
0.00982710585995 -0.0360327214865 0.885 1.35916534314e-38
0.0114649568366 -0.0360327214865 0.885 1.38671613212e-38
0.0130583915156 -0.0359105766679 0.882 1.47855148814e-38
0.014690690455 -0.0359105766679 0.882 1.54283633545e-38
0.0163229893945 -0.0359105766679 0.882 1.56120343469e-38
0.0179552883339 -0.0359105766679 0.882 1.54283633545e-38
0.0195431709757 -0.0358291467888 0.88 1.54283633545e-38
0.021171768557 -0.0358291467888 0.88 1.77296541654e-38
0.0228003661383 -0.0358291467888 0.88 1.91362425314e-38
0.0244289637197 -0.0358291467888 0.88 1.2327867188e-38
0.026057561301 -0.0358291467888 0.88 1.7124871965e-38
0.0276861588823 -0.0358291467888 0.88 1.95129732157e-38
0.0293147564636 -0.0358291467888 0.88 1.8868380126e-38
0.0309433540449 -0.0358291467888 0.88 2.08091042303e-38
0.0325719516262 -0.0358291467888 0.88 2.20112753803e-38
0.0342005492075 -0.0358291467888 0.88 2.20145824446e-38
0.0358291467888 -0.0358291467888 0.88 2.27532138717e-38
0.0374577443701 -0.0358291467888 0.88 2.05423194235e-38
0.0391751745468 -0.0359105766679 0.882 2.23873278362e-38
0.0409462744165 -0.0360327214865 0.885 2.24776933702e-38
0.0425841253931 -0.0360327214865 0.885 9.18749567227e-39
0.0443219130396 -0.0361141513656 0.887 1.98454677102e-38
0.0459634653743 -0.0361141513656 0.887 1.96893952911e-38
0.0477123570952 -0.0361955812446 0.889 1.85042513188e-38
0.0494686515323 -0.0362770111237 0.891 1.11246548733e-38
0.0512897197369 -0.0363991559423 0.894 1.69107143233e-38
0.0530626702856 -0.0364805858214 0.896 1.65401185237e-38
0.0548430235506 -0.0365620157004 0.898 1.88740904173e-38
0.0565049333552 -0.0365620157004 0.898 2.22002979314e-38
0.0580372956249 -0.0364805858214 0.896 1.98007676904e-38
0.0596955040713 -0.0364805858214 0.896 2.34932802283e-38
-0.0100602914227 -0.0352110199796 0.906 1.63034504234e-38
-0.00838357618561 -0.0352110199796 0.906 1.0026608607e-38
-0.00670686094849 -0.0352110199796 0.906 1.43554802048e-38
-0.00501348959974 -0.0350944271982 0.903 1.18654569116e-38
-0.00334232639983 -0.0350944271982 0.903 1.36167857193e-38
-0.00166190980456 -0.0349001058959 0.898 1.06608096673e-38
0.0 -0.0348223773749 0.896 1.36957082501e-38
0.00164895505108 -0.0346280560726 0.891 1.19386145005e-38
0.00329050738588 -0.0345503275517 0.889 1.29495224231e-38
0.00493576107881 -0.0345503275517 0.889 1.25814629736e-38
0.00656620933919 -0.0344725990308 0.887 1.29488063596e-38
0.00820776167399 -0.0344725990308 0.887 1.28569694621e-38
0.00984931400879 -0.0344725990308 0.887 1.2214120989e-38
0.0114649568366 -0.0343948705098 0.885 1.33161539494e-38
0.0131028078133 -0.0343948705098 0.885 1.44181728968e-38
0.0147406587899 -0.0343948705098 0.885 1.53365278584e-38
0.0163785097666 -0.0343948705098 0.885 1.55201988507e-38
0.0180163607432 -0.0343948705098 0.885 1.59793763315e-38
0.0195875872734 -0.0342782777284 0.882 1.5703869843e-38
0.0212198862128 -0.0342782777284 0.882 1.57038726456e-38
0.0228521851523 -0.0342782777284 0.882 1.70236505718e-38
0.0244289637197 -0.0342005492075 0.88 1.15088530771e-38
0.026057561301 -0.0342005492075 0.88 2.19252356546e-38
0.0276861588823 -0.0342005492075 0.88 2.04457727619e-38
0.0293147564636 -0.0342005492075 0.88 1.94290816806e-38
0.0309433540449 -0.0342005492075 0.88 2.13688024551e-38
0.0325719516262 -0.0342005492075 0.88 2.18337560882e-38
0.0342005492075 -0.0342005492075 0.88 2.03593546856e-38
0.0358291467888 -0.0342005492075 0.88 2.02660996741e-38
0.0375428756073 -0.0342782777284 0.882 2.10040206428e-38
0.0393084234398 -0.0343948705098 0.885 1.95332037617e-38
0.04103880837 -0.0344725990308 0.887 1.26145139992e-38
0.0426803607048 -0.0344725990308 0.887 1.56141867413e-38
0.0443219130396 -0.0344725990308 0.887 1.99527791466e-38
0.0460671034023 -0.0345503275517 0.889 1.59044306857e-38
0.0478196964812 -0.0346280560726 0.891 1.48052914067e-38
0.0496352126486 -0.034744648854 0.894 1.41566807943e-38
0.0514044618392 -0.0348223773749 0.896 1.29595669305e-38
0.0530626702856 -0.0348223773749 0.896 1.73893264125e-38
0.0548430235506 -0.0349001058959 0.898 1.72235542055e-38
0.0565049333552 -0.0349001058959 0.898 2.11890200661e-38
0.0580372956249 -0.0348223773749 0.896 2.34849859427e-38
0.0596955040713 -0.0348223773749 0.896 2.34882145344e-38
-0.0100824995716 -0.0336083319052 0.908 1.58421219495e-38
-0.00840208297631 -0.0336083319052 0.908 1.06712381304e-38
-0.00672166638105 -0.0336083319052 0.908 1.38920035403e-38
-0.00503014571137 -0.0335343047424 0.906 1.3434213345e-38
-0.00335343047424 -0.0335343047424 0.906 1.23267937933e-38
-0.00166746184177 -0.0333492368355 0.901 1.5089417282e-38
0.0 -0.0332381960913 0.898 1.18589759062e-38
0.00165820844643 -0.0331641689285 0.896 1.23095438092e-38
0.00329791010215 -0.0329791010215 0.891 1.3698914421e-38
0.00494686515323 -0.0329791010215 0.891 1.26732984698e-38
0.00658101477175 -0.0329050738588 0.889 1.36834889275e-38
0.00820776167399 -0.032831046696 0.887 1.34079824391e-38
0.00984931400879 -0.032831046696 0.887 1.23059564852e-38
0.0114908663436 -0.032831046696 0.887 1.38671599199e-38
0.0131324186784 -0.032831046696 0.887 1.41426678096e-38
0.0147406587899 -0.0327570195332 0.885 1.42345047071e-38
0.0163785097666 -0.0327570195332 0.885 1.45100182021e-38
0.0180163607432 -0.0327570195332 0.885 1.59793945484e-38
0.0196542117199 -0.0327570195332 0.885 1.57957053392e-38
0.0212920626966 -0.0327570195332 0.885 1.5612053965e-38
0.0228521851523 -0.032645978789 0.882 1.52762874387e-38
0.0244844840917 -0.032645978789 0.882 1.06826923441e-38
0.0261167830312 -0.032645978789 0.882 1.29699701703e-38
0.0277490819706 -0.032645978789 0.882 1.59058361881e-38
0.0293813809101 -0.032645978789 0.882 1.87710767633e-38
0.0309433540449 -0.0325719516262 0.88 1.46194217771e-38
0.0325719516262 -0.0325719516262 0.88 1.98702468709e-38
0.0342005492075 -0.0325719516262 0.88 2.22911441109e-38
0.0358291467888 -0.0325719516262 0.88 2.05466200085e-38
0.0375428756073 -0.032645978789 0.882 1.4466725086e-38
0.0393084234398 -0.0327570195332 0.885 1.74882048348e-39
0.04103880837 -0.032831046696 0.887 9.46624756799e-39
0.0426803607048 -0.032831046696 0.887 1.70032602778e-38
0.0444218497093 -0.0329050738588 0.889 1.6268183945e-38
0.0461707414302 -0.0329791010215 0.891 1.52536704815e-38
0.0479807055603 -0.0330901417657 0.894 1.35052241447e-38
0.0497462533928 -0.0331641689285 0.896 1.68339694103e-38
0.0514044618392 -0.0331641689285 0.896 1.66735235388e-38
0.0531811137461 -0.0332381960913 0.898 1.74146801056e-38
0.0548430235506 -0.0332381960913 0.898 1.50187091628e-38
0.0565049333552 -0.0332381960913 0.898 2.20181095129e-38
0.0581668431598 -0.0332381960913 0.898 2.08109567469e-38
0.0598287529643 -0.0332381960913 0.898 2.34893131524e-38
-0.0100824995716 -0.03192791531 0.908 1.50127116054e-38
-0.00840208297631 -0.03192791531 0.908 9.84508720652e-39
-0.00672166638105 -0.03192791531 0.908 1.26901981293e-38
-0.00504124978578 -0.03192791531 0.908 1.37072297261e-38
-0.00335343047424 -0.0318575895053 0.906 1.2882467489e-38
-0.00167116319991 -0.0317521007983 0.903 1.20462384265e-38
0.0 -0.0316817749937 0.901 1.78531562042e-38
0.00165820844643 -0.0315059604821 0.896 1.33373121549e-38
0.00329791010215 -0.0313301459705 0.891 1.18521599905e-38
0.00494686515323 -0.0313301459705 0.891 1.27712324169e-38
0.00658101477175 -0.0312598201658 0.889 1.41512759861e-38
0.00820776167399 -0.0311894943612 0.887 1.38754107652e-38
0.00984931400879 -0.0311894943612 0.887 1.23059676956e-38
0.0114908663436 -0.0311894943612 0.887 1.52454322478e-38
0.0131324186784 -0.0311894943612 0.887 1.46936793853e-38
0.0147739710132 -0.0311894943612 0.887 1.47855148814e-38
0.016415523348 -0.0311894943612 0.887 1.44181756994e-38
0.0180570756828 -0.0311894943612 0.887 1.57038712443e-38
0.0196542117199 -0.0311191685565 0.885 1.56120343469e-38
0.0212920626966 -0.0311191685565 0.885 1.62573981507e-38
0.0229299136732 -0.0311191685565 0.885 1.38855043181e-38
0.0245677646499 -0.0311191685565 0.885 1.06708541747e-38
0.0261167830312 -0.0310136798495 0.882 1.57232638138e-38
0.0277490819706 -0.0310136798495 0.882 1.76539588249e-38
0.0293813809101 -0.0310136798495 0.882 1.98785313474e-38
0.0310136798495 -0.0310136798495 0.882 1.82200988188e-38
0.032645978789 -0.0310136798495 0.882 1.4145895e-38
0.0342782777284 -0.0310136798495 0.882 2.1723074529e-38
0.0359105766679 -0.0310136798495 0.882 6.71654685377e-39
0.0375428756073 -0.0310136798495 0.882 4.06694929665e-39
0.0393972560352 -0.0311894943612 0.887 4.89526242411e-39
0.04103880837 -0.0311894943612 0.887 1.18687065228e-38
0.0427765960164 -0.0312598201658 0.889 1.63618032941e-38
0.0444218497093 -0.0312598201658 0.889 1.57207835155e-38
0.0461707414302 -0.0313301459705 0.891 1.49831764376e-38
0.0479807055603 -0.0314356346774 0.894 1.31418085984e-38
0.0497462533928 -0.0315059604821 0.896 1.9882539061e-38
0.0515192039415 -0.0315762862867 0.898 1.55729325145e-38
0.0531811137461 -0.0315762862867 0.898 1.40059977691e-38
0.0550262407785 -0.0316817749937 0.901 1.39105819554e-38
0.0566937026203 -0.0316817749937 0.901 2.18333721324e-38
0.0583611644621 -0.0316817749937 0.901 2.07252351159e-38
-0.008420589767 -0.0303141231612 0.91 1.27056600565e-38
-0.00672166638105 -0.0302474987147 0.908 1.31565348439e-38
-0.00504124978578 -0.0302474987147 0.908 1.10371199621e-38
-0.00336083319052 -0.0302474987147 0.908 1.30665434565e-38
-0.00167671523712 -0.0301808742682 0.906 1.36189549294e-38
0.0 -0.0300809375984 0.903 1.21348495349e-38
0.00165820844643 -0.0298477520357 0.896 1.78502246878e-38
0.00330901417657 -0.0297811275891 0.894 1.69304768356e-38
0.00496352126486 -0.0297811275891 0.894 1.37957721709e-38
0.00659582020431 -0.0296811909194 0.891 1.06540063632e-38
0.00822626846469 -0.0296145664729 0.889 1.50732308834e-38
0.00984931400879 -0.0295479420264 0.887 1.42466988063e-38
0.0114908663436 -0.0295479420264 0.887 1.51646950355e-38
0.0131620295435 -0.0296145664729 0.889 1.38728996384e-38
0.0148072832364 -0.0296145664729 0.889 1.58046736493e-38
0.0164525369294 -0.0296145664729 0.889 1.53365278584e-38
0.0180570756828 -0.0295479420264 0.887 1.57957067405e-38
0.0196542117199 -0.0294813175799 0.885 1.54283633545e-38
0.0212920626966 -0.0294813175799 0.885 1.54283633545e-38
0.0229817326872 -0.0295479420264 0.887 1.710723242e-38
0.0245677646499 -0.0294813175799 0.885 1.36974794914e-38
0.0262056156265 -0.0294813175799 0.885 1.84786650101e-38
0.0278434666032 -0.0294813175799 0.885 1.9505715891e-38
0.0294813175799 -0.0294813175799 0.885 1.76644139128e-38
0.0311191685565 -0.0294813175799 0.885 1.73856073664e-38
0.0327570195332 -0.0294813175799 0.885 1.64518465295e-38
0.0343948705098 -0.0294813175799 0.885 2.12546302615e-38
0.0360327214865 -0.0294813175799 0.885 9.48059826557e-39
0.0377557037004 -0.0295479420264 0.887 4.89814769765e-39
0.0394860886305 -0.0296145664729 0.889 4.70908450884e-39
0.0411313423234 -0.0296145664729 0.889 1.23303685057e-38
0.042872831328 -0.0296811909194 0.891 1.47934069944e-38
0.0445217863791 -0.0296811909194 0.891 1.53473164553e-38
0.046326198472 -0.0297811275891 0.894 1.54430896001e-38
0.0480880449463 -0.0298477520357 0.896 1.39690483312e-38
0.0498572941369 -0.0299143764822 0.898 1.79489125335e-38
0.051691317095 -0.0300143131519 0.901 1.55711556681e-38
0.0533587789368 -0.0300143131519 0.901 1.40092347686e-38
0.0550262407785 -0.0300143131519 0.901 1.24362352034e-38
0.0566937026203 -0.0300143131519 0.901 1.52899444935e-38
0.0583611644621 -0.0300143131519 0.901 1.90624795815e-38
-0.00844834995305 -0.0287243898404 0.913 1.19677545021e-38
-0.00675867996244 -0.0287243898404 0.913 1.23228463356e-38
-0.0050523538602 -0.0286300052078 0.91 1.34371070263e-38
-0.0033682359068 -0.0286300052078 0.91 1.03924778269e-38
-0.00168041659526 -0.0285670821194 0.908 1.45355610705e-38
0.0 -0.0285041590311 0.906 1.4261810409e-38
0.00166746184177 -0.0283468513102 0.901 1.28727803127e-38
0.00332381960913 -0.0282524666776 0.898 1.32325622921e-38
0.00498572941369 -0.0282524666776 0.898 1.83094175829e-38
0.0066328337857 -0.0281895435892 0.896 1.76716011726e-38
0.00827253544143 -0.0281266205009 0.894 1.49978844663e-38
0.00992704252972 -0.0281266205009 0.894 1.41566569722e-38
0.0115426853575 -0.0280322358683 0.891 1.6362516555e-38
0.0131916404086 -0.0280322358683 0.891 1.4708387414e-38
0.0148072832364 -0.0279693127799 0.889 1.61824272816e-38
0.0164525369294 -0.0279693127799 0.889 1.70996976381e-38
0.0180570756828 -0.0279063896916 0.887 1.69149728694e-38
0.0196986280176 -0.0279063896916 0.887 1.38693123143e-38
0.0213401803524 -0.0279063896916 0.887 1.61630473238e-38
0.0229817326872 -0.0279063896916 0.887 1.96865268331e-38
0.024623285022 -0.0279063896916 0.887 1.72938517443e-38
0.0262648373568 -0.0279063896916 0.887 1.51528764842e-38
0.0279063896916 -0.0279063896916 0.887 1.53365278584e-38
0.0295479420264 -0.0279063896916 0.887 1.67172888924e-38
0.0311894943612 -0.0279063896916 0.887 1.59822461907e-38
0.032831046696 -0.0279063896916 0.887 1.80148576392e-38
0.0344725990308 -0.0279063896916 0.887 2.11595787853e-38
0.0361141513656 -0.0279063896916 0.887 1.02188723615e-38
0.0378408349376 -0.0279693127799 0.889 6.27641021652e-39
0.0395749212258 -0.0280322358683 0.891 4.89314366083e-39
0.0412238762769 -0.0280322358683 0.891 1.27005929613e-38
0.0430171842954 -0.0281266205009 0.894 1.53469310982e-38
0.0447716280535 -0.0281895435892 0.896 1.49814009925e-38
0.0464298364999 -0.0281895435892 0.896 1.55367215609e-38
0.0481953843324 -0.0282524666776 0.898 1.2957414536e-38
0.0500238552532 -0.0283468513102 0.901 1.56497040522e-38
0.0518060591973 -0.0284097743985 0.903 1.53863958668e-38
0.0534772223972 -0.0284097743985 0.903 1.3085856152e-38
0.0551483855971 -0.0284097743985 0.903 1.33614088833e-38
0.056819548797 -0.0284097743985 0.903 1.19730724298e-38
0.058490711997 -0.0284097743985 0.903 1.99851645554e-38
-0.00846685674374 -0.02709394158 0.915 1.19674041775e-38
-0.00675867996244 -0.0270347198498 0.913 1.27852678223e-38
-0.00506900997183 -0.0270347198498 0.913 1.12190014963e-38
-0.00337933998122 -0.0270347198498 0.913 1.42582525122e-38
-0.0016841179534 -0.0269458872544 0.91 1.11232325553e-38
0.0 -0.0268866655242 0.908 1.52680884414e-38
0.00167116319991 -0.0267386111986 0.903 1.46306125466e-38
0.00333492368355 -0.0266793894684 0.901 1.45387476232e-38
0.00498572941369 -0.026590556873 0.898 1.28666916709e-38
0.00664763921826 -0.026590556873 0.898 1.4614040791e-38
0.00829104223213 -0.0265313351428 0.896 1.71048137788e-38
0.00994925067855 -0.0265313351428 0.896 1.53584287521e-38
0.011581549618 -0.0264721134126 0.894 1.72970565139e-38
0.0132360567063 -0.0264721134126 0.894 1.6743921971e-38
0.0148905637946 -0.0264721134126 0.894 1.41623966907e-38
0.0164895505108 -0.0263832808172 0.891 1.56335765082e-38
0.0181385055618 -0.0263832808172 0.891 1.7287700044e-38
0.0197430443153 -0.026324059087 0.889 1.31357045423e-38
0.0213882980082 -0.026324059087 0.889 1.60712118276e-38
0.0230335517011 -0.026324059087 0.889 1.46018438891e-38
0.0246788053941 -0.026324059087 0.889 1.48773503776e-38
0.026324059087 -0.026324059087 0.889 1.50610213699e-38
0.0279693127799 -0.026324059087 0.889 1.48773503776e-38
0.0296145664729 -0.026324059087 0.889 1.56120343469e-38
0.0313301459705 -0.0263832808172 0.891 1.69931639224e-38
0.0329791010215 -0.0263832808172 0.891 1.80170016259e-38
0.034744648854 -0.0264721134126 0.894 2.05149156307e-38
0.0363991559423 -0.0264721134126 0.894 9.20327989818e-39
0.0380536630306 -0.0264721134126 0.894 6.00271700826e-39
0.0397970027142 -0.0265313351428 0.896 5.08003483702e-39
0.0414552111606 -0.0265313351428 0.896 1.0587279333e-38
0.0432096549187 -0.026590556873 0.898 1.47080286816e-38
0.0448715647232 -0.026590556873 0.898 1.48909850117e-38
0.0466889315697 -0.0266793894684 0.901 1.30610966094e-38
0.0484637327975 -0.0267386111986 0.903 1.27013384521e-38
0.0501348959974 -0.0267386111986 0.903 1.44595252145e-38
0.0519781723508 -0.026827443794 0.906 1.42840167857e-38
0.0536548875879 -0.026827443794 0.906 9.95195443131e-39
0.0551483855971 -0.0267386111986 0.903 1.40982550561e-38
0.056819548797 -0.0267386111986 0.903 1.11422523794e-38
0.058490711997 -0.0267386111986 0.903 1.96199721626e-38
-0.00849461692979 -0.0254838507894 0.918 1.24287326514e-38
-0.006773485395 -0.0254005702312 0.915 8.73050281579e-39
-0.00508011404625 -0.0254005702312 0.915 1.47174384007e-38
-0.00337933998122 -0.0253450498591 0.913 1.15870567418e-38
-0.0016841179534 -0.025261769301 0.91 1.40720661891e-38
0.0 -0.0252062489289 0.908 1.13958719871e-38
0.00168041659526 -0.0252062489289 0.908 1.33284055019e-38
0.00334232639983 -0.0250674479987 0.903 1.63805120299e-38
0.00500238552532 -0.0250119276266 0.901 1.46287922599e-38
0.00666984736709 -0.0250119276266 0.901 1.62850737954e-38
0.00830954902282 -0.0249286470685 0.898 1.46219735416e-38
0.00997145882739 -0.0249286470685 0.898 1.51725871484e-38
0.011607459125 -0.0248731266964 0.896 1.36020566712e-38
0.0132656675714 -0.0248731266964 0.896 1.67345290674e-38
0.0149238760178 -0.0248731266964 0.896 1.52705645358e-38
0.0165450708829 -0.0248176063243 0.894 1.6653486372e-38
0.0181385055618 -0.0247343257662 0.891 1.66481320106e-38
0.0197874606129 -0.0247343257662 0.891 1.31357045423e-38
0.021436415664 -0.0247343257662 0.891 1.61630473238e-38
0.0230853707151 -0.0247343257662 0.891 1.4510008393e-38
0.0246788053941 -0.0246788053941 0.889 1.41437426056e-38
0.026324059087 -0.0246788053941 0.889 1.28569750673e-38
0.0280322358683 -0.0247343257662 0.891 1.40533756702e-38
0.0296811909194 -0.0247343257662 0.891 1.60798396223e-38
0.0313301459705 -0.0247343257662 0.891 1.60805430741e-38
0.0330901417657 -0.0248176063243 0.894 1.75571220945e-38
0.034744648854 -0.0248176063243 0.894 1.77587170955e-38
0.0363991559423 -0.0248176063243 0.894 8.19452437007e-39
0.0381387942678 -0.0248731266964 0.896 5.36022026106e-39
0.0397970027142 -0.0248731266964 0.896 5.08327744166e-39
0.0415477451141 -0.0249286470685 0.898 8.38972664745e-39
0.0432096549187 -0.0249286470685 0.898 8.09517511154e-39
0.0450214697279 -0.0250119276266 0.901 1.42629160334e-38
0.0466889315697 -0.0250119276266 0.901 1.14170259887e-38
0.0484637327975 -0.0250674479987 0.903 8.56837258347e-39
0.0503014571137 -0.0251507285568 0.906 1.48390458841e-38
0.0520929144531 -0.0252062489289 0.908 1.40078727065e-38
0.0537733310484 -0.0252062489289 0.908 1.18852026083e-38
0.055331602825 -0.0251507285568 0.906 1.70459774602e-38
0.0570083180621 -0.0251507285568 0.906 1.25258902791e-38
0.0586850332993 -0.0251507285568 0.906 2.10954567689e-38
-0.00849461692979 -0.0237849274034 0.918 9.57103666715e-39
-0.00679569354383 -0.0237849274034 0.918 1.08455722711e-38
-0.00508011404625 -0.0237071988825 0.915 1.01958994745e-38
-0.0033867426975 -0.0237071988825 0.915 1.63794008002e-38
-0.00168966999061 -0.0236553798685 0.913 1.07562324875e-38
0.0 -0.0235776513476 0.91 1.5365987356e-38
0.00168041659526 -0.0235258323337 0.908 1.21398633808e-38
0.00336083319052 -0.0235258323337 0.908 1.31489776413e-38
0.00501348959974 -0.0233962847988 0.903 1.56429399845e-38
0.00668465279965 -0.0233962847988 0.903 1.73971582697e-38
0.00833730920887 -0.0233444657848 0.901 1.71191280426e-38
0.0100047710506 -0.0233444657848 0.901 1.71202252593e-38
0.011633368632 -0.0232667372639 0.898 1.79474621896e-38
0.0132952784365 -0.0232667372639 0.898 1.6560881563e-38
0.0149571882411 -0.0232667372639 0.898 1.46194694212e-38
0.0165820844643 -0.02321491825 0.896 1.48899060118e-38
0.0182402929107 -0.02321491825 0.896 1.41491235917e-38
0.0198540850594 -0.023163099236 0.894 1.39593541484e-38
0.0215085921477 -0.023163099236 0.894 1.64385538123e-38
0.023163099236 -0.023163099236 0.894 1.37753244237e-38
0.0248176063243 -0.023163099236 0.894 1.36892286461e-38
0.0264721134126 -0.023163099236 0.894 1.27683751693e-38
0.0281266205009 -0.023163099236 0.894 1.36906831939e-38
0.0297811275891 -0.023163099236 0.894 1.44242713477e-38
0.0314356346774 -0.023163099236 0.894 1.6541190517e-38
0.0331641689285 -0.02321491825 0.896 1.84887627669e-38
0.0348223773749 -0.02321491825 0.896 1.04900530416e-38
0.0364805858214 -0.02321491825 0.896 6.82671273514e-39
0.0381387942678 -0.02321491825 0.896 6.09633775866e-39
0.0398858353096 -0.0232667372639 0.898 5.54352971838e-39
0.0415477451141 -0.0232667372639 0.898 7.01254873359e-39
0.0433540078861 -0.0233444657848 0.901 9.58535373356e-39
0.0451214063976 -0.0233962847988 0.903 1.29926445807e-38
0.0467925695976 -0.0233962847988 0.903 8.93315439581e-39
0.0486247418765 -0.0234740133197 0.906 8.83702812375e-39
0.0503014571137 -0.0234740133197 0.906 1.46539329556e-38
0.0520929144531 -0.0235258323337 0.908 1.25334306662e-38
0.0537733310484 -0.0235258323337 0.908 1.52016739007e-38
0.0551483855971 -0.0233962847988 0.903 1.69519825631e-38
0.056819548797 -0.0233962847988 0.903 1.03107148641e-38
0.058490711997 -0.0233962847988 0.903 2.34903501133e-38
-0.00679569354383 -0.0220860040175 0.918 1.05718776615e-38
-0.00509677015787 -0.0220860040175 0.918 1.10260006588e-38
-0.0033867426975 -0.0220138275337 0.915 1.05610820582e-38
-0.00168966999061 -0.0219657098779 0.913 1.78523798849e-38
0.0 -0.0218935333942 0.91 1.29692527055e-38
