# .PCD v0.7 - Point Cloud Data file format
VERSION 0.7
FIELDS x y z rgb
SIZE 4 4 4 4
TYPE F F F F
COUNT 1 1 1 1
WIDTH 843
HEIGHT 1
VIEWPOINT 0 0 0 1 0 0 0
POINTS 843
DATA ascii
0.0321648022309 -0.0820202456888 0.869 1.70391573406e-38
0.0337730423424 -0.0820202456888 0.869 1.63008874485e-38
0.035381282454 -0.0820202456888 0.869 1.61154241955e-38
0.0369895225655 -0.0820202456888 0.869 1.64838367722e-38
0.0385977626771 -0.0820202456888 0.869 1.56580235612e-38
0.0402060027886 -0.0820202456888 0.869 8.46967212613e-39
0.0418142429001 -0.0820202456888 0.869 1.89753482443e-38
0.0434224830117 -0.0820202456888 0.869 1.57523869997e-38
0.0449270850953 -0.0818314764236 0.867 9.11834439566e-39
0.0465316238487 -0.0818314764236 0.867 2.23869004401e-38
0.0478585607417 -0.0813595532609 0.862 1.67626307068e-38
0.0494538460997 -0.0813595532609 0.862 1.59372589048e-38
0.0510491314578 -0.0813595532609 0.862 1.8975614491e-38
0.0526444168159 -0.0813595532609 0.862 1.39001871234e-38
-0.0177720711061 -0.0807821413911 0.873 2.2935049163e-38
-0.0161564282782 -0.0807821413911 0.873 2.27517495148e-38
-0.0145074732272 -0.0805970734842 0.871 9.19610525004e-39
-0.0128659208924 -0.0804120055772 0.869 1.24304856758e-38
-0.0112576807808 -0.0804120055772 0.869 1.86079530103e-38
-0.00964944066926 -0.0804120055772 0.869 9.28943733296e-39
-0.00804120055772 -0.0804120055772 0.869 6.79585193906e-39
-0.00644776587873 -0.0805970734842 0.871 2.34888703421e-38
-0.00483582440905 -0.0805970734842 0.871 1.3441382388e-38
-0.00322388293937 -0.0805970734842 0.871 1.1314778845e-38
-0.00161194146968 -0.0805970734842 0.871 2.16389405692e-38
0.0 -0.0805970734842 0.871 2.01712303668e-38
0.00161194146968 -0.0805970734842 0.871 1.46428192575e-38
0.00322388293937 -0.0805970734842 0.871 1.84192387449e-38
0.00482472033463 -0.0804120055772 0.869 1.95277036652e-38
0.00643296044618 -0.0804120055772 0.869 1.805185332e-38
0.00805970734842 -0.0805970734842 0.871 1.57487716497e-38
0.0096716488181 -0.0805970734842 0.871 1.78703655507e-38
0.0112576807808 -0.0804120055772 0.869 1.90670940574e-38
0.0128659208924 -0.0804120055772 0.869 1.97985452311e-38
0.0144741610039 -0.0804120055772 0.869 1.93382887505e-38
0.016045387534 -0.0802269376702 0.867 1.8695081545e-38
0.0176499262875 -0.0802269376702 0.867 1.90634969242e-38
0.0192544650409 -0.0802269376702 0.867 1.83280842798e-38
0.0208590037943 -0.0802269376702 0.867 1.86050397108e-38
0.0224635425477 -0.0802269376702 0.867 1.89727474344e-38
0.0240680813011 -0.0802269376702 0.867 1.7866052354e-38
0.0256726200545 -0.0802269376702 0.867 1.77727819282e-38
0.0272771588079 -0.0802269376702 0.867 1.78660495514e-38
0.0288816975613 -0.0802269376702 0.867 1.75898129864e-38
0.0304862363147 -0.0802269376702 0.867 1.65760295994e-38
0.0320907750681 -0.0802269376702 0.867 1.69455379915e-38
0.0336953138215 -0.0802269376702 0.867 1.70391601432e-38
0.0352998525749 -0.0802269376702 0.867 1.50083759879e-38
0.0369895225655 -0.0804120055772 0.869 1.78667684175e-38
0.0385977626771 -0.0804120055772 0.869 1.12312432396e-38
0.0402060027886 -0.0804120055772 0.869 1.47343478693e-38
0.0417180075885 -0.0802269376702 0.867 1.86976052835e-38
0.0431726413373 -0.0799493358098 0.864 9.94305058087e-39
0.0447716280535 -0.0799493358098 0.864 2.20138159344e-38
0.0462632753836 -0.0797642679028 0.862 1.84221352288e-38
0.0478585607417 -0.0797642679028 0.862 1.61248170991e-38
0.0493391039974 -0.0795791999959 0.86 2.20184654427e-38
0.0509306879973 -0.0795791999959 0.86 1.69415597051e-38
0.0525222719973 -0.0795791999959 0.86 1.4817147793e-38
-0.0160824011154 -0.0788037654657 0.869 2.29372169717e-38
-0.0128659208924 -0.0788037654657 0.869 8.54609193789e-39
-0.0112317712738 -0.0786223989168 0.867 1.16875200326e-38
-0.00962723252043 -0.0786223989168 0.867 1.71321993547e-38
-0.00802269376702 -0.0786223989168 0.867 1.63973486309e-38
-0.00641815501362 -0.0786223989168 0.867 9.75788019919e-39
-0.00482472033463 -0.0788037654657 0.869 1.81444763459e-38
-0.00321648022309 -0.0788037654657 0.869 1.24351421906e-38
-0.00160824011154 -0.0788037654657 0.869 1.70394908496e-38
0.0 -0.0789851320145 0.871 1.50037068614e-38
0.00161194146968 -0.0789851320145 0.871 1.66729363947e-38
0.00321648022309 -0.0788037654657 0.869 1.51985223804e-38
0.00482472033463 -0.0788037654657 0.869 1.82348671033e-38
0.00643296044618 -0.0788037654657 0.869 1.92475518723e-38
0.00804120055772 -0.0788037654657 0.869 2.00776558592e-38
0.00964944066926 -0.0788037654657 0.869 1.9248958776e-38
0.0112576807808 -0.0788037654657 0.869 1.97092166579e-38
0.0128659208924 -0.0788037654657 0.869 1.98925373256e-38
0.0144408487806 -0.0786223989168 0.867 1.95241289528e-38
0.015989867162 -0.0783503490936 0.864 1.93404411449e-38
0.0175888538782 -0.0783503490936 0.864 1.96163021619e-38
0.0191878405943 -0.0783503490936 0.864 1.89713012944e-38
0.0207868273105 -0.0783503490936 0.864 1.87876359072e-38
0.0223858140267 -0.0783503490936 0.864 1.86046907875e-38
0.0239848007429 -0.0783503490936 0.864 1.84167220128e-38
0.0255837874591 -0.0783503490936 0.864 1.91546373763e-38
0.0272771588079 -0.0786223989168 0.867 1.77752608252e-38
0.0288816975613 -0.0786223989168 0.867 1.82369620445e-38
0.0304862363147 -0.0786223989168 0.867 1.74979929045e-38
0.0320907750681 -0.0786223989168 0.867 1.71302837797e-38
0.0336953138215 -0.0786223989168 0.867 1.63019440276e-38
0.0352998525749 -0.0786223989168 0.867 1.64852801096e-38
0.0369043913283 -0.0786223989168 0.867 1.28878975205e-38
0.0385089300817 -0.0786223989168 0.867 1.46395556334e-38
0.0399746679049 -0.0783503490936 0.864 1.79614877859e-38
0.0415736546211 -0.0783503490936 0.864 1.0127772547e-38
0.0430727046675 -0.0781689825448 0.862 1.94261697824e-38
0.0446679900256 -0.0781689825448 0.862 2.3503274289e-38
0.0461559359976 -0.0779876159959 0.86 8.37501441487e-39
0.0477475199975 -0.0779876159959 0.86 2.01788814564e-38
0.0493391039974 -0.0779876159959 0.86 2.1825792509e-38
0.0509306879973 -0.0779876159959 0.86 1.49043660107e-38
0.0525222719973 -0.0779876159959 0.86 1.97802022342e-38
-0.0143908804458 -0.0767513623774 0.864 1.2416490908e-38
-0.0127918937296 -0.0767513623774 0.864 1.48153289076e-38
-0.0111929070134 -0.0767513623774 0.864 9.01566284939e-39
-0.00959392029717 -0.0767513623774 0.864 1.34357001227e-38
-0.00799493358098 -0.0767513623774 0.864 1.325451083e-38
-0.00641815501362 -0.0770178601634 0.867 1.52917801945e-38
-0.00481361626021 -0.0770178601634 0.867 1.27056180176e-38
-0.00320907750681 -0.0770178601634 0.867 1.40846260272e-38
-0.00160824011154 -0.0771955253541 0.869 1.25309125328e-38
0.0 -0.0771955253541 0.869 1.63955731858e-38
0.00160824011154 -0.0771955253541 0.869 1.20541725784e-38
0.00321648022309 -0.0771955253541 0.869 1.40928432414e-38
0.00482472033463 -0.0771955253541 0.869 1.55675851596e-38
0.00643296044618 -0.0771955253541 0.869 1.75905542733e-38
0.00804120055772 -0.0771955253541 0.869 1.9342606151e-38
0.00964944066926 -0.0771955253541 0.869 1.96184699706e-38
0.0112317712738 -0.0770178601634 0.867 1.95259212136e-38
0.0127918937296 -0.0767513623774 0.864 1.94337059655e-38
0.0143908804458 -0.0767513623774 0.864 1.95248324046e-38
0.0159528535806 -0.0765736971867 0.862 1.99843588088e-38
0.0175481389386 -0.0765736971867 0.862 1.96159490347e-38
0.0191434242967 -0.0765736971867 0.862 1.95255540734e-38
0.0207387096547 -0.0765736971867 0.862 1.88802014799e-38
0.0223339950128 -0.0765736971867 0.862 1.90624417465e-38
0.0239292803708 -0.0765736971867 0.862 1.86940179594e-38
0.0255245657289 -0.0765736971867 0.862 1.97085174099e-38
0.0271827741753 -0.0767513623774 0.864 1.83280842798e-38
0.0287817608915 -0.0767513623774 0.864 1.7867822194e-38
0.0303807476077 -0.0767513623774 0.864 1.74990620953e-38
0.0320907750681 -0.0770178601634 0.867 1.59310161202e-38
0.0336953138215 -0.0770178601634 0.867 1.63930844797e-38
0.0352998525749 -0.0770178601634 0.867 1.32566968556e-38
0.0367766944725 -0.0767513623774 0.864 1.52871348901e-38
0.0382868485934 -0.0765736971867 0.862 1.79621856325e-38
0.0398821339514 -0.0765736971867 0.862 1.04936613852e-38
0.0414774193095 -0.0765736971867 0.862 1.93278238535e-38
0.0430727046675 -0.0765736971867 0.862 2.35097188606e-38
0.0446679900256 -0.0765736971867 0.862 4.04076183095e-39
0.0461559359976 -0.076396031996 0.86 2.12636784457e-38
0.0476364792533 -0.0762183668053 0.858 2.34957689344e-38
0.0492243618951 -0.0762183668053 0.858 1.52777545982e-38
0.0509306879973 -0.076396031996 0.86 1.44275503861e-38
0.0525222719973 -0.076396031996 0.86 2.29088196584e-38
-0.0143908804458 -0.0751523756612 0.864 1.2233891909e-38
-0.0127918937296 -0.0751523756612 0.864 1.39740874005e-38
-0.0111929070134 -0.0751523756612 0.864 1.4722101922e-38
-0.00957171214834 -0.0749784118287 0.862 1.03089015839e-38
-0.00797642679028 -0.0749784118287 0.862 1.39938905504e-38
-0.00639594686478 -0.0751523756612 0.864 1.40839379897e-38
-0.00479696014859 -0.0751523756612 0.864 1.43676799092e-38
-0.00319797343239 -0.0751523756612 0.864 1.3075123607e-38
-0.0016045387534 -0.07541332141 0.867 1.36301106664e-38
0.0 -0.07541332141 0.867 1.12351402507e-38
0.0016045387534 -0.07541332141 0.867 1.63866609275e-38
0.00320907750681 -0.07541332141 0.867 1.39088275297e-38
0.00481361626021 -0.07541332141 0.867 1.3630047608e-38
0.00641815501362 -0.07541332141 0.867 1.52845116594e-38
0.00802269376702 -0.07541332141 0.867 1.52856060735e-38
0.00962723252043 -0.07541332141 0.867 1.79600080147e-38
0.0112317712738 -0.07541332141 0.867 1.83284149862e-38
0.0127918937296 -0.0751523756612 0.864 1.87894351745e-38
0.0143575682225 -0.0749784118287 0.862 1.96170448501e-38
0.0159528535806 -0.0749784118287 0.862 1.95241261502e-38
0.0175481389386 -0.0749784118287 0.862 1.97092166579e-38
0.019099007999 -0.0748044479961 0.86 1.93411445967e-38
0.0206905919989 -0.0748044479961 0.86 1.915604428e-38
0.0222821759988 -0.0748044479961 0.86 1.93400880177e-38
0.0238737599988 -0.0748044479961 0.86 1.91571414967e-38
0.0254653439987 -0.0748044479961 0.86 1.80511512694e-38
0.027119851087 -0.0749784118287 0.862 1.79578668307e-38
0.028715136445 -0.0749784118287 0.862 1.68529471954e-38
0.0303104218031 -0.0749784118287 0.862 1.61172234627e-38
0.0319797343239 -0.0751523756612 0.864 1.41825599743e-38
0.0335787210401 -0.0751523756612 0.864 1.4178243975e-38
0.0350962778772 -0.0749784118287 0.862 1.78685522705e-38
0.0366915632353 -0.0749784118287 0.862 1.44605789909e-38
0.0382868485934 -0.0749784118287 0.862 8.36958578462e-39
0.0398821339514 -0.0749784118287 0.862 2.34785063386e-38
0.0413811839978 -0.0748044479961 0.86 2.3509837971e-38
0.0429727679978 -0.0748044479961 0.86 4.4091800128e-39
0.0445643519977 -0.0748044479961 0.86 2.25482389388e-38
0.0459412572255 -0.074456520331 0.856 2.34947445852e-38
0.0475254385092 -0.074456520331 0.856 1.61068594593e-38
0.0491096197928 -0.074456520331 0.856 1.43435565562e-38
0.0506938010764 -0.074456520331 0.856 1.99545994333e-38
-0.0143575682225 -0.0733831264706 0.862 1.14973988635e-38
-0.0127622828645 -0.0733831264706 0.862 1.51729767094e-38
-0.0111669975064 -0.0733831264706 0.862 1.24064309864e-38
-0.00957171214834 -0.0733831264706 0.862 1.52734792366e-38
-0.00797642679028 -0.0733831264706 0.862 9.29296299989e-39
-0.00638114143223 -0.0733831264706 0.862 1.34400175233e-38
-0.00478585607417 -0.0733831264706 0.862 1.51027422291e-38
-0.00319057071611 -0.0733831264706 0.862 1.38173353517e-38
-0.00159528535806 -0.0733831264706 0.862 1.2426899753e-38
0.0 -0.0733831264706 0.862 1.5383213518e-38
0.00159528535806 -0.0733831264706 0.862 9.10791312989e-39
0.00319797343239 -0.073553388945 0.864 1.43661566978e-38
0.00479696014859 -0.073553388945 0.864 1.45541969387e-38
0.00639594686478 -0.073553388945 0.864 1.50112052095e-38
0.00802269376702 -0.0738087826566 0.867 9.28940930699e-39
0.00959392029717 -0.073553388945 0.864 1.19630083042e-38
0.0111929070134 -0.073553388945 0.864 1.62987490671e-38
0.0127918937296 -0.073553388945 0.864 1.48260740642e-38
0.0143575682225 -0.0733831264706 0.862 1.59306475787e-38
0.0159158399992 -0.0732128639962 0.86 1.74061475993e-38
0.0175074239991 -0.0732128639962 0.86 1.78667712201e-38
0.019099007999 -0.0732128639962 0.86 1.7589440241e-38
0.0206424743431 -0.0730426015218 0.858 1.78653054619e-38
0.0222303569849 -0.0730426015218 0.858 1.77724063802e-38
0.0238737599988 -0.0732128639962 0.86 1.65742135166e-38
0.0254653439987 -0.0732128639962 0.86 1.62083260798e-38
0.0270569279986 -0.0732128639962 0.86 1.55669167402e-38
0.0286485119985 -0.0732128639962 0.86 1.44562728008e-38
0.0303104218031 -0.0733831264706 0.862 1.47321590411e-38
0.0319057071611 -0.0733831264706 0.862 1.67625788588e-38
0.0335009925192 -0.0733831264706 0.862 1.62105135067e-38
0.0350962778772 -0.0733831264706 0.862 7.0785078523e-39
0.0366915632353 -0.0733831264706 0.862 1.85813059188e-38
0.038198015998 -0.0732128639962 0.86 2.35069162637e-38
0.0397895999979 -0.0732128639962 0.86 2.35097524918e-38
0.0413811839978 -0.0732128639962 0.86 5.88536386706e-39
0.0429727679978 -0.0732128639962 0.86 2.28413135061e-38
0.0444607139698 -0.0730426015218 0.858 2.34940018971e-38
0.0459412572255 -0.0728723390474 0.856 1.61111334196e-38
0.0475254385092 -0.0728723390474 0.856 1.27726673465e-38
0.0491096197928 -0.0728723390474 0.856 2.02199927507e-38
0.0506938010764 -0.0728723390474 0.856 2.12557274782e-38
-0.0143575682225 -0.0717878411125 0.862 1.13119356104e-38
-0.0127622828645 -0.0717878411125 0.862 1.40666361576e-38
-0.0111669975064 -0.0717878411125 0.862 1.43389448829e-38
-0.00957171214834 -0.0717878411125 0.862 1.34155564573e-38
-0.00795791999959 -0.0716212799963 0.86 1.52770385347e-38
-0.00636633599967 -0.0716212799963 0.86 1.10446533426e-38
-0.00477475199975 -0.0716212799963 0.86 1.15067357151e-38
-0.00318316799983 -0.0716212799963 0.86 1.51084244944e-38
-0.00159158399992 -0.0716212799963 0.86 1.3257750632e-38
0.0 -0.0716212799963 0.86 1.32588310331e-38
0.00159158399992 -0.0716212799963 0.86 1.45516900158e-38
0.00318316799983 -0.0716212799963 0.86 1.50119899366e-38
0.00478585607417 -0.0717878411125 0.862 9.94126672792e-39
0.00638114143223 -0.0717878411125 0.862 1.37161335766e-38
0.00799493358098 -0.0719544022288 0.864 1.62069163735e-38
0.00957171214834 -0.0717878411125 0.862 1.59332231653e-38
0.0111669975064 -0.0717878411125 0.862 1.41825347509e-38
0.0127622828645 -0.0717878411125 0.862 1.33513531655e-38
0.0143242559993 -0.0716212799963 0.86 1.26112377634e-38
0.0159158399992 -0.0716212799963 0.86 1.26984405668e-38
0.0175074239991 -0.0716212799963 0.86 1.27895866242e-38
0.0190545917013 -0.07145471888 0.858 1.48207421235e-38
0.0206424743431 -0.07145471888 0.858 1.50062277974e-38
0.0222303569849 -0.07145471888 0.858 1.49136790403e-38
0.0238182396267 -0.07145471888 0.858 1.47296423091e-38
0.0254061222684 -0.07145471888 0.858 1.63905243074e-38
0.0269940049102 -0.07145471888 0.858 1.6673261496e-38
0.0286485119985 -0.0716212799963 0.86 1.58434868142e-38
0.0302400959984 -0.0716212799963 0.86 1.34428299293e-38
0.0318316799983 -0.0716212799963 0.86 7.99650408148e-39
0.0334232639983 -0.0716212799963 0.86 2.05967038169e-38
0.0350962778772 -0.0717878411125 0.862 2.35036750604e-38
0.0366064319981 -0.0716212799963 0.86 2.35098057411e-38
0.038198015998 -0.0716212799963 0.86 1.73976501254e-38
0.0397895999979 -0.0716212799963 0.86 1.16770985759e-38
0.0412849486862 -0.07145471888 0.858 2.34996883662e-38
0.042872831328 -0.07145471888 0.858 2.10950489911e-38
0.0444607139698 -0.07145471888 0.858 1.49150859439e-38
0.0460485966116 -0.07145471888 0.858 1.13936999745e-38
0.0475254385092 -0.0712881577637 0.856 1.77260864595e-38
0.0491096197928 -0.0712881577637 0.856 2.3182162542e-38
0.0506938010764 -0.0712881577637 0.856 1.63668353569e-38
-0.0159528535806 -0.0701925557545 0.862 2.34900544393e-38
-0.0143575682225 -0.0701925557545 0.862 1.15885393156e-38
-0.0127622828645 -0.0701925557545 0.862 1.3327664215e-38
-0.0111669975064 -0.0701925557545 0.862 1.49828289156e-38
-0.00957171214834 -0.0701925557545 0.862 1.40601915859e-38
-0.00795791999959 -0.0700296959964 0.86 1.34126753876e-38
-0.00636633599967 -0.0700296959964 0.86 1.3887302184e-38
-0.00477475199975 -0.0700296959964 0.86 1.33456120457e-38
-0.00318316799983 -0.0700296959964 0.86 1.03085610684e-38
-0.00159158399992 -0.0700296959964 0.86 1.41804117838e-38
0.0 -0.0700296959964 0.86 1.48297468675e-38
0.00158788264178 -0.0698668362382 0.858 1.39052528173e-38
0.00317576528356 -0.0698668362382 0.858 1.4085695218e-38
0.00477475199975 -0.0700296959964 0.86 1.42736639927e-38
0.00636633599967 -0.0700296959964 0.86 1.55640076446e-38
0.00797642679028 -0.0701925557545 0.862 1.39960037085e-38
0.0095495039995 -0.0700296959964 0.86 1.27935074573e-38
0.0111410879994 -0.0700296959964 0.86 1.38079956974e-38
0.0127326719993 -0.0700296959964 0.86 1.56551368863e-38
0.014290943776 -0.0698668362382 0.858 1.57498506495e-38
0.0158788264178 -0.0698668362382 0.858 1.5381809417e-38
0.0174667090596 -0.0698668362382 0.858 1.53814689014e-38
0.0190101754037 -0.0697039764801 0.856 1.52896488196e-38
0.0205943566873 -0.0697039764801 0.856 1.5104849782e-38
0.0221785379709 -0.0697039764801 0.856 1.46424268939e-38
0.0237627192546 -0.0697039764801 0.856 1.48232056062e-38
0.0253469005382 -0.0697039764801 0.856 1.19583447829e-38
0.0269310818219 -0.0697039764801 0.856 1.4159168099e-38
0.028581887552 -0.0698668362382 0.858 2.1073780083e-38
0.0301697701938 -0.0698668362382 0.858 2.34882271461e-38
0.0318316799983 -0.0700296959964 0.86 2.35096670126e-38
0.0334232639983 -0.0700296959964 0.86 2.35096656113e-38
0.0350148479982 -0.0700296959964 0.86 1.6567125749e-38
0.0365213007609 -0.0698668362382 0.858 1.20480278846e-38
0.0381091834027 -0.0698668362382 0.858 1.84243184518e-38
0.0396970660444 -0.0698668362382 0.858 2.20205982189e-38
0.0412849486862 -0.0698668362382 0.858 1.73107401934e-38
0.042872831328 -0.0698668362382 0.858 1.30546870702e-38
0.0444607139698 -0.0698668362382 0.858 1.46018438891e-38
0.0460485966116 -0.0698668362382 0.858 1.76324152623e-38
0.0476364792533 -0.0698668362382 0.858 2.32696133753e-38
0.0492243618951 -0.0698668362382 0.858 1.7010434926e-38
-0.0159528535806 -0.0685972703964 0.862 2.3490039025e-38
-0.0143575682225 -0.0685972703964 0.862 1.13126768973e-38
-0.0127622828645 -0.0685972703964 0.862 1.47083902166e-38
-0.0111669975064 -0.0685972703964 0.862 1.43385917557e-38
-0.0095495039995 -0.0684381119964 0.86 1.39679959561e-38
-0.00795791999959 -0.0684381119964 0.86 1.46104674799e-38
-0.00636633599967 -0.0684381119964 0.86 1.33161511468e-38
-0.00476364792533 -0.0682789535964 0.858 1.35923722975e-38
-0.00317576528356 -0.0682789535964 0.858 1.29649927581e-38
-0.00158788264178 -0.0682789535964 0.858 1.36225898976e-38
0.0 -0.0682789535964 0.858 1.16014536822e-38
0.00158418128364 -0.0681197951965 0.856 1.40885496629e-38
0.00316836256728 -0.0681197951965 0.856 1.53785850292e-38
0.00475254385092 -0.0681197951965 0.856 1.36290162523e-38
0.00633672513455 -0.0681197951965 0.856 1.39051953641e-38
0.00793941320889 -0.0682789535964 0.858 1.43644302981e-38
0.00952729585067 -0.0682789535964 0.858 1.47335687474e-38
0.0111151784924 -0.0682789535964 0.858 1.46413885318e-38
0.0127030611342 -0.0682789535964 0.858 1.5196008451e-38
0.0142576315527 -0.0681197951965 0.856 1.61193716533e-38
0.0158418128364 -0.0681197951965 0.856 1.54768735048e-38
0.01742599412 -0.0681197951965 0.856 1.66728985597e-38
0.018965759106 -0.0679606367965 0.854 1.86042956214e-38
0.0205462390315 -0.0679606367965 0.854 2.04442523531e-38
0.022126718957 -0.0679606367965 0.854 2.34899563484e-38
0.0237071988825 -0.0679606367965 0.854 2.35006958998e-38
0.025287678808 -0.0679606367965 0.854 2.35097482879e-38
0.0268681587335 -0.0679606367965 0.854 2.35097426827e-38
0.0285152631055 -0.0681197951965 0.856 2.350977211e-38
0.0300994443891 -0.0681197951965 0.856 1.81544704065e-38
0.0317576528356 -0.0682789535964 0.858 1.33366493407e-38
0.0333455354773 -0.0682789535964 0.858 1.36038503332e-38
0.0349334181191 -0.0682789535964 0.858 1.80537380664e-38
0.0364361695237 -0.0681197951965 0.856 1.6764406152e-38
0.0380203508073 -0.0681197951965 0.856 1.56523426972e-38
0.0396970660444 -0.0682789535964 0.858 1.51830800713e-38
0.0412849486862 -0.0682789535964 0.858 1.24903449423e-38
0.042872831328 -0.0682789535964 0.858 1.72657907425e-38
0.0444607139698 -0.0682789535964 0.858 1.73569339972e-38
0.0460485966116 -0.0682789535964 0.858 2.34618448999e-38
0.0476364792533 -0.0682789535964 0.858 1.45147615974e-38
0.0493391039974 -0.0684381119964 0.86 2.34656340109e-38
-0.0159528535806 -0.0670019850384 0.862 2.34907564898e-38
-0.0143575682225 -0.0670019850384 0.862 1.233038392e-38
-0.0127622828645 -0.0670019850384 0.862 1.5627848e-38
-0.0111669975064 -0.0670019850384 0.862 1.39716113061e-38
-0.0095495039995 -0.0668465279965 0.86 1.39661966888e-38
-0.00795791999959 -0.0668465279965 0.86 1.38746933004e-38
-0.00636633599967 -0.0668465279965 0.86 1.40522784535e-38
-0.00476364792533 -0.0666910709547 0.858 1.39597310977e-38
-0.00317576528356 -0.0666910709547 0.858 1.42345271279e-38
-0.00158418128364 -0.0665356139128 0.856 1.22141321994e-38
0.0 -0.0665356139128 0.856 1.49979265053e-38
0.0015804799255 -0.066380156871 0.854 1.50061703441e-38
0.003160959851 -0.066380156871 0.854 1.46428500861e-38
0.0047414397765 -0.066380156871 0.854 1.39974470459e-38
0.006321919702 -0.066380156871 0.854 1.50119324834e-38
0.0079023996275 -0.066380156871 0.854 1.50123556755e-38
0.00948287955299 -0.066380156871 0.854 1.51966950872e-38
0.0110633594785 -0.066380156871 0.854 1.46424423082e-38
0.012643839404 -0.066380156871 0.854 1.32573792879e-38
0.0142243193295 -0.066380156871 0.854 1.30729712126e-38
0.015804799255 -0.066380156871 0.854 1.3625789062e-38
0.0173852791805 -0.066380156871 0.854 1.66628540523e-38
0.018965759106 -0.066380156871 0.854 1.74911741862e-38
0.0204740625478 -0.0661469713082 0.851 1.80407522335e-38
0.0220489904361 -0.0661469713082 0.851 1.85860170842e-38
0.0236239183244 -0.0661469713082 0.851 1.89515780185e-38
0.0251988462126 -0.0661469713082 0.851 1.42557189645e-38
0.0267737741009 -0.0661469713082 0.851 1.29731987619e-38
0.0283487019892 -0.0661469713082 0.851 1.51008658904e-38
0.0300291185845 -0.066380156871 0.854 1.71314356471e-38
0.03160959851 -0.066380156871 0.854 1.6392015289e-38
0.0333455354773 -0.0666910709547 0.858 1.62976490478e-38
0.0349334181191 -0.0666910709547 0.858 1.55590302324e-38
0.0364361695237 -0.0665356139128 0.856 1.59187883898e-38
0.0380203508073 -0.0665356139128 0.856 1.12039305313e-38
0.0396970660444 -0.0666910709547 0.858 1.61630473238e-38
0.0412849486862 -0.0666910709547 0.858 1.7540588174e-38
0.042872831328 -0.0666910709547 0.858 1.77242507585e-38
0.0444607139698 -0.0666910709547 0.858 2.31921285767e-38
0.0460485966116 -0.0666910709547 0.858 1.31386262496e-38
0.0477475199975 -0.0668465279965 0.86 1.38671739328e-38
0.0493391039974 -0.0668465279965 0.86 2.34760582702e-38
-0.0177720711061 -0.0662413559407 0.873 2.32130779887e-38
-0.015989867162 -0.065558455364 0.864 2.34893173563e-38
-0.0143908804458 -0.065558455364 0.864 1.25144262564e-38
-0.0127622828645 -0.0654066996803 0.862 1.50746924377e-38
-0.0111669975064 -0.0654066996803 0.862 1.43396735581e-38
-0.00957171214834 -0.0654066996803 0.862 1.41502376239e-38
-0.00795791999959 -0.0652549439966 0.86 1.36895873785e-38
-0.00635153056711 -0.0651031883129 0.858 1.40533574533e-38
-0.00476364792533 -0.0651031883129 0.858 1.35927296286e-38
-0.00316836256728 -0.0649514326292 0.856 1.46018438891e-38
-0.00158418128364 -0.0649514326292 0.856 1.46936793853e-38
0.0 -0.0647996769455 0.854 1.34998179352e-38
0.00157492788829 -0.0645720434199 0.851 1.24896274775e-38
0.00314985577658 -0.0645720434199 0.851 1.48931528204e-38
0.00472478366487 -0.0645720434199 0.851 1.88722799397e-38
0.00629971155316 -0.0645720434199 0.851 1.40831168288e-38
0.00787463944145 -0.0645720434199 0.851 1.74943747519e-38
0.00944956732974 -0.0645720434199 0.851 1.69433869983e-38
0.011024495218 -0.0645720434199 0.851 1.72225158433e-38
0.0125994231063 -0.0645720434199 0.851 1.87927296272e-38
0.0141743509946 -0.0645720434199 0.851 1.80580386514e-38
0.0157492788829 -0.0645720434199 0.851 1.85186482592e-38
0.0173242067712 -0.0645720434199 0.851 1.85164958648e-38
0.0188991346595 -0.0645720434199 0.851 1.83313829363e-38
0.020425944892 -0.0644202877362 0.849 1.75956367828e-38
0.0219971714221 -0.0644202877362 0.849 1.55634092901e-38
0.0235683979523 -0.0644202877362 0.849 1.60247335602e-38
0.0251396244824 -0.0644202877362 0.849 1.6299128819e-38
0.0267108510126 -0.0644202877362 0.849 1.74973076696e-38
0.0282820775427 -0.0644202877362 0.849 1.61125557375e-38
0.0299236298775 -0.0645720434199 0.851 1.62904772023e-38
0.03160959851 -0.0647996769455 0.854 1.49024630474e-38
0.0332678069564 -0.0649514326292 0.856 1.30449662628e-38
0.03485198824 -0.0649514326292 0.856 1.43263374006e-38
0.0363510382865 -0.0647996769455 0.854 1.65303893084e-38
0.037931518212 -0.0647996769455 0.854 1.78161156819e-38
0.039604532091 -0.0649514326292 0.856 1.73569087739e-38
0.0412849486862 -0.0651031883129 0.858 1.98458152322e-38
0.042872831328 -0.0651031883129 0.858 2.31840192625e-38
0.0445643519977 -0.0652549439966 0.86 1.18503663284e-38
0.0461559359976 -0.0652549439966 0.86 2.34913142066e-38
0.0477475199975 -0.0652549439966 0.86 1.53807976795e-38
0.0493391039974 -0.0652549439966 0.86 2.34792588359e-38
0.0509306879973 -0.0652549439966 0.86 2.18186220648e-38
-0.0177720711061 -0.0646257131129 0.873 2.20141718642e-38
-0.0161564282782 -0.0646257131129 0.873 2.34893033433e-38
-0.0145074732272 -0.0644776587873 0.871 1.26080470068e-38
-0.0127622828645 -0.0638114143223 0.862 1.52662163066e-38
-0.0111669975064 -0.0638114143223 0.862 1.41570745591e-38
-0.00957171214834 -0.0638114143223 0.862 1.35052381577e-38
-0.00795791999959 -0.0636633599967 0.86 1.41477208919e-38
-0.00635153056711 -0.0635153056711 0.858 1.36860140674e-38
-0.00476364792533 -0.0635153056711 0.858 1.40508309122e-38
-0.00316836256728 -0.0633672513455 0.856 1.40508351161e-38
-0.00158418128364 -0.0633672513455 0.856 1.44181728968e-38
0.0 -0.06321919702 0.854 1.40508309122e-38
0.00157492788829 -0.0629971155316 0.851 1.41426664083e-38
0.00314985577658 -0.0629971155316 0.851 1.44181841072e-38
0.00472478366487 -0.0629971155316 0.851 1.38671599199e-38
0.00629971155316 -0.0629971155316 0.851 1.36834889275e-38
0.00787463944145 -0.0629971155316 0.851 1.34998179352e-38
0.00944956732974 -0.0629971155316 0.851 1.23977919813e-38
0.011024495218 -0.0629971155316 0.851 1.35927296286e-38
0.0125994231063 -0.0629971155316 0.851 1.32264638412e-38
0.0141743509946 -0.0629971155316 0.851 1.58097533563e-38
0.0157492788829 -0.0629971155316 0.851 1.4438310957e-38
0.0173242067712 -0.0629971155316 0.851 1.6280813848e-38
0.0188991346595 -0.0629971155316 0.851 1.69314955796e-38
0.020425944892 -0.062849061206 0.849 1.63772428006e-38
0.0219971714221 -0.062849061206 0.849 1.51768919373e-38
0.0235683979523 -0.062849061206 0.849 1.33276796293e-38
0.0251396244824 -0.062849061206 0.849 1.38693291299e-38
0.0267108510126 -0.062849061206 0.849 1.34079824391e-38
0.0282820775427 -0.062849061206 0.849 1.42345019045e-38
0.0299236298775 -0.0629971155316 0.851 1.48773503776e-38
0.0314985577658 -0.0629971155316 0.851 1.61630473238e-38
0.0330734856541 -0.0629971155316 0.851 1.69895681905e-38
0.034770558361 -0.06321919702 0.854 1.67140603008e-38
0.0363510382865 -0.06321919702 0.854 1.66222248046e-38
0.037931518212 -0.06321919702 0.854 1.75405797662e-38
0.039604532091 -0.0633672513455 0.856 2.2730134486e-38
0.0411887133746 -0.0633672513455 0.856 1.52534350633e-38
0.042872831328 -0.0635153056711 0.858 1.41426664083e-38
0.0445643519977 -0.0636633599967 0.86 2.34865680087e-38
0.0461559359976 -0.0636633599967 0.86 1.3618338358e-38
0.0477475199975 -0.0636633599967 0.86 1.67619076368e-38
0.0493391039974 -0.0636633599967 0.86 2.31065316613e-38
0.0511675749183 -0.0639594686478 0.864 2.08980908867e-38
-0.0161564282782 -0.0630100702851 0.873 2.34907522859e-38
-0.0145074732272 -0.0628657173177 0.871 1.27013384521e-38
-0.0127918937296 -0.0623604819316 0.864 1.28634266454e-38
-0.0111669975064 -0.0622161289642 0.862 1.45219138247e-38
-0.00957171214834 -0.0622161289642 0.862 1.44279035133e-38
-0.00795791999959 -0.0620717759968 0.86 1.36860322843e-38
-0.00636633599967 -0.0620717759968 0.86 1.42373885793e-38
-0.00476364792533 -0.0619274230293 0.858 1.39611618234e-38
-0.00316836256728 -0.0617830700619 0.856 1.3960455569e-38
-0.00158418128364 -0.0617830700619 0.856 1.4510008393e-38
0.0 -0.0616387170945 0.854 1.46018438891e-38
0.00157492788829 -0.0614221876433 0.851 1.3958995416e-38
0.00314985577658 -0.0614221876433 0.851 1.45100238072e-38
0.00472478366487 -0.0614221876433 0.851 1.4510008393e-38
0.00629971155316 -0.0614221876433 0.851 1.49691914789e-38
0.00787463944145 -0.0614221876433 0.851 1.50610213699e-38
0.00944956732974 -0.0614221876433 0.851 1.50610213699e-38
0.011024495218 -0.0614221876433 0.851 1.47855162827e-38
0.0125994231063 -0.0614221876433 0.851 1.47855246905e-38
0.0141743509946 -0.0614221876433 0.851 1.46018438891e-38
0.0157492788829 -0.0614221876433 0.851 1.49691858738e-38
0.0173242067712 -0.0614221876433 0.851 1.51528568661e-38
0.0188991346595 -0.0614221876433 0.851 1.54283633545e-38
0.0204740625478 -0.0614221876433 0.851 1.55201988507e-38
0.0219971714221 -0.0612778346759 0.849 1.57957053392e-38
0.0235683979523 -0.0612778346759 0.849 1.58875408353e-38
0.0251396244824 -0.0612778346759 0.849 1.60712118276e-38
0.0267108510126 -0.0612778346759 0.849 1.64385538123e-38
0.0282820775427 -0.0612778346759 0.849 1.65303893084e-38
0.0298533040729 -0.0612778346759 0.849 1.66222248046e-38
0.031424530603 -0.0612778346759 0.849 1.68977453061e-38
0.0330734856541 -0.0614221876433 0.851 1.64385538123e-38
0.034770558361 -0.0616387170945 0.854 1.89195499408e-38
0.0363510382865 -0.0616387170945 0.854 2.23609638068e-38
0.037931518212 -0.0616387170945 0.854 1.65499402246e-38
0.039604532091 -0.0617830700619 0.856 1.32243114468e-38
0.0411887133746 -0.0617830700619 0.856 2.34795867398e-38
0.042872831328 -0.0619274230293 0.858 6.79585474166e-39
0.0445643519977 -0.0620717759968 0.86 2.34875236943e-38
0.0461559359976 -0.0620717759968 0.86 1.36986341613e-38
0.0477475199975 -0.0620717759968 0.86 7.54166361943e-39
0.0494538460997 -0.0622161289642 0.862 2.34760274417e-38
0.0511675749183 -0.0623604819316 0.864 2.02534249295e-38
0.0527665616345 -0.0623604819316 0.864 2.15506923971e-38
-0.0161564282782 -0.0613944274573 0.873 2.34904019613e-38
-0.0145074732272 -0.061253775848 0.871 1.34399782869e-38
-0.0128659208924 -0.0611131242387 0.869 1.38819324083e-38
-0.0111929070134 -0.0607614952154 0.864 1.46166009632e-38
-0.00957171214834 -0.0606208436061 0.862 1.28605848122e-38
-0.00797642679028 -0.0606208436061 0.862 1.4055525262e-38
-0.00636633599967 -0.0604801919968 0.86 1.39633002049e-38
-0.00476364792533 -0.0603395403876 0.858 1.37767691624e-38
-0.00317576528356 -0.0603395403876 0.858 1.41426748161e-38
-0.00158418128364 -0.0601988887783 0.856 1.46018438891e-38
0.0 -0.060058237169 0.854 1.45100280111e-38
0.00157492788829 -0.059847259755 0.851 1.38671599199e-38
0.00314985577658 -0.059847259755 0.851 1.40508309122e-38
0.00472478366487 -0.059847259755 0.851 1.50610213699e-38
0.00629971155316 -0.059847259755 0.851 1.4601862106e-38
0.00787463944145 -0.059847259755 0.851 1.54283633545e-38
0.00944956732974 -0.059847259755 0.851 1.47855148814e-38
0.011024495218 -0.059847259755 0.851 1.52447021713e-38
0.0125994231063 -0.059847259755 0.851 1.5061045192e-38
0.0141743509946 -0.059847259755 0.851 1.50610213699e-38
0.0157492788829 -0.059847259755 0.851 1.57957053392e-38
0.0172834918317 -0.0597066081457 0.849 1.59793763315e-38
0.0188547183618 -0.0597066081457 0.849 1.56120343469e-38
0.020425944892 -0.0597066081457 0.849 1.60712118276e-38
0.0219971714221 -0.0597066081457 0.849 1.63467183161e-38
0.0235683979523 -0.0597066081457 0.849 1.65303893084e-38
0.0251396244824 -0.0597066081457 0.849 1.64385538123e-38
0.0267108510126 -0.0597066081457 0.849 1.62548898265e-38
0.0282820775427 -0.0597066081457 0.849 1.66222248046e-38
0.0298533040729 -0.0597066081457 0.849 1.69895667892e-38
0.031424530603 -0.0597066081457 0.849 1.68058957969e-38
0.0330734856541 -0.059847259755 0.851 1.65303893084e-38
0.034770558361 -0.060058237169 0.854 2.34732234434e-38
0.0363510382865 -0.060058237169 0.854 1.07447530505e-38
0.037931518212 -0.060058237169 0.854 2.34609802987e-38
0.039604532091 -0.0601988887783 0.856 1.92498079628e-38
0.0411887133746 -0.0601988887783 0.856 2.34979339405e-38
0.0429727679978 -0.0604801919968 0.86 1.92854541932e-39
0.0445643519977 -0.0604801919968 0.86 2.34958432032e-38
0.0462632753836 -0.0606208436061 0.862 2.28457626288e-38
0.0478585607417 -0.0606208436061 0.862 1.44642517942e-38
0.0495685882021 -0.0607614952154 0.864 2.34886082993e-38
0.051345240109 -0.0609724726294 0.867 1.60075284176e-38
0.0531940684996 -0.061253775848 0.871 2.00676267661e-38
-0.0145074732272 -0.0596418343783 0.871 1.5286054489e-38
-0.0128659208924 -0.0595048841271 0.869 1.34320973843e-38
-0.0112317712738 -0.059367933876 0.867 1.42589335432e-38
-0.00959392029717 -0.0591625084992 0.864 1.13029406756e-38
-0.00797642679028 -0.0590255582481 0.862 1.35916744509e-38
-0.00638114143223 -0.0590255582481 0.862 1.44188903616e-38
-0.00477475199975 -0.0588886079969 0.86 1.39590290472e-38
-0.00317576528356 -0.0587516577458 0.858 1.38671655251e-38
-0.00158788264178 -0.0587516577458 0.858 1.41426664083e-38
0.0 -0.0586147074946 0.856 1.37753244237e-38
0.0015804799255 -0.0584777572435 0.854 1.42345019045e-38
0.00314985577658 -0.0582723318667 0.851 1.40508309122e-38
0.00472478366487 -0.0582723318667 0.851 1.46936793853e-38
0.00629971155316 -0.0582723318667 0.851 1.46936793853e-38
0.00787463944145 -0.0582723318667 0.851 1.4510008393e-38
0.00944956732974 -0.0582723318667 0.851 1.49691858738e-38
0.011024495218 -0.0582723318667 0.851 1.51528680765e-38
0.0125994231063 -0.0582723318667 0.851 1.53365278584e-38
0.0141743509946 -0.0582723318667 0.851 1.50610213699e-38
0.0157492788829 -0.0582723318667 0.851 1.54283633545e-38
0.0172834918317 -0.0581353816156 0.849 1.57957053392e-38
0.0188547183618 -0.0581353816156 0.849 1.57038782508e-38
0.020425944892 -0.0581353816156 0.849 1.58875408353e-38
0.0219971714221 -0.0581353816156 0.849 1.66222248046e-38
0.0235683979523 -0.0581353816156 0.849 1.65303893084e-38
0.0251396244824 -0.0581353816156 0.849 1.65303893084e-38
0.0267108510126 -0.0581353816156 0.849 1.63467183161e-38
0.0282820775427 -0.0581353816156 0.849 1.65303893084e-38
0.0298533040729 -0.0581353816156 0.849 1.65303893084e-38
0.03160959851 -0.0584777572435 0.854 1.72650774816e-38
0.0331900784355 -0.0584777572435 0.854 1.61630473238e-38
0.034770558361 -0.0584777572435 0.854 2.34688864247e-38
0.0363510382865 -0.0584777572435 0.854 1.13876015236e-38
0.037931518212 -0.0584777572435 0.854 2.3491541217e-38
0.039604532091 -0.0586147074946 0.856 2.38772290011e-39
0.0411887133746 -0.0586147074946 0.856 2.34929999687e-38
0.0429727679978 -0.0588886079969 0.86 1.83670992316e-39
0.0446679900256 -0.0590255582481 0.862 2.34915230001e-38
0.0462632753836 -0.0590255582481 0.862 1.13058595803e-38
0.0478585607417 -0.0590255582481 0.862 1.47361471365e-38
0.0495685882021 -0.0591625084992 0.864 2.01537309515e-38
0.051345240109 -0.059367933876 0.867 2.27336321269e-38
0.0531940684996 -0.0596418343783 0.871 1.96930807061e-38
-0.0163229893945 -0.0587627618202 0.882 2.34903907509e-38
-0.0145407854504 -0.0581631418016 0.873 1.5931423898e-38
-0.0128955317575 -0.0580298929086 0.871 1.39863669789e-38
-0.0112576807808 -0.0578966440156 0.869 1.25112074738e-38
-0.00959392029717 -0.057563521783 0.864 1.33409401166e-38
-0.00799493358098 -0.057563521783 0.864 1.28620225444e-38
-0.00638114143223 -0.05743027289 0.862 1.39622240077e-38
-0.00477475199975 -0.057297023997 0.86 1.36834931314e-38
-0.00318316799983 -0.057297023997 0.86 1.42345033058e-38
-0.00158788264178 -0.057163775104 0.858 1.43263430058e-38
0.0 -0.057030526211 0.856 1.40508435239e-38
0.0015804799255 -0.056897277318 0.854 1.44181742981e-38
0.00314985577658 -0.0566974039784 0.851 1.39590346524e-38
0.00472478366487 -0.0566974039784 0.851 1.46936793853e-38
0.00629971155316 -0.0566974039784 0.851 1.46936793853e-38
0.00787463944145 -0.0566974039784 0.851 1.46936793853e-38
0.00944956732974 -0.0566974039784 0.851 1.49691858738e-38
0.011024495218 -0.0566974039784 0.851 1.46937046087e-38
0.0125994231063 -0.0566974039784 0.851 1.50610283764e-38
0.0141743509946 -0.0566974039784 0.851 1.46937144177e-38
0.0157492788829 -0.0566974039784 0.851 1.56120497611e-38
0.0173242067712 -0.0566974039784 0.851 1.5703869843e-38
0.0188991346595 -0.0566974039784 0.851 1.56120343469e-38
0.0204740625478 -0.0566974039784 0.851 1.57957053392e-38
0.0220489904361 -0.0566974039784 0.851 1.59793763315e-38
0.0235683979523 -0.0565641550854 0.849 1.60712118276e-38
0.0251396244824 -0.0565641550854 0.849 1.65303893084e-38
0.0267108510126 -0.0565641550854 0.849 1.61630655407e-38
0.0282820775427 -0.0565641550854 0.849 1.67140603008e-38
0.0299236298775 -0.0566974039784 0.851 1.70814022854e-38
0.03160959851 -0.056897277318 0.854 1.66222248046e-38
0.0331900784355 -0.056897277318 0.854 1.60712118276e-38
0.034770558361 -0.056897277318 0.854 2.3468526291e-38
0.0363510382865 -0.056897277318 0.854 1.2214120989e-38
0.0380203508073 -0.057030526211 0.856 2.34908111405e-38
0.0396970660444 -0.057163775104 0.858 3.12240686937e-39
0.0412849486862 -0.057163775104 0.858 2.34908657911e-38
0.0429727679978 -0.057297023997 0.86 1.83670992316e-39
0.0446679900256 -0.05743027289 0.862 2.349329284e-38
0.0462632753836 -0.05743027289 0.862 1.68278989854e-38
0.0478585607417 -0.05743027289 0.862 1.57434971623e-38
0.0495685882021 -0.057563521783 0.864 1.86552047946e-38
0.0514636835694 -0.0578966440156 0.869 2.02369260414e-38
0.053071923681 -0.0578966440156 0.869 2.3462737527e-38
-0.0163229893945 -0.0571304628807 0.882 2.32130807913e-38
-0.0145740976737 -0.0566770465087 0.875 1.57474053837e-38
-0.0129251426226 -0.0565474989738 0.873 1.53703425916e-38
-0.0112835902878 -0.0564179514389 0.871 1.07705817838e-38
-0.00962723252043 -0.0561588563692 0.867 1.11318575474e-38
-0.00799493358098 -0.0559645350669 0.864 1.28666916709e-38
-0.00639594686478 -0.0559645350669 0.864 1.37785530154e-38
-0.00478585607417 -0.055834987532 0.862 1.38671599199e-38
-0.00318316799983 -0.0557054399971 0.86 1.36834889275e-38
-0.00159158399992 -0.0557054399971 0.86 1.43263374006e-38
0.0 -0.0555758924622 0.858 1.38671599199e-38
0.00158418128364 -0.0554463449273 0.856 1.37753244237e-38
0.00316836256728 -0.0554463449273 0.856 1.36834889275e-38
0.0047414397765 -0.0553167973925 0.854 1.41426664083e-38
0.00629971155316 -0.0551224760902 0.851 1.48773503776e-38
0.00787463944145 -0.0551224760902 0.851 1.47855148814e-38
0.00944956732974 -0.0551224760902 0.851 1.4785517684e-38
0.011024495218 -0.0551224760902 0.851 1.50610213699e-38
0.0125994231063 -0.0551224760902 0.851 1.51528568661e-38
0.0141743509946 -0.0551224760902 0.851 1.49691858738e-38
0.0157492788829 -0.0551224760902 0.851 1.57957053392e-38
0.0173242067712 -0.0551224760902 0.851 1.56120343469e-38
0.0188991346595 -0.0551224760902 0.851 1.56120371495e-38
0.0204740625478 -0.0551224760902 0.851 1.58875408353e-38
0.0220489904361 -0.0551224760902 0.851 1.63467183161e-38
0.0235683979523 -0.0549929285553 0.849 1.57957053392e-38
0.0251396244824 -0.0549929285553 0.849 1.60712118276e-38
0.0267108510126 -0.0549929285553 0.849 1.66222248046e-38
0.0282820775427 -0.0549929285553 0.849 1.67140603008e-38
0.0299236298775 -0.0551224760902 0.851 1.69895667892e-38
0.0316836256728 -0.0554463449273 0.856 1.65303893084e-38
0.0332678069564 -0.0554463449273 0.856 1.625488282e-38
0.034770558361 -0.0553167973925 0.854 2.34710276087e-38
0.0363510382865 -0.0553167973925 0.854 1.25814629736e-38
0.0381091834027 -0.0555758924622 0.858 2.34915342105e-38
0.0396970660444 -0.0555758924622 0.858 2.93873587706e-39
0.0412849486862 -0.0555758924622 0.858 2.34908083379e-38
0.0429727679978 -0.0557054399971 0.86 2.57139389242e-39
0.0446679900256 -0.055834987532 0.862 2.34951159293e-38
0.0462632753836 -0.055834987532 0.862 1.07447726687e-38
0.0478585607417 -0.055834987532 0.862 1.54381430165e-38
0.0495685882021 -0.0559645350669 0.864 2.21758466745e-38
0.0514636835694 -0.056288403904 0.869 1.62703083135e-38
0.053071923681 -0.056288403904 0.869 2.34756995378e-38
-0.0163785097666 -0.0556869332064 0.885 2.33042072304e-38
-0.0146573782318 -0.0553723177646 0.88 1.66682700708e-38
-0.0130287806505 -0.0553723177646 0.88 9.37656867017e-39
-0.0113742735622 -0.0552464715878 0.878 1.53753620427e-38
-0.00964944066926 -0.0546801637925 0.869 1.10407591342e-38
-0.00804120055772 -0.0546801637925 0.869 1.48113912589e-38
-0.00641815501362 -0.0545543176158 0.867 1.22177083131e-38
-0.00479696014859 -0.0543655483507 0.864 1.40508309122e-38
-0.00319057071611 -0.0542397021739 0.862 1.43281310627e-38
-0.00159528535806 -0.0542397021739 0.862 1.43263640253e-38
0.0 -0.0541138559972 0.86 1.40508309122e-38
0.00159158399992 -0.0541138559972 0.86 1.40508309122e-38
0.00317576528356 -0.0539880098204 0.858 1.34998179352e-38
0.00475254385092 -0.0538621636437 0.856 1.38671599199e-38
0.006321919702 -0.053736317467 0.854 1.47855148814e-38
0.00787463944145 -0.0535475482019 0.851 1.50610213699e-38
0.00944956732974 -0.0535475482019 0.851 1.49691984854e-38
0.011024495218 -0.0535475482019 0.851 1.48773503776e-38
0.0125994231063 -0.0535475482019 0.851 1.48773671932e-38
0.0141743509946 -0.0535475482019 0.851 1.50610213699e-38
0.0157492788829 -0.0535475482019 0.851 1.56120343469e-38
0.0173242067712 -0.0535475482019 0.851 1.55201988507e-38
0.0188991346595 -0.0535475482019 0.851 1.57957053392e-38
0.0204740625478 -0.0535475482019 0.851 1.56120343469e-38
0.0220489904361 -0.0535475482019 0.851 1.58875408353e-38
0.0236239183244 -0.0535475482019 0.851 1.53365362662e-38
0.0251988462126 -0.0535475482019 0.851 1.63467183161e-38
0.0267737741009 -0.0535475482019 0.851 1.68058957969e-38
0.0283487019892 -0.0535475482019 0.851 1.67140603008e-38
0.0299236298775 -0.0535475482019 0.851 1.65303893084e-38
0.0317576528356 -0.0539880098204 0.858 1.70814022854e-38
0.0333455354773 -0.0539880098204 0.858 1.625488282e-38
0.0349334181191 -0.0539880098204 0.858 2.34717464748e-38
0.0365213007609 -0.0539880098204 0.858 1.25814629736e-38
0.0381091834027 -0.0539880098204 0.858 2.34890048667e-38
0.0397895999979 -0.0541138559972 0.86 3.489748854e-39
0.0413811839978 -0.0541138559972 0.86 2.34936838023e-38
0.0429727679978 -0.0541138559972 0.86 5.14278778485e-39
0.0446679900256 -0.0542397021739 0.862 1.96884844471e-38
0.0463706147697 -0.0543655483507 0.864 1.55201988507e-38
0.0479696014859 -0.0543655483507 0.864 2.29123621409e-38
0.0497407013555 -0.0545543176158 0.867 1.47977201911e-38
0.0514636835694 -0.0546801637925 0.869 2.16154449979e-38
0.053071923681 -0.0546801637925 0.869 2.31072182975e-38
-0.0163785097666 -0.0540490822297 0.885 2.34882201396e-38
-0.0147406587899 -0.0540490822297 0.885 1.77739085722e-38
-0.0130583915156 -0.0538658650018 0.882 1.00208436651e-38
-0.0114001830692 -0.0537437201832 0.88 1.33348696917e-38
-0.00969385696694 -0.0533162133182 0.873 1.21431480244e-38
-0.00805970734842 -0.0531940684996 0.871 1.53628050072e-38
-0.00643296044618 -0.053071923681 0.869 1.43485788099e-38
-0.00482472033463 -0.053071923681 0.869 1.26733012724e-38
-0.00320907750681 -0.0529497788624 0.867 1.41430251407e-38
-0.0016045387534 -0.0529497788624 0.867 1.43263444071e-38
0.0 -0.0527665616345 0.864 1.40508351161e-38
0.00159528535806 -0.0526444168159 0.862 1.40508435239e-38
0.00319057071611 -0.0526444168159 0.862 1.42345019045e-38
0.00477475199975 -0.0525222719973 0.86 1.43263374006e-38
0.00635153056711 -0.0524001271787 0.858 1.46936793853e-38
0.00792090641819 -0.0522779823601 0.856 1.47855148814e-38
0.00948287955299 -0.0521558375415 0.854 1.46018438891e-38
0.0110633594785 -0.0521558375415 0.854 1.46936793853e-38
0.012643839404 -0.0521558375415 0.854 1.46018438891e-38
0.0142243193295 -0.0521558375415 0.854 1.55201988507e-38
0.015804799255 -0.0521558375415 0.854 1.5703869843e-38
0.0173852791805 -0.0521558375415 0.854 1.56120343469e-38
0.018965759106 -0.0521558375415 0.854 1.57957053392e-38
0.0205462390315 -0.0521558375415 0.854 1.54283633545e-38
0.022126718957 -0.0521558375415 0.854 1.55201988507e-38
0.0237071988825 -0.0521558375415 0.854 1.56120343469e-38
0.025287678808 -0.0521558375415 0.854 1.63467183161e-38
0.0268681587335 -0.0521558375415 0.854 1.65303935123e-38
0.0285152631055 -0.0522779823601 0.856 1.67140603008e-38
0.0300994443891 -0.0522779823601 0.856 1.67140603008e-38
0.0317576528356 -0.0524001271787 0.858 1.70814022854e-38
0.0333455354773 -0.0524001271787 0.858 1.60712118276e-38
0.0349334181191 -0.0524001271787 0.858 2.34703157491e-38
0.0365213007609 -0.0524001271787 0.858 1.28569694621e-38
0.038198015998 -0.0525222719973 0.86 2.34911838858e-38
0.0397895999979 -0.0525222719973 0.86 1.63827779295e-38
0.0413811839978 -0.0525222719973 0.86 2.03529703698e-38
0.0430727046675 -0.0526444168159 0.862 1.0199479792e-38
0.0447716280535 -0.0527665616345 0.864 1.8371063505e-38
0.0466389632348 -0.053071923681 0.869 2.34616641324e-38
0.0482472033463 -0.053071923681 0.869 1.33240390559e-38
0.0498554434579 -0.053071923681 0.869 2.32523872132e-38
0.0519966791415 -0.0536215753646 0.878 2.24629348948e-38
0.0536215753646 -0.0536215753646 0.878 2.24639914738e-38
-0.0147406587899 -0.0524112312531 0.885 1.85111078722e-38
-0.0130583915156 -0.0522335660624 0.882 1.6013915536e-38
-0.0113742735622 -0.0519966791415 0.878 7.34755715745e-39
-0.00969385696694 -0.0517005704903 0.873 1.65689292201e-38
-0.00805970734842 -0.0515821270299 0.871 1.43582799991e-38
-0.00644776587873 -0.0515821270299 0.871 1.58266376015e-38
-0.00482472033463 -0.0514636835694 0.869 1.38808211786e-38
-0.00321648022309 -0.0514636835694 0.869 1.31324773519e-38
-0.0016045387534 -0.051345240109 0.867 1.48773503776e-38
0.0 -0.0511675749183 0.864 1.42355781017e-38
0.0015989867162 -0.0511675749183 0.864 1.39589982186e-38
0.00319057071611 -0.0510491314578 0.862 1.46018494943e-38
0.00477475199975 -0.0509306879973 0.86 1.46018494943e-38
0.00636633599967 -0.0509306879973 0.86 1.48773503776e-38
0.00793941320889 -0.0508122445369 0.858 1.4510008393e-38
0.00950508770183 -0.0506938010764 0.856 1.53365278584e-38
0.0110892689855 -0.0506938010764 0.856 1.46018438891e-38
0.012643839404 -0.050575357616 0.854 1.47855148814e-38
0.0142243193295 -0.050575357616 0.854 1.50610479946e-38
0.0158418128364 -0.0506938010764 0.856 1.54283731636e-38
0.01742599412 -0.0506938010764 0.856 1.53365516805e-38
0.0190101754037 -0.0506938010764 0.856 1.55201988507e-38
0.0205943566873 -0.0506938010764 0.856 1.5703869843e-38
0.0221785379709 -0.0506938010764 0.856 1.56120343469e-38
0.0237627192546 -0.0506938010764 0.856 1.59793763315e-38
0.0253469005382 -0.0506938010764 0.856 1.625488282e-38
0.0269310818219 -0.0506938010764 0.856 1.65303893084e-38
0.028581887552 -0.0508122445369 0.858 1.68058957969e-38
0.0301697701938 -0.0508122445369 0.858 1.66222248046e-38
0.0318316799983 -0.0509306879973 0.86 1.71732377815e-38
0.0334232639983 -0.0509306879973 0.86 1.58875408353e-38
0.0350148479982 -0.0509306879973 0.86 2.34735387356e-38
0.0366064319981 -0.0509306879973 0.86 1.304065727e-38
0.038198015998 -0.0509306879973 0.86 2.34784390763e-38
0.0398821339514 -0.0510491314578 0.862 1.13901644985e-38
0.0414774193095 -0.0510491314578 0.862 1.34998179352e-38
0.0431726413373 -0.0511675749183 0.864 2.17155523588e-38
0.0449270850953 -0.051345240109 0.867 1.93114398719e-38
0.0467463026208 -0.0515821270299 0.871 1.68058957969e-38
0.0483582440905 -0.0515821270299 0.871 1.71732377815e-38
0.0499701855602 -0.0515821270299 0.871 2.34860887646e-38
0.0519966791415 -0.0519966791415 0.878 1.70276919165e-38
-0.0147406587899 -0.0507733802764 0.885 1.77738987631e-38
-0.0131028078133 -0.0507733802764 0.885 1.59152150787e-38
-0.0113742735622 -0.0503717829183 0.878 1.02059832182e-38
-0.00969385696694 -0.0500849276625 0.873 8.72437213501e-39
-0.00805970734842 -0.0499701855602 0.871 1.685228298e-38
-0.00644776587873 -0.0499701855602 0.871 1.42683096312e-38
-0.00483582440905 -0.0499701855602 0.871 1.54484565732e-38
-0.00321648022309 -0.0498554434579 0.869 1.3235073419e-38
-0.00160824011154 -0.0498554434579 0.869 1.43263374006e-38
