# .PCD v0.7 - Point Cloud Data file format
VERSION 0.7
FIELDS x y z rgb
SIZE 4 4 4 4
TYPE F F F F
COUNT 1 1 1 1
WIDTH 838
HEIGHT 1
VIEWPOINT 0 0 0 1 0 0 0
POINTS 838
DATA ascii
-0.0330531281843 -0.0730648096706 0.94 1.57444752686e-38
-0.0312468654123 -0.0729093526288 0.938 1.1020259539e-38
-0.0294165438124 -0.072676167066 0.935 1.23059564852e-38
-0.027626937152 -0.0725207100241 0.933 1.2214120989e-38
-0.02590025358 -0.0725207100241 0.933 1.81085330403e-38
-0.0240440224732 -0.0721320674195 0.928 1.7941309088e-38
-0.0223265922965 -0.0721320674195 0.928 1.67565196442e-38
-0.0206535784175 -0.0722875244614 0.93 1.77612366302e-38
-0.0188917319432 -0.0721320674195 0.928 6.80192516661e-39
-0.0171743017665 -0.0721320674195 0.928 6.07226345104e-39
-0.0154568715899 -0.0721320674195 0.928 1.85014220972e-38
-0.0137394414132 -0.0721320674195 0.928 1.77459036224e-38
-0.0120220112366 -0.0721320674195 0.928 2.8469003809e-39
-0.0103045810599 -0.0721320674195 0.928 1.37137163367e-38
-0.00855939069723 -0.0718988818567 0.925 1.94226497206e-38
-0.00683270712523 -0.0717434248149 0.923 5.97002471508e-39
-0.00512453034392 -0.0717434248149 0.923 1.33236957377e-38
-0.00341635356261 -0.0717434248149 0.923 1.29549538559e-38
-0.00170817678131 -0.0717434248149 0.923 1.35938058258e-38
0.0 -0.0717434248149 0.923 1.12039305313e-38
0.00170817678131 -0.0717434248149 0.923 8.54070114269e-39
0.00341635356261 -0.0717434248149 0.923 1.16904263256e-38
0.00512453034392 -0.0717434248149 0.923 1.12211496868e-38
0.00683270712523 -0.0717434248149 0.923 1.58875408353e-38
0.00854088390653 -0.0717434248149 0.923 1.64385538123e-38
0.0102490606878 -0.0717434248149 0.923 1.65303893084e-38
0.0119572374691 -0.0717434248149 0.923 1.67140603008e-38
0.0136950251156 -0.0718988818567 0.925 1.66222248046e-38
0.015406903255 -0.0718988818567 0.925 1.64385538123e-38
0.0171187813945 -0.0718988818567 0.925 1.60712118276e-38
0.0188917319432 -0.0721320674195 0.928 1.65303893084e-38
0.0206091621199 -0.0721320674195 0.928 1.68058957969e-38
0.0223265922965 -0.0721320674195 0.928 1.69895667892e-38
0.024173570008 -0.0725207100241 0.933 1.77242507585e-38
0.02590025358 -0.0725207100241 0.933 1.77242507585e-38
0.0276861588823 -0.072676167066 0.935 1.76324152623e-38
0.0294165438124 -0.072676167066 0.935 1.78160862547e-38
0.0312468654123 -0.0729093526288 0.938 2.01170323461e-38
0.0329828023797 -0.0729093526288 0.938 1.58875408353e-38
0.034718739347 -0.0729093526288 0.938 2.28918681508e-38
0.0364546763144 -0.0729093526288 0.938 2.34881851071e-38
-0.0390456270119 -0.0727668503404 0.959 2.20098502597e-38
-0.0370765044818 -0.0723874611311 0.954 2.20098404506e-38
-0.0350148479982 -0.0717804383963 0.946 2.34896606744e-38
-0.0330531281843 -0.0713251713451 0.94 1.6114708132e-38
-0.0312468654123 -0.0711734156614 0.938 1.13043756052e-38
-0.0294165438124 -0.0709457821358 0.935 1.34086999039e-38
-0.027626937152 -0.0707940264521 0.933 1.2214120989e-38
-0.02590025358 -0.0707940264521 0.933 1.3958995416e-38
-0.0240958414871 -0.0705663929266 0.93 1.51571840757e-38
-0.0223747099523 -0.0705663929266 0.93 1.0469246562e-38
-0.0206535784175 -0.0705663929266 0.93 1.86646005008e-38
-0.0189324468827 -0.0705663929266 0.93 1.23220994435e-38
-0.0172113153479 -0.0705663929266 0.93 5.42546892146e-39
-0.0154568715899 -0.0704146372428 0.928 1.85986147574e-38
-0.0137394414132 -0.0704146372428 0.928 1.84930927791e-38
-0.0120220112366 -0.0704146372428 0.928 1.83670992316e-39
-0.0103045810599 -0.0704146372428 0.928 1.11318407318e-38
-0.00855939069723 -0.0701870037173 0.925 1.59271471351e-38
-0.00684751255778 -0.0701870037173 0.925 2.57282882205e-39
-0.00513563441834 -0.0701870037173 0.925 7.36728743983e-39
-0.00341635356261 -0.0700352480336 0.923 9.64272709659e-39
-0.00170817678131 -0.0700352480336 0.923 8.99987862348e-39
0.0 -0.0700352480336 0.923 9.10427956297e-39
0.00170817678131 -0.0700352480336 0.923 5.34618905954e-39
0.00341635356261 -0.0700352480336 0.923 9.68005768768e-39
0.00513563441834 -0.0701870037173 0.925 1.04821609287e-38
0.00684751255778 -0.0701870037173 0.925 1.57957053392e-38
0.00855939069723 -0.0701870037173 0.925 1.63467183161e-38
0.0102712688367 -0.0701870037173 0.925 1.67140603008e-38
0.0119831469761 -0.0701870037173 0.925 1.65303893084e-38
0.0136950251156 -0.0701870037173 0.925 1.66222248046e-38
0.015406903255 -0.0701870037173 0.925 1.63467183161e-38
0.0171187813945 -0.0701870037173 0.925 1.64385538123e-38
0.0188917319432 -0.0704146372428 0.928 1.68058957969e-38
0.0206091621199 -0.0704146372428 0.928 1.68977312931e-38
0.0223265922965 -0.0704146372428 0.928 1.70814022854e-38
0.024173570008 -0.0707940264521 0.933 1.72650732777e-38
0.02590025358 -0.0707940264521 0.933 1.72650732777e-38
0.0276861588823 -0.0709457821358 0.935 1.93776540269e-38
0.0294165438124 -0.0709457821358 0.935 1.77242507585e-38
0.0312468654123 -0.0711734156614 0.938 1.94731146822e-38
0.0330531281843 -0.0713251713451 0.94 1.736196606e-38
0.0347927665098 -0.0713251713451 0.94 2.32610220144e-38
0.0365324048353 -0.0713251713451 0.94 2.34900067951e-38
-0.0390456270119 -0.0709920491126 0.959 2.31161810025e-38
-0.0371542330027 -0.0707699676242 0.956 2.27484718777e-38
-0.0351999159051 -0.0703998318103 0.951 2.34878544007e-38
-0.0333344314029 -0.0701777503219 0.948 1.51001806555e-38
-0.0313134898588 -0.0695855330196 0.94 1.11253709368e-38
-0.029510928445 -0.0694374786941 0.938 1.29488049583e-38
-0.0276861588823 -0.0692153972057 0.935 1.33161539494e-38
-0.0259557739521 -0.0692153972057 0.935 1.3958995416e-38
-0.024173570008 -0.0690673428801 0.933 1.29488049583e-38
-0.022446886436 -0.0690673428801 0.933 1.72830309175e-38
-0.020720202864 -0.0690673428801 0.933 1.24896274775e-38
-0.018993519292 -0.0690673428801 0.933 1.23977919813e-38
-0.0172113153479 -0.0688452613918 0.93 1.00100690812e-38
-0.0154901838131 -0.0688452613918 0.93 2.00572067107e-38
-0.0137690522784 -0.0688452613918 0.93 1.91518109573e-38
-0.0120220112366 -0.0686972070662 0.928 3.85709083864e-39
-0.0103045810599 -0.0686972070662 0.928 1.64878444858e-38
-0.00858715088327 -0.0686972070662 0.928 1.67636620625e-38
-0.00684751255778 -0.0684751255778 0.925 4.23375986585e-39
-0.00513563441834 -0.0684751255778 0.925 1.3638071443e-38
-0.00342375627889 -0.0684751255778 0.925 1.59325014966e-38
-0.00171187813945 -0.0684751255778 0.925 1.21603475617e-38
0.0 -0.0684751255778 0.925 4.42361478829e-39
0.00171187813945 -0.0684751255778 0.925 1.13432322103e-38
0.00342375627889 -0.0684751255778 0.925 9.76578772643e-39
0.00513563441834 -0.0684751255778 0.925 1.03860206436e-38
0.00684751255778 -0.0684751255778 0.925 1.58875408353e-38
0.00855939069723 -0.0684751255778 0.925 1.64385538123e-38
0.0102712688367 -0.0684751255778 0.925 1.67140603008e-38
0.0119831469761 -0.0684751255778 0.925 1.67140603008e-38
0.0136950251156 -0.0684751255778 0.925 1.65303893084e-38
0.0154568715899 -0.0686972070662 0.928 1.64385538123e-38
0.0171743017665 -0.0686972070662 0.928 1.66222248046e-38
0.0188917319432 -0.0686972070662 0.928 1.66222248046e-38
0.0206535784175 -0.0688452613918 0.93 1.66222248046e-38
0.0223747099523 -0.0688452613918 0.93 1.73569087739e-38
0.024173570008 -0.0690673428801 0.933 1.77242507585e-38
0.0259557739521 -0.0692153972057 0.935 1.75406147986e-38
0.0276861588823 -0.0692153972057 0.935 1.76324152623e-38
0.0294165438124 -0.0692153972057 0.935 1.80915927431e-38
0.0312468654123 -0.0694374786941 0.938 1.99333669589e-38
0.0330531281843 -0.0695855330196 0.94 1.71732377815e-38
0.0347927665098 -0.0695855330196 0.94 2.34479636373e-38
0.0365324048353 -0.0695855330196 0.94 2.34903655275e-38
-0.0390456270119 -0.0692172478848 0.959 2.18258079233e-38
-0.0371542330027 -0.0690007184336 0.956 2.28399668583e-38
-0.0351999159051 -0.068639836015 0.951 2.34892921329e-38
-0.0333344314029 -0.0684233065639 0.948 1.27945668389e-38
-0.0314134265286 -0.0680624241453 0.943 1.48142583155e-38
-0.029510928445 -0.0677015417267 0.938 1.20304499967e-38
-0.0276861588823 -0.0674850122756 0.935 1.34998179352e-38
-0.0259557739521 -0.0674850122756 0.935 1.2765133966e-38
-0.024173570008 -0.0673406593081 0.933 1.96934338333e-38
-0.022446886436 -0.0673406593081 0.933 1.64730958194e-38
-0.0207646191617 -0.0674850122756 0.935 1.1208952785e-38
-0.018993519292 -0.0673406593081 0.933 1.70975480463e-38
-0.01726683572 -0.0673406593081 0.933 1.5993797094e-38
-0.0154901838131 -0.067124129857 0.93 1.23977919813e-38
-0.0137690522784 -0.067124129857 0.93 1.1020259539e-38
-0.0120479207436 -0.067124129857 0.93 1.74774961119e-38
-0.0103267892088 -0.067124129857 0.93 1.97975461053e-38
-0.00858715088327 -0.0669797768895 0.928 8.37104874021e-39
-0.00684751255778 -0.0667632474384 0.925 8.02025889304e-39
-0.00513563441834 -0.0667632474384 0.925 1.11487936406e-38
-0.00342375627889 -0.0667632474384 0.925 1.5286096528e-38
-0.00171187813945 -0.0667632474384 0.925 1.53861254162e-38
0.0 -0.0667632474384 0.925 7.92298635884e-39
0.00171187813945 -0.0667632474384 0.925 1.42870407878e-38
0.00342375627889 -0.0667632474384 0.925 1.22539921342e-38
0.00513563441834 -0.0667632474384 0.925 1.06593747377e-38
0.00684751255778 -0.0667632474384 0.925 1.57957053392e-38
0.00855939069723 -0.0667632474384 0.925 1.60712118276e-38
0.0102712688367 -0.0667632474384 0.925 1.64385538123e-38
0.0119831469761 -0.0667632474384 0.925 1.64385538123e-38
0.0137394414132 -0.0669797768895 0.928 1.66222248046e-38
0.0154568715899 -0.0669797768895 0.928 1.66222248046e-38
0.0171743017665 -0.0669797768895 0.928 1.67140603008e-38
0.0189324468827 -0.067124129857 0.93 1.70814022854e-38
0.0206535784175 -0.067124129857 0.93 1.69895667892e-38
0.022446886436 -0.0673406593081 0.933 1.73569087739e-38
0.024173570008 -0.0673406593081 0.933 1.744874427e-38
0.0259557739521 -0.0674850122756 0.935 1.76324152623e-38
0.0276861588823 -0.0674850122756 0.935 1.85507702239e-38
0.0294165438124 -0.0674850122756 0.935 1.83670992316e-38
0.0312468654123 -0.0677015417267 0.938 1.96574835212e-38
0.0330531281843 -0.0678458946941 0.94 1.82788510595e-38
0.034903807254 -0.0680624241453 0.943 2.34555012217e-38
0.0366489976167 -0.0680624241453 0.943 2.34882243435e-38
-0.0389234821933 -0.067231469243 0.956 2.22871434037e-38
-0.0370765044818 -0.0670908176337 0.954 2.17321899755e-38
-0.0351999159051 -0.0668798402198 0.951 2.34907564898e-38
-0.0333344314029 -0.0666688628058 0.948 1.19651761129e-38
-0.0315133631984 -0.0665282111965 0.946 1.57365901622e-38
-0.0295738515333 -0.0661062563686 0.94 1.31479827194e-38
-0.0277749914776 -0.0659656047594 0.938 1.1755660973e-38
-0.0259557739521 -0.0657546273454 0.935 1.30406404544e-38
-0.024225389022 -0.0657546273454 0.935 1.48805901796e-38
-0.0224950040919 -0.0657546273454 0.935 1.30586555475e-38
-0.0207646191617 -0.0657546273454 0.935 1.18485726664e-38
-0.0190342342316 -0.0657546273454 0.935 1.35916534314e-38
-0.01726683572 -0.0656139757361 0.933 1.36834889275e-38
-0.015540152148 -0.0656139757361 0.933 1.46018452904e-38
-0.013813468576 -0.0656139757361 0.933 1.95778575385e-38
-0.0120479207436 -0.0654029983222 0.93 2.10778200264e-38
-0.0103267892088 -0.0654029983222 0.93 2.05282770116e-38
-0.00858715088327 -0.0652623467129 0.928 1.08541664346e-38
-0.00686972070662 -0.0652623467129 0.928 1.00319839879e-38
-0.00515229052996 -0.0652623467129 0.928 8.09766662021e-39
-0.00342375627889 -0.0650513692989 0.925 9.56882822077e-39
-0.00171187813945 -0.0650513692989 0.925 8.83629664595e-39
0.0 -0.0650513692989 0.925 9.30049638044e-39
0.00171187813945 -0.0650513692989 0.925 7.08496503563e-39
0.00342375627889 -0.0650513692989 0.925 1.66699670433e-38
0.00513563441834 -0.0650513692989 0.925 1.21240791549e-38
0.00684751255778 -0.0650513692989 0.925 1.64385538123e-38
0.00855939069723 -0.0650513692989 0.925 1.64385538123e-38
0.0102712688367 -0.0650513692989 0.925 1.64385538123e-38
0.0120220112366 -0.0652623467129 0.928 1.68058957969e-38
0.0137394414132 -0.0652623467129 0.928 1.66222248046e-38
0.0154568715899 -0.0652623467129 0.928 1.66222248046e-38
0.0171743017665 -0.0652623467129 0.928 1.625488282e-38
0.0189324468827 -0.0654029983222 0.93 1.76352851216e-38
0.020720202864 -0.0656139757361 0.933 1.58875408353e-38
0.022446886436 -0.0656139757361 0.933 1.67140603008e-38
0.024225389022 -0.0657546273454 0.935 1.78160862547e-38
0.0259557739521 -0.0657546273454 0.935 1.7999757247e-38
0.0276861588823 -0.0657546273454 0.935 1.7999757247e-38
0.029510928445 -0.0659656047594 0.938 2.04850931968e-38
0.0312468654123 -0.0659656047594 0.938 1.7999757247e-38
0.0329828023797 -0.0659656047594 0.938 2.01162910592e-38
0.0350148479982 -0.0665282111965 0.946 2.34637366528e-38
0.0367655903981 -0.0665282111965 0.946 2.34885914837e-38
-0.0389234821933 -0.0654622200524 0.956 2.21960043529e-38
-0.0370765044818 -0.0653252698012 0.954 2.28399668583e-38
-0.0351999159051 -0.0651198444245 0.951 2.34874872605e-38
-0.0333344314029 -0.0649144190478 0.948 1.23350348296e-38
-0.0315133631984 -0.0647774687966 0.946 1.39906157159e-38
-0.0295738515333 -0.0643666180432 0.94 1.08441233285e-38
-0.0278342132079 -0.0643666180432 0.94 1.64680791709e-38
-0.0260390545103 -0.064229667792 0.938 1.02855755697e-38
-0.024225389022 -0.0640242424153 0.935 2.1333227691e-38
-0.0224950040919 -0.0640242424153 0.935 1.14930688512e-38
-0.0207646191617 -0.0640242424153 0.935 1.60100297354e-38
-0.0190342342316 -0.0640242424153 0.935 1.23150523135e-38
-0.0173038493014 -0.0640242424153 0.935 1.23977919813e-38
-0.015540152148 -0.0638872921641 0.933 1.36834889275e-38
-0.013813468576 -0.0638872921641 0.933 1.34998179352e-38
-0.012086785004 -0.0638872921641 0.933 1.34079824391e-38
-0.010360101432 -0.0638872921641 0.933 1.36834889275e-38
-0.00860565767397 -0.0636818667874 0.93 1.38671599199e-38
-0.00686972070662 -0.0635449165362 0.928 1.52468447567e-38
-0.00515229052996 -0.0635449165362 0.928 1.40562441281e-38
-0.00343486035331 -0.0635449165362 0.928 1.49821436807e-38
-0.00171187813945 -0.0633394911595 0.925 1.48988757233e-38
0.0 -0.0633394911595 0.925 1.44390144089e-38
0.00171187813945 -0.0633394911595 0.925 1.37882387903e-38
0.00342375627889 -0.0633394911595 0.925 1.3960789078e-38
0.00513563441834 -0.0633394911595 0.925 1.58875408353e-38
0.00684751255778 -0.0633394911595 0.925 1.64385538123e-38
0.00858715088327 -0.0635449165362 0.928 1.63467183161e-38
0.0103045810599 -0.0635449165362 0.928 1.63467183161e-38
0.0120220112366 -0.0635449165362 0.928 1.64385538123e-38
0.0137394414132 -0.0635449165362 0.928 1.66222248046e-38
0.0154901838131 -0.0636818667874 0.93 1.67140603008e-38
0.0172113153479 -0.0636818667874 0.93 1.70814022854e-38
0.018993519292 -0.0638872921641 0.933 1.63553278939e-38
0.0207646191617 -0.0640242424153 0.935 1.3594882023e-38
0.0224950040919 -0.0640242424153 0.935 1.76410248401e-38
0.024225389022 -0.0640242424153 0.935 1.89392774206e-38
0.0259557739521 -0.0640242424153 0.935 1.98576323821e-38
0.0277749914776 -0.064229667792 0.938 1.61680695775e-38
0.029510928445 -0.064229667792 0.938 1.80915927431e-38
0.0312468654123 -0.064229667792 0.938 2.05776447565e-38
0.0329828023797 -0.064229667792 0.938 1.83678166964e-38
0.0350148479982 -0.0647774687966 0.946 2.34676911171e-38
0.0367655903981 -0.0647774687966 0.946 2.34893103498e-38
-0.0388420523143 -0.0635597219688 0.954 2.2380768358e-38
-0.0370765044818 -0.0635597219688 0.954 2.293286594e-38
-0.0353109566493 -0.0635597219688 0.954 2.34892711134e-38
-0.0334399201099 -0.0633598486293 0.951 1.61147025268e-38
-0.0315799876449 -0.0631599752897 0.948 1.29753875901e-38
-0.0296682361659 -0.0628268530572 0.943 8.99987862348e-39
-0.0278342132079 -0.0626269797177 0.94 9.45905610427e-39
-0.0260390545103 -0.0624937308247 0.938 1.72138628253e-38
-0.024225389022 -0.0622938574851 0.935 1.57354382948e-38
-0.0224950040919 -0.0622938574851 0.935 1.01944575384e-38
-0.0208312436082 -0.0624937308247 0.938 1.7390366176e-38
-0.0190342342316 -0.0622938574851 0.935 1.37987247068e-38
-0.0173038493014 -0.0622938574851 0.935 1.7127097227e-38
-0.0155734643713 -0.0622938574851 0.935 1.83241732557e-38
-0.013813468576 -0.0621606085921 0.933 1.80411193737e-38
-0.012086785004 -0.0621606085921 0.933 1.36834889275e-38
-0.010360101432 -0.0621606085921 0.933 1.43263374006e-38
-0.00860565767397 -0.0619607352526 0.93 1.33161469429e-38
-0.00688452613918 -0.0619607352526 0.93 1.89289190223e-38
-0.00515229052996 -0.0618274863596 0.928 1.36835113483e-38
-0.00343486035331 -0.0618274863596 0.928 1.46018438891e-38
-0.00171743017665 -0.0618274863596 0.928 1.49691858738e-38
0.0 -0.0618274863596 0.928 1.53365278584e-38
0.00171187813945 -0.06162761302 0.925 1.5703869843e-38
0.00342375627889 -0.06162761302 0.925 1.57957053392e-38
0.00513563441834 -0.06162761302 0.925 1.625488282e-38
0.00686972070662 -0.0618274863596 0.928 1.63467183161e-38
0.00858715088327 -0.0618274863596 0.928 1.64385538123e-38
0.0103045810599 -0.0618274863596 0.928 1.64385538123e-38
0.0120220112366 -0.0618274863596 0.928 1.64385538123e-38
0.0137690522784 -0.0619607352526 0.93 1.67140603008e-38
0.0154901838131 -0.0619607352526 0.93 1.67140603008e-38
0.01726683572 -0.0621606085921 0.933 1.69063408708e-38
0.0190342342316 -0.0622938574851 0.935 1.41620379583e-38
0.0207646191617 -0.0622938574851 0.935 1.43518074015e-38
0.0224950040919 -0.0622938574851 0.935 1.92237690348e-38
0.024225389022 -0.0622938574851 0.935 2.0424429585e-38
0.0259557739521 -0.0622938574851 0.935 1.83882644436e-38
0.0277749914776 -0.0624937308247 0.938 1.9034396159e-38
0.029510928445 -0.0624937308247 0.938 1.77242507585e-38
0.0312468654123 -0.0624937308247 0.938 1.86469217193e-38
0.0329828023797 -0.0624937308247 0.938 2.06744814869e-38
0.034718739347 -0.0624937308247 0.938 2.34770601986e-38
-0.0388420523143 -0.0617941741363 0.954 2.21960169646e-38
-0.0370765044818 -0.0617941741363 0.954 2.19187112089e-38
-0.0353109566493 -0.0617941741363 0.954 2.34896312471e-38
-0.0334399201099 -0.061599852834 0.951 1.50965905288e-38
-0.0316799243146 -0.061599852834 0.951 1.49075427543e-38
-0.0297626207984 -0.0612759839968 0.946 1.01083729711e-38
-0.0279230458032 -0.0610816626945 0.943 1.46395556334e-38
-0.0260945748824 -0.0608873413922 0.94 5.41972920295e-39
-0.0243031175429 -0.0607577938573 0.938 1.10238903033e-38
-0.0225671805756 -0.0607577938573 0.938 1.81319010935e-38
-0.0208312436082 -0.0607577938573 0.938 1.39820187498e-38
-0.0190953066409 -0.0607577938573 0.938 1.32253946505e-38
-0.0173038493014 -0.060563472555 0.935 1.33218866614e-38
-0.0155734643713 -0.060563472555 0.935 1.18522636866e-38
-0.0138430794411 -0.060563472555 0.935 1.78510430461e-38
-0.012112694511 -0.060563472555 0.935 2.13576046791e-38
-0.0103823095809 -0.060563472555 0.935 1.72138025695e-38
-0.00863341786002 -0.0604339250201 0.933 1.13123265727e-38
-0.00688452613918 -0.0602396037178 0.93 2.19143910057e-38
-0.00516339460438 -0.0602396037178 0.93 1.23120675478e-38
-0.00344226306959 -0.0602396037178 0.93 1.99710773019e-38
-0.00171743017665 -0.0601100561829 0.928 1.33294368575e-38
0.0 -0.0601100561829 0.928 1.67360536802e-38
0.00171743017665 -0.0601100561829 0.928 1.95936249489e-38
0.00343486035331 -0.0601100561829 0.928 1.43263374006e-38
0.00515229052996 -0.0601100561829 0.928 1.60712118276e-38
0.00686972070662 -0.0601100561829 0.928 1.63467183161e-38
0.00858715088327 -0.0601100561829 0.928 1.63467183161e-38
0.0103267892088 -0.0602396037178 0.93 1.64385538123e-38
0.0120479207436 -0.0602396037178 0.93 1.64385538123e-38
0.0137690522784 -0.0602396037178 0.93 1.76334914596e-38
0.015540152148 -0.0604339250201 0.933 1.80184113321e-38
0.0173038493014 -0.060563472555 0.935 1.38894013291e-38
0.0190342342316 -0.060563472555 0.935 1.23346550777e-38
0.0208312436082 -0.0607577938573 0.938 1.02037845809e-38
0.0225671805756 -0.0607577938573 0.938 1.93098760228e-38
0.0243031175429 -0.0607577938573 0.938 1.99609473153e-38
0.0260390545103 -0.0607577938573 0.938 1.72769114471e-38
0.0277749914776 -0.0607577938573 0.938 1.96825709676e-38
0.029510928445 -0.0607577938573 0.938 1.71732377815e-38
0.0312468654123 -0.0607577938573 0.938 1.80916011509e-38
0.0329828023797 -0.0607577938573 0.938 2.06759136139e-38
0.034718739347 -0.0607577938573 0.938 2.34752595301e-38
-0.0388420523143 -0.0600286263038 0.954 2.24715304596e-38
-0.0370765044818 -0.0600286263038 0.954 2.25633771661e-38
-0.0353109566493 -0.0600286263038 0.954 2.34863970503e-38
-0.0335454088169 -0.0600286263038 0.954 1.59259938665e-38
-0.0316799243146 -0.0598398570387 0.951 1.57315805201e-38
-0.0297626207984 -0.0595252415969 0.946 9.09314904927e-39
-0.0279230458032 -0.0593364723318 0.943 1.28800124141e-38
-0.0261778554405 -0.0593364723318 0.943 1.49158692698e-38
-0.0243549365569 -0.0591477030667 0.94 7.89964633162e-39
-0.0226152982314 -0.0591477030667 0.94 7.71420269675e-39
-0.0208756599059 -0.0591477030667 0.94 9.73458501352e-39
-0.0190953066409 -0.0590218568899 0.938 1.79459824184e-38
-0.0173593696735 -0.0590218568899 0.938 1.81325723154e-38
-0.0156234327062 -0.0590218568899 0.938 1.37965106552e-38
-0.0138874957388 -0.0590218568899 0.938 1.18510837933e-38
-0.012112694511 -0.0588330876248 0.935 1.40633865464e-38
-0.0103823095809 -0.0588330876248 0.935 1.98612715542e-38
-0.00863341786002 -0.0587072414481 0.933 1.64684294955e-38
-0.00690673428801 -0.0587072414481 0.933 1.69354808724e-38
-0.00516339460438 -0.058518472183 0.93 2.23664456864e-38
-0.00344226306959 -0.058518472183 0.93 1.31547341754e-38
-0.00172113153479 -0.058518472183 0.93 1.98820612183e-38
0.0 -0.0583926260063 0.928 1.55547702851e-38
0.00171743017665 -0.0583926260063 0.928 1.78542324014e-38
0.00343486035331 -0.0583926260063 0.928 1.41480473944e-38
0.00515229052996 -0.0583926260063 0.928 1.57957053392e-38
0.00686972070662 -0.0583926260063 0.928 1.625488282e-38
0.00858715088327 -0.0583926260063 0.928 1.63467183161e-38
0.0103267892088 -0.058518472183 0.93 1.625488282e-38
0.0120479207436 -0.058518472183 0.93 1.67140603008e-38
0.013813468576 -0.0587072414481 0.933 1.73626540976e-38
0.015540152148 -0.0587072414481 0.933 1.58179467484e-38
0.0173593696735 -0.0590218568899 0.938 1.09438495363e-38
0.0190953066409 -0.0590218568899 0.938 7.34863335467e-39
0.0208312436082 -0.0590218568899 0.938 1.66366105346e-38
0.0225671805756 -0.0590218568899 0.938 2.06967355078e-38
0.0243549365569 -0.0591477030667 0.94 2.01472345319e-38
0.0260945748824 -0.0591477030667 0.94 1.65303893084e-38
0.0278342132079 -0.0591477030667 0.94 1.92122727822e-38
0.029510928445 -0.0590218568899 0.938 1.77256856881e-38
0.0312468654123 -0.0590218568899 0.938 1.95638655734e-38
0.0329828023797 -0.0590218568899 0.938 1.92908351793e-38
0.035088875161 -0.0596510877736 0.948 2.34760106261e-38
-0.0388420523143 -0.0582630784714 0.954 2.26541238534e-38
-0.0370765044818 -0.0582630784714 0.954 2.22853483404e-38
-0.0353109566493 -0.0582630784714 0.954 2.34867683944e-38
-0.0335454088169 -0.0582630784714 0.954 1.24232830017e-38
-0.0316799243146 -0.0580798612435 0.951 1.40562118983e-38
-0.0297626207984 -0.057774499197 0.946 1.67478652249e-38
-0.0280118783985 -0.057774499197 0.946 7.90072252884e-39
-0.0261778554405 -0.0575912819691 0.943 1.37879963657e-38
-0.0244326650778 -0.0575912819691 0.943 1.18604654865e-38
-0.0226874747151 -0.0575912819691 0.943 1.37201973421e-38
-0.0208756599059 -0.0574080647412 0.94 1.13208772959e-38
-0.0191360215804 -0.0574080647412 0.94 8.63253663885e-39
-0.0173593696735 -0.0572859199226 0.938 8.17335915806e-39
-0.0156234327062 -0.0572859199226 0.938 1.10202777558e-38
-0.0138874957388 -0.0572859199226 0.938 1.76625936261e-38
-0.012112694511 -0.0571027026947 0.935 1.89620429154e-38
-0.0103823095809 -0.0571027026947 0.935 1.84109612748e-38
-0.00865192465071 -0.0571027026947 0.935 1.56422407366e-38
-0.00692153972057 -0.0571027026947 0.935 1.47102062994e-38
-0.00518005071601 -0.0569805578761 0.933 1.48773503776e-38
-0.00345336714401 -0.0569805578761 0.933 1.26732984698e-38
-0.001726683572 -0.0569805578761 0.933 1.53372453232e-38
0.0 -0.0567973406482 0.93 1.2765133966e-38
0.00172113153479 -0.0567973406482 0.93 1.59861922472e-38
0.00344226306959 -0.0567973406482 0.93 1.49691858738e-38
0.00518005071601 -0.0569805578761 0.933 1.46018438891e-38
0.00690673428801 -0.0569805578761 0.933 1.49691858738e-38
0.00863341786002 -0.0569805578761 0.933 1.52446923622e-38
0.010360101432 -0.0569805578761 0.933 1.625488282e-38
0.012086785004 -0.0569805578761 0.933 1.81070182366e-38
0.0138430794411 -0.0571027026947 0.935 1.87689636052e-38
0.0156234327062 -0.0572859199226 0.938 1.89651467915e-38
0.0173593696735 -0.0572859199226 0.938 1.87843975065e-38
0.0190953066409 -0.0572859199226 0.938 1.90610194285e-38
0.0208312436082 -0.0572859199226 0.938 2.18258107259e-38
0.0226152982314 -0.0574080647412 0.94 1.49075455569e-38
0.0243549365569 -0.0574080647412 0.94 2.34748307328e-38
0.0261778554405 -0.0575912819691 0.943 1.47865910787e-38
0.0280118783985 -0.057774499197 0.946 1.78268482269e-38
0.0297626207984 -0.057774499197 0.946 1.82766986651e-38
0.0315133631984 -0.057774499197 0.946 2.01195560846e-38
0.0332641055983 -0.057774499197 0.946 1.78160862547e-38
0.035088875161 -0.0578966440156 0.948 2.34810735174e-38
-0.0371542330027 -0.0566159740994 0.956 2.20094845208e-38
-0.0353109566493 -0.0564975306389 0.954 2.34903697314e-38
-0.0335454088169 -0.0564975306389 0.954 1.29761036537e-38
-0.0316799243146 -0.0563198654482 0.951 1.45268688161e-38
-0.0299199285194 -0.0563198654482 0.951 1.21280448295e-38
-0.0280118783985 -0.0560237567971 0.946 1.79467012845e-38
-0.0262611359986 -0.0560237567971 0.946 1.20445092242e-38
-0.0244326650778 -0.0558460916064 0.943 9.27538511196e-39
-0.0226874747151 -0.0558460916064 0.943 1.35267410826e-38
-0.0209422843524 -0.0558460916064 0.943 1.27056880825e-38
-0.0191970939897 -0.0558460916064 0.943 1.47354226652e-38
-0.0173963832549 -0.0556684264157 0.94 8.08154608268e-39
-0.0156567449294 -0.0556684264157 0.94 1.06529694024e-38
-0.0138874957388 -0.0555499829552 0.938 8.90804312733e-39
-0.0121515587715 -0.0555499829552 0.938 8.81620763117e-39
-0.0103823095809 -0.0553723177646 0.935 7.98968816575e-39
-0.00865192465071 -0.0553723177646 0.935 1.02855755697e-38
-0.00692153972057 -0.0553723177646 0.935 1.25007972275e-38
-0.00519115479043 -0.0553723177646 0.935 1.68325625067e-38
-0.00345336714401 -0.0552538743041 0.933 1.85020624906e-38
-0.001726683572 -0.0552538743041 0.933 1.98835984427e-38
0.0 -0.0552538743041 0.933 1.98868200278e-38
0.001726683572 -0.0552538743041 0.933 1.99797317212e-38
0.00345336714401 -0.0552538743041 0.933 2.090060902e-38
0.00518005071601 -0.0552538743041 0.933 2.02566773432e-38
0.00690673428801 -0.0552538743041 0.933 2.08094979952e-38
0.00863341786002 -0.0552538743041 0.933 2.08087511031e-38
0.0103823095809 -0.0553723177646 0.935 2.1085728955e-38
0.012112694511 -0.0553723177646 0.935 1.85035422618e-38
0.0138430794411 -0.0553723177646 0.935 1.56429245702e-38
0.0156234327062 -0.0555499829552 0.938 1.32301506575e-38
0.0173593696735 -0.0555499829552 0.938 1.21222882955e-38
0.0190953066409 -0.0555499829552 0.938 1.14794370197e-38
0.0208312436082 -0.0555499829552 0.938 1.1020259539e-38
0.0226152982314 -0.0556684264157 0.94 8.90804312733e-39
0.0244326650778 -0.0558460916064 0.943 2.33784157932e-38
0.0262611359986 -0.0560237567971 0.946 1.42345019045e-38
0.0280711001288 -0.0561422002575 0.948 1.81977775356e-38
0.0298255438868 -0.0561422002575 0.948 1.7728196815e-38
0.0315799876449 -0.0561422002575 0.948 2.05851977552e-38
0.0333344314029 -0.0561422002575 0.948 1.93909215208e-38
0.035088875161 -0.0561422002575 0.948 2.34907466807e-38
-0.0371542330027 -0.0548467249088 0.956 2.26562762478e-38
-0.0353849838121 -0.0548467249088 0.956 2.34882089292e-38
-0.0335454088169 -0.0547319828065 0.954 1.24229200654e-38
-0.0317798609844 -0.0547319828065 0.954 1.60877303339e-38
-0.0299199285194 -0.054559869653 0.951 1.53623944267e-38
-0.0280118783985 -0.0542730143972 0.946 1.09284254441e-38
-0.0262611359986 -0.0542730143972 0.946 1.51622343554e-38
-0.0244326650778 -0.0541009012437 0.943 1.88651052915e-38
-0.0226874747151 -0.0541009012437 0.943 7.71705153653e-39
-0.0210089087989 -0.0542730143972 0.946 1.10234965384e-38
-0.0191970939897 -0.0541009012437 0.943 1.28889120606e-38
-0.017451903627 -0.0541009012437 0.943 1.4173182485e-38
-0.0156567449294 -0.0539287880902 0.94 1.8874863934e-38
-0.0138874957388 -0.0538140459879 0.938 1.65746268997e-38
-0.0121515587715 -0.0538140459879 0.938 1.32595470966e-38
-0.0104156218041 -0.0538140459879 0.938 1.31659697865e-38
-0.00867968483676 -0.0538140459879 0.938 1.13036917715e-38
-0.00694374786941 -0.0538140459879 0.938 7.7210928813e-39
-0.00519115479043 -0.0536419328344 0.935 1.52771632502e-38
-0.00346076986028 -0.0536419328344 0.935 7.25500419648e-39
-0.00173038493014 -0.0536419328344 0.935 9.1835496158e-39
0.0 -0.0536419328344 0.935 8.72437213501e-39
0.00173038493014 -0.0536419328344 0.935 7.80601717343e-39
0.00346076986028 -0.0536419328344 0.935 9.09171411964e-39
0.00519115479043 -0.0536419328344 0.935 8.35703015038e-39
0.00692153972057 -0.0536419328344 0.935 8.17335915806e-39
0.00865192465071 -0.0536419328344 0.935 8.26519465422e-39
0.0103823095809 -0.0536419328344 0.935 8.81620763117e-39
0.012112694511 -0.0536419328344 0.935 9.82639808891e-39
0.0138430794411 -0.0536419328344 0.935 1.06529175543e-38
0.0156234327062 -0.0538140459879 0.938 1.16631080121e-38
0.0173593696735 -0.0538140459879 0.938 1.12957842443e-38
0.0190953066409 -0.0538140459879 0.938 1.15712725159e-38
0.0208312436082 -0.0538140459879 0.938 1.14794370197e-38
0.0226152982314 -0.0539287880902 0.94 1.18467790044e-38
0.0244326650778 -0.0541009012437 0.943 2.07083088318e-38
0.0262611359986 -0.0542730143972 0.946 1.51528568661e-38
0.0280711001288 -0.0543877564995 0.948 1.69938715781e-38
0.0298255438868 -0.0543877564995 0.948 1.91968584991e-38
0.0316799243146 -0.054559869653 0.951 1.93841182168e-38
0.0334399201099 -0.054559869653 0.951 2.32714182477e-38
0.0353109566493 -0.0547319828065 0.954 2.34864040568e-38
0.0371542330027 -0.0548467249088 0.956 2.34878572033e-38
-0.0353849838121 -0.0530774757182 0.956 2.34867683944e-38
-0.0336157346215 -0.0530774757182 0.956 1.18686616812e-38
-0.0317798609844 -0.052966434974 0.954 1.56263990574e-38
-0.0300143131519 -0.052966434974 0.954 1.42553237984e-38
-0.0280118783985 -0.0525222719973 0.946 1.39751383743e-38
-0.0262611359986 -0.0525222719973 0.946 1.49810716873e-38
-0.0245103935987 -0.0525222719973 0.946 1.23059564852e-38
-0.0227596511988 -0.0525222719973 0.946 1.85770473727e-38
-0.0210089087989 -0.0525222719973 0.946 1.81315633805e-38
-0.0191970939897 -0.052355710881 0.943 9.19144172875e-39
-0.017451903627 -0.052355710881 0.943 9.36725003538e-39
-0.0156567449294 -0.0521891497647 0.94 8.26519465422e-39
-0.0138874957388 -0.0520781090205 0.938 8.72437213501e-39
-0.0121515587715 -0.0520781090205 0.938 1.38902463121e-38
-0.0104156218041 -0.0520781090205 0.938 9.38342242096e-39
-0.00867968483676 -0.0520781090205 0.938 2.0619338991e-38
-0.00694374786941 -0.0520781090205 0.938 1.77706337377e-38
-0.00519115479043 -0.0519115479043 0.935 1.89709453645e-38
-0.00346076986028 -0.0519115479043 0.935 1.85128679031e-38
-0.00173038493014 -0.0519115479043 0.935 1.65774757394e-38
0.0 -0.0519115479043 0.935 1.56537425944e-38
0.00173038493014 -0.0519115479043 0.935 1.46417682837e-38
0.00346076986028 -0.0519115479043 0.935 1.50091761293e-38
0.00519115479043 -0.0519115479043 0.935 1.68551416288e-38
0.00692153972057 -0.0519115479043 0.935 1.83288395796e-38
0.00865192465071 -0.0519115479043 0.935 2.08163041018e-38
0.0103823095809 -0.0519115479043 0.935 1.61107943054e-38
0.012112694511 -0.0519115479043 0.935 1.10202623416e-38
0.0138430794411 -0.0519115479043 0.935 1.13876155366e-38
0.0156234327062 -0.0520781090205 0.938 1.09284240428e-38
0.0173593696735 -0.0520781090205 0.938 1.01019045774e-38
0.0190953066409 -0.0520781090205 0.938 1.23978017904e-38
0.0208756599059 -0.0521891497647 0.94 2.05141841529e-38
0.0226874747151 -0.052355710881 0.943 2.10764285371e-38
0.0245103935987 -0.0525222719973 0.946 1.20365750723e-38
0.0263166563707 -0.0526333127414 0.948 1.62559590172e-38
0.0280711001288 -0.0526333127414 0.948 1.81866638374e-38
0.0299199285194 -0.0527998738577 0.951 1.72650732777e-38
0.0316799243146 -0.0527998738577 0.951 1.81834282393e-38
0.0335454088169 -0.052966434974 0.954 2.34753141807e-38
0.0353849838121 -0.0530774757182 0.956 2.34846145986e-38
0.0371542330027 -0.0530774757182 0.956 2.34882201396e-38
-0.0354960245563 -0.0514692356066 0.959 2.34903669288e-38
-0.0336157346215 -0.0513082265276 0.956 1.09477997967e-38
-0.0318464854309 -0.0513082265276 0.956 1.32318448273e-38
-0.0300143131519 -0.0512008871415 0.954 1.415883459e-38
-0.0281599327241 -0.0510398780625 0.951 1.4710556624e-38
-0.0262611359986 -0.0507715295974 0.946 1.41499041149e-38
-0.0245103935987 -0.0507715295974 0.946 1.44282286146e-38
-0.0227596511988 -0.0507715295974 0.946 1.39593541484e-38
-0.0210089087989 -0.0507715295974 0.946 1.34079824391e-38
-0.019258166399 -0.0507715295974 0.946 1.51693935892e-38
-0.017451903627 -0.0506105205183 0.943 1.90533669376e-38
-0.0157067132643 -0.0506105205183 0.943 1.85950372424e-38
-0.0139171066039 -0.0504495114392 0.94 1.26015519884e-38
-0.0121515587715 -0.0503421720532 0.938 1.09284450623e-38
-0.0104156218041 -0.0503421720532 0.938 9.36722060812e-39
-0.00867968483676 -0.0503421720532 0.938 1.01019045774e-38
-0.00694374786941 -0.0503421720532 0.938 1.4428253838e-38
-0.00519115479043 -0.0501811629741 0.935 9.45913878088e-39
-0.00346076986028 -0.0501811629741 0.935 1.02855755697e-38
-0.00173038493014 -0.0501811629741 0.935 1.25904901384e-38
0.0 -0.0501811629741 0.935 1.14938830056e-38
0.00173038493014 -0.0501811629741 0.935 1.11276214221e-38
0.00346076986028 -0.0501811629741 0.935 1.18655451934e-38
0.00519115479043 -0.0501811629741 0.935 1.02092636579e-38
0.00692153972057 -0.0501811629741 0.935 8.08158251644e-39
0.00865192465071 -0.0501811629741 0.935 9.36722060812e-39
0.0103823095809 -0.0501811629741 0.935 1.14794370197e-38
0.012112694511 -0.0501811629741 0.935 1.14794370197e-38
0.0138430794411 -0.0501811629741 0.935 1.37760474937e-38
0.0156234327062 -0.0503421720532 0.938 1.82093830894e-38
0.0173593696735 -0.0503421720532 0.938 2.21891646151e-38
0.0191360215804 -0.0504495114392 0.94 2.03438549233e-38
0.0209422843524 -0.0506105205183 0.943 1.5349442225e-38
0.0226874747151 -0.0506105205183 0.943 1.77242507585e-38
0.0245103935987 -0.0507715295974 0.946 1.42345019045e-38
0.0263166563707 -0.0508788689834 0.948 1.55245036396e-38
0.0280711001288 -0.0508788689834 0.948 1.73569087739e-38
0.0299199285194 -0.0510398780625 0.951 1.744874427e-38
0.0316799243146 -0.0510398780625 0.951 2.34590254874e-38
0.0335454088169 -0.0512008871415 0.954 2.34810468928e-38
0.0353849838121 -0.0513082265276 0.956 2.34849565155e-38
-0.0354960245563 -0.0496944343788 0.959 2.34871243242e-38
-0.0336157346215 -0.049538977337 0.956 1.2790637598e-38
-0.0318464854309 -0.049538977337 0.956 1.27748197409e-38
-0.0300143131519 -0.0494353393091 0.954 1.22227585927e-38
-0.0281599327241 -0.0492798822672 0.951 1.5073595221e-38
-0.0263166563707 -0.0491244252253 0.948 1.37821403394e-38
-0.0245103935987 -0.0490207871974 0.946 1.67302551071e-38
-0.0227596511988 -0.0490207871974 0.946 1.26761683291e-38
-0.0210089087989 -0.0490207871974 0.946 1.4796635586e-38
-0.019258166399 -0.0490207871974 0.946 1.94046444367e-38
-0.0175074239991 -0.0490207871974 0.946 1.29488133661e-38
-0.0157067132643 -0.0488653301556 0.943 1.44181728968e-38
-0.0139171066039 -0.0487098731137 0.94 1.58954497639e-38
-0.0121515587715 -0.0486062350858 0.938 1.88582263174e-38
-0.0104156218041 -0.0486062350858 0.938 2.07072424436e-38
-0.00867968483676 -0.0486062350858 0.938 1.9886464098e-38
-0.00694374786941 -0.0486062350858 0.938 1.83180776074e-38
-0.00520781090205 -0.0486062350858 0.938 1.62883093935e-38
-0.00346076986028 -0.048450778044 0.935 1.49946909071e-38
-0.00173038493014 -0.048450778044 0.935 1.39744587446e-38
0.0 -0.048450778044 0.935 1.43396735581e-38
0.00173038493014 -0.048450778044 0.935 1.29542181742e-38
0.00346076986028 -0.048450778044 0.935 1.42446234833e-38
0.00519115479043 -0.048450778044 0.935 1.67378515461e-38
0.00692153972057 -0.048450778044 0.935 1.87728620175e-38
0.00867968483676 -0.0486062350858 0.938 2.10803395611e-38
0.0104156218041 -0.0486062350858 0.938 2.1175385432e-38
0.0121515587715 -0.0486062350858 0.938 2.07133464998e-38
0.0138874957388 -0.0486062350858 0.938 1.88633074256e-38
0.0156234327062 -0.0486062350858 0.938 1.64564904326e-38
0.0173593696735 -0.0486062350858 0.938 1.60712118276e-38
0.0191360215804 -0.0487098731137 0.94 1.65303893084e-38
0.0209422843524 -0.0488653301556 0.943 1.73569087739e-38
0.0227596511988 -0.0490207871974 0.946 1.77242507585e-38
0.0245103935987 -0.0490207871974 0.946 1.51528568661e-38
0.0263166563707 -0.0491244252253 0.948 1.60838263164e-38
0.0281599327241 -0.0492798822672 0.951 1.65303893084e-38
0.0299199285194 -0.0492798822672 0.951 2.34651799902e-38
0.0317798609844 -0.0494353393091 0.954 2.34850069622e-38
0.0335454088169 -0.0494353393091 0.954 2.05343124041e-38
0.0353849838121 -0.049538977337 0.956 2.3484601987e-38
-0.0354960245563 -0.047919633151 0.959 2.34889305979e-38
-0.0337212233285 -0.047919633151 0.959 1.08548838994e-38
-0.0318464854309 -0.0477697281463 0.956 1.22234480316e-38
-0.0300772362403 -0.0477697281463 0.956 1.1020259539e-38
-0.0282487653195 -0.0476697914766 0.954 1.20304499967e-38
-0.0263166563707 -0.0473699814673 0.948 1.52586955378e-38
-0.0245103935987 -0.0472700447975 0.946 1.57186577457e-38
-0.0227596511988 -0.0472700447975 0.946 1.36924572377e-38
-0.0210089087989 -0.0472700447975 0.946 1.83919372469e-38
-0.019258166399 -0.0472700447975 0.946 1.3593088361e-38
-0.0175074239991 -0.0472700447975 0.946 1.51539400698e-38
-0.0157067132643 -0.0471201397929 0.943 1.67323584561e-38
-0.0139615229016 -0.0471201397929 0.943 1.75567689673e-38
-0.0121774682784 -0.0469702347883 0.94 1.50699896801e-38
-0.0104156218041 -0.0468702981185 0.938 1.45100238072e-38
-0.00867968483676 -0.0468702981185 0.938 1.41426664083e-38
-0.00694374786941 -0.0468702981185 0.938 1.43263374006e-38
-0.00520781090205 -0.0468702981185 0.938 1.55201988507e-38
-0.0034718739347 -0.0468702981185 0.938 1.80134114992e-38
-0.00173593696735 -0.0468702981185 0.938 1.70989913837e-38
0.0 -0.0468702981185 0.938 1.76536113029e-38
0.00173593696735 -0.0468702981185 0.938 1.71940975105e-38
0.0034718739347 -0.0468702981185 0.938 1.70993655304e-38
0.00520781090205 -0.0468702981185 0.938 1.51607545842e-38
0.00694374786941 -0.0468702981185 0.938 1.60722992353e-38
0.00867968483676 -0.0468702981185 0.938 1.59793763315e-38
0.0104156218041 -0.0468702981185 0.938 1.5703869843e-38
0.0121515587715 -0.0468702981185 0.938 1.57957053392e-38
0.0138874957388 -0.0468702981185 0.938 1.63467183161e-38
0.0156234327062 -0.0468702981185 0.938 1.70814022854e-38
0.0173963832549 -0.0469702347883 0.94 1.75405797662e-38
0.0191970939897 -0.0471201397929 0.943 1.744874427e-38
0.0209422843524 -0.0471201397929 0.943 1.78160862547e-38
0.0227596511988 -0.0472700447975 0.946 1.76324152623e-38
0.0245103935987 -0.0472700447975 0.946 1.744874427e-38
0.0263166563707 -0.0473699814673 0.948 2.03308424657e-38
0.0281599327241 -0.0475198864719 0.951 2.34784250633e-38
0.0300143131519 -0.0476697914766 0.954 2.34871747709e-38
0.0317798609844 -0.0476697914766 0.954 2.33002261415e-38
0.0336157346215 -0.0477697281463 0.956 1.31569398192e-38
0.0353849838121 -0.0477697281463 0.956 2.34896522666e-38
-0.0356070653005 -0.0462891848906 0.962 2.34867683944e-38
-0.0338267120354 -0.0462891848906 0.962 1.09470963448e-38
-0.0319464221007 -0.0461448319232 0.959 1.20390595745e-38
-0.0300772362403 -0.0460004789557 0.956 1.30514262487e-38
-0.0282487653195 -0.0459042436441 0.954 1.15712725159e-38
-0.0263999369289 -0.0457598906767 0.951 1.14794370197e-38
-0.0245622126127 -0.0456155377093 0.948 1.28569792712e-38
-0.0228077688546 -0.0456155377093 0.948 1.68206262464e-38
-0.0210533250966 -0.0456155377093 0.948 1.6089256348e-38
-0.019258166399 -0.0455193023976 0.946 1.31357045423e-38
-0.0175074239991 -0.0455193023976 0.946 1.70921964875e-38
-0.0157566815992 -0.0455193023976 0.946 1.47902344547e-38
-0.0139615229016 -0.0453749494302 0.943 1.80198953072e-38
-0.0121774682784 -0.0452305964628 0.94 1.44303697986e-38
-0.0104378299529 -0.0452305964628 0.94 1.59940843602e-38
-0.00869819162745 -0.0452305964628 0.94 1.56159804033e-38
-0.00695855330196 -0.0452305964628 0.94 1.94936212839e-38
-0.00521891497647 -0.0452305964628 0.94 1.69167749392e-38
-0.0034718739347 -0.0451343611511 0.938 1.97708892046e-38
-0.00173593696735 -0.0451343611511 0.938 1.57157276306e-38
0.0 -0.0451343611511 0.938 1.70024965702e-38
0.00173593696735 -0.0451343611511 0.938 1.64468088615e-38
0.0034718739347 -0.0451343611511 0.938 1.71836410213e-38
0.00520781090205 -0.0451343611511 0.938 1.96804353887e-38
0.00694374786941 -0.0451343611511 0.938 1.72855476496e-38
0.00869819162745 -0.0452305964628 0.94 1.60712202354e-38
0.0104156218041 -0.0451343611511 0.938 2.22501295061e-38
0.0121515587715 -0.0451343611511 0.938 1.74660334905e-38
0.0138874957388 -0.0451343611511 0.938 1.66222248046e-38
0.0156234327062 -0.0451343611511 0.938 1.76324194662e-38
0.017451903627 -0.0453749494302 0.943 1.76324152623e-38
0.0191970939897 -0.0453749494302 0.943 1.744874427e-38
0.0210089087989 -0.0455193023976 0.946 1.7999757247e-38
0.0227596511988 -0.0455193023976 0.946 1.85507702239e-38
0.0245622126127 -0.0456155377093 0.948 2.09759035891e-38
0.0263166563707 -0.0456155377093 0.948 2.34846103947e-38
0.0282487653195 -0.0459042436441 0.954 1.57351202001e-38
0.0300143131519 -0.0459042436441 0.954 2.28243984324e-38
0.0317798609844 -0.0459042436441 0.954 2.12722852208e-38
0.0336157346215 -0.0460004789557 0.956 1.3980160628e-38
0.0354960245563 -0.0461448319232 0.959 2.34889277953e-38
-0.0356810924633 -0.0446013655791 0.964 2.34892865277e-38
-0.0338970378401 -0.0446013655791 0.964 1.0394271489e-38
-0.0320463587704 -0.0445088316256 0.962 1.29577732684e-38
-0.0301716208728 -0.0443700306954 0.959 1.28627414105e-38
-0.0283079870497 -0.0442312297651 0.956 1.18471377368e-38
-0.026483217487 -0.0441386958117 0.954 1.2214120989e-38
-0.0245622126127 -0.0438610939512 0.948 1.20304499967e-38
-0.0228077688546 -0.0438610939512 0.948 1.2214120989e-38
-0.0210533250966 -0.0438610939512 0.948 1.24896274775e-38
-0.0192988813385 -0.0438610939512 0.948 1.48823768352e-38
-0.0175074239991 -0.0437685599977 0.946 1.80223714016e-38
-0.0157566815992 -0.0437685599977 0.946 1.70125256633e-38
-0.0139615229016 -0.0436297590675 0.943 1.27697974873e-38
-0.0122163325389 -0.0436297590675 0.943 1.58018037901e-38
-0.0104378299529 -0.0434909581373 0.94 1.72808659114e-38
-0.00869819162745 -0.0434909581373 0.94 1.83883204955e-38
-0.00695855330196 -0.0434909581373 0.94 1.77505152956e-38
-0.00521891497647 -0.0434909581373 0.94 1.83915084495e-38
-0.00347927665098 -0.0434909581373 0.94 1.48838075609e-38
-0.00173963832549 -0.0434909581373 0.94 2.00438383234e-38
0.0 -0.0434909581373 0.94 1.49792303811e-38
0.00173963832549 -0.0434909581373 0.94 1.97593705312e-38
0.00347927665098 -0.0434909581373 0.94 1.5440201524e-38
0.00521891497647 -0.0434909581373 0.94 1.72744003203e-38
0.00695855330196 -0.0434909581373 0.94 1.82063871133e-38
0.00869819162745 -0.0434909581373 0.94 1.80191287969e-38
0.0104378299529 -0.0434909581373 0.94 2.04144187088e-38
0.0121774682784 -0.0434909581373 0.94 1.91301636987e-38
0.0139171066039 -0.0434909581373 0.94 2.13421427519e-38
0.0157067132643 -0.0436297590675 0.943 1.63553278939e-38
0.017451903627 -0.0436297590675 0.943 1.73569087739e-38
0.019258166399 -0.0437685599977 0.946 1.78160862547e-38
0.0210089087989 -0.0437685599977 0.946 1.82752637354e-38
0.0227596511988 -0.0437685599977 0.946 1.88266466552e-38
0.0245622126127 -0.0438610939512 0.948 1.73877597609e-38
0.0263999369289 -0.0439998948814 0.951 1.41659840148e-38
0.0282487653195 -0.0441386958117 0.954 2.29094460388e-38
0.0300143131519 -0.0441386958117 0.954 1.98720069018e-38
0.0318464854309 -0.0442312297651 0.956 1.24168047989e-38
0.0337212233285 -0.0443700306954 0.959 1.66541898239e-38
0.0356070653005 -0.0445088316256 0.962 2.34935927179e-38
-0.0356810924633 -0.0428173109559 0.964 2.34896578718e-38
-0.0338970378401 -0.0428173109559 0.964 1.06690647165e-38
-0.0320463587704 -0.0427284783606 0.962 1.28637853778e-38
-0.0301716208728 -0.0425952294675 0.959 1.14808831598e-38
-0.0283079870497 -0.0424619805745 0.956 1.32293337004e-38
-0.026483217487 -0.0423731479792 0.954 1.2214120989e-38
-0.0246399411336 -0.0422398990862 0.951 1.20304499967e-38
-0.0228799453383 -0.0422398990862 0.951 1.23977919813e-38
-0.0210533250966 -0.0421066501932 0.948 1.20304499967e-38
-0.0192988813385 -0.0421066501932 0.948 1.31324759506e-38
-0.0175074239991 -0.0420178175978 0.946 1.32243114468e-38
-0.0157566815992 -0.0420178175978 0.946 1.31324759506e-38
-0.0140059391993 -0.0420178175978 0.946 1.54283913805e-38
-0.0122551967994 -0.0420178175978 0.946 1.91218918338e-38
-0.0105044543995 -0.0420178175978 0.946 1.8669949257e-38
-0.0087259518135 -0.0418845687048 0.943 1.76593342058e-38
-0.0069807614508 -0.0418845687048 0.943 1.61784728173e-38
-0.0052355710881 -0.0418845687048 0.943 1.68058957969e-38
-0.00347927665098 -0.0417513198118 0.94 1.44246300801e-38
-0.00173963832549 -0.0417513198118 0.94 1.7733582005e-38
0.0 -0.0418845687048 0.943 1.5703869843e-38
0.00173963832549 -0.0417513198118 0.94 1.78171624519e-38
0.00347927665098 -0.0417513198118 0.94 1.69895667892e-38
0.00521891497647 -0.0417513198118 0.94 1.78221847056e-38
0.00695855330196 -0.0417513198118 0.94 1.47855148814e-38
0.00869819162745 -0.0417513198118 0.94 1.59840398528e-38
0.0104378299529 -0.0417513198118 0.94 1.93855587516e-38
0.0121774682784 -0.0417513198118 0.94 1.66222248046e-38
0.0139615229016 -0.0418845687048 0.943 1.68977312931e-38
0.0157067132643 -0.0418845687048 0.943 1.72650732777e-38
0.0175074239991 -0.0420178175978 0.946 1.75405797662e-38
0.019258166399 -0.0420178175978 0.946 1.76324152623e-38
0.0210089087989 -0.0420178175978 0.946 1.84589347278e-38
0.0228077688546 -0.0421066501932 0.948 1.75405797662e-38
0.0245622126127 -0.0421066501932 0.948 1.69271473504e-38
0.0263999369289 -0.0422398990862 0.951 1.33226041262e-38
0.0283079870497 -0.0424619805745 0.956 2.21740488086e-38
0.0300772362403 -0.0424619805745 0.956 2.06070243801e-38
0.0318464854309 -0.0424619805745 0.956 1.19569098533e-38
0.0338267120354 -0.0427284783606 0.962 1.61978709919e-38
-0.0375817398678 -0.0411609531886 0.967 2.28363935472e-38
-0.0356810924633 -0.0410332563327 0.964 2.34856907959e-38
-0.0338970378401 -0.0410332563327 0.964 9.37726511551e-39
-0.0320463587704 -0.0409481250955 0.962 1.28645028427e-38
-0.0301716208728 -0.0408204282397 0.959 1.10249230602e-38
-0.0283079870497 -0.0406927313839 0.956 1.28569694621e-38
-0.0265387378591 -0.0406927313839 0.956 1.23059564852e-38
-0.0246399411336 -0.0404799032909 0.951 1.29488049583e-38
-0.0228799453383 -0.0404799032909 0.951 1.26732984698e-38
-0.0211199495431 -0.0404799032909 0.951 1.20304499967e-38
-0.0192988813385 -0.0403522064351 0.948 1.31324759506e-38
-0.0175444375805 -0.0403522064351 0.948 1.24896274775e-38
-0.0157899938224 -0.0403522064351 0.948 1.19386145005e-38
-0.0140059391993 -0.0402670751979 0.946 1.43263374006e-38
-0.0122551967994 -0.0402670751979 0.946 1.36834889275e-38
-0.0105044543995 -0.0402670751979 0.946 1.31324759506e-38
-0.00875371199954 -0.0402670751979 0.946 1.41426664083e-38
-0.0069807614508 -0.0401393783421 0.943 1.48773503776e-38
-0.0052355710881 -0.0401393783421 0.943 1.57957053392e-38
-0.0034903807254 -0.0401393783421 0.943 1.66222248046e-38
-0.0017451903627 -0.0401393783421 0.943 1.71782782521e-38
0.0 -0.0401393783421 0.943 1.83764360833e-38
0.0017451903627 -0.0401393783421 0.943 1.69989288643e-38
0.0034903807254 -0.0401393783421 0.943 1.92058155989e-38
0.00521891497647 -0.0400116814863 0.94 1.76435359669e-38
0.00695855330196 -0.0400116814863 0.94 1.76413835725e-38
0.0087259518135 -0.0401393783421 0.943 1.625488282e-38
0.0104711421762 -0.0401393783421 0.943 1.66222248046e-38
0.0122163325389 -0.0401393783421 0.943 1.63467183161e-38
0.0139615229016 -0.0401393783421 0.943 1.63467183161e-38
0.0157566815992 -0.0402670751979 0.946 1.58875408353e-38
0.0175074239991 -0.0402670751979 0.946 1.76324152623e-38
0.019258166399 -0.0402670751979 0.946 1.78160862547e-38
