# .PCD v0.7 - Point Cloud Data file format
VERSION 0.7
FIELDS x y z rgb
SIZE 4 4 4 4
TYPE F F F F
COUNT 1 1 1 1
WIDTH 857
HEIGHT 1
VIEWPOINT 0 0 0 1 0 0 0
POINTS 857
DATA ascii
-0.0132915770784 -0.124054719398 0.798 5.69738808586e-39
-0.0118147351808 -0.124054719398 0.798 6.52534248091e-39
-0.0103378932832 -0.124054719398 0.798 6.98559615892e-39
-0.00883884323675 -0.123743805314 0.796 6.89304319795e-39
-0.00736570269729 -0.123743805314 0.796 7.44154504805e-39
-0.00587775672528 -0.123432891231 0.794 7.71669280412e-39
-0.00439721346954 -0.123121977147 0.792 6.70829600842e-39
-0.00292407293008 -0.122811063063 0.79 3.67341984632e-39
-0.00146203646504 -0.122811063063 0.79 0.0
0.0 -0.122811063063 0.79 1.67673600891e-38
0.00146203646504 -0.122811063063 0.79 1.65822233386e-38
0.00292407293008 -0.122811063063 0.79 1.22497335882e-38
0.00438610939512 -0.122811063063 0.79 3.58158435016e-39
0.00584074314388 -0.122655606022 0.789 3.489748854e-39
0.00730092892985 -0.122655606022 0.789 3.67341984632e-39
0.00876111471582 -0.122655606022 0.789 3.30607786169e-39
0.0102213005018 -0.122655606022 0.789 2.93873587706e-39
0.0116814862878 -0.122655606022 0.789 7.17325104277e-39
0.0131416720737 -0.122655606022 0.789 1.75928075612e-38
0.0146203646504 -0.122811063063 0.79 1.83321648609e-38
0.0160824011154 -0.122811063063 0.79 2.09161255979e-38
0.0175888538782 -0.123121977147 0.792 1.64010606706e-38
0.0190545917013 -0.123121977147 0.792 3.94892633479e-39
0.0205721485385 -0.123432891231 0.794 1.05657609937e-38
0.0220415877198 -0.123432891231 0.794 1.24917798719e-38
0.0235110269011 -0.123432891231 0.794 1.34079824391e-38
0.0250433891708 -0.123743805314 0.796 1.34079824391e-38
0.0265165297102 -0.123743805314 0.796 1.36834889275e-38
0.0279896702497 -0.123743805314 0.796 1.38671599199e-38
0.0295368379519 -0.124054719398 0.798 1.38671599199e-38
0.0310136798495 -0.124054719398 0.798 1.37753244237e-38
0.0325719516262 -0.124365633482 0.8 1.4510008393e-38
0.0341376261192 -0.124676547566 0.802 1.48773503776e-38
0.035621870733 -0.124676547566 0.802 1.34079824391e-38
0.0372449162771 -0.125142918691 0.805 2.34656157941e-38
0.0387347129282 -0.125142918691 0.805 1.56569697847e-38
0.0402245095793 -0.125142918691 0.805 1.94383624803e-38
0.0418179442583 -0.125453832775 0.807 1.91639363929e-38
-0.0319075578402 -0.126110823845 0.821 2.34907256612e-38
-0.030388150324 -0.126110823845 0.821 2.3394955319e-38
-0.0287984170032 -0.125803611119 0.819 2.34893047446e-38
-0.0272827108451 -0.125803611119 0.819 2.34965130239e-38
-0.025767004687 -0.125803611119 0.819 9.38194825498e-39
-0.0241328550685 -0.125189185668 0.815 1.44393619309e-38
-0.0226245516267 -0.125189185668 0.815 1.03003046179e-38
-0.021064429171 -0.124881972942 0.813 3.12240686937e-39
-0.0195598270874 -0.124881972942 0.813 1.83314614091e-38
-0.0179219761107 -0.123960334766 0.807 1.52886146613e-38
-0.0163877631619 -0.12365312204 0.805 1.16976738413e-38
-0.0148609529295 -0.123345909315 0.803 2.93873587706e-39
-0.0133748576365 -0.123345909315 0.803 1.28569694621e-39
-0.0118443460459 -0.122885090226 0.8 2.93873587706e-39
-0.0103378932832 -0.122577877501 0.798 4.86800296508e-39
-0.00886105138558 -0.122577877501 0.798 4.77544580022e-39
-0.00738420948799 -0.122577877501 0.798 4.68361030406e-39
-0.00589256215783 -0.122270664775 0.796 3.94892633479e-39
-0.00440831754396 -0.121963452049 0.794 1.744874427e-39
-0.00293147564636 -0.121656239324 0.792 3.67341984632e-40
-0.00146573782318 -0.121656239324 0.792 1.5473301595e-38
0.0 -0.121963452049 0.794 1.60294573373e-38
0.00146573782318 -0.121656239324 0.792 1.70460194992e-38
0.00293147564636 -0.121656239324 0.792 1.61201535778e-38
0.00439721346954 -0.121656239324 0.792 1.60268957637e-38
0.00584814586016 -0.121349026598 0.79 1.54744310416e-38
0.0073101823252 -0.121349026598 0.79 1.51992734764e-38
0.00877221879024 -0.121349026598 0.79 1.50156080893e-38
0.0102342552553 -0.121349026598 0.79 1.64911067086e-38
0.0116962917203 -0.121349026598 0.79 1.80584071929e-38
0.0131583281854 -0.121349026598 0.79 1.84235995857e-38
0.0146203646504 -0.121349026598 0.79 2.06366674478e-38
0.016123116055 -0.121656239324 0.792 2.09168570757e-38
0.0176332701758 -0.121963452049 0.794 4.5917748079e-40
0.0191027093571 -0.121963452049 0.794 5.33078038163e-39
0.0205721485385 -0.121963452049 0.794 1.19443584229e-38
0.0220415877198 -0.121963452049 0.794 1.28576869269e-38
0.0235110269011 -0.121963452049 0.794 1.33161469429e-38
0.0250433891708 -0.122270664775 0.796 1.37753244237e-38
0.0265165297102 -0.122270664775 0.796 1.3958995416e-38
0.0280599960544 -0.122577877501 0.798 1.44181728968e-38
0.0295368379519 -0.122577877501 0.798 1.37753244237e-38
0.0310136798495 -0.122577877501 0.798 1.36834889275e-38
0.0325719516262 -0.122885090226 0.8 1.40508309122e-38
0.0341376261192 -0.123192302952 0.802 1.49691858738e-38
0.0356662870307 -0.123345909315 0.803 1.31324759506e-38
0.0372449162771 -0.12365312204 0.805 2.34680904872e-38
0.0387347129282 -0.12365312204 0.805 1.84250036867e-38
0.0402245095793 -0.12365312204 0.805 1.77795796271e-38
0.0419215822862 -0.124267547491 0.809 1.93451803363e-38
-0.0319852863611 -0.124894927696 0.823 2.34882299487e-38
-0.030388150324 -0.124591416328 0.821 2.34914683494e-38
-0.0287984170032 -0.124287904961 0.819 2.34893089485e-38
-0.0272827108451 -0.124287904961 0.819 2.349650882e-38
-0.025767004687 -0.124287904961 0.819 9.19936467027e-39
-0.0241920767987 -0.123984393594 0.817 1.3881888968e-38
-0.0226800719988 -0.123984393594 0.817 1.21423843167e-38
-0.0211162481849 -0.123680882226 0.815 6.3366492349e-39
-0.0195598270874 -0.123377370859 0.813 8.371794231e-39
-0.018010808706 -0.123073859491 0.811 1.62131101127e-38
-0.0164284781015 -0.122466836756 0.807 1.44613370934e-38
-0.0148979665109 -0.122163325389 0.805 1.47379197791e-38
-0.0133748576365 -0.121859814022 0.803 1.19724054117e-38
-0.0118887623436 -0.121859814022 0.803 6.81053474437e-39
-0.0103897122971 -0.121708058338 0.802 3.39791475914e-39
-0.00890546768326 -0.121708058338 0.802 3.03057137321e-39
-0.00740271627868 -0.12140454697 0.8 1.744874427e-39
-0.00592217302295 -0.12140454697 0.8 2.38772290011e-39
-0.00443052569279 -0.121101035603 0.798 9.29125201447e-39
-0.00295368379519 -0.121101035603 0.798 1.51078163308e-38
-0.0014768418976 -0.121101035603 0.798 1.63048979648e-38
0.0 -0.121101035603 0.798 1.70421294946e-38
0.00147314053946 -0.120797524236 0.796 1.78726090295e-38
0.00294628107892 -0.120797524236 0.796 1.76849597509e-38
0.00441942161837 -0.120797524236 0.796 1.73176191675e-38
0.00587775672528 -0.120494012868 0.794 1.8055187009e-38
0.00734719590659 -0.120494012868 0.794 1.72272242062e-38
0.00879442693908 -0.120190501501 0.792 1.78725782009e-38
0.0102601647623 -0.120190501501 0.792 1.82410033893e-38
0.0117259025854 -0.120190501501 0.792 1.87952757865e-38
0.0131916404086 -0.120190501501 0.792 2.01782102344e-38
0.0146573782318 -0.120190501501 0.792 2.09143431463e-38
0.016123116055 -0.120190501501 0.792 1.744874427e-39
0.0176332701758 -0.120494012868 0.794 3.67341984632e-39
0.0191027093571 -0.120494012868 0.794 1.07487047122e-38
0.0205721485385 -0.120494012868 0.794 1.22162733835e-38
0.0220971080919 -0.120797524236 0.796 1.33161469429e-38
0.0235702486313 -0.120797524236 0.796 1.3683495934e-38
0.0250433891708 -0.120797524236 0.796 1.37753244237e-38
0.0265831541568 -0.121101035603 0.798 1.40508589381e-38
0.0280599960544 -0.121101035603 0.798 1.42345019045e-38
0.0295368379519 -0.121101035603 0.798 1.44181728968e-38
0.0310914083705 -0.12140454697 0.8 1.42345019045e-38
0.0326533815053 -0.121708058338 0.802 1.38671711302e-38
0.0341801917378 -0.121859814022 0.803 1.48773503776e-38
0.035755119626 -0.122163325389 0.805 1.34998179352e-38
0.0373374502306 -0.122466836756 0.807 2.217701816e-38
0.0388309482398 -0.122466836756 0.807 1.79621730209e-38
0.0403244462491 -0.122466836756 0.807 1.87908967288e-38
0.0420252203141 -0.123073859491 0.811 2.07298776177e-38
-0.0319852863611 -0.123371818821 0.823 2.34885956876e-38
-0.0304621774868 -0.123371818821 0.823 2.3394232249e-38
-0.0288687428078 -0.123072008812 0.821 2.34889474135e-38
-0.0273493352916 -0.123072008812 0.821 2.34957927565e-38
-0.0258299277754 -0.123072008812 0.821 1.10432422351e-38
-0.0241920767987 -0.122472388794 0.817 1.2495367196e-38
-0.0226800719988 -0.122472388794 0.817 1.32483815505e-38
-0.0211162481849 -0.122172578784 0.815 1.15859805446e-38
-0.0196079447432 -0.122172578784 0.815 4.68361030406e-39
-0.018010808706 -0.121572958766 0.811 1.22443441943e-38
-0.0164284781015 -0.120973338747 0.807 1.61216431581e-38
-0.0148979665109 -0.120673528738 0.805 1.5843936631e-38
-0.0133748576365 -0.120373718729 0.803 1.63049119777e-38
-0.0118887623436 -0.120373718729 0.803 1.2711803349e-38
-0.0104026670506 -0.120373718729 0.803 1.26253712597e-38
-0.00890546768326 -0.120223813724 0.802 1.49263187524e-38
-0.00742122306938 -0.120223813724 0.802 1.5474428239e-38
-0.0059369784555 -0.120223813724 0.802 1.60276048207e-38
-0.00444162976721 -0.119924003715 0.8 1.60276020181e-38
-0.00296108651147 -0.119924003715 0.8 1.56588419195e-38
-0.00148054325574 -0.119924003715 0.8 1.74101889441e-38
0.0 -0.119624193705 0.798 1.65818519945e-38
0.0014768418976 -0.119624193705 0.798 1.72250760156e-38
0.00295368379519 -0.119624193705 0.798 1.82374300782e-38
0.00443052569279 -0.119624193705 0.798 1.85175972854e-38
0.00589256215783 -0.119324383696 0.796 1.80566373529e-38
0.00736570269729 -0.119324383696 0.796 1.88856833595e-38
0.00881663508791 -0.119024573687 0.794 1.83332186373e-38
0.0102860742692 -0.119024573687 0.794 1.88867427411e-38
0.0117555134506 -0.119024573687 0.794 2.01782228461e-38
0.0132249526319 -0.119024573687 0.794 1.92594657119e-38
0.0147314053946 -0.119324383696 0.796 1.744874427e-39
0.016204545934 -0.119324383696 0.796 4.5917748079e-39
0.0176776864735 -0.119324383696 0.796 9.55483765691e-39
0.019150827013 -0.119324383696 0.796 1.19386145005e-38
0.0206757865664 -0.119624193705 0.798 1.31324759506e-38
0.022152628464 -0.119624193705 0.798 1.34079824391e-38
0.0236294703616 -0.119624193705 0.798 1.36834889275e-38
0.0251063122592 -0.119624193705 0.798 1.35916534314e-38
0.0265831541568 -0.119624193705 0.798 1.37753244237e-38
0.028130321859 -0.119924003715 0.8 1.40508309122e-38
0.0296108651147 -0.119924003715 0.8 1.38671599199e-38
0.0311691368914 -0.120223813724 0.802 1.35916534314e-38
0.0327755263239 -0.120673528738 0.805 1.40508309122e-38
0.034265322975 -0.120673528738 0.805 1.46940381177e-38
0.0358439522214 -0.120973338747 0.807 1.31324759506e-38
0.0374299841841 -0.121273148756 0.809 2.34652220292e-38
0.0390234188631 -0.121572958766 0.811 2.27578129332e-38
0.0406242562583 -0.121872768775 0.813 1.96192140601e-38
0.0422324963699 -0.122172578784 0.815 1.96203224872e-38
-0.0305362046496 -0.122144818598 0.825 2.34889319992e-38
-0.0289390686124 -0.121848709947 0.823 2.28428815591e-38
-0.0274159597381 -0.121848709947 0.823 2.34950752917e-38
-0.0258928508638 -0.121848709947 0.823 1.1688629861e-38
-0.024251298529 -0.121256492645 0.819 1.25864866286e-38
-0.0227355923709 -0.121256492645 0.819 1.33398443012e-38
-0.0212198862128 -0.121256492645 0.819 1.16817620972e-38
-0.019656062399 -0.120960383994 0.817 1.16713854821e-38
-0.0180996413014 -0.120664275343 0.815 4.22443282327e-39
-0.0165099079805 -0.12007205804 0.811 1.03075367192e-38
-0.0148979665109 -0.119183732087 0.805 1.63985747671e-38
-0.0134081698598 -0.119183732087 0.805 1.86101558515e-38
-0.0118887623436 -0.118887623436 0.803 1.01019045774e-39
-0.0104026670506 -0.118887623436 0.803 0.0
-0.00891657175768 -0.118887623436 0.803 9.84438375469e-39
-0.00743047646473 -0.118887623436 0.803 1.61209341011e-38
-0.0059369784555 -0.11873956911 0.802 1.68602619734e-38
-0.00445273384163 -0.11873956911 0.802 1.73190470907e-38
-0.00296848922775 -0.11873956911 0.802 1.67648013181e-38
-0.00148424461388 -0.11873956911 0.802 1.81473826389e-38
0.0 -0.118443460459 0.8 1.71325202521e-38
0.00148054325574 -0.118443460459 0.8 1.84246925985e-38
0.00296108651147 -0.118443460459 0.8 1.88863896139e-38
0.00443052569279 -0.118147351808 0.798 1.7599247929e-38
0.00590736759039 -0.118147351808 0.798 1.02250478838e-38
0.00738420948799 -0.118147351808 0.798 1.71386411238e-38
0.00886105138558 -0.118147351808 0.798 2.06428009312e-38
0.0103378932832 -0.118147351808 0.798 1.94420871316e-38
0.0117851243157 -0.117851243157 0.796 1.50174199682e-38
0.0132582648551 -0.117851243157 0.796 1.65303893084e-39
0.0147314053946 -0.117851243157 0.796 4.31626831943e-39
0.016204545934 -0.117851243157 0.796 1.05661085158e-38
0.0176776864735 -0.117851243157 0.796 1.16641842093e-38
0.0191989446688 -0.118147351808 0.798 1.28569694621e-38
0.0206757865664 -0.118147351808 0.798 1.31324787532e-38
0.022152628464 -0.118147351808 0.798 1.31324815558e-38
0.0236294703616 -0.118147351808 0.798 1.40508309122e-38
0.0251692353475 -0.118443460459 0.8 1.38671599199e-38
0.0266497786033 -0.118443460459 0.8 1.38671599199e-38
0.028130321859 -0.118443460459 0.8 1.41426664083e-38
0.0296848922775 -0.11873956911 0.802 1.3958995416e-38
0.0311691368914 -0.11873956911 0.802 1.36834889275e-38
0.0327755263239 -0.119183732087 0.805 1.40508309122e-38
0.0343504542122 -0.119479840738 0.807 1.44181728968e-38
0.0359327848167 -0.119775949389 0.809 1.28569694621e-38
0.0375225181376 -0.12007205804 0.811 2.34695730609e-38
0.0390234188631 -0.12007205804 0.811 2.16536485979e-38
0.0406242562583 -0.120368166691 0.813 1.90667605483e-38
0.0423361343978 -0.120960383994 0.817 2.01745346285e-38
0.0439554785838 -0.121256492645 0.819 1.45502312641e-38
-0.0305362046496 -0.120618008366 0.825 2.34900376237e-38
-0.0290093944171 -0.120618008366 0.825 2.3026531532e-38
-0.0274159597381 -0.120325601073 0.823 2.34950752917e-38
-0.0258928508638 -0.120325601073 0.823 1.39945968048e-38
-0.0243105202592 -0.12003319378 0.821 7.34683969264e-39
-0.022791112743 -0.12003319378 0.821 9.84218231481e-39
-0.0212717052268 -0.12003319378 0.821 1.18715315405e-38
-0.0197041800548 -0.119740786487 0.819 1.17703690017e-38
-0.0180996413014 -0.119155971901 0.815 9.73456259275e-39
-0.0165506229201 -0.118863564608 0.813 4.68361030406e-39
-0.015009007255 -0.118571157315 0.811 3.67341984632e-39
-0.0134747943063 -0.118278750022 0.809 1.64900697477e-38
-0.0119479840738 -0.117986342729 0.807 1.15172062173e-38
-0.0104285765576 -0.117693935436 0.805 3.03057137321e-39
-0.00893877990651 -0.117693935436 0.805 7.43868219529e-39
-0.00743047646473 -0.117401528143 0.803 5.87747175411e-39
-0.00594438117178 -0.117401528143 0.803 1.51845051919e-38
-0.00445273384163 -0.117255324496 0.802 1.72265235569e-38
-0.00296848922775 -0.117255324496 0.802 1.80587771357e-38
-0.00148424461388 -0.117255324496 0.802 1.84250485283e-38
0.0 -0.117255324496 0.802 1.87020011568e-38
0.00148054325574 -0.116962917203 0.8 1.64929213901e-38
0.00296108651147 -0.116962917203 0.8 4.59968233513e-39
0.00443052569279 -0.11667050991 0.798 4.95911679253e-39
0.00590736759039 -0.11667050991 0.798 3.94892633479e-39
0.00738420948799 -0.11667050991 0.798 7.08933708683e-39
0.00886105138558 -0.11667050991 0.798 1.61295310671e-38
0.0103378932832 -0.11667050991 0.798 1.744874427e-39
0.0118147351808 -0.11667050991 0.798 4.5917748079e-40
0.0133248893016 -0.116962917203 0.8 5.87854935263e-39
0.014768418976 -0.11667050991 0.798 1.05610848608e-38
0.0162452608736 -0.11667050991 0.798 1.20326023911e-38
0.0177221027712 -0.11667050991 0.798 1.20311674615e-38
0.0191989446688 -0.11667050991 0.798 1.2765133966e-38
0.0207276055803 -0.116962917203 0.8 1.33161469429e-38
0.0222081488361 -0.116962917203 0.8 1.3775325825e-38
0.0236886920918 -0.116962917203 0.8 1.40508309122e-38
0.0251692353475 -0.116962917203 0.8 1.40508309122e-38
0.0266497786033 -0.116962917203 0.8 1.38671599199e-38
0.0282006476636 -0.117255324496 0.802 1.38671599199e-38
0.0296848922775 -0.117255324496 0.802 1.36834917301e-38
0.0312080011519 -0.117401528143 0.803 1.32243114468e-38
0.032938386082 -0.118278750022 0.809 1.38671599199e-38
0.0344355854494 -0.118278750022 0.809 1.46050724808e-38
0.0359327848167 -0.118278750022 0.809 1.29488049583e-38
0.0375225181376 -0.118571157315 0.811 2.34731617863e-38
0.0391196541747 -0.118863564608 0.813 2.20206108306e-38
0.0409240662676 -0.119740786487 0.819 1.88820119575e-38
0.0424397724257 -0.119740786487 0.819 1.71299460668e-38
0.0439554785838 -0.119740786487 0.819 1.86029307567e-38
-0.0290093944171 -0.119091198133 0.825 2.34903893496e-38
-0.0274825841846 -0.119091198133 0.825 2.34939976932e-38
-0.0259557739521 -0.119091198133 0.825 1.50087683515e-38
-0.0243105202592 -0.118513786264 0.821 4.31626831943e-39
-0.022791112743 -0.118513786264 0.821 4.77544580022e-39
-0.0212717052268 -0.118513786264 0.821 5.6938007618e-39
-0.0197041800548 -0.118225080329 0.819 1.1862238129e-38
-0.0180996413014 -0.117647668459 0.815 1.23195883166e-38
-0.0165506229201 -0.117358962524 0.813 8.63253663885e-39
-0.015009007255 -0.117070256589 0.811 7.07133320417e-39
-0.0134747943063 -0.116781550654 0.809 1.92854541932e-39
-0.0119479840738 -0.11649284472 0.807 7.9983033487e-39
-0.0104544860646 -0.11649284472 0.807 3.58158435016e-39
-0.00893877990651 -0.116204138785 0.805 1.05686154387e-38
-0.00744898325543 -0.116204138785 0.805 1.17549435082e-38
-0.00594438117178 -0.11591543285 0.803 9.36722060812e-39
-0.00445828587884 -0.11591543285 0.803 6.15297824259e-39
-0.00296848922775 -0.115771079882 0.802 1.58335095691e-38
-0.00148424461388 -0.115771079882 0.802 1.46461389336e-38
0.0 -0.115771079882 0.802 3.94892633479e-39
0.00148424461388 -0.115771079882 0.802 4.68361030406e-39
0.00296848922775 -0.115771079882 0.802 7.07133320417e-39
0.00444162976721 -0.115482373947 0.8 1.35988561055e-38
0.00592217302295 -0.115482373947 0.8 1.12039305313e-38
0.00738420948799 -0.115193668013 0.798 3.94892633479e-39
0.00886105138558 -0.115193668013 0.798 0.0
0.0103638027902 -0.115482373947 0.8 6.62151499582e-39
0.0118443460459 -0.115482373947 0.8 5.96930725027e-39
0.0133248893016 -0.115482373947 0.8 5.32645877716e-39
0.0148054325574 -0.115482373947 0.8 1.25011475522e-38
0.0162859758131 -0.115482373947 0.8 1.18489313988e-38
0.0178109353665 -0.115771079882 0.802 1.33161637585e-38
0.0192951799804 -0.115771079882 0.802 1.32243114468e-38
0.0207794245943 -0.115771079882 0.802 1.34079824391e-38
0.0222636692081 -0.115771079882 0.802 1.39590122316e-38
0.023747913822 -0.115771079882 0.802 1.41433838731e-38
0.0252321584359 -0.115771079882 0.802 1.37764006209e-38
0.0267164030498 -0.115771079882 0.802 1.33161469429e-38
0.0282006476636 -0.115771079882 0.802 1.39629414725e-38
0.0297959330217 -0.116204138785 0.805 1.32243114468e-38
0.0313634581937 -0.11649284472 0.807 1.37753244237e-38
0.032938386082 -0.116781550654 0.809 1.45107258578e-38
0.0344355854494 -0.116781550654 0.809 1.39629414725e-38
0.0360216174121 -0.117070256589 0.811 1.29488049583e-38
0.0377075860445 -0.117647668459 0.815 2.34774833908e-38
0.0394083601096 -0.118225080329 0.819 2.12820158374e-38
0.0409240662676 -0.118225080329 0.819 1.69430394763e-38
0.0424397724257 -0.118225080329 0.819 1.47228263933e-38
0.0439554785838 -0.118225080329 0.819 2.09085053369e-38
-0.0274825841846 -0.117564387901 0.825 2.34932802283e-38
-0.0259557739521 -0.117564387901 0.825 1.56541349579e-38
-0.0243105202592 -0.116994378747 0.821 1.10364109051e-38
-0.022791112743 -0.116994378747 0.821 1.54761125997e-38
-0.0212717052268 -0.116994378747 0.821 9.94011626188e-39
-0.0197041800548 -0.116709374171 0.819 6.89160826832e-39
-0.0181440575991 -0.116424369594 0.817 1.26011974599e-38
-0.0165913378596 -0.116139365017 0.815 7.89785266959e-39
-0.0150460208364 -0.11585436044 0.813 5.78563625795e-39
-0.0135081065295 -0.115569355864 0.811 3.85709083864e-39
-0.0119775949389 -0.115284351287 0.809 3.489748854e-39
-0.0104544860646 -0.11499934671 0.807 1.19386145005e-39
-0.00896098805535 -0.11499934671 0.807 1.0755877959e-38
-0.00746749004612 -0.11499934671 0.807 1.20304499967e-38
-0.00595918660434 -0.114714342134 0.805 1.12957660274e-38
-0.00445828587884 -0.114429337557 0.803 1.09284240428e-38
-0.00297219058589 -0.114429337557 0.803 8.17335915806e-39
-0.00148424461388 -0.114286835268 0.802 2.8469003809e-39
0.0 -0.114286835268 0.802 8.0815236619e-39
0.00148424461388 -0.114286835268 0.802 1.17549435082e-38
0.00296848922775 -0.114286835268 0.802 1.34079824391e-38
0.00444162976721 -0.114001830692 0.8 1.33161469429e-38
0.00592217302295 -0.114001830692 0.8 1.25828979033e-38
0.00740271627868 -0.114001830692 0.8 4.22443282327e-39
0.00888325953442 -0.114001830692 0.8 1.2981931654e-38
0.0103897122971 -0.114286835268 0.802 2.15599087371e-38
0.011873956911 -0.114286835268 0.802 1.178651196e-38
0.0133582015249 -0.114286835268 0.802 2.11221641163e-39
0.0148054325574 -0.114001830692 0.8 1.04803826809e-38
0.0162859758131 -0.114001830692 0.8 1.19404081626e-38
0.0178109353665 -0.114286835268 0.802 1.32246701792e-38
0.0193192388083 -0.114429337557 0.803 1.34079824391e-38
0.0208053341012 -0.114429337557 0.803 1.40508309122e-38
0.0222636692081 -0.114286835268 0.802 1.21240791549e-38
0.023747913822 -0.114286835268 0.802 9.36722060812e-39
0.0252321584359 -0.114286835268 0.802 7.98968816575e-39
0.026749715273 -0.114429337557 0.803 7.62234618111e-39
0.0283061363706 -0.114714342134 0.805 8.35703015038e-39
0.0298699601845 -0.11499934671 0.807 1.27673003734e-38
0.0314411867146 -0.115284351287 0.809 1.34998179352e-38
0.032938386082 -0.115284351287 0.809 1.41426664083e-38
0.0345207166866 -0.115569355864 0.811 1.44203252912e-38
0.0361104500074 -0.11585436044 0.813 1.29488049583e-38
0.0377075860445 -0.116139365017 0.815 2.34742505952e-38
0.0394083601096 -0.116709374171 0.819 1.35299626678e-38
0.0409240662676 -0.116709374171 0.819 1.38062749029e-38
0.0425434104536 -0.116994378747 0.821 2.202055618e-38
0.0440628179698 -0.116994378747 0.821 1.98075303568e-38
0.045582225486 -0.116994378747 0.821 2.34983094885e-38
-0.0260186970405 -0.116318880887 0.827 1.6944498228e-38
-0.0244881854499 -0.116318880887 0.827 1.01137427468e-38
-0.0229576738593 -0.116318880887 0.827 1.18819347803e-38
-0.0214271622687 -0.116318880887 0.827 1.58402063745e-38
-0.0197041800548 -0.115193668013 0.819 3.67341984632e-39
-0.0181440575991 -0.114912364794 0.817 1.09413608302e-38
-0.0165913378596 -0.114631061575 0.815 9.18964806672e-39
-0.0150460208364 -0.114349758357 0.813 8.36642445528e-39
-0.0135081065295 -0.114068455138 0.811 1.17926104109e-38
-0.012007205804 -0.114068455138 0.811 1.63033327144e-38
-0.0104803955715 -0.11378715192 0.809 1.744874427e-39
-0.00898319620418 -0.11378715192 0.809 1.23164017639e-38
-0.00746749004612 -0.113505848701 0.807 1.2214120989e-38
-0.00595918660434 -0.113224545482 0.805 1.14794370197e-38
-0.00446938995326 -0.113224545482 0.805 8.54070114269e-39
-0.00297219058589 -0.112943242264 0.803 6.24481373874e-39
-0.00148609529295 -0.112943242264 0.803 5.32646438236e-39
0.0 -0.112943242264 0.803 6.70399121953e-39
0.00148609529295 -0.112943242264 0.803 7.89785266959e-39
0.00297219058589 -0.112943242264 0.803 9.27574384436e-39
0.00445273384163 -0.112802590655 0.802 1.17574546351e-38
0.0059369784555 -0.112802590655 0.802 1.36917551872e-38
0.00742122306938 -0.112802590655 0.802 4.77544580022e-39
0.00890546768326 -0.112802590655 0.802 2.09957235546e-38
0.0103897122971 -0.112802590655 0.802 2.01751932388e-38
0.0118887623436 -0.112943242264 0.803 9.94226865632e-39
0.0133748576365 -0.112943242264 0.803 1.19386145005e-39
0.0148609529295 -0.112943242264 0.803 8.55002818527e-39
0.0163470482224 -0.112943242264 0.803 7.71418167727e-39
0.017877559813 -0.113224545482 0.805 8.35703015038e-39
0.0193673564641 -0.113224545482 0.805 8.35703015038e-39
0.0208053341012 -0.112943242264 0.803 9.09171411964e-39
0.0222914293942 -0.112943242264 0.803 4.13259732711e-39
0.0237775246871 -0.112943242264 0.803 1.20444811982e-38
0.0252636199801 -0.112943242264 0.803 1.91556196866e-38
0.0268163397195 -0.113224545482 0.805 1.4918245872e-38
0.0283061363706 -0.113224545482 0.805 5.32645877716e-39
0.0299439873473 -0.11378715192 0.809 1.18539788759e-38
0.0315189152356 -0.114068455138 0.811 1.32243114468e-38
0.0330198159611 -0.114068455138 0.811 1.36834889275e-38
0.0346058479238 -0.114349758357 0.813 1.59847671267e-38
0.0361992826028 -0.114631061575 0.815 1.26732984698e-38
0.037800119998 -0.114912364794 0.817 2.34749708626e-38
0.0394083601096 -0.115193668013 0.819 1.34399937012e-38
0.0409240662676 -0.115193668013 0.819 1.87069407339e-38
0.0425434104536 -0.115474971231 0.821 2.00877676289e-38
0.0440628179698 -0.115474971231 0.821 2.07269853377e-38
0.045582225486 -0.115474971231 0.821 2.34950738904e-38
-0.0261445432172 -0.115343573017 0.831 1.84196184967e-38
-0.0245474071801 -0.115065971157 0.829 8.91808763472e-39
-0.0230131942314 -0.115065971157 0.829 8.01157084256e-39
-0.0214789812826 -0.115065971157 0.829 1.52756414401e-38
-0.0199447683338 -0.115065971157 0.829 1.33548928454e-38
-0.0184105553851 -0.115065971157 0.829 7.34683969264e-39
-0.0168763424363 -0.115065971157 0.829 9.84074878648e-39
-0.0150460208364 -0.112845156273 0.813 2.20405190779e-39
-0.0135414187528 -0.112845156273 0.813 1.71352794087e-38
-0.012007205804 -0.112567554413 0.811 1.95258861811e-38
-0.0104803955715 -0.112289952552 0.809 2.47955839627e-39
-0.00898319620418 -0.112289952552 0.809 8.54932893734e-39
-0.00748599683682 -0.112289952552 0.809 8.54070114269e-39
-0.0059739920369 -0.112012350692 0.807 7.25500419648e-39
-0.00446938995326 -0.111734748831 0.805 3.67341984632e-39
-0.00297959330217 -0.111734748831 0.805 3.39934828747e-39
-0.00148609529295 -0.111457146971 0.803 4.50245043859e-39
0.0 -0.111457146971 0.803 3.58158435016e-39
0.00148609529295 -0.111457146971 0.803 2.75506488474e-40
0.00297219058589 -0.111457146971 0.803 1.65303893084e-39
0.00445828587884 -0.111457146971 0.803 4.86728129637e-39
0.00594438117178 -0.111457146971 0.803 8.17335915806e-39
0.00743047646473 -0.111457146971 0.803 1.744874427e-39
0.00891657175768 -0.111457146971 0.803 2.05365600868e-38
0.0104026670506 -0.111457146971 0.803 1.99914760037e-38
0.0118887623436 -0.111457146971 0.803 6.6239938928e-39
0.0133748576365 -0.111457146971 0.803 9.1835496158e-40
0.0148609529295 -0.111457146971 0.803 2.75506488474e-40
0.0163877631619 -0.111734748831 0.805 1.26051883579e-38
0.017877559813 -0.111734748831 0.805 1.74071439225e-38
0.0193673564641 -0.111734748831 0.805 1.45491102253e-38
0.0208571531152 -0.111734748831 0.805 3.12240686937e-39
0.0223469497663 -0.111734748831 0.805 1.14246952952e-38
0.0238367464174 -0.111734748831 0.805 2.28470742441e-38
0.0253265430684 -0.111734748831 0.805 2.05435904012e-38
0.0268163397195 -0.111734748831 0.805 1.40928026038e-38
0.0284467879799 -0.112289952552 0.809 7.4386751888e-39
0.0300180145101 -0.112567554413 0.811 1.19450772891e-38
0.0315189152356 -0.112567554413 0.811 1.30406404544e-38
0.0331012458401 -0.112845156273 0.813 1.41426664083e-38
0.034690979161 -0.113122758134 0.815 1.44181728968e-38
0.0362881151981 -0.113400359994 0.817 1.31324759506e-38
0.0378926539515 -0.113677961855 0.819 2.32804916552e-38
0.0394083601096 -0.113677961855 0.819 1.84284424732e-38
0.0410240029374 -0.113955563715 0.821 1.75095115779e-38
0.0425434104536 -0.113955563715 0.821 2.00820265091e-38
0.0441701573558 -0.114233165575 0.823 1.92508042861e-38
-0.0261445432172 -0.11380565871 0.831 1.97103699265e-38
-0.0246066289103 -0.11380565871 0.831 8.08798084523e-39
-0.0230687146034 -0.11380565871 0.831 1.04993800842e-38
-0.0215308002966 -0.11380565871 0.831 1.14963745143e-38
-0.0199447683338 -0.113531758208 0.829 1.66739130998e-38
-0.0184105553851 -0.113531758208 0.829 2.66322938858e-39
-0.0168763424363 -0.113531758208 0.829 3.94893193999e-39
-0.015194075162 -0.112436156199 0.821 1.92854541932e-39
-0.0135414187528 -0.11134055419 0.813 2.8469003809e-39
-0.0120368166691 -0.11134055419 0.813 1.4533450715e-38
-0.0105063050785 -0.111066653687 0.811 2.66322938858e-39
-0.00900540435302 -0.111066653687 0.811 4.68541097258e-39
-0.00748599683682 -0.110792753185 0.809 7.07133320417e-39
-0.00598879746946 -0.110792753185 0.809 2.29588740395e-39
-0.00448049402767 -0.110518852683 0.807 4.86728129637e-39
-0.00297959330217 -0.11024495218 0.805 2.47955839627e-39
-0.00148979665109 -0.11024495218 0.805 2.75506488474e-40
0.0 -0.11024495218 0.805 3.76525534248e-39
0.00148979665109 -0.11024495218 0.805 1.50122856106e-38
0.00297959330217 -0.11024495218 0.805 1.35360499083e-38
0.00446938995326 -0.11024495218 0.805 1.64862652224e-38
0.00594438117178 -0.109971051678 0.803 1.95290811416e-38
0.00743047646473 -0.109971051678 0.803 1.1020259539e-39
0.00893877990651 -0.11024495218 0.805 2.06316255759e-38
0.0104285765576 -0.11024495218 0.805 1.98064163246e-38
0.0118887623436 -0.109971051678 0.803 2.8469003809e-39
0.0133748576365 -0.109971051678 0.803 0.0
0.0148609529295 -0.109971051678 0.803 1.97196128912e-38
0.0163877631619 -0.11024495218 0.805 2.06347070312e-38
0.0179219761107 -0.110518852683 0.807 1.94339694096e-38
0.0194154741199 -0.110518852683 0.807 2.34909414612e-38
0.0209089721291 -0.110518852683 0.807 2.75506488474e-39
0.0224024701384 -0.110518852683 0.807 2.347901501e-38
0.0238959681476 -0.110518852683 0.807 2.22002250639e-38
0.0254523892452 -0.110792753185 0.809 2.57139389242e-39
0.0269495886125 -0.110792753185 0.809 6.42848473106e-40
0.0284467879799 -0.110792753185 0.809 9.36973593886e-39
0.0300180145101 -0.111066653687 0.811 1.2765133966e-38
0.0315966437565 -0.11134055419 0.813 1.34079824391e-38
0.0331826757192 -0.111614454692 0.815 1.41426664083e-38
0.0347761103982 -0.111888355194 0.817 1.38675186523e-38
0.0363769477935 -0.112162255696 0.819 1.30406404544e-38
0.0378926539515 -0.112162255696 0.819 2.34799875111e-38
0.0395045954212 -0.112436156199 0.821 1.78725515763e-38
0.0411239396072 -0.112710056701 0.823 2.05440612375e-38
0.0426470484815 -0.112710056701 0.823 1.97142935622e-38
0.0441701573558 -0.112710056701 0.823 2.06330324796e-38
-0.0261445432172 -0.112267744403 0.831 2.22911314992e-38
-0.0246066289103 -0.112267744403 0.831 4.77544580022e-39
-0.0230687146034 -0.112267744403 0.831 1.09614274242e-38
-0.0215308002966 -0.112267744403 0.831 1.0758141056e-38
-0.0199447683338 -0.111997545259 0.829 1.59356263921e-38
-0.0183661390874 -0.111727346115 0.827 8.82948073022e-39
-0.0168356274968 -0.111727346115 0.827 9.11503172609e-39
-0.015194075162 -0.110916748683 0.821 1.3541072162e-38
-0.013574730976 -0.11010615125 0.815 1.33524041394e-38
-0.0120368166691 -0.109835952106 0.813 1.67664618568e-38
-0.0105322145855 -0.109835952106 0.813 2.11221641163e-39
-0.00900540435302 -0.109565752962 0.811 1.75981969551e-38
-0.00750450362752 -0.109565752962 0.811 1.57465646046e-38
-0.00598879746946 -0.109295553818 0.809 1.65755895917e-38
-0.00449159810209 -0.109295553818 0.809 1.86067815248e-38
-0.00298699601845 -0.109025354673 0.807 4.04076183095e-39
-0.00149349800922 -0.109025354673 0.807 0.0
0.0 -0.109025354673 0.807 1.83367709289e-38
0.00149349800922 -0.109025354673 0.807 1.82368821705e-38
0.00298699601845 -0.109025354673 0.807 1.49203982664e-38
0.00448049402767 -0.109025354673 0.807 1.86071038235e-38
0.0059739920369 -0.109025354673 0.807 2.01704540474e-38
0.00746749004612 -0.109025354673 0.807 2.20405190779e-39
0.00898319620418 -0.109295553818 0.809 2.08195971532e-38
0.0104285765576 -0.108755155529 0.805 1.9805690452e-38
0.0119183732087 -0.108755155529 0.805 2.20405190779e-39
0.0134081698598 -0.108755155529 0.805 7.55427810821e-39
0.0148979665109 -0.108755155529 0.805 2.07319431317e-38
0.0164284781015 -0.109025354673 0.807 1.60270877416e-38
0.0179219761107 -0.109025354673 0.807 1.07702230514e-38
0.0194154741199 -0.109025354673 0.807 2.22974527565e-38
0.0209089721291 -0.109025354673 0.807 5.69954048031e-39
0.0224024701384 -0.109025354673 0.807 2.29289184822e-38
0.0240144116081 -0.109565752962 0.811 2.22013376949e-38
0.0255153123336 -0.109565752962 0.811 4.22443282327e-39
0.0270162130591 -0.109565752962 0.811 3.21424236553e-39
0.0285171137846 -0.109565752962 0.811 1.15784709861e-38
0.0301660688356 -0.11010615125 0.815 1.30406460596e-38
0.0316743722774 -0.11010615125 0.815 1.33161469429e-38
0.0332641055983 -0.110376350394 0.817 1.42345019045e-38
0.0348612416354 -0.110646549538 0.819 1.46943968501e-38
0.0363769477935 -0.110646549538 0.819 1.34079824391e-38
0.037985187905 -0.110916748683 0.821 2.34814098291e-38
0.0396008307328 -0.111186947827 0.823 1.84257071386e-38
0.0411239396072 -0.111186947827 0.823 1.92547419347e-38
0.0426470484815 -0.111186947827 0.823 1.82370194978e-38
0.0441701573558 -0.111186947827 0.823 2.13713037729e-38
0.0456932662302 -0.111186947827 0.823 2.34990367624e-38
-0.0261445432172 -0.110729830097 0.831 2.25684372549e-38
-0.0246066289103 -0.110729830097 0.831 7.26289630943e-39
-0.0230687146034 -0.110729830097 0.831 1.09599924946e-38
-0.0215308002966 -0.110729830097 0.831 1.44440913132e-38
-0.0199447683338 -0.110463332311 0.829 1.37208195186e-38
-0.0183661390874 -0.110196834524 0.827 1.45380441713e-38
-0.0168356274968 -0.110196834524 0.827 1.51019168643e-38
-0.015194075162 -0.109397341166 0.821 1.4272886272e-38
-0.013574730976 -0.108597847808 0.815 1.6198673936e-38
-0.0120664275343 -0.108597847808 0.815 1.70408977533e-38
-0.0105322145855 -0.108331350022 0.813 2.57139389242e-39
-0.00902761250186 -0.108331350022 0.813 1.69541741939e-38
-0.00752301041821 -0.108331350022 0.813 1.56554409681e-38
-0.00600360290201 -0.108064852236 0.811 1.62993656384e-38
-0.00450270217651 -0.108064852236 0.811 1.71287549631e-38
-0.00299439873473 -0.10779835445 0.809 1.62078888747e-38
-0.00149719936736 -0.10779835445 0.809 4.31626831943e-39
0.0 -0.10779835445 0.809 1.88884257006e-38
0.00149719936736 -0.10779835445 0.809 1.79599379498e-38
0.00299439873473 -0.10779835445 0.809 1.65303893084e-39
0.00449159810209 -0.10779835445 0.809 1.95331617227e-38
0.00598879746946 -0.10779835445 0.809 2.02637791238e-38
0.00750450362752 -0.108064852236 0.811 2.57139389242e-39
0.00900540435302 -0.108064852236 0.811 1.9718616568e-38
0.0104803955715 -0.10779835445 0.809 2.10027664807e-38
0.0119775949389 -0.10779835445 0.809 2.66466431821e-39
0.013441482083 -0.107531856664 0.807 2.15518064294e-38
0.0149349800922 -0.107531856664 0.807 1.99900662974e-38
0.0164284781015 -0.107531856664 0.807 6.34884613673e-39
0.0179663924084 -0.10779835445 0.809 1.04966153223e-38
0.0194635917757 -0.10779835445 0.809 2.18372565318e-38
0.0209607911431 -0.10779835445 0.809 5.976123166e-39
0.0224579905105 -0.10779835445 0.809 9.93335920069e-39
0.0240144116081 -0.108064852236 0.811 2.06376609684e-38
0.0255782354219 -0.108331350022 0.813 1.76823014877e-38
0.0270828375056 -0.108331350022 0.813 5.14278778485e-39
0.0285874395892 -0.108331350022 0.813 1.15791870496e-38
0.0302400959984 -0.108864345594 0.817 1.30406404544e-38
0.0318298293193 -0.10913084338 0.819 1.34079824391e-38
0.0333455354773 -0.10913084338 0.819 1.36834889275e-38
0.0348612416354 -0.10913084338 0.819 1.43263402032e-38
0.0364657803888 -0.109397341166 0.821 1.34079824391e-38
0.037985187905 -0.109397341166 0.821 2.34821174848e-38
0.0396008307328 -0.109663838952 0.823 1.9253672744e-38
0.0411239396072 -0.109663838952 0.823 1.81444763459e-38
0.0426470484815 -0.109663838952 0.823 1.98958359822e-38
0.0441701573558 -0.109663838952 0.823 2.05422591677e-38
0.0456932662302 -0.109663838952 0.823 2.34972515082e-38
-0.0262074663056 -0.109454712218 0.833 2.34932900374e-38
-0.0246066289103 -0.10919191579 0.831 4.86728129637e-39
-0.0230687146034 -0.10919191579 0.831 1.32609021523e-38
-0.0215308002966 -0.10919191579 0.831 1.42721688072e-38
-0.0199928859897 -0.10919191579 0.831 1.2799572277e-38
-0.0184105553851 -0.108929119362 0.829 1.26991734459e-38
-0.0168763424363 -0.108929119362 0.829 1.68554078756e-38
-0.0152681023248 -0.108403526506 0.825 4.22443282327e-39
-0.013574730976 -0.107089544367 0.815 1.66661162751e-38
-0.0120664275343 -0.107089544367 0.815 1.75948198258e-38
-0.0105581240925 -0.107089544367 0.815 3.03057137321e-39
-0.00902761250186 -0.106826747939 0.813 1.75044739099e-38
-0.00752301041821 -0.106826747939 0.813 1.68522129151e-38
-0.00601840833457 -0.106826747939 0.813 3.67341984632e-39
-0.00451380625093 -0.106826747939 0.813 1.76855637105e-38
-0.00300920416729 -0.106826747939 0.813 1.62986481736e-38
-0.00150460208364 -0.106826747939 0.813 1.34238283221e-38
0.0 -0.106826747939 0.813 2.01744771753e-38
0.0015009007255 -0.106563951511 0.811 1.19680305579e-38
0.00300180145101 -0.106563951511 0.811 7.34683969264e-40
0.00450270217651 -0.106563951511 0.811 1.98083094788e-38
0.00600360290201 -0.106563951511 0.811 2.02633839577e-38
0.00750450362752 -0.106563951511 0.811 2.75506488474e-39
0.00900540435302 -0.106563951511 0.811 1.93512591691e-38
0.0105063050785 -0.106563951511 0.811 2.0909839373e-38
0.012007205804 -0.106563951511 0.811 3.0348761621e-39
0.0134747943063 -0.106301155083 0.809 2.00863649292e-38
0.0149719936736 -0.106301155083 0.809 1.98034637887e-38
0.0165099079805 -0.106563951511 0.811 1.12236608137e-38
0.018010808706 -0.106563951511 0.811 2.13651268493e-38
0.0195117094315 -0.106563951511 0.811 2.01762526205e-38
0.021012610157 -0.106563951511 0.811 3.21424236553e-39
0.0225690312546 -0.106826747939 0.813 0.0
0.0241328550685 -0.107089544367 0.815 2.07330964003e-38
0.0256411585103 -0.107089544367 0.815 2.2662310239e-38
0.0271494619521 -0.107089544367 0.815 4.77544580022e-39
0.0287280911985 -0.107352340794 0.817 8.0815236619e-39
0.0303141231612 -0.107615137222 0.819 1.24910624071e-38
0.0318298293193 -0.107615137222 0.819 1.35916534314e-38
0.0333455354773 -0.107615137222 0.819 1.34998179352e-38
0.0349463728726 -0.10787793365 0.821 1.58004038929e-38
0.0364657803888 -0.10787793365 0.821 1.28569694621e-38
0.0380777218585 -0.108140730078 0.823 2.34814140329e-38
0.0396008307328 -0.108140730078 0.823 1.68529738201e-38
0.0412238762769 -0.108403526506 0.825 1.91514340081e-38
0.0427506865094 -0.108403526506 0.825 2.00820040883e-38
0.0442774967419 -0.108403526506 0.825 2.14656700141e-38
0.0458043069744 -0.108403526506 0.825 2.34968787628e-38
-0.0262074663056 -0.107913096553 0.833 2.34965130239e-38
-0.0246066289103 -0.107654001483 0.831 5.14278778485e-39
-0.0230687146034 -0.107654001483 0.831 1.56576129807e-38
-0.0215826193105 -0.107913096553 0.833 1.55607482244e-38
-0.0199928859897 -0.107654001483 0.831 3.76525534248e-39
-0.0184105553851 -0.107394906413 0.829 1.38048694005e-38
-0.0168763424363 -0.107394906413 0.829 1.6211881174e-38
-0.0153051159062 -0.107135811343 0.827 2.20406872337e-39
-0.0137079798691 -0.106617621204 0.823 1.44617602855e-38
-0.0120960383994 -0.105840335994 0.817 1.71330989883e-38
-0.0105840335994 -0.105840335994 0.817 3.58158435016e-39
-0.00907202879953 -0.105840335994 0.817 1.75984477876e-38
-0.00754151720891 -0.105581240925 0.815 1.6945089576e-38
-0.00603321376713 -0.105581240925 0.815 1.65303893084e-39
-0.00452491032535 -0.105581240925 0.815 1.73222098213e-38
-0.00301660688356 -0.105581240925 0.815 1.56529298412e-38
-0.00150830344178 -0.105581240925 0.815 1.49911708454e-38
0.0 -0.105581240925 0.815 1.9990041074e-38
0.0015009007255 -0.105063050785 0.811 7.26612490109e-39
0.00300180145101 -0.105063050785 0.811 2.75506488474e-40
0.00450270217651 -0.105063050785 0.811 1.92558209346e-38
0.00600360290201 -0.105063050785 0.811 2.0077903889e-38
0.00750450362752 -0.105063050785 0.811 3.67341984632e-39
0.00900540435302 -0.105063050785 0.811 1.95353169198e-38
0.0105063050785 -0.105063050785 0.811 2.03559747537e-38
0.012007205804 -0.105063050785 0.811 3.03344123247e-39
0.0134747943063 -0.104803955715 0.809 1.98147358335e-38
0.0149719936736 -0.104803955715 0.809 1.94354043392e-38
0.0165099079805 -0.105063050785 0.811 1.60242178823e-38
0.018010808706 -0.105063050785 0.811 8.82949334191e-39
0.0195117094315 -0.105063050785 0.811 4.31626831943e-39
0.021064429171 -0.105322145855 0.813 2.02038091548e-39
0.0226245516267 -0.105581240925 0.815 0.0
0.0241920767987 -0.105840335994 0.817 3.685301456e-39
0.0257040815987 -0.105840335994 0.817 2.22986242421e-38
0.0272160863986 -0.105840335994 0.817 8.55397424175e-39
0.0287984170032 -0.106099431064 0.819 6.70399121953e-39
0.0303141231612 -0.106099431064 0.819 1.20347575882e-38
0.0318298293193 -0.106099431064 0.819 1.34998179352e-38
0.0334269653564 -0.106358526134 0.821 1.46018438891e-38
0.0349463728726 -0.106358526134 0.821 1.51550288787e-38
0.0364657803888 -0.106358526134 0.821 1.28569694621e-38
0.0380777218585 -0.106617621204 0.823 2.34824902302e-38
0.0396970660444 -0.106876716274 0.825 1.89706342763e-38
0.0413238129467 -0.107135811343 0.827 1.87855241504e-38
0.0428543245373 -0.107135811343 0.827 1.86065278898e-38
0.0443848361279 -0.107135811343 0.827 2.30322698492e-38
0.0459153477185 -0.107135811343 0.827 2.34889572226e-38
-0.0262074663056 -0.106371480887 0.833 2.34936347569e-38
-0.0246658506406 -0.106371480887 0.833 7.72386745226e-39
-0.0231242349755 -0.106371480887 0.833 1.53811031625e-38
-0.0215826193105 -0.106371480887 0.833 7.53517700884e-39
-0.0199928859897 -0.106116087176 0.831 2.02038091548e-39
-0.0184105553851 -0.105860693464 0.829 1.26114059192e-38
-0.0168763424363 -0.105860693464 0.829 1.49222129479e-38
-0.0153051159062 -0.105605299753 0.827 2.29588740395e-39
-0.0137412920923 -0.105349906041 0.825 1.63902986984e-38
-0.0121256492645 -0.104583724906 0.819 1.65813839609e-38
-0.0106099431064 -0.104583724906 0.819 2.8469003809e-39
-0.00907202879953 -0.104328331195 0.817 1.8242044554e-38
-0.00754151720891 -0.104072937483 0.815 1.66685223046e-38
-0.00603321376713 -0.104072937483 0.815 1.83670992316e-39
-0.00452491032535 -0.104072937483 0.815 1.77824915253e-38
-0.00301660688356 -0.104072937483 0.815 1.50976120754e-38
-0.00151200479992 -0.104328331195 0.817 9.37622254945e-39
0.0 -0.104072937483 0.815 1.90717379605e-38
0.00150830344178 -0.104072937483 0.815 8.3738905735e-39
0.00301660688356 -0.104072937483 0.815 7.34683969264e-40
0.00451380625093 -0.103817543771 0.813 1.81501964462e-38
0.00600360290201 -0.10356215006 0.811 1.99853579346e-38
0.00750450362752 -0.10356215006 0.811 3.58158435016e-39
0.00900540435302 -0.10356215006 0.811 1.95342183018e-38
0.0105322145855 -0.103817543771 0.813 2.05381631722e-38
0.012007205804 -0.10356215006 0.811 2.93873587706e-39
0.0135081065295 -0.10356215006 0.811 2.10033340066e-38
0.015009007255 -0.10356215006 0.811 2.08169332848e-38
0.0165099079805 -0.10356215006 0.811 2.75506488474e-39
0.0180552250037 -0.103817543771 0.813 0.0
0.0195598270874 -0.103817543771 0.813 1.28796564843e-38
0.021064429171 -0.103817543771 0.813 1.5926681904e-38
0.0226245516267 -0.104072937483 0.815 4.95911679253e-39
0.0241920767987 -0.104328331195 0.817 1.42582749329e-38
0.0257040815987 -0.104328331195 0.817 2.29364168303e-38
0.0272827108451 -0.104583724906 0.819 4.59213354031e-39
0.0287984170032 -0.104583724906 0.819 7.34719842505e-39
0.0303141231612 -0.104583724906 0.819 1.21273077466e-38
0.0319075578402 -0.104839118618 0.821 1.37753244237e-38
0.0334269653564 -0.104839118618 0.821 1.43263374006e-38
0.0350315041098 -0.105094512329 0.823 1.46936793853e-38
0.0365546129841 -0.105094512329 0.823 1.2765133966e-38
0.038170255812 -0.105349906041 0.825 2.34850069622e-38
0.0397933013561 -0.105605299753 0.827 1.79547083039e-38
0.0414237496164 -0.105860693464 0.829 1.88780729075e-38
0.0429579625652 -0.105860693464 0.829 2.19241272275e-38
0.044492175514 -0.105860693464 0.829 2.19244341118e-38
-0.0262074663056 -0.104829865222 0.833 2.34986794313e-38
-0.0246658506406 -0.104829865222 0.833 7.3554492704e-39
-0.0231242349755 -0.104829865222 0.833 1.54714869135e-38
-0.0215826193105 -0.104829865222 0.833 4.31626831943e-39
-0.0199928859897 -0.104578172869 0.831 3.85709083864e-39
-0.0184105553851 -0.104326480515 0.829 1.38048848148e-38
-0.0168763424363 -0.104326480515 0.829 1.43693950986e-38
-0.0153051159062 -0.104074788162 0.827 2.38772290011e-39
-0.0137746043156 -0.104074788162 0.827 1.68516271723e-38
-0.0122144818598 -0.103823095809 0.825 1.7040239143e-38
-0.0106358526134 -0.103319711102 0.821 2.8469003809e-39
-0.0091164450972 -0.103319711102 0.821 1.83335143113e-38
-0.0075785307903 -0.103068018748 0.819 1.56525711088e-38
-0.00606282463224 -0.103068018748 0.819 1.83670992316e-39
-0.00453601439976 -0.102816326395 0.817 1.69519797605e-38
-0.00302400959984 -0.102816326395 0.817 1.65741546621e-38
-0.00151200479992 -0.102816326395 0.817 3.30607786169e-39
0.0 -0.102564634041 0.815 1.88890871135e-38
0.00150830344178 -0.102564634041 0.815 1.31644031348e-38
0.00301660688356 -0.102564634041 0.815 2.75506488474e-39
0.00452491032535 -0.102564634041 0.815 1.85193124747e-38
0.00601840833457 -0.102312941688 0.813 1.99836021076e-38
0.00752301041821 -0.102312941688 0.813 3.39791335785e-39
0.00902761250186 -0.102312941688 0.813 1.96271019692e-38
0.0105322145855 -0.102312941688 0.813 1.99832321648e-38
0.0120368166691 -0.102312941688 0.813 5.32645877716e-39
0.0135081065295 -0.102061249334 0.811 2.13541294589e-38
0.015009007255 -0.102061249334 0.811 1.99842831386e-38
0.0165099079805 -0.102061249334 0.811 1.74039027192e-38
0.0180552250037 -0.102312941688 0.813 1.52852291242e-38
0.0196079447432 -0.102564634041 0.815 2.09069653099e-38
0.0211162481849 -0.102564634041 0.815 1.96173138994e-38
0.0226800719988 -0.102816326395 0.817 1.86100605632e-38
0.024251298529 -0.103068018748 0.819 2.05407387588e-38
0.025767004687 -0.103068018748 0.819 1.68532484746e-38
0.0272827108451 -0.103068018748 0.819 2.38772290011e-39
0.0288687428078 -0.103319711102 0.821 9.09781397186e-39
0.030388150324 -0.103319711102 0.821 1.12039305313e-38
0.0319075578402 -0.103319711102 0.821 1.34998179352e-38
0.0334269653564 -0.103319711102 0.821 1.4510008393e-38
0.0350315041098 -0.103571403455 0.823 1.45103671254e-38
0.0366434455795 -0.103823095809 0.825 1.30406404544e-38
0.0382627897654 -0.104074788162 0.827 2.34842852935e-38
0.0397933013561 -0.104074788162 0.827 1.68498068856e-38
0.0414237496164 -0.104326480515 0.829 1.97953656849e-38
0.0430616005931 -0.104578172869 0.831 2.24747968863e-38
0.0445995149 -0.104578172869 0.831 2.16468158666e-38
-0.026270389394 -0.103536240553 0.835 2.34976060367e-38
-0.0247250723708 -0.103536240553 0.835 8.92170158346e-39
-0.0231797553476 -0.103536240553 0.835 1.62072540865e-38
-0.0215826193105 -0.103288249557 0.833 5.60196526564e-39
-0.0199928859897 -0.103040258562 0.831 5.97111632659e-39
-0.0184105553851 -0.102792267567 0.829 1.43512118497e-38
-0.0168763424363 -0.102792267567 0.829 1.49193234705e-38
-0.0153051159062 -0.102544276571 0.827 3.12240686937e-39
-0.0137746043156 -0.102544276571 0.827 1.7953299999e-38
-0.0122144818598 -0.102296285576 0.825 1.71291431228e-38
-0.0106358526134 -0.101800303585 0.821 5.78563625795e-39
-0.0091164450972 -0.101800303585 0.821 1.8145542734e-38
-0.007597037581 -0.101800303585 0.821 1.58351659039e-38
-0.00606282463224 -0.10155231259 0.819 1.83670992316e-39
-0.00454711847418 -0.10155231259 0.819 1.77814097229e-38
-0.00303141231612 -0.10155231259 0.819 1.77701685066e-38
-0.00151570615806 -0.10155231259 0.819 8.36922705221e-39
0.0 -0.101304321595 0.817 1.79624658922e-38
0.00151200479992 -0.101304321595 0.817 1.76797805517e-38
0.00302400959984 -0.101304321595 0.817 1.59277188649e-38
0.00453601439976 -0.101304321595 0.817 1.73135021526e-38
0.00603321376713 -0.101056330599 0.815 1.93371158637e-38
0.00752301041821 -0.100808339604 0.813 4.13259732711e-39
0.00902761250186 -0.100808339604 0.813 2.09149723293e-38
0.0105322145855 -0.100808339604 0.813 1.85999165637e-38
0.0120368166691 -0.100808339604 0.813 2.09980791373e-38
0.0135414187528 -0.100808339604 0.813 1.36275266721e-38
0.0150460208364 -0.100808339604 0.813 1.6767152697e-38
0.0165506229201 -0.100808339604 0.813 1.78717178037e-38
0.0180996413014 -0.101056330599 0.815 1.86078353013e-38
0.0196079447432 -0.101056330599 0.815 8.00188506758e-39
0.0211680671989 -0.101304321595 0.817 1.65303893084e-39
0.0227355923709 -0.10155231259 0.819 6.06546154829e-39
0.024251298529 -0.10155231259 0.819 7.4386751888e-39
0.025767004687 -0.10155231259 0.819 3.03057137321e-39
0.0272827108451 -0.10155231259 0.819 7.07493734382e-39
0.0288687428078 -0.101800303585 0.821 1.02873762382e-38
0.030388150324 -0.101800303585 0.821 1.09284240428e-38
0.0319075578402 -0.101800303585 0.821 1.31324759506e-38
0.0335083952355 -0.102048294581 0.823 1.51564441901e-38
0.035116635347 -0.102296285576 0.825 1.49734906626e-38
0.0366434455795 -0.102296285576 0.825 1.26732984698e-38
0.0382627897654 -0.102544276571 0.827 2.3486809032e-38
