# .PCD v0.7 - Point Cloud Data file format
VERSION 0.7
FIELDS x y z rgb
SIZE 4 4 4 4
TYPE F F F F
COUNT 1 1 1 1
WIDTH 844
HEIGHT 1
VIEWPOINT 0 0 0 1 0 0 0
POINTS 844
DATA ascii
0.0219027867896 -0.0686287319406 0.789 2.26530098211e-38
0.0233037508453 -0.0684547681081 0.787 2.34813257511e-38
0.0247602352731 -0.0684547681081 0.787 2.33887769941e-38
0.026216719701 -0.0684547681081 0.787 2.32058332757e-38
0.0276732041288 -0.0684547681081 0.787 2.30218175639e-38
0.0291296885566 -0.0684547681081 0.787 2.31136768822e-38
0.0305861729845 -0.0684547681081 0.787 2.21927799652e-38
0.0320426574123 -0.0684547681081 0.787 2.25604512549e-38
0.0334991418401 -0.0684547681081 0.787 2.20983941058e-38
0.0349556262679 -0.0684547681081 0.787 2.11753433931e-38
0.0364121106958 -0.0684547681081 0.787 2.06168446797e-38
0.0378685951236 -0.0684547681081 0.787 1.89580744382e-38
0.0393250795514 -0.0684547681081 0.787 1.84996018105e-38
0.0407815639793 -0.0684547681081 0.787 1.49853288321e-38
0.0423453877931 -0.0686287319406 0.789 1.38671599199e-38
0.0438055735791 -0.0686287319406 0.789 1.5617063607e-38
0.0453231304162 -0.0687157138569 0.79 1.54456049308e-38
0.0467851668813 -0.0687157138569 0.79 1.54459608607e-38
0.0483693481649 -0.0688896776894 0.792 1.48920808271e-38
0.0500867783416 -0.0692376053545 0.796 1.6459755458e-38
0.0516894664159 -0.0694115691871 0.798 1.94032010992e-38
0.0531663083135 -0.0694115691871 0.798 1.86692023649e-38
0.0549170507134 -0.0697594968522 0.802 2.04187921613e-38
-0.00752301041821 -0.0692116958476 0.813 2.23883241594e-38
-0.00600360290201 -0.0690414333731 0.811 1.87807933668e-38
-0.00450270217651 -0.0690414333731 0.811 1.61082187188e-38
-0.00299439873473 -0.0688711708987 0.809 1.74029260141e-38
-0.00148979665109 -0.0685306459499 0.805 1.95236959516e-38
0.0 -0.0683603834755 0.803 1.66652979168e-38
0.00148424461388 -0.0682752522383 0.802 1.67596669606e-38
0.00295368379519 -0.0679347272895 0.798 1.65734708284e-38
0.00439721346954 -0.0674239398663 0.792 1.63901739828e-38
0.00586295129272 -0.0674239398663 0.792 1.57415367457e-38
0.0073101823252 -0.0672536773918 0.79 1.70304622836e-38
0.00877221879024 -0.0672536773918 0.79 1.4172858785e-38
0.0102342552553 -0.0672536773918 0.79 1.40798882371e-38
0.0116814862878 -0.0671685461546 0.789 1.54560305914e-38
0.0131416720737 -0.0671685461546 0.789 1.66685825604e-38
0.0146018578597 -0.0671685461546 0.789 1.30672455071e-38
0.0160620436457 -0.0671685461546 0.789 1.23274804296e-38
0.0175222294316 -0.0671685461546 0.789 1.62864512718e-38
0.0189824152176 -0.0671685461546 0.789 1.68421712103e-38
0.0204426010036 -0.0671685461546 0.789 1.62025247041e-38
0.0219027867896 -0.0671685461546 0.789 1.73956953141e-38
0.0233629725755 -0.0671685461546 0.789 1.82204211174e-38
0.0247602352731 -0.0669982836802 0.787 1.86785308088e-38
0.026216719701 -0.0669982836802 0.787 1.84008831363e-38
0.0276732041288 -0.0669982836802 0.787 1.87703859231e-38
0.0291296885566 -0.0669982836802 0.787 1.83126349642e-38
0.0305861729845 -0.0669982836802 0.787 1.79496131827e-38
0.0320426574123 -0.0669982836802 0.787 1.65684737981e-38
0.0334991418401 -0.0669982836802 0.787 1.54596277246e-38
0.0349556262679 -0.0669982836802 0.787 1.59140870334e-38
0.0364121106958 -0.0669982836802 0.787 1.67355856465e-38
0.0379648304352 -0.0671685461546 0.789 9.8263994902e-39
0.0394250162212 -0.0671685461546 0.789 1.34079824391e-38
0.0408852020072 -0.0671685461546 0.789 1.62613582202e-38
0.0423453877931 -0.0671685461546 0.789 1.46050724808e-38
0.0438610939512 -0.0672536773918 0.79 1.7740812705e-38
0.0454378725186 -0.0674239398663 0.792 1.4341461615e-38
0.0470220538022 -0.0675942023407 0.794 1.34173417115e-38
0.0486136378021 -0.0677644648151 0.796 1.67378263227e-38
0.0502126245183 -0.0679347272895 0.798 1.80267294398e-38
0.0518190139508 -0.0681049897639 0.8 1.8667766034e-38
0.0532995572065 -0.0681049897639 0.8 1.88518237847e-38
-0.00752301041821 -0.0677070937639 0.813 2.27585710357e-38
-0.00600360290201 -0.0675405326476 0.811 1.88726456786e-38
-0.00450270217651 -0.0675405326476 0.811 1.83227369248e-38
-0.00300180145101 -0.0675405326476 0.811 1.38991207352e-38
-0.00149349800922 -0.0672074104151 0.807 1.97967459639e-38
0.0 -0.0670408492988 0.805 1.7035187462e-38
0.00148609529295 -0.0668742881826 0.803 1.72188640595e-38
0.00296848922775 -0.0667910076244 0.802 1.72174781754e-38
0.00444162976721 -0.0666244465082 0.8 1.66689160694e-38
0.00589256215783 -0.0662913242756 0.796 1.63926612876e-38
0.0073286891159 -0.0659582020431 0.792 1.59277749168e-38
0.00877221879024 -0.0657916409268 0.79 2.22870032739e-38
0.0102342552553 -0.0657916409268 0.79 7.35365560837e-39
0.0116814862878 -0.0657083603687 0.789 1.50966199561e-38
0.0131416720737 -0.0657083603687 0.789 1.70431061997e-38
0.0146018578597 -0.0657083603687 0.789 1.93421535316e-38
0.0160620436457 -0.0657083603687 0.789 9.10821581036e-39
0.0175222294316 -0.0657083603687 0.789 1.90556650671e-38
0.0189824152176 -0.0657083603687 0.789 1.93457660791e-38
0.0204426010036 -0.0657083603687 0.789 1.72205904593e-38
0.0219027867896 -0.0657083603687 0.789 1.66592218867e-38
0.0233629725755 -0.0657083603687 0.789 1.7393512091e-38
0.0247602352731 -0.0655417992524 0.787 1.78516343941e-38
0.026216719701 -0.0655417992524 0.787 1.57279133221e-38
0.0276732041288 -0.0655417992524 0.787 1.74782023663e-38
0.0291296885566 -0.0655417992524 0.787 1.92348771277e-38
0.0305861729845 -0.0655417992524 0.787 1.84116829435e-38
0.0320426574123 -0.0655417992524 0.787 2.04470297266e-38
0.0334991418401 -0.0655417992524 0.787 2.06318385733e-38
0.0349556262679 -0.0655417992524 0.787 2.33966578966e-38
0.0365046446493 -0.0657083603687 0.789 2.34920975324e-38
0.0379648304352 -0.0657083603687 0.789 1.15953075872e-38
0.0394749845561 -0.0657916409268 0.79 1.60805682975e-38
0.0409370210211 -0.0657916409268 0.79 1.3778194283e-38
0.0425063968722 -0.0659582020431 0.792 1.68123543815e-38
0.0440831754396 -0.0661247631593 0.794 1.54337443406e-38
0.0456673567232 -0.0662913242756 0.796 1.33226041262e-38
0.0472589407231 -0.0664578853919 0.798 1.65555650366e-38
0.0487357826207 -0.0664578853919 0.798 1.55370774907e-38
0.0502126245183 -0.0664578853919 0.798 1.83004408649e-38
0.0519485614857 -0.0667910076244 0.802 1.86692023649e-38
-0.00752301041821 -0.0662024916803 0.813 2.30376592431e-38
-0.00601840833457 -0.0662024916803 0.813 1.98860717345e-38
-0.00451380625093 -0.0662024916803 0.813 1.74936741027e-38
-0.00300180145101 -0.0660396319221 0.811 1.85096084828e-38
-0.00149719936736 -0.065876772164 0.809 1.30693558626e-38
0.0 -0.0657139124059 0.807 1.91535835999e-38
0.00148979665109 -0.0655510526477 0.805 1.71241502963e-38
0.00297219058589 -0.0653881928896 0.803 1.731071497e-38
0.00445828587884 -0.0653881928896 0.803 1.60253193029e-38
0.0059369784555 -0.0653067630106 0.802 1.72235121665e-38
0.0073286891159 -0.0644924642199 0.792 1.89716179878e-38
0.00877221879024 -0.0643296044618 0.79 2.1365848518e-38
0.0102342552553 -0.0643296044618 0.79 1.82372857445e-38
0.0116962917203 -0.0643296044618 0.79 9.75292941172e-39
0.0131583281854 -0.0643296044618 0.79 1.39909688431e-38
0.0146018578597 -0.0642481745827 0.789 1.40777498557e-38
0.0160620436457 -0.0642481745827 0.789 1.16953939287e-38
0.0175222294316 -0.0642481745827 0.789 1.63026474794e-38
0.0189824152176 -0.0642481745827 0.789 2.07280040817e-38
0.0204426010036 -0.0642481745827 0.789 2.1461641281e-38
0.0219027867896 -0.0642481745827 0.789 2.34881598838e-38
0.0233629725755 -0.0642481745827 0.789 2.23796669374e-38
0.0248231583615 -0.0642481745827 0.789 2.2656629375e-38
0.0262833441475 -0.0642481745827 0.789 2.32104897905e-38
0.0277435299334 -0.0642481745827 0.789 2.29335469711e-38
0.0291296885566 -0.0640853148246 0.787 2.23821682552e-38
0.0305861729845 -0.0640853148246 0.787 2.2197408454e-38
0.0320426574123 -0.0640853148246 0.787 2.26566125594e-38
0.0335842730773 -0.0642481745827 0.789 2.21026526518e-38
0.0350444588633 -0.0642481745827 0.789 1.77788159194e-38
0.0365046446493 -0.0642481745827 0.789 2.34978064224e-38
0.038012948091 -0.0643296044618 0.79 9.75501033994e-39
0.0394749845561 -0.0643296044618 0.79 1.59880139352e-38
0.0411442970769 -0.064655323978 0.794 1.66351587894e-38
0.0426137362582 -0.064655323978 0.794 1.66358594387e-38
0.0441942161837 -0.0648181837362 0.796 1.58979440751e-38
0.0456673567232 -0.0648181837362 0.796 1.61792197094e-38
0.0472589407231 -0.0649810434943 0.798 1.67337905831e-38
0.0487357826207 -0.0649810434943 0.798 1.93095383099e-38
0.0503384706951 -0.0651439032524 0.8 1.90368806612e-38
0.0522724303229 -0.0657139124059 0.807 1.77465131872e-38
0.0537659283321 -0.0657139124059 0.807 2.02358176143e-38
0.0571748791784 -0.0662024916803 0.813 1.68314134419e-38
0.0586794812621 -0.0662024916803 0.813 2.34971926537e-38
-0.00754151720891 -0.0648570479966 0.815 2.35008150102e-38
-0.00601840833457 -0.0646978895966 0.813 2.00697595424e-38
-0.00451380625093 -0.0646978895966 0.813 1.86003523675e-38
-0.00300920416729 -0.0646978895966 0.813 1.70313058653e-38
-0.0015009007255 -0.0645387311966 0.811 1.67546447069e-38
0.0 -0.0645387311966 0.811 1.43540004336e-38
0.00149349800922 -0.0642204143967 0.807 1.7674866198e-38
0.00297959330217 -0.0640612559967 0.805 1.74968508463e-38
0.00446938995326 -0.0640612559967 0.805 1.69469266783e-38
0.00594438117178 -0.0639020975967 0.803 1.95273533406e-38
0.00743047646473 -0.0639020975967 0.803 1.71258851038e-38
0.00891657175768 -0.0639020975967 0.803 2.01640655277e-38
0.0104026670506 -0.0639020975967 0.803 1.86010109778e-38
0.0117555134506 -0.0631858847967 0.794 2.0630377019e-38
0.0131916404086 -0.0630267263967 0.792 2.00779641449e-38
0.0146203646504 -0.0628675679967 0.79 1.9988984495e-38
0.0160824011154 -0.0628675679967 0.79 1.33552487753e-38
0.0175444375805 -0.0628675679967 0.79 1.82327189128e-38
0.0190064740455 -0.0628675679967 0.79 1.20469516874e-38
0.0204426010036 -0.0627879887967 0.789 1.49017441813e-38
0.0219027867896 -0.0627879887967 0.789 1.31468252469e-38
0.0233629725755 -0.0627879887967 0.789 1.62839401449e-38
0.0248231583615 -0.0627879887967 0.789 1.14980911049e-38
0.0262833441475 -0.0627879887967 0.789 1.34341923255e-38
0.0277435299334 -0.0627879887967 0.789 1.2790623585e-38
0.0292037157194 -0.0627879887967 0.789 9.65707639286e-39
0.0306639015054 -0.0627879887967 0.789 1.02970550067e-38
0.0321240872913 -0.0627879887967 0.789 1.70268749595e-38
0.0336268386959 -0.0628675679967 0.79 1.25003894497e-38
0.035088875161 -0.0628675679967 0.79 1.122193021e-38
0.036550911626 -0.0628675679967 0.79 2.31196352032e-38
0.0382054187143 -0.0631858847967 0.794 1.15041895558e-38
0.0396748578956 -0.0631858847967 0.794 1.69992819915e-38
0.0412479351048 -0.0633450431967 0.796 1.73680575044e-38
0.0427210756443 -0.0633450431967 0.796 1.65407953508e-38
0.0443052569279 -0.0635042015967 0.798 1.64496773195e-38
0.0457820988255 -0.0635042015967 0.798 1.65415254273e-38
0.0472589407231 -0.0635042015967 0.798 1.88460406259e-38
0.0488579274393 -0.0636633599967 0.8 1.79262325178e-38
0.0504643168718 -0.0638225183967 0.802 1.8293257809e-38
0.0522724303229 -0.0642204143967 0.807 1.81117406124e-38
0.0540324261181 -0.0645387311966 0.811 1.9774463917e-38
0.0556702770948 -0.0646978895966 0.813 1.76529302719e-38
0.0571748791784 -0.0646978895966 0.813 2.3093548631e-38
0.0586794812621 -0.0646978895966 0.813 2.34986345898e-38
-0.00603321376713 -0.0633487445548 0.815 1.85946420762e-38
-0.00452491032535 -0.0633487445548 0.815 1.94286837118e-38
-0.00300920416729 -0.063193287513 0.813 1.9156030267e-38
-0.00150460208364 -0.063193287513 0.813 1.62029506989e-38
0.0 -0.063193287513 0.813 1.74944153896e-38
0.0015009007255 -0.0630378304711 0.811 1.31601039511e-38
0.00298699601845 -0.0627269163874 0.807 1.60221145334e-38
0.00448049402767 -0.0627269163874 0.807 1.67650647623e-38
0.00595918660434 -0.0625714593456 0.805 1.62958371689e-38
0.00744898325543 -0.0625714593456 0.805 1.85971475979e-38
0.00893877990651 -0.0625714593456 0.805 1.97044900782e-38
0.0104026670506 -0.0624160023037 0.803 1.64798108417e-38
0.0118443460459 -0.0621828167409 0.8 1.90634380697e-38
0.0132582648551 -0.0618719026572 0.796 2.01705549409e-38
0.0146943918132 -0.0617164456154 0.794 2.20126094164e-38
0.0161638309945 -0.0617164456154 0.794 2.17360575593e-38
0.0175888538782 -0.0615609885735 0.792 2.09974191257e-38
0.0190545917013 -0.0615609885735 0.792 2.24714758089e-38
0.0204685105106 -0.0614055315317 0.79 2.09956240624e-38
0.0219305469756 -0.0614055315317 0.79 2.10892658323e-38
0.0233925834406 -0.0614055315317 0.79 2.03542147228e-38
0.0248546199057 -0.0614055315317 0.79 1.89752515547e-38
0.0263166563707 -0.0614055315317 0.79 2.01741394624e-38
0.0277786928358 -0.0614055315317 0.79 1.96223908037e-38
0.0292407293008 -0.0614055315317 0.79 1.99911775271e-38
0.0307027657658 -0.0614055315317 0.79 2.06351007961e-38
0.0321648022309 -0.0614055315317 0.79 2.07247979108e-38
0.0337119699331 -0.0615609885735 0.792 2.2751285685e-38
0.0351777077563 -0.0615609885735 0.792 2.34863353932e-38
0.036735979533 -0.0617164456154 0.794 2.34877927436e-38
0.0383016540259 -0.0618719026572 0.796 1.13183661691e-38
0.0397747945654 -0.0618719026572 0.796 1.69045654257e-38
0.0413515731327 -0.0620273596991 0.798 1.66272526635e-38
0.0428284150303 -0.0620273596991 0.798 1.74573832751e-38
0.0443052569279 -0.0620273596991 0.798 1.72805281985e-38
0.0458968409278 -0.0621828167409 0.8 1.7370928765e-38
0.0473773841836 -0.0621828167409 0.8 1.73687875809e-38
0.0490411446672 -0.0624160023037 0.803 1.8749572437e-38
0.0507789323136 -0.0627269163874 0.807 1.88457113208e-38
0.0524019778577 -0.0628823734293 0.809 1.91287413807e-38
0.0540324261181 -0.0630378304711 0.811 1.95904201793e-38
0.0556702770948 -0.063193287513 0.813 1.81134754199e-38
0.0571748791784 -0.063193287513 0.813 2.34886391278e-38
-0.00301660688356 -0.0618404411131 0.815 1.74921705094e-38
-0.00150830344178 -0.0618404411131 0.815 1.8600720909e-38
0.0 -0.0616886854293 0.813 1.35310598845e-38
0.0015009007255 -0.0615369297456 0.811 1.7862394965e-38
0.00299439873473 -0.0613851740619 0.809 1.28932014352e-38
0.00449159810209 -0.0613851740619 0.809 1.25247832534e-38
0.00598879746946 -0.0613851740619 0.809 1.64788411431e-38
0.00746749004612 -0.0612334183782 0.807 1.91581924705e-38
0.00896098805535 -0.0612334183782 0.807 1.93375698844e-38
0.0104285765576 -0.0610816626945 0.805 1.91542169868e-38
0.0118887623436 -0.0609299070108 0.803 1.71295200721e-38
0.0133748576365 -0.0609299070108 0.803 1.71262438362e-38
0.0147314053946 -0.0603987621178 0.796 1.92439042924e-38
0.016204545934 -0.0603987621178 0.796 1.9614837805e-38
0.0176776864735 -0.0603987621178 0.796 1.99846937191e-38
0.0191027093571 -0.0602470064341 0.794 2.01672899155e-38
0.0205721485385 -0.0602470064341 0.794 2.16413255792e-38
0.0220415877198 -0.0602470064341 0.794 2.18253987442e-38
0.0235110269011 -0.0602470064341 0.794 2.09044597882e-38
0.0249804660824 -0.0602470064341 0.794 2.26558110167e-38
0.0263832808172 -0.0600952507504 0.792 2.16402718027e-38
0.0278490186404 -0.0600952507504 0.792 2.17328387767e-38
0.0293147564636 -0.0600952507504 0.792 2.18246434443e-38
0.0307804942868 -0.0600952507504 0.792 2.1825031604e-38
0.032327661989 -0.0602470064341 0.794 2.13643869637e-38
0.0337971011703 -0.0602470064341 0.794 2.26544013105e-38
0.0352665403517 -0.0602470064341 0.794 2.26544041131e-38
0.0368285134865 -0.0603987621178 0.796 2.34895737939e-38
0.0383978893375 -0.0605505178015 0.798 1.06748002311e-38
0.0398747312351 -0.0605505178015 0.798 1.59847699293e-38
0.0414552111606 -0.0607022734852 0.8 1.77393175196e-38
0.0429357544164 -0.0607022734852 0.8 1.78318872961e-38
0.0444162976721 -0.0607022734852 0.8 1.70035979908e-38
0.0460115830302 -0.0608540291689 0.802 1.75535221588e-38
0.047495827644 -0.0608540291689 0.802 1.8475495273e-38
0.0491632894858 -0.0610816626945 0.805 1.82925221273e-38
0.0509047784904 -0.0613851740619 0.809 1.9029748052e-38
0.0525315253926 -0.0615369297456 0.811 1.84808538383e-38
0.0540324261181 -0.0615369297456 0.811 1.96769181296e-38
0.0556702770948 -0.0616886854293 0.813 2.14339502221e-38
0.0573155307877 -0.0618404411131 0.815 2.34878529994e-38
0.0588238342295 -0.0618404411131 0.815 1.94283754262e-38
0.0604801919968 -0.0619921967968 0.817 2.20037195789e-38
-0.00151570615806 -0.0606282463224 0.819 1.80457520665e-38
0.0 -0.0604801919968 0.817 1.68504150491e-38
0.00150460208364 -0.0601840833457 0.813 1.74032160829e-38
0.00300180145101 -0.0600360290201 0.811 1.50111869926e-38
0.00450270217651 -0.0600360290201 0.811 1.46438912508e-38
0.00600360290201 -0.0600360290201 0.811 1.19644726611e-38
0.00748599683682 -0.0598879746946 0.809 1.46409457215e-38
0.00898319620418 -0.0598879746946 0.809 1.52812830677e-38
0.0104544860646 -0.059739920369 0.807 1.81418559177e-38
0.0119183732087 -0.0595918660434 0.805 1.57447653374e-38
0.0133748576365 -0.0594438117178 0.803 1.73113735803e-38
0.014768418976 -0.0590736759039 0.798 1.86918613611e-38
0.0162452608736 -0.0590736759039 0.798 1.89724363461e-38
0.0177221027712 -0.0590736759039 0.798 1.70362286268e-38
0.019150827013 -0.0589256215783 0.796 1.94250557501e-38
0.0206239675524 -0.0589256215783 0.796 1.72141584993e-38
0.0220971080919 -0.0589256215783 0.796 1.87771303726e-38
0.0236294703616 -0.0590736759039 0.798 1.9148114332e-38
0.0251063122592 -0.0590736759039 0.798 1.96101112253e-38
0.0265165297102 -0.0589256215783 0.796 1.84134275601e-38
0.0279896702497 -0.0589256215783 0.796 1.75825682734e-38
0.0294628107892 -0.0589256215783 0.796 2.27476689337e-38
0.0310136798495 -0.0590736759039 0.798 2.13643841611e-38
0.0324905217471 -0.0590736759039 0.798 2.21944979571e-38
0.0339673636447 -0.0590736759039 0.798 2.22859649117e-38
0.0354442055423 -0.0590736759039 0.798 2.22856412118e-38
0.0369210474399 -0.0590736759039 0.798 2.34841858013e-38
0.0384941246492 -0.0592217302295 0.8 1.19640845014e-38
0.0399746679049 -0.0592217302295 0.8 1.76471471131e-38
0.0415588491885 -0.059369784555 0.802 1.72802073011e-38
0.0430430938024 -0.059369784555 0.802 1.78290202395e-38
0.0445273384163 -0.059369784555 0.802 1.74616586367e-38
0.0460689540813 -0.0594438117178 0.803 1.73702098989e-38
0.0476734928347 -0.0595918660434 0.805 1.70903930163e-38
0.049407579123 -0.0598879746946 0.809 1.81052245746e-38
0.0510306246671 -0.0600360290201 0.811 1.89385949882e-38
0.0525315253926 -0.0600360290201 0.811 2.02297163608e-38
0.0541656750111 -0.0601840833457 0.813 1.86691757403e-38
0.0558072273459 -0.0603321376713 0.815 2.34879132552e-38
0.0573155307877 -0.0603321376713 0.815 1.29804252581e-38
0.0589681871969 -0.0604801919968 0.817 1.90555921996e-38
0.0604801919968 -0.0604801919968 0.817 2.34842474584e-38
-0.0015194075162 -0.0592568931318 0.821 1.59295909996e-38
0.0 -0.0591125401644 0.819 1.73107247791e-38
0.00151200479992 -0.0589681871969 0.817 1.79585983085e-38
0.00300920416729 -0.0586794812621 0.813 1.6946573551e-38
0.00451380625093 -0.0586794812621 0.813 1.44551615711e-38
0.00601840833457 -0.0586794812621 0.813 1.78628265649e-38
0.00750450362752 -0.0585351282946 0.811 1.36293203341e-38
0.00898319620418 -0.0583907753272 0.809 1.15999935292e-38
0.0104544860646 -0.0582464223598 0.807 1.34373984964e-38
0.0119183732087 -0.0581020693923 0.805 1.83194845111e-38
0.0134081698598 -0.0581020693923 0.805 1.92477872905e-38
0.0148424461388 -0.0578855399412 0.802 1.92486364773e-38
0.0163266907526 -0.0578855399412 0.802 1.84178038152e-38
0.0177665190688 -0.0577411869737 0.8 2.05389815305e-38
0.0191989446688 -0.0575968340063 0.798 1.80381780483e-38
0.0206757865664 -0.0575968340063 0.798 2.25603909991e-38
0.022152628464 -0.0575968340063 0.798 2.11821256776e-38
0.0236294703616 -0.0575968340063 0.798 2.08108600573e-38
0.0251692353475 -0.0577411869737 0.8 2.08112075793e-38
0.0266497786033 -0.0577411869737 0.8 2.09048325336e-38
0.028130321859 -0.0577411869737 0.8 2.16430814062e-38
0.0296108651147 -0.0577411869737 0.8 2.22877487647e-38
0.0311691368914 -0.0578855399412 0.802 2.12711137353e-38
0.0326533815053 -0.0578855399412 0.802 2.25618581586e-38
0.0341376261192 -0.0578855399412 0.802 2.19171865962e-38
0.035621870733 -0.0578855399412 0.802 2.25622210949e-38
0.0371061153469 -0.0578855399412 0.802 2.34870780813e-38
0.0385903599608 -0.0578855399412 0.802 1.26101615662e-38
0.0400746045747 -0.0578855399412 0.802 1.79240843273e-38
0.0416106682025 -0.0579577164249 0.803 1.80151869444e-38
0.0430967634954 -0.0579577164249 0.803 1.78300768185e-38
0.0446938995326 -0.0581020693923 0.805 1.69063408708e-38
0.0461836961836 -0.0581020693923 0.805 1.8567283125e-38
0.0479103797556 -0.0583907753272 0.809 1.85701529843e-38
0.0495297239416 -0.0585351282946 0.811 1.92180405267e-38
0.0510306246671 -0.0585351282946 0.811 1.820354528e-38
0.0526610729275 -0.0586794812621 0.813 1.99542308918e-38
0.0541656750111 -0.0586794812621 0.813 1.74735332399e-38
0.0559441775971 -0.0589681871969 0.817 2.3493536666e-38
0.057456182397 -0.0589681871969 0.817 1.35228734989e-38
0.0589681871969 -0.0589681871969 0.817 1.86893306161e-38
0.0604801919968 -0.0589681871969 0.817 2.34936095335e-38
-0.00308323133007 -0.0585813952714 0.833 1.9059204747e-38
-0.00152310887434 -0.0578781372249 0.823 1.58388415098e-38
0.0 -0.0577374856156 0.821 1.63023237795e-38
0.00151570615806 -0.0575968340063 0.819 1.75004689989e-38
0.00301660688356 -0.0573155307877 0.815 1.5655445172e-38
0.00452491032535 -0.0573155307877 0.815 1.67582348335e-38
0.00601840833457 -0.0571748791784 0.813 1.841635207e-38
0.00750450362752 -0.0570342275691 0.811 1.69459079343e-38
0.00900540435302 -0.0570342275691 0.811 1.61143073606e-38
0.0104803955715 -0.0568935759598 0.809 1.58334296951e-38
0.0119479840738 -0.0567529243505 0.807 1.59248672225e-38
0.0134081698598 -0.0566122727412 0.805 1.22385386148e-38
0.0148609529295 -0.0564716211319 0.803 1.3521700612e-38
0.0163470482224 -0.0564716211319 0.803 1.63848252266e-38
0.0178109353665 -0.0564012953273 0.802 1.81493486606e-38
0.0192951799804 -0.0564012953273 0.802 2.0816229833e-38
0.0207794245943 -0.0564012953273 0.802 2.0815548802e-38
0.0222636692081 -0.0564012953273 0.802 2.164424028e-38
0.023747913822 -0.0564012953273 0.802 2.28413485386e-38
0.0252321584359 -0.0564012953273 0.802 2.23810766437e-38
0.0267164030498 -0.0564012953273 0.802 2.29324329388e-38
0.0282006476636 -0.0564012953273 0.802 2.34859598452e-38
0.0297219058589 -0.0564716211319 0.803 2.26562215972e-38
0.0312080011519 -0.0564716211319 0.803 2.24722002802e-38
0.0326940964448 -0.0564716211319 0.803 2.23803605802e-38
0.0341801917378 -0.0564716211319 0.803 2.07226441151e-38
0.0356662870307 -0.0564716211319 0.803 1.95252009461e-38
0.0371523823236 -0.0564716211319 0.803 2.17392048756e-38
0.0386384776166 -0.0564716211319 0.803 1.05872695239e-38
0.0401245729095 -0.0564716211319 0.803 1.88499810772e-38
0.0416106682025 -0.0564716211319 0.803 1.86612598052e-38
0.0432041028815 -0.0566122727412 0.805 1.88442133327e-38
0.0448049402767 -0.0567529243505 0.807 1.79172726155e-38
0.0464131803883 -0.0568935759598 0.809 1.82878249749e-38
0.0479103797556 -0.0568935759598 0.809 1.96725797095e-38
0.0495297239416 -0.0570342275691 0.811 1.84801069463e-38
0.0511564708438 -0.0571748791784 0.813 1.9771942981e-38
0.0526610729275 -0.0571748791784 0.813 1.83014820297e-38
0.0542989239041 -0.0573155307877 0.815 2.34648296656e-38
0.0559441775971 -0.057456182397 0.817 1.93408489228e-38
0.057456182397 -0.057456182397 0.817 1.51786855994e-38
0.0589681871969 -0.057456182397 0.817 2.09917382618e-38
0.0604801919968 -0.057456182397 0.817 2.34950865021e-38
-0.00464705514394 -0.0573136801086 0.837 1.8964135054e-38
-0.00308323133007 -0.0570397796063 0.833 1.83227313196e-38
-0.00153421294876 -0.056765879104 0.829 1.80504183903e-38
0.0 -0.0563550283506 0.823 1.65756792748e-38
0.0015194075162 -0.0562180780994 0.821 1.63909194736e-38
0.00302400959984 -0.0559441775971 0.817 1.65760141851e-38
0.00452491032535 -0.0558072273459 0.815 1.54639479277e-38
0.00603321376713 -0.0558072273459 0.815 1.76780457442e-38
0.00752301041821 -0.0556702770948 0.813 1.63934179887e-38
0.00900540435302 -0.0555333268436 0.811 1.70362468437e-38
0.0104803955715 -0.0553963765925 0.809 1.79524676277e-38
0.0119775949389 -0.0553963765925 0.809 2.03527699841e-38
0.0134747943063 -0.0553963765925 0.809 1.58376854386e-38
0.0148979665109 -0.0551224760902 0.805 1.76730487139e-38
0.0163877631619 -0.0551224760902 0.805 1.61118060429e-38
0.017877559813 -0.0551224760902 0.805 1.30804597516e-38
0.0193192388083 -0.054985525839 0.803 1.28939189e-38
0.0208053341012 -0.054985525839 0.803 1.12243782785e-38
0.0222914293942 -0.054985525839 0.803 1.31457490496e-38
0.0237775246871 -0.054985525839 0.803 1.26872890337e-38
0.0252636199801 -0.054985525839 0.803 1.52691001789e-38
0.026749715273 -0.054985525839 0.803 1.45279632302e-38
0.0283061363706 -0.0551224760902 0.805 1.36928159701e-38
0.0297959330217 -0.0551224760902 0.805 1.5630688432e-38
0.0312857296728 -0.0551224760902 0.805 1.36920985053e-38
0.0327755263239 -0.0551224760902 0.805 1.48884836939e-38
0.034265322975 -0.0551224760902 0.805 1.5642167869e-38
0.035755119626 -0.0551224760902 0.805 1.9331060853e-38
0.0372449162771 -0.0551224760902 0.805 2.24767727171e-38
0.0387347129282 -0.0551224760902 0.805 1.14173763134e-38
0.0402245095793 -0.0551224760902 0.805 1.88535571909e-38
0.0417143062304 -0.0551224760902 0.805 1.94002681816e-38
0.0433114422675 -0.0552594263413 0.807 1.86605423404e-38
0.0449159810209 -0.0553963765925 0.809 1.88424280785e-38
0.0464131803883 -0.0553963765925 0.809 1.95799734992e-38
0.0480288232161 -0.0555333268436 0.811 1.93952319149e-38
0.0495297239416 -0.0555333268436 0.811 1.86616465636e-38
0.0511564708438 -0.0556702770948 0.813 2.03247664356e-38
0.0527906204624 -0.0558072273459 0.815 1.4430728531e-38
0.0542989239041 -0.0558072273459 0.815 2.34911012092e-38
0.0559441775971 -0.0559441775971 0.817 1.66642595546e-38
0.057456182397 -0.0559441775971 0.817 1.60087923889e-38
0.0589681871969 -0.0559441775971 0.817 2.34879048474e-38
0.0604801919968 -0.0559441775971 0.817 2.34892514953e-38
-0.00464705514394 -0.0557646617273 0.837 2.03470470812e-38
-0.00309063404635 -0.0556314128343 0.835 1.76788038467e-38
-0.00154161566504 -0.0554981639413 0.833 1.72192185881e-38
0.0 -0.0550984172622 0.827 1.75854941846e-38
0.0015194075162 -0.0546986705832 0.821 1.6666777688e-38
0.00303141231612 -0.0545654216902 0.819 1.47292499455e-38
0.00453601439976 -0.0544321727972 0.817 1.96120225964e-38
0.00603321376713 -0.0542989239041 0.815 1.33473566623e-38
0.00752301041821 -0.0541656750111 0.813 1.33445554667e-38
0.00902761250186 -0.0541656750111 0.813 1.7216729882e-38
0.0105063050785 -0.0540324261181 0.811 1.80461023911e-38
0.012007205804 -0.0540324261181 0.811 1.85992033027e-38
0.0135081065295 -0.0540324261181 0.811 2.1183197671e-38
0.0149719936736 -0.0538991772251 0.809 2.0998547171e-38
0.016469193041 -0.0538991772251 0.809 2.14605440643e-38
0.0179219761107 -0.0537659283321 0.807 1.96162867476e-38
0.0194154741199 -0.0537659283321 0.807 1.97092138553e-38
0.0209089721291 -0.0537659283321 0.807 1.9431905297e-38
0.0224024701384 -0.0537659283321 0.807 1.83233927325e-38
0.0238959681476 -0.0537659283321 0.807 1.73092758365e-38
0.0253265430684 -0.0536326794391 0.805 1.90584410394e-38
0.0268163397195 -0.0536326794391 0.805 2.27487675517e-38
0.0283061363706 -0.0536326794391 0.805 2.11846872512e-38
0.0298699601845 -0.0537659283321 0.807 2.21055813656e-38
0.0312857296728 -0.0536326794391 0.805 2.23792745739e-38
0.0327755263239 -0.0536326794391 0.805 2.14551897029e-38
0.034265322975 -0.0536326794391 0.805 2.22845453964e-38
0.035755119626 -0.0536326794391 0.805 2.29284700667e-38
0.0372449162771 -0.0536326794391 0.805 2.34877787306e-38
0.0387347129282 -0.0536326794391 0.805 1.12268894053e-38
0.0403244462491 -0.0537659283321 0.807 1.96908428324e-38
0.0418179442583 -0.0537659283321 0.807 2.08800197417e-38
0.0435261210396 -0.0540324261181 0.811 1.93102067293e-38
0.0450270217651 -0.0540324261181 0.811 1.84708121335e-38
0.0465279224906 -0.0540324261181 0.811 2.07760363892e-38
0.0481472666766 -0.0541656750111 0.813 2.04115292313e-38
0.0498961583974 -0.0544321727972 0.817 2.0044939744e-38
0.0515340093741 -0.0545654216902 0.819 2.0324763633e-38
0.0530497155321 -0.0545654216902 0.819 1.37807054098e-38
0.0545654216902 -0.0545654216902 0.819 2.34978260406e-38
0.0560811278482 -0.0545654216902 0.819 2.21935030352e-38
0.0575968340063 -0.0545654216902 0.819 2.34849621207e-38
0.0591125401644 -0.0545654216902 0.819 2.34867585853e-38
0.0606282463224 -0.0545654216902 0.819 2.34986051625e-38
-0.00624048982293 -0.0546042859506 0.843 2.25741629604e-38
-0.00465815921836 -0.0543451908809 0.839 1.97013105319e-38
-0.00309803676263 -0.054215643346 0.837 1.85081595402e-38
-0.00154901838131 -0.054215643346 0.837 1.6850475305e-38
0.0 -0.0539565482763 0.833 1.73114184218e-38
0.00154161566504 -0.0539565482763 0.833 1.69447967046e-38
0.00309063404635 -0.0540860958111 0.835 1.7222129085e-38
0.0045582225486 -0.053179263067 0.821 1.73121316827e-38
0.00603321376713 -0.0527906204624 0.815 1.528416694e-38
0.00754151720891 -0.0527906204624 0.815 1.75809049321e-38
0.00904982065069 -0.0527906204624 0.815 1.53760290608e-38
0.0105322145855 -0.0526610729275 0.813 1.36229192027e-38
0.0120368166691 -0.0526610729275 0.813 1.71223061876e-38
0.0135414187528 -0.0526610729275 0.813 1.51912818713e-38
0.0150460208364 -0.0526610729275 0.813 1.82318879428e-38
0.0165506229201 -0.0526610729275 0.813 1.9705541052e-38
0.0180552250037 -0.0526610729275 0.813 2.11771006213e-38
0.0195598270874 -0.0526610729275 0.813 2.08094097134e-38
0.021012610157 -0.0525315253926 0.811 2.22870607271e-38
0.0225135108825 -0.0525315253926 0.811 2.18265141777e-38
0.0240144116081 -0.0525315253926 0.811 2.17368044514e-38
0.0254523892452 -0.0524019778577 0.809 2.18268616998e-38
0.0269495886125 -0.0524019778577 0.809 2.22867104025e-38
0.0284467879799 -0.0524019778577 0.809 2.18286091189e-38
0.0299439873473 -0.0524019778577 0.809 2.09077234123e-38
0.0313634581937 -0.0522724303229 0.807 2.10906881502e-38
0.0328569562029 -0.0522724303229 0.807 2.15484293001e-38
0.0343504542122 -0.0522724303229 0.807 2.27458682651e-38
0.0359327848167 -0.0524019778577 0.809 2.18213770176e-38
0.0374299841841 -0.0524019778577 0.809 2.34873639462e-38
0.0389271835515 -0.0524019778577 0.809 1.07662769949e-38
0.0405243195886 -0.0525315253926 0.811 2.23663083592e-38
0.0420252203141 -0.0525315253926 0.811 2.15329127222e-38
0.0436334604256 -0.0526610729275 0.813 2.07928519707e-38
0.0452491032535 -0.0527906204624 0.815 2.12491609936e-38
0.0468721487976 -0.0529201679972 0.817 2.0509090433e-38
0.0483841535975 -0.0529201679972 0.817 2.05073051788e-38
0.050018303216 -0.0530497155321 0.819 2.19824674864e-38
0.0516598555508 -0.053179263067 0.821 1.92194894693e-38
0.053179263067 -0.053179263067 0.821 1.67327312015e-38
0.0546986705832 -0.053179263067 0.821 2.34961038448e-38
0.0562180780994 -0.053179263067 0.821 2.34871131138e-38
0.0577374856156 -0.053179263067 0.821 2.34935955205e-38
0.0592568931318 -0.053179263067 0.821 1.87779837634e-38
-0.00624048982293 -0.0530441634949 0.843 2.34993660676e-38
-0.00466926329278 -0.0529183173182 0.841 1.92406897137e-38
-0.00310543947891 -0.0527924711414 0.839 1.86925507999e-38
-0.00155271973945 -0.0527924711414 0.839 1.73118261997e-38
0.0 -0.0526666249647 0.837 1.69379597694e-38
0.00154531702318 -0.052540778788 0.835 1.50991058596e-38
0.00309063404635 -0.052540778788 0.835 1.62994525189e-38
0.00460263884627 -0.0521632402577 0.829 1.78602691952e-38
0.00609243549736 -0.0517857017275 0.823 1.83262822099e-38
0.00756002399961 -0.0514081631973 0.817 1.58362841401e-38
0.00907202879953 -0.0514081631973 0.817 1.8326601706e-38
0.0105840335994 -0.0514081631973 0.817 1.57491023561e-38
0.0120960383994 -0.0514081631973 0.817 1.4912954569e-38
0.0136080431993 -0.0514081631973 0.817 1.70305659797e-38
0.0151200479992 -0.0514081631973 0.817 1.61117906286e-38
0.0166320527991 -0.0514081631973 0.817 1.47209430482e-38
0.0181440575991 -0.0514081631973 0.817 1.8872642876e-38
0.019656062399 -0.0514081631973 0.817 1.53695550619e-38
0.0211162481849 -0.0512823170206 0.815 1.66635434911e-38
0.0226245516267 -0.0512823170206 0.815 1.66645972676e-38
0.0240736333383 -0.0511564708438 0.813 1.58362813375e-38
0.0255782354219 -0.0511564708438 0.813 2.08133599738e-38
0.0270828375056 -0.0511564708438 0.813 1.57369124608e-38
0.0285874395892 -0.0511564708438 0.813 2.06203619389e-38
0.0300920416729 -0.0511564708438 0.813 2.22903649889e-38
0.0315189152356 -0.0510306246671 0.811 2.02634890551e-38
0.0330198159611 -0.0510306246671 0.811 2.05389815305e-38
0.0345207166866 -0.0510306246671 0.811 2.10924453785e-38
0.0360216174121 -0.0510306246671 0.811 2.09076967877e-38
0.0376150520911 -0.0511564708438 0.813 2.19193151685e-38
0.0391196541747 -0.0511564708438 0.813 1.22424608492e-38
0.0406242562583 -0.0511564708438 0.813 2.32882856773e-38
0.042128858342 -0.0511564708438 0.813 2.25499261022e-38
0.0439554785838 -0.0515340093741 0.819 2.05184300873e-38
0.0454711847418 -0.0515340093741 0.819 2.18045250022e-38
0.0469868908999 -0.0515340093741 0.819 2.08825673023e-38
0.0486210405184 -0.0516598555508 0.821 2.25456255172e-38
0.0501404480346 -0.0516598555508 0.821 2.13470893354e-38
0.0516598555508 -0.0516598555508 0.821 1.81224437301e-38
0.053179263067 -0.0516598555508 0.821 1.36024154036e-38
0.0546986705832 -0.0516598555508 0.821 2.35011092829e-38
0.0562180780994 -0.0516598555508 0.821 2.34997135896e-38
0.0577374856156 -0.0516598555508 0.821 1.96105764564e-38
0.0592568931318 -0.0516598555508 0.821 2.1263168373e-38
-0.00625529525549 -0.0516061858578 0.845 2.35043855187e-38
-0.00469147144162 -0.0516061858578 0.845 1.89633895632e-38
-0.00312024491147 -0.0514840410392 0.843 1.86921598377e-38
-0.00156012245573 -0.0514840410392 0.843 1.76766388406e-38
0.0 -0.0513618962206 0.841 1.66617456252e-38
0.00155271973945 -0.051239751402 0.839 1.49132936832e-38
0.00309803676263 -0.0511176065834 0.837 1.64852072421e-38
0.00463595106953 -0.0509954617648 0.835 1.89712984918e-38
0.00615165722759 -0.0507511721276 0.831 1.65770707642e-38
0.00767106474379 -0.050629027309 0.829 1.6480187791e-38
0.00918306954371 -0.0505068824904 0.827 1.89719444904e-38
0.0107135811343 -0.0505068824904 0.827 1.55618846774e-38
0.0122144818598 -0.0503847376718 0.825 1.97116801406e-38
0.0137079798691 -0.0502625928532 0.823 2.04434620207e-38
0.015194075162 -0.0501404480346 0.821 1.7863841105e-38
0.0166727677387 -0.050018303216 0.819 2.01712555901e-38
0.0181884738967 -0.050018303216 0.819 1.70358432697e-38
0.019656062399 -0.0498961583974 0.817 1.92495921629e-38
0.0211680671989 -0.0498961583974 0.817 1.34392145792e-38
0.0226800719988 -0.0498961583974 0.817 1.61121619727e-38
0.0241328550685 -0.0497740135788 0.815 1.99818448793e-38
0.0256411585103 -0.0497740135788 0.815 1.80453961367e-38
0.0271494619521 -0.0497740135788 0.815 1.58295018555e-38
0.0286577653939 -0.0497740135788 0.815 1.67528034007e-38
0.0301660688356 -0.0497740135788 0.815 1.90569948993e-38
0.0315966437565 -0.0496518687602 0.813 1.58255235692e-38
0.0331012458401 -0.0496518687602 0.813 1.7586575987e-38
0.0346058479238 -0.0496518687602 0.813 1.65735100648e-38
0.0361992826028 -0.0497740135788 0.815 1.62914763281e-38
0.0377075860445 -0.0497740135788 0.815 2.31158474935e-38
0.039312124798 -0.0498961583974 0.817 1.25219133941e-38
0.0409240662676 -0.050018303216 0.819 2.10737772804e-38
0.0424397724257 -0.050018303216 0.819 2.19003135614e-38
0.0440628179698 -0.0501404480346 0.821 2.21800827998e-38
0.045582225486 -0.0501404480346 0.821 2.34733243369e-38
0.0472163751045 -0.0502625928532 0.823 2.06124235831e-38
0.0488579274393 -0.0503847376718 0.825 2.10690717201e-38
0.0503847376718 -0.0503847376718 0.825 2.27286294914e-38
0.0517857017275 -0.0502625928532 0.823 1.89543890232e-38
0.0533088106019 -0.0502625928532 0.823 7.98968816575e-39
0.0548319194762 -0.0502625928532 0.823 1.90612856752e-38
0.0581353816156 -0.051850475495 0.849 1.54582222222e-38
0.059847259755 -0.0519726203136 0.851 2.08901651426e-38
0.0614221876433 -0.0519726203136 0.851 2.28288139238e-38
0.0629971155316 -0.0519726203136 0.851 2.34986696222e-38
-0.00627010068805 -0.0501608055044 0.847 2.35087267413e-38
-0.00469147144162 -0.0500423620439 0.845 1.76733962359e-38
-0.00312024491147 -0.0499239185834 0.843 1.97970962885e-38
-0.00156012245573 -0.0499239185834 0.843 1.74947306817e-38
0.0 -0.049805475123 0.841 1.59274372039e-38
0.00155642109759 -0.049805475123 0.841 1.57433948675e-38
0.00310543947891 -0.0496870316625 0.839 1.84192107189e-38
0.00463595106953 -0.0494501447416 0.835 1.41760383313e-38
0.0061812680927 -0.0494501447416 0.835 1.6847996408e-38
0.00768957153448 -0.0492132578207 0.831 1.74957998725e-38
0.00920527769254 -0.0490948143602 0.829 1.8326601706e-38
0.0107394906413 -0.0490948143602 0.829 1.67547021601e-38
0.0122440927249 -0.0489763708998 0.827 1.7123373977e-38
0.0137412920923 -0.0488579274393 0.825 2.02594855453e-38
0.0152310887434 -0.0487394839789 0.823 1.42696969167e-38
0.0167541976177 -0.0487394839789 0.823 2.07247250433e-38
0.0182328901944 -0.0486210405184 0.821 2.12764863136e-38
0.0197522977106 -0.0486210405184 0.821 1.95255358565e-38
0.0212717052268 -0.0486210405184 0.821 2.16459947057e-38
0.022791112743 -0.0486210405184 0.821 2.04471166071e-38
0.0243105202592 -0.0486210405184 0.821 2.23778368417e-38
0.0258299277754 -0.0486210405184 0.821 2.02551443227e-38
0.0274159597381 -0.0487394839789 0.823 2.07215328854e-38
0.0289390686124 -0.0487394839789 0.823 1.98928638281e-38
0.030388150324 -0.0486210405184 0.821 2.29323726829e-38
0.0318298293193 -0.0485025970579 0.819 2.13643267079e-38
0.0333455354773 -0.0485025970579 0.819 1.66656664583e-38
0.0349463728726 -0.0486210405184 0.821 1.5466817787e-38
0.0364657803888 -0.0486210405184 0.821 1.93346705978e-38
0.037985187905 -0.0486210405184 0.821 2.25604036108e-38
0.0395045954212 -0.0486210405184 0.821 1.21502666206e-38
0.0411239396072 -0.0487394839789 0.823 2.21790654571e-38
0.0426470484815 -0.0487394839789 0.823 2.08875531222e-38
0.0441701573558 -0.0487394839789 0.823 2.19935251326e-38
0.0456932662302 -0.0487394839789 0.823 2.24570074023e-38
0.0473311172068 -0.0488579274393 0.825 2.34712041723e-38
0.0488579274393 -0.0488579274393 0.825 2.30092016738e-38
0.0505068824904 -0.0489763708998 0.827 2.20871809155e-38
0.0521632402577 -0.0490948143602 0.829 1.94135875235e-38
0.0538270007414 -0.0492132578207 0.831 1.49936343281e-38
0.0565641550854 -0.0502792489648 0.849 1.42618230206e-38
0.0581353816156 -0.0502792489648 0.849 1.86832307639e-38
0.059847259755 -0.0503976924253 0.851 2.29206620317e-38
0.0614221876433 -0.0503976924253 0.851 2.24581760852e-38
0.0629971155316 -0.0503976924253 0.851 2.35054771302e-38
-0.00781911906936 -0.04847853823 0.845 2.35004576791e-38
-0.00625529525549 -0.04847853823 0.845 2.35040506083e-38
-0.00469147144162 -0.04847853823 0.845 1.84091634089e-38
-0.00312764762774 -0.04847853823 0.845 1.9152077204e-38
-0.00156382381387 -0.04847853823 0.845 1.86064466145e-38
0.0 -0.0483637961277 0.843 1.62940519146e-38
0.00155642109759 -0.0482490540254 0.841 1.51870009045e-38
0.00310543947891 -0.0481343119231 0.839 1.78656992268e-38
0.00464705514394 -0.0480195698208 0.837 1.80475092947e-38
0.0061812680927 -0.0479048277184 0.835 1.68507681763e-38
0.00770807832518 -0.0477900856161 0.833 1.5284152927e-38
0.00922748584138 -0.0476753435138 0.831 1.72163641431e-38
0.0107654001483 -0.0476753435138 0.831 2.02598680998e-38
0.0122737035901 -0.0475606014115 0.829 1.80464373014e-38
0.0137746043156 -0.0474458593092 0.827 1.83270094838e-38
0.0152681023248 -0.0473311172068 0.825 1.62994469137e-38
0.0167949125573 -0.0473311172068 0.825 1.869139613e-38
0.0182773064921 -0.0472163751045 0.823 1.61085326096e-38
0.0198004153664 -0.0472163751045 0.823 1.96159069957e-38
0.0213235242407 -0.0472163751045 0.823 1.98928091775e-38
0.0228466331151 -0.0472163751045 0.823 1.81390014728e-38
0.0243697419894 -0.0472163751045 0.823 1.91567337188e-38
0.0259557739521 -0.0473311172068 0.825 2.13632673262e-38
0.0274825841846 -0.0473311172068 0.825 2.1732075069e-38
0.0290093944171 -0.0473311172068 0.825 2.01668947493e-38
0.0304621774868 -0.0472163751045 0.823 2.14554825743e-38
0.0319852863611 -0.0472163751045 0.823 2.31128613264e-38
0.0335083952355 -0.0472163751045 0.823 1.65716981859e-38
0.035116635347 -0.0473311172068 0.825 1.56594879181e-38
0.0365546129841 -0.0472163751045 0.823 1.82322957206e-38
0.0380777218585 -0.0472163751045 0.823 2.30228110845e-38
0.0396008307328 -0.0472163751045 0.823 1.21513428178e-38
0.0412238762769 -0.0473311172068 0.825 2.135036417e-38
0.0428543245373 -0.0474458593092 0.827 2.13485242651e-38
0.0443848361279 -0.0474458593092 0.827 2.12548951069e-38
0.0459153477185 -0.0474458593092 0.827 2.16233132887e-38
0.0475606014115 -0.0475606014115 0.829 2.18044731542e-38
0.0493317012812 -0.0477900856161 0.833 2.34686818351e-38
0.0509954617648 -0.0479048277184 0.835 2.32878722943e-38
0.0527924711414 -0.0481343119231 0.839 2.11681435215e-38
0.0548633810204 -0.0485932803324 0.847 2.09852138161e-38
0.0565641550854 -0.0487080224347 0.849 2.06167998382e-38
0.0581353816156 -0.0487080224347 0.849 2.33801730215e-38
0.059847259755 -0.048822764537 0.851 2.12639418898e-38
0.0614221876433 -0.048822764537 0.851 2.34802285344e-38
0.0629971155316 -0.048822764537 0.851 2.35058596847e-38
-0.00795791999959 -0.0477475199975 0.86 2.35011583283e-38
-0.00625529525549 -0.0469147144162 0.845 2.35047596654e-38
-0.00469147144162 -0.0469147144162 0.845 2.06229361241e-38
-0.00312764762774 -0.0469147144162 0.845 1.72149446277e-38
-0.00156752517201 -0.0470257551603 0.847 1.80489540335e-38
0.0 -0.0469147144162 0.845 1.89687789571e-38
0.00156012245573 -0.046803673672 0.843 1.73060458435e-38
0.00311284219519 -0.0466926329278 0.841 1.44562181501e-38
0.00465815921836 -0.0465815921836 0.839 1.4365439233e-38
0.00619607352526 -0.0464705514394 0.837 1.73096555883e-38
0.00772658511588 -0.0463595106953 0.835 1.92486308721e-38
0.00927190213905 -0.0463595106953 0.835 1.68500591193e-38
0.0107913096553 -0.0462484699511 0.833 1.5095459681e-38
0.0123033144552 -0.0461374292069 0.831 1.78631558701e-38
0.0138079165388 -0.0460263884627 0.829 1.39934337271e-38
0.0153051159062 -0.0459153477185 0.827 2.10960607285e-38
0.0168356274968 -0.0459153477185 0.827 2.0262019093e-38
0.0183661390874 -0.0459153477185 0.827 1.98024534525e-38
0.019896650678 -0.0459153477185 0.827 2.09080765396e-38
0.0213753432547 -0.0458043069744 0.825 1.90613151025e-38
0.0229021534872 -0.0458043069744 0.825 2.03502518508e-38
0.0244881854499 -0.0459153477185 0.827 1.65731050895e-38
0.0260186970405 -0.0459153477185 0.827 2.10841861254e-38
0.0275492086311 -0.0459153477185 0.827 2.18242903171e-38
0.0290797202217 -0.0459153477185 0.827 2.06254122185e-38
0.0306102318124 -0.0459153477185 0.827 2.20993722121e-38
0.032140743403 -0.0459153477185 0.827 2.25603881965e-38
0.0336712549936 -0.0459153477185 0.827 1.92457245791e-38
0.0352017665842 -0.0459153477185 0.827 1.90670534197e-38
0.0366434455795 -0.0458043069744 0.825 2.12754073138e-38
0.038170255812 -0.0458043069744 0.825 2.34867137437e-38
0.0396970660444 -0.0458043069744 0.825 1.27027145272e-38
0.0413238129467 -0.0459153477185 0.827 2.14418381311e-38
0.0429579625652 -0.0460263884627 0.829 2.15329127222e-38
0.044492175514 -0.0460263884627 0.829 2.16265432817e-38
0.0461374292069 -0.0461374292069 0.831 2.18094954079e-38
0.0476753435138 -0.0461374292069 0.831 2.24509089514e-38
0.0494501447416 -0.0463595106953 0.835 2.25431227981e-38
0.0511176065834 -0.0464705514394 0.837 2.22701274365e-38
0.0529183173182 -0.0466926329278 0.841 2.16248000664e-38
0.0546042859506 -0.046803673672 0.843 2.22694688262e-38
0.0565641550854 -0.0471367959045 0.849 2.34737293122e-38
0.0582723318667 -0.0472478366487 0.851 2.26411226062e-38
0.059847259755 -0.0472478366487 0.851 1.82193799527e-38
0.0614221876433 -0.0472478366487 0.851 2.34838592988e-38
0.0629971155316 -0.0472478366487 0.851 2.35051590354e-38
-0.00636633599967 -0.0461559359976 0.86 2.35072763974e-38
-0.0047414397765 -0.0458339178395 0.854 1.95219807623e-38
-0.003160959851 -0.0458339178395 0.854 2.03470498838e-38
-0.00157122653015 -0.0455655693744 0.849 1.5740509594e-38
0.0 -0.0454582299883 0.847 1.83223585742e-38
0.00156012245573 -0.0452435512162 0.843 1.9152077204e-38
0.00312024491147 -0.0452435512162 0.843 1.64823513958e-38
0.00465815921836 -0.0450288724442 0.839 1.64863394912e-38
0.00621087895782 -0.0450288724442 0.839 1.60210607569e-38
0.00774509190657 -0.0449215330581 0.837 1.67596249216e-38
0.00929411028789 -0.0449215330581 0.837 1.71284662956e-38
0.0108172191622 -0.0448141936721 0.835 1.74046986567e-38
0.0123625361854 -0.0448141936721 0.835 1.89730403058e-38
0.0138412287621 -0.0445995149 0.831 1.90627346179e-38
0.015379143069 -0.0445995149 0.831 1.72188430401e-38
0.0169170573759 -0.0445995149 0.831 1.91531912363e-38
0.0184105553851 -0.044492175514 0.829 1.77720364374e-38
0.0199447683338 -0.044492175514 0.829 1.8510674871e-38
0.0214271622687 -0.0443848361279 0.827 2.05371640464e-38
0.0229576738593 -0.0443848361279 0.827 1.91502471083e-38
0.0245474071801 -0.044492175514 0.829 2.1732075069e-38
0.0260816201289 -0.044492175514 0.829 2.15498488154e-38
0.0276158330776 -0.044492175514 0.829 2.19189648439e-38
0.0291500460264 -0.044492175514 0.829 2.12721885312e-38
0.0306102318124 -0.0443848361279 0.827 2.2656925049e-38
0.032140743403 -0.0443848361279 0.827 2.12739849959e-38
0.0336712549936 -0.0443848361279 0.827 2.21959595114e-38
0.0352868978214 -0.044492175514 0.829 1.93403836917e-38
0.0368211107702 -0.044492175514 0.829 2.02616141177e-38
0.0383553237189 -0.044492175514 0.829 2.34877044618e-38
0.0398895366677 -0.044492175514 0.829 1.17825659036e-38
0.0415236862862 -0.0445995149 0.831 2.19035337452e-38
0.0430616005931 -0.0445995149 0.831 2.03333115536e-38
0.044706854286 -0.044706854286 0.833 2.07939239641e-38
0.0462484699511 -0.044706854286 0.833 2.13467320043e-38
0.0479048277184 -0.0448141936721 0.835 2.1159859045e-38
0.0495685882021 -0.0449215330581 0.837 2.20800202803e-38
0.0514840410392 -0.0452435512162 0.843 2.14339446169e-38
0.0530441634949 -0.0452435512162 0.843 2.3465150563e-38
0.0546042859506 -0.0452435512162 0.843 2.20836650576e-38
0.0565641550854 -0.0455655693744 0.849 2.25481688739e-38
0.0582723318667 -0.0456729087604 0.851 2.25481814856e-38
0.060058237169 -0.0458339178395 0.854 2.34820320056e-38
0.0616387170945 -0.0458339178395 0.854 2.21901665435e-38
0.06321919702 -0.0458339178395 0.854 2.35080527168e-38
-0.00795791999959 -0.0445643519977 0.86 2.35047498563e-38
-0.00636633599967 -0.0445643519977 0.86 2.35029940293e-38
-0.00475254385092 -0.0443570759419 0.856 2.07237413318e-38
-0.00316836256728 -0.0443570759419 0.856 2.08073021605e-38
-0.00158418128364 -0.0443570759419 0.856 1.80471589701e-38
0.0 -0.0440979808721 0.851 1.52820579858e-38
0.00156752517201 -0.0438907048163 0.847 1.6570994734e-38
0.00312764762774 -0.0437870667884 0.845 1.89695426648e-38
0.0046803673672 -0.0436834287605 0.843 1.62079547357e-38
0.00622568439037 -0.0435797907326 0.841 1.59259910639e-38
0.00776359869727 -0.0434761527047 0.839 1.57426661923e-38
0.00931631843672 -0.0434761527047 0.839 1.29761302783e-38
0.0108431286692 -0.0433725146768 0.837 1.97085005944e-38
0.0123921470505 -0.0433725146768 0.837 1.95215701818e-38
0.0139078532086 -0.0432688766489 0.835 2.14551925055e-38
0.0154531702318 -0.0432688766489 0.835 2.07215328854e-38
0.0169577723154 -0.043165238621 0.833 2.04463725176e-38
0.0184993879804 -0.043165238621 0.833 1.97995569686e-38
0.0199928859897 -0.0430616005931 0.831 1.61085690434e-38
0.0215308002966 -0.0430616005931 0.831 2.13647765247e-38
0.0230687146034 -0.0430616005931 0.831 2.11799929014e-38
0.0246066289103 -0.0430616005931 0.831 2.06282624596e-38
0.0261445432172 -0.0430616005931 0.831 2.08137285153e-38
0.0276158330776 -0.0429579625652 0.829 2.10913916021e-38
0.0291500460264 -0.0429579625652 0.829 2.09995715202e-38
0.0306842589751 -0.0429579625652 0.829 2.08151774579e-38
0.0322184719239 -0.0429579625652 0.829 2.04460053774e-38
0.0337526848727 -0.0429579625652 0.829 2.20137612837e-38
0.0352868978214 -0.0429579625652 0.829 1.26115964958e-38
0.0368211107702 -0.0429579625652 0.829 1.93422530238e-38
0.0384478576724 -0.0430616005931 0.831 2.21967078048e-38
0.0399857719793 -0.0430616005931 0.831 1.20605835189e-38
0.0415236862862 -0.0430616005931 0.831 2.20000313614e-38
