# .PCD v0.7 - Point Cloud Data file format
VERSION 0.7
FIELDS x y z rgb
SIZE 4 4 4 4
TYPE F F F F
COUNT 1 1 1 1
WIDTH 854
HEIGHT 1
VIEWPOINT 0 0 0 1 0 0 0
POINTS 854
DATA ascii
0.0180163607432 -0.131028078133 0.885 2.8469003809e-39
0.0196542117199 -0.131028078133 0.885 1.72261101739e-38
0.0212920626966 -0.131028078133 0.885 1.74042908788e-38
0.0229817326872 -0.131324186784 0.887 2.66322938858e-39
0.024623285022 -0.131324186784 0.887 1.95298112181e-38
0.026324059087 -0.131620295435 0.889 5.14278778485e-39
0.0279693127799 -0.131620295435 0.889 2.3472732989e-38
0.0296145664729 -0.131620295435 0.889 4.77544580022e-39
0.0312598201658 -0.131620295435 0.889 2.17253558429e-38
0.0330901417657 -0.132360567063 0.894 5.51299962873e-39
0.034744648854 -0.132360567063 0.894 1.04793261019e-38
0.0363991559423 -0.132360567063 0.894 1.59201854844e-38
-0.0317521007983 -0.132021892793 0.903 2.05277501234e-38
-0.0300143131519 -0.1317294855 0.901 1.66620511083e-38
-0.0282524666776 -0.131290874561 0.898 7.53912026272e-39
-0.026590556873 -0.131290874561 0.898 8.91019552177e-39
-0.0249286470685 -0.131290874561 0.898 9.18785440468e-39
-0.0232667372639 -0.131290874561 0.898 1.13011470135e-38
-0.0215567098035 -0.130998467268 0.896 1.00161675321e-38
-0.0197874606129 -0.130267449035 0.891 6.61215572338e-39
-0.0180977906223 -0.129975041742 0.889 4.04076183095e-39
-0.016415523348 -0.129682634449 0.887 2.93873587706e-39
-0.0147739710132 -0.129682634449 0.887 6.52036647007e-39
-0.0131324186784 -0.129682634449 0.887 1.11264555418e-38
-0.0114908663436 -0.129682634449 0.887 1.12157687007e-38
-0.00982710585995 -0.129390227156 0.885 1.31461091834e-38
-0.00818925488329 -0.129390227156 0.885 4.04076183095e-39
-0.00655140390664 -0.129390227156 0.885 1.19706692029e-38
-0.00491355292998 -0.129390227156 0.885 1.56622821072e-38
-0.0032645978789 -0.128951616217 0.882 1.81440083122e-38
-0.00163229893945 -0.128951616217 0.882 1.02163402152e-38
0.0 -0.129390227156 0.885 4.95911679253e-39
0.00163229893945 -0.128951616217 0.882 6.88768183003e-39
0.0032645978789 -0.128951616217 0.882 1.744874427e-39
0.00489689681835 -0.128951616217 0.882 4.87015816212e-39
0.0065291957578 -0.128951616217 0.882 7.71418167727e-39
0.00818925488329 -0.129390227156 0.885 9.1835496158e-40
0.00982710585995 -0.129390227156 0.885 5.98298812718e-39
0.0114649568366 -0.129390227156 0.885 1.9068125413e-38
0.0131028078133 -0.129390227156 0.885 1.13219534931e-38
0.014690690455 -0.128951616217 0.882 1.65799252092e-38
0.0163229893945 -0.128951616217 0.882 1.78659514605e-38
0.0180163607432 -0.129390227156 0.885 3.30607786169e-39
0.0196542117199 -0.129390227156 0.885 1.80597734589e-38
0.0212920626966 -0.129390227156 0.885 1.23350138101e-38
0.0229817326872 -0.129682634449 0.887 1.04843679737e-38
0.024623285022 -0.129682634449 0.887 1.89748381717e-38
0.026324059087 -0.129975041742 0.889 5.51012976948e-39
0.0279693127799 -0.129975041742 0.889 2.33852092882e-38
0.0296811909194 -0.130267449035 0.891 4.22443282327e-39
0.0313301459705 -0.130267449035 0.891 1.49094008761e-38
0.0330901417657 -0.130706059975 0.894 1.57458611528e-38
0.034744648854 -0.130706059975 0.894 9.09171411964e-39
0.0363991559423 -0.130706059975 0.894 1.44479476866e-38
-0.0317521007983 -0.130350729593 0.903 2.13571562636e-38
-0.0300143131519 -0.130062023658 0.901 1.53706144435e-38
-0.0282524666776 -0.129628964756 0.898 7.35437307318e-39
-0.026590556873 -0.129628964756 0.898 9.46336089316e-39
-0.0249286470685 -0.129628964756 0.898 9.83536639908e-39
-0.0232667372639 -0.129628964756 0.898 1.00165262645e-38
-0.0215567098035 -0.129340258821 0.896 3.85709083864e-39
-0.0197874606129 -0.128618493984 0.891 1.56120343469e-39
-0.0180977906223 -0.128329788049 0.889 9.4723544267e-39
-0.0164525369294 -0.128329788049 0.889 1.01241459866e-38
-0.0148072832364 -0.128329788049 0.889 5.23462328101e-39
-0.0131620295435 -0.128329788049 0.889 2.57139389242e-39
-0.0114908663436 -0.128041082114 0.887 1.23210708904e-38
-0.00984931400879 -0.128041082114 0.887 1.2041944848e-38
-0.00820776167399 -0.128041082114 0.887 7.80601717343e-39
-0.00656620933919 -0.128041082114 0.887 1.28569694621e-39
-0.00492465700439 -0.128041082114 0.887 1.60289332517e-38
-0.00327570195332 -0.127752376179 0.885 1.63940808029e-38
-0.00163785097666 -0.127752376179 0.885 2.11221641163e-39
0.0 -0.127752376179 0.885 3.76525534248e-39
0.00163785097666 -0.127752376179 0.885 1.50093919293e-38
0.00327570195332 -0.127752376179 0.885 4.13259732711e-39
0.00491355292998 -0.127752376179 0.885 1.84192359423e-38
0.00655140390664 -0.127752376179 0.885 1.87868750022e-38
0.00820776167399 -0.128041082114 0.887 2.66322938858e-39
0.00984931400879 -0.128041082114 0.887 1.9243423647e-38
0.0114649568366 -0.127752376179 0.885 1.81418559177e-38
0.0131028078133 -0.127752376179 0.885 3.58158435016e-39
0.014690690455 -0.127319317277 0.882 1.83299395989e-38
0.0163229893945 -0.127319317277 0.882 1.80500106125e-38
0.0180570756828 -0.128041082114 0.887 2.8469003809e-39
0.0196986280176 -0.128041082114 0.887 1.86121835304e-38
0.0213401803524 -0.128041082114 0.887 8.09479676096e-39
0.0230335517011 -0.128329788049 0.889 1.81297641133e-38
0.0247343257662 -0.128618493984 0.891 1.62082504097e-38
0.0263832808172 -0.128618493984 0.891 1.62089650719e-38
0.0280322358683 -0.128618493984 0.891 1.53813694092e-38
0.0296811909194 -0.128618493984 0.891 2.38772290011e-39
0.0314356346774 -0.129051552886 0.894 3.67341984632e-40
0.0330901417657 -0.129051552886 0.894 1.98961134393e-38
0.034744648854 -0.129051552886 0.894 6.52032022722e-39
0.0363991559423 -0.129051552886 0.894 1.38058166783e-38
-0.0284097743985 -0.128679566393 0.903 6.80228389901e-39
-0.0267386111986 -0.128679566393 0.903 9.37296032662e-39
-0.0249286470685 -0.127967054951 0.898 8.91342411343e-39
-0.0232667372639 -0.127967054951 0.898 8.0815236619e-39
-0.0215567098035 -0.127682050375 0.896 2.8469003809e-39
-0.0198540850594 -0.127397045798 0.894 1.4642774416e-38
-0.0181385055618 -0.126969538933 0.891 1.39015982309e-38
-0.0164525369294 -0.126684534356 0.889 1.39927162623e-38
-0.0148072832364 -0.126684534356 0.889 1.72195436893e-38
-0.0131620295435 -0.126684534356 0.889 3.39791335785e-39
-0.0114908663436 -0.126399529779 0.887 6.708312824e-39
-0.00984931400879 -0.126399529779 0.887 9.9307892193e-39
-0.00820776167399 -0.126399529779 0.887 6.88766221185e-39
-0.00656620933919 -0.126399529779 0.887 1.28569694621e-39
-0.00492465700439 -0.126399529779 0.887 2.29588740395e-39
-0.0032831046696 -0.126399529779 0.887 1.14980911049e-38
-0.0016415523348 -0.126399529779 0.887 1.28569694621e-39
0.0 -0.126399529779 0.887 1.77707094078e-38
0.0016415523348 -0.126399529779 0.887 1.68518373671e-38
0.0032831046696 -0.126399529779 0.887 1.61131835193e-38
0.00492465700439 -0.126399529779 0.887 1.64823191659e-38
0.00656620933919 -0.126399529779 0.887 1.8786465823e-38
0.00820776167399 -0.126399529779 0.887 2.57390501927e-39
0.00984931400879 -0.126399529779 0.887 1.67697759277e-38
0.0114908663436 -0.126399529779 0.887 1.59291551958e-38
0.0131324186784 -0.126399529779 0.887 1.28569694621e-39
0.0147739710132 -0.126399529779 0.887 1.84213883367e-38
0.016415523348 -0.126399529779 0.887 1.65752504775e-38
0.0180977906223 -0.126684534356 0.889 2.11221641163e-39
0.0197430443153 -0.126684534356 0.889 1.8979539528e-38
0.0213882980082 -0.126684534356 0.889 4.40810381558e-39
0.0230853707151 -0.126969538933 0.891 1.91417552396e-38
0.0247343257662 -0.126969538933 0.891 1.7682288876e-38
0.0263832808172 -0.126969538933 0.891 5.51012976948e-39
0.0280322358683 -0.126969538933 0.891 0.0
0.0296811909194 -0.126969538933 0.891 0.0
0.0314356346774 -0.127397045798 0.894 0.0
0.0330901417657 -0.127397045798 0.894 2.08187633806e-38
0.0348223773749 -0.127682050375 0.896 6.24481373874e-39
0.0364805858214 -0.127682050375 0.896 1.33462804651e-38
-0.0285041590311 -0.127430358021 0.906 5.51156469911e-39
-0.0267386111986 -0.127008403193 0.903 9.55735438895e-39
-0.0249286470685 -0.126305145147 0.898 9.65241287157e-39
-0.0232667372639 -0.126305145147 0.898 6.97949770801e-39
-0.021436415664 -0.125320583882 0.891 5.88035002116e-39
-0.0197874606129 -0.125320583882 0.891 1.54714462758e-38
-0.0181385055618 -0.125320583882 0.891 3.58158435016e-39
-0.0164525369294 -0.125039280663 0.889 1.16868544158e-38
-0.0148072832364 -0.125039280663 0.889 1.51951872901e-38
-0.0131620295435 -0.125039280663 0.889 1.28885379139e-38
-0.0115167758506 -0.125039280663 0.889 1.28569694621e-39
-0.00987152215763 -0.125039280663 0.889 1.65303893084e-39
-0.00822626846469 -0.125039280663 0.889 3.76525534248e-39
-0.00656620933919 -0.124757977445 0.887 3.76525534248e-39
-0.00492465700439 -0.124757977445 0.887 1.71232114264e-38
-0.0032831046696 -0.124757977445 0.887 1.81436677967e-38
-0.0016415523348 -0.124757977445 0.887 3.03057137321e-39
0.0 -0.124757977445 0.887 1.84178710776e-38
0.0016415523348 -0.124757977445 0.887 1.63919284085e-38
0.0032831046696 -0.124757977445 0.887 1.28899728436e-38
0.00492465700439 -0.124757977445 0.887 1.62990167151e-38
0.00656620933919 -0.124757977445 0.887 1.80485448543e-38
0.00822626846469 -0.125039280663 0.889 2.8469003809e-39
0.00987152215763 -0.125039280663 0.889 1.66782136847e-38
0.0115167758506 -0.125039280663 0.889 1.27952674881e-38
0.0131620295435 -0.125039280663 0.889 1.01019045774e-39
0.0148072832364 -0.125039280663 0.889 1.89770185921e-38
0.0164525369294 -0.125039280663 0.889 1.40852692232e-38
0.0180977906223 -0.125039280663 0.889 3.94892633479e-39
0.0197430443153 -0.125039280663 0.889 1.88851606752e-38
0.0213882980082 -0.125039280663 0.889 4.77544580022e-39
0.0230853707151 -0.125320583882 0.891 1.81337255841e-38
0.0247343257662 -0.125320583882 0.891 1.80496546827e-38
0.026324059087 -0.125039280663 0.889 4.22443282327e-39
0.0279693127799 -0.125039280663 0.889 1.15104141236e-38
0.0296811909194 -0.125320583882 0.891 1.31651290074e-38
0.0314356346774 -0.12574253871 0.894 1.09492305224e-38
0.0331641689285 -0.126023841928 0.896 1.87865064607e-38
0.0348223773749 -0.126023841928 0.896 7.89785266959e-39
0.0364805858214 -0.126023841928 0.896 1.3340899479e-38
-0.0283468513102 -0.125059638133 0.901 6.33880162934e-39
-0.0266793894684 -0.125059638133 0.901 9.28076609806e-39
-0.0249286470685 -0.124643235342 0.898 9.74496583255e-39
-0.0232667372639 -0.124643235342 0.898 6.70399121953e-39
-0.021436415664 -0.123671628831 0.891 4.04076183095e-39
-0.0197874606129 -0.123671628831 0.891 1.6579220356e-38
-0.0181385055618 -0.123671628831 0.891 1.65303893084e-39
-0.0164525369294 -0.12339402697 0.889 2.7658688959e-39
-0.0148072832364 -0.12339402697 0.889 1.51977040221e-38
-0.0131916404086 -0.123671628831 0.891 1.42718100748e-38
-0.0115167758506 -0.12339402697 0.889 5.51012976948e-39
-0.00987152215763 -0.12339402697 0.889 1.20552109406e-38
-0.00822626846469 -0.12339402697 0.889 1.78649130983e-38
-0.00658101477175 -0.12339402697 0.889 5.70312780437e-39
-0.00493576107881 -0.12339402697 0.889 1.78635328194e-38
-0.00329050738588 -0.12339402697 0.889 1.75897401189e-38
-0.00164525369294 -0.12339402697 0.889 2.8469003809e-39
0.0 -0.12339402697 0.889 1.81444707407e-38
0.00164525369294 -0.12339402697 0.889 1.79581653072e-38
0.00329050738588 -0.12339402697 0.889 2.66322938858e-39
0.00493576107881 -0.12339402697 0.889 2.01623699566e-38
0.00658101477175 -0.12339402697 0.889 1.74968396359e-38
0.00822626846469 -0.12339402697 0.889 3.39791335785e-39
0.00987152215763 -0.12339402697 0.889 1.75061764876e-38
0.0115167758506 -0.12339402697 0.889 1.10425009482e-38
0.0131620295435 -0.12339402697 0.889 1.46936793853e-39
0.0148072832364 -0.12339402697 0.889 1.86085962063e-38
0.0164525369294 -0.12339402697 0.889 1.18726077377e-38
0.0180977906223 -0.12339402697 0.889 8.73481601246e-39
0.0197430443153 -0.12339402697 0.889 1.84223874625e-38
0.0213882980082 -0.12339402697 0.889 5.32645877716e-39
0.0230853707151 -0.123671628831 0.891 1.8679714906e-38
0.0247343257662 -0.123671628831 0.891 1.7678335813e-38
0.026324059087 -0.12339402697 0.889 1.40831168288e-38
0.0279693127799 -0.12339402697 0.889 1.83258716295e-38
0.0296811909194 -0.123671628831 0.891 1.60220654879e-38
0.0315762862867 -0.124643235342 0.898 1.82365668783e-38
0.0332381960913 -0.124643235342 0.898 5.23462328101e-39
0.0350166986772 -0.125059638133 0.901 1.01083981945e-38
0.0367655903981 -0.125337239993 0.903 1.22327750742e-38
-0.0299143764822 -0.122981325538 0.898 1.43586275212e-38
-0.0282524666776 -0.122981325538 0.898 5.60304146286e-39
-0.0266793894684 -0.123392176291 0.901 8.5410598751e-39
-0.0249286470685 -0.122981325538 0.898 1.02959788095e-38
-0.0232667372639 -0.122981325538 0.898 5.51012976948e-39
-0.021436415664 -0.12202267378 0.891 7.26616553875e-39
-0.0197874606129 -0.12202267378 0.891 1.58420238586e-38
-0.0181385055618 -0.12202267378 0.891 2.02038091548e-39
-0.0164895505108 -0.12202267378 0.891 5.89475536937e-39
-0.0148405954597 -0.12202267378 0.891 1.5014747692e-38
-0.0131916404086 -0.12202267378 0.891 1.06780288228e-38
-0.0115426853575 -0.12202267378 0.891 1.73921626406e-38
-0.00989373030646 -0.12202267378 0.891 1.53738360287e-38
-0.00824477525538 -0.12202267378 0.891 1.8599941787e-38
-0.00659582020431 -0.12202267378 0.891 2.66322938858e-39
-0.00494686515323 -0.12202267378 0.891 1.74090020443e-38
-0.00329050738588 -0.121748773277 0.889 1.69432903087e-38
-0.00164525369294 -0.121748773277 0.889 1.92854541932e-39
0.0 -0.121748773277 0.889 1.80504758436e-38
0.00164525369294 -0.121748773277 0.889 1.85077489598e-38
0.00329050738588 -0.121748773277 0.889 3.67341984632e-39
0.00493576107881 -0.121748773277 0.889 1.7959727755e-38
0.00658101477175 -0.121748773277 0.889 1.78627326779e-38
0.00822626846469 -0.121748773277 0.889 3.39791335785e-39
0.00987152215763 -0.121748773277 0.889 1.73199803554e-38
0.0115167758506 -0.121748773277 0.889 1.28831569278e-38
0.0131620295435 -0.121748773277 0.889 3.58158435016e-39
0.0148072832364 -0.121748773277 0.889 1.75007772846e-38
0.0164525369294 -0.121748773277 0.889 9.29009314064e-39
0.0180977906223 -0.121748773277 0.889 1.31562419725e-38
0.0198540850594 -0.122433524533 0.894 1.71312983198e-38
0.0215085921477 -0.122433524533 0.894 1.64826778983e-38
0.023163099236 -0.122433524533 0.894 9.47878638665e-39
0.0248176063243 -0.122433524533 0.894 1.60285254738e-38
0.0264721134126 -0.122433524533 0.894 1.62100622886e-38
0.0281895435892 -0.122707425035 0.896 6.24732486559e-39
0.0299143764822 -0.122981325538 0.898 8.26519465422e-40
0.0316817749937 -0.123392176291 0.901 2.11221641163e-39
0.0333492368355 -0.123392176291 0.901 1.56120343469e-39
0.0350166986772 -0.123392176291 0.901 9.5566663514e-39
0.0367655903981 -0.123666076794 0.903 1.13983634958e-38
-0.0299143764822 -0.121319415733 0.898 1.43600792664e-38
-0.0282524666776 -0.121319415733 0.898 5.33004610123e-39
-0.0266793894684 -0.121724714449 0.901 8.5410598751e-39
-0.0249286470685 -0.121319415733 0.898 1.07555248318e-38
-0.0232667372639 -0.121319415733 0.898 4.22443282327e-39
-0.0215567098035 -0.121049216589 0.896 1.0029167378e-38
-0.0198540850594 -0.120779017445 0.894 1.60256864431e-38
-0.0181995779711 -0.120779017445 0.894 2.38772290011e-39
-0.0165450708829 -0.120779017445 0.894 1.32621212819e-38
-0.0148905637946 -0.120779017445 0.894 1.53777820852e-38
-0.0132360567063 -0.120779017445 0.894 2.38772290011e-39
-0.011581549618 -0.120779017445 0.894 1.68497662479e-38
-0.00992704252972 -0.120779017445 0.894 1.59284363297e-38
-0.00827253544143 -0.120779017445 0.894 8.00367872961e-39
-0.00661802835314 -0.120779017445 0.894 2.75506488474e-40
-0.00494686515323 -0.120373718729 0.891 1.7779945366e-38
-0.00329791010215 -0.120373718729 0.891 1.58348071715e-38
-0.00164895505108 -0.120373718729 0.891 1.83670992316e-39
0.0 -0.120103519584 0.889 1.8517450149e-38
0.00164525369294 -0.120103519584 0.889 1.72148507407e-38
0.00329050738588 -0.120103519584 0.889 2.66322938858e-39
0.00493576107881 -0.120103519584 0.889 1.81466245364e-38
0.00658101477175 -0.120103519584 0.889 1.74010328599e-38
0.00822626846469 -0.120103519584 0.889 5.96930725027e-39
0.00987152215763 -0.120103519584 0.889 1.90630849425e-38
0.0115167758506 -0.120103519584 0.889 1.54628016656e-38
0.0131620295435 -0.120103519584 0.889 1.62014316913e-38
0.0148072832364 -0.120103519584 0.889 1.80481903258e-38
0.0164525369294 -0.120103519584 0.889 7.07707292268e-39
0.0181385055618 -0.120373718729 0.891 5.14674785431e-39
0.0198540850594 -0.120779017445 0.894 1.55693830255e-38
0.0215567098035 -0.121049216589 0.896 1.23346550777e-38
0.02321491825 -0.121049216589 0.896 1.65303893084e-39
0.0248731266964 -0.121049216589 0.896 0.0
0.0265313351428 -0.121049216589 0.896 5.51012976948e-40
0.0282524666776 -0.121319415733 0.898 2.93873587706e-39
0.0300809375984 -0.121994913594 0.903 6.79726164532e-39
0.0317521007983 -0.121994913594 0.903 5.32645877716e-39
0.0334232639983 -0.121994913594 0.903 8.44886564654e-39
0.0350944271982 -0.121994913594 0.903 1.31414554712e-38
0.0368877352167 -0.12240021231 0.906 1.23188708518e-38
-0.0318575895053 -0.120723497073 0.906 2.17266422349e-38
-0.0300809375984 -0.120323750394 0.903 1.3622145686e-38
-0.0284097743985 -0.120323750394 0.903 5.60627005452e-39
-0.0267386111986 -0.120323750394 0.903 8.5410598751e-39
-0.0250119276266 -0.120057252608 0.901 1.05736376924e-38
-0.0233444657848 -0.120057252608 0.901 3.39791335785e-39
-0.0216048274593 -0.119657505929 0.898 1.12313006929e-38
-0.0198985013571 -0.119391008143 0.896 1.48278747327e-38
-0.0181995779711 -0.119124510357 0.894 2.29588740395e-39
-0.0165450708829 -0.119124510357 0.894 1.51917905426e-38
-0.0148905637946 -0.119124510357 0.894 1.69425868569e-38
-0.0132360567063 -0.119124510357 0.894 2.29588740395e-39
-0.011581549618 -0.119124510357 0.894 1.58470839474e-38
-0.00992704252972 -0.119124510357 0.894 1.72181087597e-38
-0.00827253544143 -0.119124510357 0.894 3.12240686937e-39
-0.00661802835314 -0.119124510357 0.894 0.0
-0.00496352126486 -0.119124510357 0.894 1.74100684324e-38
-0.00329791010215 -0.118724763678 0.891 1.29782210156e-38
-0.00164895505108 -0.118724763678 0.891 1.744874427e-39
0.0 -0.118724763678 0.891 1.7871747231e-38
0.00164525369294 -0.118458265892 0.889 1.58319373123e-38
0.00329050738588 -0.118458265892 0.889 2.47955839627e-39
0.00493576107881 -0.118458265892 0.889 1.74107746868e-38
0.00658101477175 -0.118458265892 0.889 1.73988804655e-38
0.00822626846469 -0.118458265892 0.889 9.93365907856e-39
0.00987152215763 -0.118458265892 0.889 1.38087201687e-38
0.0115167758506 -0.118458265892 0.889 1.63912095424e-38
0.0131620295435 -0.118458265892 0.889 1.34377572288e-38
0.0148072832364 -0.118458265892 0.889 1.89712648606e-38
0.0164525369294 -0.118458265892 0.889 5.78599499036e-39
0.0182402929107 -0.119391008143 0.896 9.1835496158e-41
0.0198985013571 -0.119391008143 0.896 2.02038091548e-39
0.0215567098035 -0.119391008143 0.896 1.83670992316e-40
0.0232667372639 -0.119657505929 0.898 3.30607786169e-39
0.0249286470685 -0.119657505929 0.898 5.05095228869e-39
0.026590556873 -0.119657505929 0.898 4.49993931174e-39
0.0283468513102 -0.120057252608 0.901 9.5544803258e-39
0.0300809375984 -0.120323750394 0.903 1.03774110659e-38
0.0317521007983 -0.120323750394 0.903 1.0469246562e-38
0.0334232639983 -0.120323750394 0.903 1.14794370197e-38
0.0352110199796 -0.120723497073 0.906 1.64568687832e-38
0.0368877352167 -0.120723497073 0.906 1.06557874136e-38
-0.0318575895053 -0.119046781836 0.906 2.02504611832e-38
-0.0301808742682 -0.119046781836 0.906 1.40813245681e-38
-0.0285041590311 -0.119046781836 0.906 5.60627005452e-39
-0.026827443794 -0.119046781836 0.906 8.26519465422e-39
-0.0250674479987 -0.118652587194 0.903 1.06643969913e-38
-0.0233962847988 -0.118652587194 0.903 2.66322938858e-39
-0.0216770039431 -0.118389790766 0.901 1.27935943378e-38
-0.0198985013571 -0.117732799696 0.896 1.35364086407e-38
-0.0182402929107 -0.117732799696 0.896 6.79582671569e-39
-0.0165820844643 -0.117732799696 0.896 1.52856032709e-38
-0.0148905637946 -0.117470003268 0.894 1.19683892903e-38
-0.0132360567063 -0.117470003268 0.894 2.75506488474e-40
-0.011581549618 -0.117470003268 0.894 1.70412929194e-38
-0.00992704252972 -0.117470003268 0.894 1.31615332755e-38
-0.00827253544143 -0.117470003268 0.894 2.47955839627e-39
-0.00661802835314 -0.117470003268 0.894 1.74631215923e-39
-0.00494686515323 -0.117075808626 0.891 1.84223874625e-38
-0.00329791010215 -0.117075808626 0.891 1.08584712235e-38
-0.00164895505108 -0.117075808626 0.891 1.83670992316e-39
0.0 -0.117075808626 0.891 1.84252965581e-38
0.00164895505108 -0.117075808626 0.891 1.27938325585e-38
0.00329791010215 -0.117075808626 0.891 1.83670992316e-39
0.00494686515323 -0.117075808626 0.891 1.82405073296e-38
0.00659582020431 -0.117075808626 0.891 1.61124660544e-38
0.00824477525538 -0.117075808626 0.891 3.94892633479e-39
0.00987152215763 -0.116813012199 0.889 1.83670992316e-40
0.0115167758506 -0.116813012199 0.889 2.66322938858e-39
0.0131620295435 -0.116813012199 0.889 6.43568600387e-39
0.0148405954597 -0.117075808626 0.891 1.7683373481e-38
0.0164895505108 -0.117075808626 0.891 4.5917748079e-39
0.0182402929107 -0.117732799696 0.896 2.11221641163e-39
0.0198985013571 -0.117732799696 0.896 4.49993931174e-39
0.0216048274593 -0.117995596124 0.898 5.96930725027e-39
0.0232667372639 -0.117995596124 0.898 8.0815236619e-39
0.0249286470685 -0.117995596124 0.898 8.81620763117e-39
0.026590556873 -0.117995596124 0.898 1.07447530505e-38
0.0283468513102 -0.118389790766 0.901 1.14794370197e-38
0.0300809375984 -0.118652587194 0.903 1.23059564852e-38
0.0318575895053 -0.119046781836 0.906 1.24896274775e-38
0.0335343047424 -0.119046781836 0.906 1.26732984698e-38
0.0352110199796 -0.119046781836 0.906 1.61763386397e-38
0.0368877352167 -0.119046781836 0.906 1.0561799523e-38
-0.0337933998122 -0.118276899343 0.913 1.72980976786e-38
-0.0319982411146 -0.117888256738 0.91 1.9879177346e-38
-0.0302474987147 -0.117629161668 0.908 1.44497413486e-38
-0.0285041590311 -0.117370066599 0.906 5.8821352754e-39
-0.026827443794 -0.117370066599 0.906 8.17335915806e-39
-0.0250674479987 -0.116981423994 0.903 1.22306479031e-38
-0.0233962847988 -0.116981423994 0.903 2.02038091548e-39
-0.0217251215989 -0.116981423994 0.903 1.45460133557e-38
-0.0199429176548 -0.11633368632 0.898 1.18761950617e-38
-0.0182402929107 -0.11607459125 0.896 1.52805670042e-38
-0.0165820844643 -0.11607459125 0.896 1.4729552626e-38
-0.0149238760178 -0.11607459125 0.896 1.28569694621e-39
-0.0132656675714 -0.11607459125 0.896 0.0
-0.011607459125 -0.11607459125 0.896 1.75951659466e-38
-0.00992704252972 -0.11581549618 0.894 1.00290818988e-38
-0.00827253544143 -0.11581549618 0.894 8.26519465422e-40
-0.00661802835314 -0.11581549618 0.894 7.09185802277e-39
-0.00494686515323 -0.115426853575 0.891 1.71309606069e-38
-0.00329791010215 -0.115426853575 0.891 1.35274403306e-38
-0.00164895505108 -0.115426853575 0.891 6.88766221185e-39
0.0 -0.115426853575 0.891 1.78720975556e-38
0.00164895505108 -0.115426853575 0.891 9.29547412674e-39
0.00330901417657 -0.11581549618 0.894 7.34683969264e-40
0.00496352126486 -0.11581549618 0.894 5.14314651725e-39
0.00661802835314 -0.11581549618 0.894 4.22443282327e-39
0.00824477525538 -0.115426853575 0.891 1.31526518459e-38
0.00989373030646 -0.115426853575 0.891 8.54645487419e-39
0.0115426853575 -0.115426853575 0.891 6.15297824259e-39
0.0131916404086 -0.115426853575 0.891 1.77599474356e-38
0.0149238760178 -0.11607459125 0.896 1.74928711587e-38
0.0165820844643 -0.11607459125 0.896 3.85709083864e-39
0.0182402929107 -0.11607459125 0.896 5.41829427332e-39
0.0199429176548 -0.11633368632 0.898 7.80601717343e-39
0.0216048274593 -0.11633368632 0.898 8.99987862348e-39
0.0233444657848 -0.116722328924 0.901 9.45905610427e-39
0.0250119276266 -0.116722328924 0.901 1.0469246562e-38
0.0266793894684 -0.116722328924 0.901 1.19386145005e-38
0.0284097743985 -0.116981423994 0.903 1.24896274775e-38
0.0300809375984 -0.116981423994 0.903 1.26732984698e-38
0.0318575895053 -0.117370066599 0.906 1.25814629736e-38
0.0335343047424 -0.117370066599 0.906 1.29488049583e-38
0.0352110199796 -0.117370066599 0.906 1.4698701639e-38
0.0368877352167 -0.117370066599 0.906 1.07447530505e-38
-0.0337933998122 -0.116587229352 0.913 1.86835026158e-38
-0.0319982411146 -0.116204138785 0.91 2.01596920752e-38
-0.0302474987147 -0.115948745073 0.908 1.45415768448e-38
-0.0285670821194 -0.115948745073 0.908 4.68432776887e-39
-0.026827443794 -0.115693351361 0.906 7.89785266959e-39
-0.0251507285568 -0.115693351361 0.906 1.10310327216e-38
-0.0234740133197 -0.115693351361 0.906 2.02038091548e-39
-0.0217251215989 -0.115310260794 0.903 1.46349593744e-38
-0.0200095421013 -0.115054867082 0.901 1.34391921585e-38
-0.0182810078502 -0.114671776515 0.898 1.18747601321e-38
-0.0166190980456 -0.114671776515 0.898 2.29588740395e-39
-0.0149238760178 -0.114416382803 0.896 1.28569694621e-39
-0.0132656675714 -0.114416382803 0.896 2.75506488474e-40
-0.011607459125 -0.114416382803 0.896 1.69501664803e-38
-0.00994925067855 -0.114416382803 0.896 7.08101897915e-39
-0.00829104223213 -0.114416382803 0.896 1.83670992316e-40
-0.0066328337857 -0.114416382803 0.896 1.12330985588e-38
-0.00496352126486 -0.114160989092 0.894 1.59328097822e-38
-0.00330901417657 -0.114160989092 0.894 1.6294344786e-38
-0.00165450708829 -0.114160989092 0.894 6.52319008647e-39
0.0 -0.114160989092 0.894 5.88392893744e-39
0.00165450708829 -0.114160989092 0.894 2.93873587706e-39
0.00330901417657 -0.114160989092 0.894 3.67341984632e-39
0.00496352126486 -0.114160989092 0.894 5.32645877716e-39
0.00661802835314 -0.114160989092 0.894 1.46936793853e-39
0.00827253544143 -0.114160989092 0.894 1.33438674291e-38
0.00994925067855 -0.114416382803 0.896 1.62061372516e-38
0.011607459125 -0.114416382803 0.896 1.6293997264e-38
0.0132656675714 -0.114416382803 0.896 1.69357919607e-38
0.0149238760178 -0.114416382803 0.896 1.23289153592e-38
0.0165820844643 -0.114416382803 0.896 3.12240686937e-39
0.0182810078502 -0.114671776515 0.898 6.88766221185e-39
0.0199429176548 -0.114671776515 0.898 9.64272709659e-39
0.0216770039431 -0.115054867082 0.901 1.02855755697e-38
0.0233444657848 -0.115054867082 0.901 1.0469246562e-38
0.0250119276266 -0.115054867082 0.901 1.42366697132e-38
0.0266793894684 -0.115054867082 0.901 1.32243689e-38
0.0284097743985 -0.115310260794 0.903 1.58033578301e-38
0.0301808742682 -0.115693351361 0.906 1.47894609379e-38
0.0318575895053 -0.115693351361 0.906 1.22144797214e-38
0.0335343047424 -0.115693351361 0.906 1.93163542256e-38
0.0352110199796 -0.115693351361 0.906 1.05653952548e-38
0.0368877352167 -0.115693351361 0.906 1.12957660274e-38
-0.033867426975 -0.115149251715 0.915 1.8774624851e-38
-0.0319982411146 -0.114520020831 0.91 2.0158615878e-38
-0.0302474987147 -0.114268328478 0.908 1.32533687717e-38
-0.0285670821194 -0.114268328478 0.908 5.32789370679e-39
-0.0268866655242 -0.114268328478 0.908 8.72437213501e-39
-0.0251507285568 -0.114016636124 0.906 1.07537297684e-38
-0.0234740133197 -0.114016636124 0.906 2.02038091548e-39
-0.0217972980826 -0.114016636124 0.906 1.52785533383e-38
-0.0200095421013 -0.113387405241 0.901 1.23353725425e-38
-0.0182810078502 -0.11300986671 0.898 1.92854541932e-39
-0.0166190980456 -0.11300986671 0.898 1.92890415172e-39
-0.0149238760178 -0.112758174357 0.896 4.68361030406e-39
-0.0132656675714 -0.112758174357 0.896 4.77868560227e-39
-0.011607459125 -0.112758174357 0.896 1.69469266783e-38
-0.00994925067855 -0.112758174357 0.896 5.69774681827e-39
-0.00829104223213 -0.112758174357 0.896 0.0
-0.0066328337857 -0.112758174357 0.896 2.75506488474e-40
-0.00496352126486 -0.112506482003 0.894 1.25265909284e-38
-0.00330901417657 -0.112506482003 0.894 3.85709083864e-39
-0.00165450708829 -0.112506482003 0.894 2.20405190779e-39
0.0 -0.112758174357 0.896 4.31626831943e-39
0.00165450708829 -0.112506482003 0.894 7.25823278814e-39
0.00330901417657 -0.112506482003 0.894 8.91270664861e-39
0.00496352126486 -0.112506482003 0.894 1.01998385245e-38
0.00661802835314 -0.112506482003 0.894 7.80601717343e-39
0.00827253544143 -0.112506482003 0.894 1.37753244237e-39
0.00994925067855 -0.112758174357 0.896 4.40810381558e-39
0.011581549618 -0.112506482003 0.894 1.16771812525e-38
0.0132360567063 -0.112506482003 0.894 8.0815236619e-39
0.0149238760178 -0.112758174357 0.896 2.47955839627e-39
0.0165820844643 -0.112758174357 0.896 4.5917748079e-39
0.0182810078502 -0.11300986671 0.898 8.90804312733e-39
0.0199429176548 -0.11300986671 0.898 1.0469246562e-38
0.0216770039431 -0.113387405241 0.901 1.09284240428e-38
0.0233962847988 -0.113639097594 0.903 1.07447530505e-38
0.0250674479987 -0.113639097594 0.903 2.25310365989e-38
0.0267386111986 -0.113639097594 0.903 9.82890921575e-39
0.0284097743985 -0.113639097594 0.903 1.59084257876e-38
0.0301808742682 -0.114016636124 0.906 1.85853360531e-38
0.0318575895053 -0.114016636124 0.906 8.54070114269e-39
0.0335343047424 -0.114016636124 0.906 2.34710220035e-38
0.0352110199796 -0.114016636124 0.906 9.27789623881e-39
0.0368877352167 -0.114016636124 0.906 1.07447530505e-38
-0.0340524948819 -0.114075857855 0.92 1.92363260703e-38
-0.0321037298216 -0.113207889371 0.913 2.13578849388e-38
-0.0303141231612 -0.112835902878 0.91 1.29771602327e-38
-0.0286300052078 -0.112835902878 0.91 5.32717624198e-39
-0.0268866655242 -0.112587911883 0.908 7.89785266959e-39
-0.0252062489289 -0.112587911883 0.908 1.07515745714e-38
-0.0235258323337 -0.112587911883 0.908 2.66322938858e-39
-0.0217972980826 -0.112339920887 0.906 1.50090934527e-38
-0.020053958399 -0.111967934394 0.903 1.02145465531e-38
-0.0183420802595 -0.111719943399 0.901 1.65303893084e-39
-0.0166746184177 -0.111719943399 0.901 6.88982441538e-39
-0.0149571882411 -0.111347956906 0.898 6.06114274643e-39
-0.0132952784365 -0.111347956906 0.898 1.14077648072e-38
-0.011633368632 -0.111347956906 0.898 1.66710964898e-38
-0.00997145882739 -0.111347956906 0.898 2.75506488474e-39
-0.00829104223213 -0.11109996591 0.896 0.0
-0.0066328337857 -0.11109996591 0.896 4.96342578531e-39
-0.00497462533928 -0.11109996591 0.896 3.12240686937e-39
-0.00331641689285 -0.11109996591 0.896 4.13259732711e-39
-0.00165820844643 -0.11109996591 0.896 8.27276446852e-39
0.0 -0.11109996591 0.896 1.02963375419e-38
0.00165820844643 -0.11109996591 0.896 1.06550699488e-38
0.00331641689285 -0.11109996591 0.896 1.15712725159e-38
0.00497462533928 -0.11109996591 0.896 1.16649016741e-38
0.0066328337857 -0.11109996591 0.896 1.06529175543e-38
0.00829104223213 -0.11109996591 0.896 7.71418167727e-39
0.00994925067855 -0.11109996591 0.896 5.6938007618e-39
0.011581549618 -0.110851974915 0.894 4.68361030406e-39
0.0132360567063 -0.110851974915 0.894 5.23462328101e-39
0.0149238760178 -0.11109996591 0.896 6.15297824259e-39
0.0165820844643 -0.11109996591 0.896 9.00023735589e-39
0.0182810078502 -0.111347956906 0.898 1.06529175543e-38
0.0199429176548 -0.111347956906 0.898 1.1020259539e-38
0.0217251215989 -0.111967934394 0.903 1.15712725159e-38
0.0233962847988 -0.111967934394 0.903 1.09284240428e-38
0.0250674479987 -0.111967934394 0.903 1.97666124417e-38
0.0267386111986 -0.111967934394 0.903 1.11142474296e-38
0.0284097743985 -0.111967934394 0.903 1.18554404302e-38
0.0301808742682 -0.112339920887 0.906 1.02856358255e-38
0.0318575895053 -0.112339920887 0.906 1.17549435082e-38
0.0335343047424 -0.112339920887 0.906 2.34584467511e-38
0.0352110199796 -0.112339920887 0.906 9.27574384436e-39
0.0368877352167 -0.112339920887 0.906 1.05610820582e-38
-0.0340524948819 -0.11237323311 0.92 1.93285273054e-38
-0.0321740556262 -0.111762509017 0.915 2.18181568337e-38
-0.030414059831 -0.11151821938 0.913 1.37133029537e-38
-0.0287243898404 -0.11151821938 0.913 5.05095228869e-39
-0.0269458872544 -0.111151784924 0.91 7.98968816575e-39
-0.0252062489289 -0.110907495287 0.908 1.08437702013e-38
-0.0235258323337 -0.110907495287 0.908 2.93873587706e-39
-0.0218454157384 -0.110907495287 0.908 1.52881592393e-38
-0.0201649991431 -0.110907495287 0.908 6.61897163911e-39
-0.0184438676083 -0.11066320565 0.906 2.11221641163e-39
-0.0167671523712 -0.11066320565 0.906 9.37583018588e-39
-0.0150404687992 -0.110296771194 0.903 6.79582671569e-39
-0.0133396947342 -0.110052481557 0.901 8.36386428299e-39
-0.0116722328924 -0.110052481557 0.901 4.22443282327e-39
-0.0100047710506 -0.110052481557 0.901 3.03057137321e-39
-0.00830954902282 -0.109686047101 0.898 5.14278778485e-39
-0.00664763921826 -0.109686047101 0.898 9.19036553153e-39
-0.00498572941369 -0.109686047101 0.898 9.92756062764e-39
-0.00332381960913 -0.109686047101 0.898 1.0665831921e-38
-0.00166190980456 -0.109686047101 0.898 1.12157687007e-38
0.0 -0.109686047101 0.898 1.23167184574e-38
0.00166190980456 -0.109686047101 0.898 1.17549435082e-38
0.00332381960913 -0.109686047101 0.898 1.47012211736e-38
0.00498572941369 -0.109686047101 0.898 1.46255356423e-38
0.00664763921826 -0.109686047101 0.898 1.16774573083e-38
0.00829104223213 -0.109441757464 0.896 1.00100690812e-38
0.00994925067855 -0.109441757464 0.896 9.09171411964e-39
0.011607459125 -0.109441757464 0.896 1.02855755697e-38
0.0132656675714 -0.109441757464 0.896 9.82639808891e-39
0.0149238760178 -0.109441757464 0.896 1.00100690812e-38
0.0165820844643 -0.109441757464 0.896 1.31360674786e-38
0.0182810078502 -0.109686047101 0.898 1.16631080121e-38
0.0200095421013 -0.110052481557 0.901 1.16631080121e-38
0.0217251215989 -0.110296771194 0.903 1.17549435082e-38
0.0233962847988 -0.110296771194 0.903 1.5158955317e-38
0.0250674479987 -0.110296771194 0.903 1.34998179352e-38
0.0267386111986 -0.110296771194 0.903 1.20304499967e-38
0.0284097743985 -0.110296771194 0.903 1.39729859799e-38
0.0301808742682 -0.11066320565 0.906 1.62767879176e-38
0.0318575895053 -0.11066320565 0.906 2.10768209006e-38
0.0335343047424 -0.11066320565 0.906 2.02544660942e-38
0.0352110199796 -0.11066320565 0.906 1.03774110659e-38
0.0368877352167 -0.11066320565 0.906 9.64272709659e-39
-0.0341635356261 -0.111031490785 0.923 1.96054967494e-38
-0.0322795443332 -0.110430020087 0.918 2.14493392818e-38
-0.0304806842775 -0.110069137669 0.915 1.35281662032e-38
-0.0287873129287 -0.110069137669 0.915 5.97181837712e-39
-0.0270347198498 -0.10982854939 0.913 7.89785266959e-39
-0.025261769301 -0.109467666971 0.91 1.04742688157e-38
-0.0235776513476 -0.109467666971 0.91 2.38772290011e-39
-0.0218454157384 -0.109227078692 0.908 1.53800101497e-38
-0.0201649991431 -0.109227078692 0.908 4.40810381558e-39
-0.0184845825479 -0.109227078692 0.908 3.12240686937e-39
-0.0167671523712 -0.108986490413 0.906 9.74568329736e-39
-0.0150404687992 -0.108625607994 0.903 8.63253663885e-39
-0.0133693055993 -0.108625607994 0.903 4.13259732711e-39
-0.0116981423994 -0.108625607994 0.903 3.489748854e-39
-0.0100047710506 -0.108385019715 0.901 6.79726164532e-39
-0.00833730920887 -0.108385019715 0.901 9.55555512172e-39
-0.00666984736709 -0.108385019715 0.901 1.15773709668e-38
-0.00498572941369 -0.108024137297 0.898 1.18571822442e-38
-0.00332381960913 -0.108024137297 0.898 1.30542722859e-38
-0.00166746184177 -0.108385019715 0.901 1.40687675325e-38
0.0 -0.108385019715 0.901 1.32336384893e-38
0.00166746184177 -0.108385019715 0.901 1.99760463063e-38
0.00333492368355 -0.108385019715 0.901 1.86961955772e-38
0.00498572941369 -0.108024137297 0.898 1.64831543398e-38
0.00664763921826 -0.108024137297 0.898 2.01684642036e-38
0.00830954902282 -0.108024137297 0.898 1.72210935254e-38
0.00997145882739 -0.108024137297 0.898 9.73456259275e-39
0.011633368632 -0.108024137297 0.898 1.05610820582e-38
0.0132952784365 -0.108024137297 0.898 1.07447530505e-38
0.0149571882411 -0.108024137297 0.898 1.17549435082e-38
0.0166190980456 -0.108024137297 0.898 1.90492807513e-38
0.0183420802595 -0.108385019715 0.901 1.12957660274e-38
0.0200095421013 -0.108385019715 0.901 1.2214120989e-38
0.0217251215989 -0.108625607994 0.903 1.19386145005e-38
0.0233962847988 -0.108625607994 0.903 1.69142512007e-38
0.0251507285568 -0.108986490413 0.906 2.24452659225e-38
0.026827443794 -0.108986490413 0.906 1.77764323107e-38
0.0285041590311 -0.108986490413 0.906 2.03539092398e-38
0.0302474987147 -0.109227078692 0.908 1.2970368139e-38
0.03192791531 -0.109227078692 0.908 2.02366485843e-38
0.0336083319052 -0.109227078692 0.908 1.99808037145e-38
0.0352887485005 -0.109227078692 0.908 1.01019045774e-38
0.0369691650957 -0.109227078692 0.908 9.09171411964e-39
-0.0341635356261 -0.109323314004 0.923 1.87764129078e-38
-0.0323498701378 -0.108967983622 0.92 2.22794628869e-38
-0.0306472453938 -0.108967983622 0.92 1.26098042351e-38
-0.0288816975613 -0.108731096701 0.918 5.60196526564e-39
-0.02709394158 -0.10837576632 0.915 7.89785266959e-39
-0.0253450498591 -0.108138879399 0.913 9.92289710635e-39
-0.0236553798685 -0.108138879399 0.913 2.20405190779e-39
-0.0218935333942 -0.107783549018 0.91 1.44583831562e-38
-0.0201649991431 -0.107546662097 0.908 3.30607786169e-39
-0.0184845825479 -0.107546662097 0.908 3.85709083864e-39
-0.0168041659526 -0.107546662097 0.908 1.04818021963e-38
-0.0150904371341 -0.107309775176 0.906 1.02855755697e-38
-0.0133693055993 -0.106954444794 0.903 8.26519465422e-39
-0.0116981423994 -0.106954444794 0.903 8.54070114269e-39
-0.0100269791995 -0.106954444794 0.903 9.91859231747e-39
-0.00833730920887 -0.106717557874 0.901 1.13011470135e-38
-0.00666984736709 -0.106717557874 0.901 1.3785373135e-38
-0.00500238552532 -0.106717557874 0.901 1.25003894497e-38
-0.00333492368355 -0.106717557874 0.901 1.36031328684e-38
-0.00166746184177 -0.106717557874 0.901 1.6000576576e-38
0.0 -0.106717557874 0.901 1.6372911387e-38
0.00166746184177 -0.106717557874 0.901 2.05379669905e-38
0.00333492368355 -0.106717557874 0.901 6.06114274643e-39
0.00500238552532 -0.106717557874 0.901 1.09284240428e-38
0.00664763921826 -0.106362227492 0.898 1.24896274775e-38
0.00830954902282 -0.106362227492 0.898 2.0904562083e-38
0.0100047710506 -0.106717557874 0.901 1.09514599883e-38
0.0116722328924 -0.106717557874 0.901 2.01674076246e-38
0.0133396947342 -0.106717557874 0.901 1.77699302858e-38
0.015007156576 -0.106717557874 0.901 1.86915572793e-38
0.0166746184177 -0.106717557874 0.901 1.83220026444e-38
0.018382795199 -0.106954444794 0.903 2.00739508261e-38
0.020053958399 -0.106954444794 0.903 1.8314117538e-38
0.0217251215989 -0.106954444794 0.903 1.79540314768e-38
0.0234740133197 -0.107309775176 0.906 1.82287560407e-38
0.0251507285568 -0.107309775176 0.906 1.67327844508e-38
0.026827443794 -0.107309775176 0.906 4.68432776887e-39
0.0285041590311 -0.107309775176 0.906 2.34659422966e-38
0.0302474987147 -0.107546662097 0.908 1.92457820324e-38
0.03192791531 -0.107546662097 0.908 1.48043371224e-38
0.0336083319052 -0.107546662097 0.908 2.03556818823e-38
0.0353664770214 -0.107783549018 0.91 8.72438614799e-39
-0.0342375627889 -0.107848322785 0.925 1.90540858037e-38
-0.0324553588448 -0.107615137222 0.923 2.07128658544e-38
-0.0306472453938 -0.107265358878 0.92 1.40827847211e-38
-0.0289446206497 -0.107265358878 0.92 5.51012976948e-39
-0.0271827741753 -0.107032173315 0.918 7.80601717343e-39
-0.0253450498591 -0.106449209408 0.913 8.99987862348e-39
-0.0236553798685 -0.106449209408 0.913 2.66322938858e-39
-0.0218935333942 -0.106099431064 0.91 5.51337237413e-39
-0.0201649991431 -0.105866245501 0.908 2.02038091548e-39
-0.0184845825479 -0.105866245501 0.908 4.5917748079e-39
-0.0168041659526 -0.105866245501 0.908 1.27805818802e-38
-0.0150904371341 -0.105633059939 0.906 9.46013230149e-39
-0.0133693055993 -0.105283281595 0.903 1.03774110659e-38
-0.0116981423994 -0.105283281595 0.903 1.07447530505e-38
-0.0100269791995 -0.105283281595 0.903 1.18474964692e-38
-0.00835581599956 -0.105283281595 0.903 1.23177946546e-38
-0.00668465279965 -0.105283281595 0.903 1.2957414536e-38
-0.00500238552532 -0.105050096032 0.901 1.32325622921e-38
-0.00333492368355 -0.105050096032 0.901 1.35080687806e-38
-0.00166746184177 -0.105050096032 0.901 1.46155345751e-38
0.0 -0.105283281595 0.903 2.0435279839e-38
0.00167116319991 -0.105283281595 0.903 1.71307069719e-38
0.00334232639983 -0.105283281595 0.903 1.16634667445e-38
0.00500238552532 -0.105050096032 0.901 1.38736171032e-38
0.00666984736709 -0.105050096032 0.901 1.28569694621e-38
0.00833730920887 -0.105050096032 0.901 2.12694321771e-38
0.0100047710506 -0.105050096032 0.901 3.03057137321e-39
0.0116722328924 -0.105050096032 0.901 2.05379824047e-38
0.0133396947342 -0.105050096032 0.901 6.42884346347e-39
0.015007156576 -0.105050096032 0.901 9.73456259275e-39
0.0166746184177 -0.105050096032 0.901 2.09956787131e-38
0.018382795199 -0.105283281595 0.903 1.8139100965e-38
0.020053958399 -0.105283281595 0.903 1.54556270175e-38
0.0217972980826 -0.105633059939 0.906 9.37304020064e-39
0.0234740133197 -0.105633059939 0.906 1.79536236989e-38
0.0251507285568 -0.105633059939 0.906 2.09851941979e-38
0.026827443794 -0.105633059939 0.906 1.17815737842e-38
0.0285670821194 -0.105866245501 0.908 2.13609509799e-38
0.0302474987147 -0.105866245501 0.908 6.52032022722e-39
0.0319982411146 -0.106099431064 0.91 9.27538511196e-39
0.033682359068 -0.106099431064 0.91 1.03774110659e-38
0.0354830698028 -0.106449209408 0.913 1.16631080121e-38
-0.0342375627889 -0.106136444646 0.925 1.85916657183e-38
-0.0324553588448 -0.105906960441 0.923 2.1541897848e-38
-0.0307471820635 -0.105906960441 0.923 8.45891015393e-39
-0.0289446206497 -0.105562734134 0.92 7.16316870032e-39
-0.0271827741753 -0.105333249929 0.918 7.71418167727e-39
-0.0254005702312 -0.104989023622 0.915 9.45905610427e-39
-0.0237071988825 -0.104989023622 0.915 7.89785266959e-39
-0.0219657098779 -0.104759539418 0.913 3.03057137321e-39
-0.0202094154408 -0.104415313111 0.91 4.68361310665e-39
-0.0185252974874 -0.104415313111 0.91 7.71418167727e-39
-0.0168041659526 -0.104185828906 0.908 1.12089597915e-38
-0.0151237493574 -0.104185828906 0.908 9.6434445614e-39
-0.013413721897 -0.103956344702 0.906 1.11120950351e-38
-0.0117370066599 -0.103956344702 0.906 1.13876015236e-38
-0.0100269791995 -0.103612118395 0.903 1.16631080121e-38
-0.00835581599956 -0.103612118395 0.903 1.31446728524e-38
-0.00668465279965 -0.103612118395 0.903 1.26847779068e-38
-0.00501348959974 -0.103612118395 0.903 1.35080687806e-38
-0.00334232639983 -0.103612118395 0.903 1.51682949713e-38
-0.00167116319991 -0.103612118395 0.903 1.22234480316e-38
0.0 -0.103612118395 0.903 1.94182608538e-38
0.00167116319991 -0.103612118395 0.903 1.7591317981e-38
0.00334232639983 -0.103612118395 0.903 1.17621181564e-38
0.00500238552532 -0.10338263419 0.901 1.35087862454e-38
0.00666984736709 -0.10338263419 0.901 1.49724200706e-38
0.00833730920887 -0.10338263419 0.901 2.01680634322e-38
0.0100269791995 -0.103612118395 0.903 4.40810381558e-39
0.0116981423994 -0.103612118395 0.903 1.98897039001e-38
0.0133693055993 -0.103612118395 0.903 8.63253663885e-39
0.0150404687992 -0.103612118395 0.903 1.64511570907e-38
0.0167116319991 -0.103612118395 0.903 1.97060511246e-38
0.018382795199 -0.103612118395 0.903 1.94301326544e-38
0.020053958399 -0.103612118395 0.903 8.54679959361e-39
0.0217972980826 -0.103956344702 0.906 1.40547923829e-38
0.0234740133197 -0.103956344702 0.906 1.73096920221e-38
0.0251507285568 -0.103956344702 0.906 1.02855755697e-38
0.0268866655242 -0.104185828906 0.908 1.0469246562e-38
0.0285670821194 -0.104185828906 0.908 1.01019045774e-38
0.0303141231612 -0.104415313111 0.91 1.08365885466e-38
0.0319982411146 -0.104415313111 0.91 1.2214120989e-38
0.0337933998122 -0.104759539418 0.913 1.30406404544e-38
0.0355607983237 -0.104989023622 0.915 1.08365885466e-38
0.0372541696725 -0.104989023622 0.915 1.580939042e-38
0.0397988533933 -0.107283865669 0.935 2.34920653026e-38
0.0415292383234 -0.107283865669 0.935 2.28392381831e-38
-0.0342375627889 -0.104424566506 0.925 1.90522781287e-38
-0.0324553588448 -0.10419878366 0.923 2.16337585675e-38
-0.0307471820635 -0.10419878366 0.923 9.56452343189e-39
-0.0289446206497 -0.10386010939 0.92 6.88766221185e-39
-0.0271827741753 -0.103634326543 0.918 8.44886564654e-39
-0.0254005702312 -0.103295652274 0.915 1.03820745871e-38
-0.0237071988825 -0.103295652274 0.915 8.35774761519e-39
-0.0219657098779 -0.103069869427 0.913 8.08188239431e-39
-0.0202094154408 -0.102731195157 0.91 8.26591211903e-39
-0.0185252974874 -0.102731195157 0.91 8.99987862348e-39
-0.0168041659526 -0.102505412311 0.908 1.01937400735e-38
-0.0151237493574 -0.102505412311 0.908 1.16727937871e-38
-0.013413721897 -0.102279629464 0.906 1.07447530505e-38
-0.0117370066599 -0.102279629464 0.906 1.13876015236e-38
-0.0100602914227 -0.102279629464 0.906 1.17549435082e-38
-0.00835581599956 -0.101940955195 0.903 1.37814368876e-38
-0.00668465279965 -0.101940955195 0.903 1.33287025771e-38
-0.00501348959974 -0.101940955195 0.903 1.30503262294e-38
-0.00334232639983 -0.101940955195 0.903 1.60931225304e-38
-0.00167116319991 -0.101940955195 0.903 1.37007080831e-38
0.0 -0.101940955195 0.903 1.60927469824e-38
0.00167116319991 -0.101940955195 0.903 1.98007508749e-38
0.00334232639983 -0.101940955195 0.903 9.83437988496e-39
0.00501348959974 -0.101940955195 0.903 1.38775631597e-38
0.00668465279965 -0.101940955195 0.903 2.13579550037e-38
0.00835581599956 -0.101940955195 0.903 1.57488277016e-38
0.0100269791995 -0.101940955195 0.903 1.53720633861e-38
0.0116981423994 -0.101940955195 0.903 2.09975186179e-38
0.0133693055993 -0.101940955195 0.903 1.41722099839e-38
0.0150404687992 -0.101940955195 0.903 1.30406404544e-38
0.0167671523712 -0.102279629464 0.906 1.3958995416e-38
0.0184438676083 -0.102279629464 0.906 1.89741949757e-38
0.0201205828455 -0.102279629464 0.906 1.66707335535e-38
0.0217972980826 -0.102279629464 0.906 1.35361578083e-38
0.0234740133197 -0.102279629464 0.906 7.89785266959e-39
0.0252062489289 -0.102505412311 0.908 1.03774110659e-38
0.0268866655242 -0.102505412311 0.908 1.23059564852e-38
0.0286300052078 -0.102731195157 0.91 1.24896274775e-38
0.0303141231612 -0.102731195157 0.91 1.21222854929e-38
0.0321037298216 -0.103069869427 0.913 1.21222854929e-38
0.033867426975 -0.103295652274 0.915 1.31324759506e-38
0.0356773911051 -0.103634326543 0.918 1.08365885466e-38
0.0375798891887 -0.10419878366 0.923 1.7288479166e-38
0.0395860253003 -0.104989023622 0.93 2.34921661961e-38
0.0415292383234 -0.105553480739 0.935 2.29317841376e-38
-0.0342375627889 -0.102712688367 0.925 1.80381542262e-38
-0.0324553588448 -0.102490606878 0.923 2.13553640029e-38
-0.0307471820635 -0.102490606878 0.923 9.28686454898e-39
-0.0290390052822 -0.102490606878 0.923 7.53051068496e-39
-0.0272419959056 -0.102157484646 0.92 8.81836002561e-39
-0.0254838507894 -0.101935403157 0.918 8.72437213501e-39
-0.0237849274034 -0.101935403157 0.918 9.09243158445e-39
-0.0220138275337 -0.101602280925 0.915 9.37296032662e-39
-0.0202760398873 -0.101380199437 0.913 9.37116666459e-39
-0.0185252974874 -0.101047077204 0.91 1.06557874136e-38
-0.0168041659526 -0.100824995716 0.908 1.01019045774e-38
-0.0151237493574 -0.100824995716 0.908 1.47073490518e-38
-0.013413721897 -0.100602914227 0.906 9.36722060812e-39
-0.0117370066599 -0.100602914227 0.906 1.13876015236e-38
-0.0100602914227 -0.100602914227 0.906 1.19386145005e-38
-0.00835581599956 -0.100269791995 0.903 1.26761683291e-38
-0.00668465279965 -0.100269791995 0.903 1.39754971067e-38
-0.00501348959974 -0.100269791995 0.903 1.43435565562e-38
-0.00334232639983 -0.100269791995 0.903 1.3887607667e-38
-0.00167116319991 -0.100269791995 0.903 1.43431978238e-38
0.0 -0.100269791995 0.903 1.45286638794e-38
0.00167116319991 -0.100269791995 0.903 1.53605629296e-38
0.00334232639983 -0.100269791995 0.903 1.95216724766e-38
0.00501348959974 -0.100269791995 0.903 1.82355761603e-38
0.00668465279965 -0.100269791995 0.903 1.49158272308e-38
0.00835581599956 -0.100269791995 0.903 9.83859499074e-39
0.0100269791995 -0.100269791995 0.903 1.37828578042e-38
0.0116981423994 -0.100269791995 0.903 1.33161469429e-38
0.013413721897 -0.100602914227 0.906 1.38671599199e-38
0.0150904371341 -0.100602914227 0.906 1.23059564852e-38
0.0167671523712 -0.100602914227 0.906 2.34565718138e-38
0.0184438676083 -0.100602914227 0.906 1.602292028e-38
0.0201205828455 -0.100602914227 0.906 1.64836111631e-38
0.0217972980826 -0.100602914227 0.906 6.52426628369e-39
0.0235258323337 -0.100824995716 0.908 1.02855755697e-38
0.0252062489289 -0.100824995716 0.908 1.18467790044e-38
0.0268866655242 -0.100824995716 0.908 1.23059564852e-38
0.0287243898404 -0.101380199437 0.913 1.25814629736e-38
0.030414059831 -0.101380199437 0.913 1.2214120989e-38
0.0321740556262 -0.101602280925 0.915 1.21222854929e-38
