# .PCD v0.7 - Point Cloud Data file format
VERSION 0.7
FIELDS x y z rgb
SIZE 4 4 4 4
TYPE F F F F
COUNT 1 1 1 1
WIDTH 845
HEIGHT 1
VIEWPOINT 0 0 0 1 0 0 0
POINTS 845
DATA ascii
0.0413515731327 -0.0871336719583 0.798 2.34732963109e-38
0.0427210756443 -0.086915291828 0.796 2.34765249026e-38
0.0441942161837 -0.086915291828 0.796 2.34722201137e-38
0.0456673567232 -0.086915291828 0.796 2.34747312406e-38
0.0471404972627 -0.086915291828 0.796 2.34715026489e-38
0.0486136378021 -0.086915291828 0.796 2.34729375785e-38
0.0499609321648 -0.0866969116978 0.794 2.34747312406e-38
0.0514303713462 -0.0866969116978 0.794 2.18859054106e-38
0.0528998105275 -0.0866969116978 0.794 2.34729375785e-38
0.0543692497088 -0.0866969116978 0.794 2.34743725082e-38
0.0558386888901 -0.0866969116978 0.794 2.34729375785e-38
0.057163775104 -0.0864785315676 0.792 2.3475089973e-38
0.0584814586016 -0.0862601514374 0.79 2.34809992486e-38
0.0599434950666 -0.0862601514374 0.79 2.3481306133e-38
0.0614055315317 -0.0862601514374 0.79 2.34936207439e-38
-0.0133582015249 -0.0860861876048 0.802 2.34953933864e-38
-0.0118443460459 -0.0858715088327 0.8 2.35022387294e-38
-0.0103378932832 -0.0856568300607 0.798 2.33084952037e-38
-0.00886105138558 -0.0856568300607 0.798 1.77608652861e-38
-0.00738420948799 -0.0856568300607 0.798 2.2460597529e-38
-0.00590736759039 -0.0856568300607 0.798 2.34831152093e-38
-0.00443052569279 -0.0856568300607 0.798 2.34869281424e-38
-0.00294628107892 -0.0854421512886 0.796 2.34840582832e-38
-0.00147314053946 -0.0854421512886 0.796 2.34829820859e-38
0.0 -0.0854421512886 0.796 2.348656941e-38
0.00147314053946 -0.0854421512886 0.796 2.34869281424e-38
0.00295368379519 -0.0856568300607 0.798 2.34862106776e-38
0.00443052569279 -0.0856568300607 0.798 2.34836995507e-38
0.00590736759039 -0.0856568300607 0.798 2.34829989015e-38
0.00738420948799 -0.0856568300607 0.798 2.34829820859e-38
0.00886105138558 -0.0856568300607 0.798 2.34862106776e-38
0.0103638027902 -0.0858715088327 0.8 2.34885340304e-38
0.0118443460459 -0.0858715088327 0.8 2.34869281424e-38
0.0133248893016 -0.0858715088327 0.8 2.35015296724e-38
0.0148054325574 -0.0858715088327 0.8 2.26637717933e-38
0.0162859758131 -0.0858715088327 0.8 2.34959651162e-38
0.0177665190688 -0.0858715088327 0.8 2.35032798942e-38
0.0192470623246 -0.0858715088327 0.8 2.35079546259e-38
0.0207276055803 -0.0858715088327 0.8 2.11828417411e-38
0.0222081488361 -0.0858715088327 0.8 2.34819170991e-38
0.0236294703616 -0.0856568300607 0.798 2.34740137758e-38
0.0251063122592 -0.0856568300607 0.798 2.3489475703e-38
0.0265831541568 -0.0856568300607 0.798 2.34982898704e-38
0.0280599960544 -0.0856568300607 0.798 2.34982492327e-38
0.0295368379519 -0.0856568300607 0.798 2.35018127347e-38
0.0310136798495 -0.0856568300607 0.798 2.35004100349e-38
0.0324905217471 -0.0856568300607 0.798 2.34928051882e-38
0.0339673636447 -0.0856568300607 0.798 2.34826233535e-38
0.0354442055423 -0.0856568300607 0.798 2.34643280008e-38
0.0369210474399 -0.0856568300607 0.798 2.34485437749e-38
0.0383978893375 -0.0856568300607 0.798 2.34783409854e-38
0.0397747945654 -0.0854421512886 0.796 2.34743725082e-38
0.0412479351048 -0.0854421512886 0.796 2.34722201137e-38
0.0427210756443 -0.0854421512886 0.796 2.3475089973e-38
0.0440831754396 -0.0852274725165 0.794 2.34725788461e-38
0.0455526146209 -0.0852274725165 0.794 2.34722201137e-38
0.0470220538022 -0.0852274725165 0.794 2.34743725082e-38
0.0484914929835 -0.0852274725165 0.794 2.34736550434e-38
0.0499609321648 -0.0852274725165 0.794 2.32691775714e-38
0.0514303713462 -0.0852274725165 0.794 2.34575190915e-38
0.0528998105275 -0.0852274725165 0.794 2.34715026489e-38
0.0542322994576 -0.0850127937444 0.792 2.34743725082e-38
0.0556980372808 -0.0850127937444 0.792 2.34729375785e-38
0.0570194221366 -0.0847981149723 0.79 2.34851428882e-38
0.0584814586016 -0.0847981149723 0.79 2.34791565411e-38
0.0599434950666 -0.0847981149723 0.79 2.34809179733e-38
0.0614055315317 -0.0847981149723 0.79 2.35019024178e-38
-0.0118147351808 -0.0841799881631 0.798 2.34982674496e-38
-0.0103119837762 -0.0839690107491 0.796 2.35040407993e-38
-0.00883884323675 -0.0839690107491 0.796 1.58302249255e-38
-0.00736570269729 -0.0839690107491 0.796 2.04377054866e-38
-0.00589256215783 -0.0839690107491 0.796 2.34729403811e-38
-0.00441942161837 -0.0839690107491 0.796 2.34831222158e-38
-0.00294628107892 -0.0839690107491 0.796 2.34844604558e-38
-0.00147314053946 -0.0839690107491 0.796 2.34862106776e-38
0.0 -0.0839690107491 0.796 2.34862106776e-38
0.00147314053946 -0.0839690107491 0.796 2.34836995507e-38
0.00294628107892 -0.0839690107491 0.796 2.348656941e-38
0.00443052569279 -0.0841799881631 0.798 2.34815471563e-38
0.00590736759039 -0.0841799881631 0.798 2.34797534943e-38
0.00738420948799 -0.0841799881631 0.798 2.34801122267e-38
0.00886105138558 -0.0841799881631 0.798 2.35072427662e-38
0.0103378932832 -0.0841799881631 0.798 2.35072820026e-38
0.0118147351808 -0.0841799881631 0.798 2.34960912331e-38
0.0132915770784 -0.0841799881631 0.798 2.35039665304e-38
0.014768418976 -0.0841799881631 0.798 2.35076449389e-38
0.0162452608736 -0.0841799881631 0.798 2.35061763781e-38
0.0177221027712 -0.0841799881631 0.798 2.11767713162e-38
0.0191989446688 -0.0841799881631 0.798 2.34715026489e-38
0.0206757865664 -0.0841799881631 0.798 2.34916365052e-38
0.022152628464 -0.0841799881631 0.798 2.35040183785e-38
0.0236294703616 -0.0841799881631 0.798 2.34892865277e-38
0.0251063122592 -0.0841799881631 0.798 2.34793947619e-38
0.0265165297102 -0.0839690107491 0.796 2.34761661702e-38
0.0279896702497 -0.0839690107491 0.796 2.34945904424e-38
0.0294628107892 -0.0839690107491 0.796 2.35007743725e-38
0.0309359513286 -0.0839690107491 0.796 2.26630963674e-38
0.0324090918681 -0.0839690107491 0.796 2.34718613813e-38
0.0339673636447 -0.0841799881631 0.798 2.34700677193e-38
0.0354442055423 -0.0841799881631 0.798 2.29958234774e-38
0.0368285134865 -0.0839690107491 0.796 2.34643448164e-38
0.0383016540259 -0.0839690107491 0.796 2.34736550434e-38
0.0397747945654 -0.0839690107491 0.796 2.3475089973e-38
0.0412479351048 -0.0839690107491 0.796 2.34747312406e-38
0.0427210756443 -0.0839690107491 0.796 2.34725788461e-38
0.0440831754396 -0.0837580333352 0.794 2.34729375785e-38
0.0455526146209 -0.0837580333352 0.794 2.34725788461e-38
0.0470220538022 -0.0837580333352 0.794 2.34772423674e-38
0.0484914929835 -0.0837580333352 0.794 2.34689915221e-38
0.0498350859881 -0.0835470559212 0.792 2.34521310989e-38
0.0513008238113 -0.0835470559212 0.792 2.34718641839e-38
0.0527665616345 -0.0835470559212 0.792 2.3476883635e-38
0.0542322994576 -0.0835470559212 0.792 2.34661216628e-38
0.0555573856715 -0.0833360785073 0.79 2.34758116417e-38
0.0570194221366 -0.0833360785073 0.79 2.34820053809e-38
0.0584814586016 -0.0833360785073 0.79 2.34834711391e-38
-0.0118147351808 -0.0827031462655 0.798 2.34961528902e-38
-0.0103119837762 -0.0824958702097 0.796 2.35033149266e-38
-0.00883884323675 -0.0824958702097 0.796 2.32227665663e-38
-0.00736570269729 -0.0824958702097 0.796 1.72073579979e-38
-0.00589256215783 -0.0824958702097 0.796 2.16345460972e-38
-0.00441942161837 -0.0824958702097 0.796 2.34840947169e-38
-0.00293887836264 -0.0822885941539 0.794 2.34852325713e-38
-0.00146943918132 -0.0822885941539 0.794 2.34844226208e-38
0.0 -0.0824958702097 0.796 2.34805017876e-38
0.00147314053946 -0.0824958702097 0.796 2.34844170156e-38
0.00294628107892 -0.0824958702097 0.796 2.34790360295e-38
0.00441942161837 -0.0824958702097 0.796 2.34826513795e-38
0.00589256215783 -0.0824958702097 0.796 2.34836995507e-38
0.00736570269729 -0.0824958702097 0.796 2.34790542463e-38
0.00883884323675 -0.0824958702097 0.796 2.34869281424e-38
0.0103378932832 -0.0827031462655 0.798 2.35064958742e-38
0.0118147351808 -0.0827031462655 0.798 2.35069050533e-38
0.0132915770784 -0.0827031462655 0.798 2.35018407607e-38
0.014768418976 -0.0827031462655 0.798 2.33988369157e-38
0.0162452608736 -0.0827031462655 0.798 2.35076014987e-38
0.0177221027712 -0.0827031462655 0.798 2.220716009e-38
0.0191989446688 -0.0827031462655 0.798 2.34844310285e-38
0.0206757865664 -0.0827031462655 0.798 2.35040197798e-38
0.022152628464 -0.0827031462655 0.798 2.34986135703e-38
0.0235702486313 -0.0824958702097 0.796 2.34919938364e-38
0.0250433891708 -0.0824958702097 0.796 2.35040365954e-38
0.0265165297102 -0.0824958702097 0.796 2.34823949419e-38
0.0279896702497 -0.0824958702097 0.796 2.34869281424e-38
0.0294628107892 -0.0824958702097 0.796 2.34931008621e-38
0.0309359513286 -0.0824958702097 0.796 2.30174959595e-38
0.0324090918681 -0.0824958702097 0.796 2.34715026489e-38
0.0338822324075 -0.0824958702097 0.796 2.34621756063e-38
0.035355372947 -0.0824958702097 0.796 2.34582645823e-38
0.0368285134865 -0.0824958702097 0.796 2.34754487054e-38
0.0383016540259 -0.0824958702097 0.796 2.34765249026e-38
0.0397747945654 -0.0824958702097 0.796 2.3476883635e-38
0.0411442970769 -0.0822885941539 0.794 2.34736550434e-38
0.0426137362582 -0.0822885941539 0.794 2.34715026489e-38
0.0440831754396 -0.0822885941539 0.794 2.34718613813e-38
0.0455526146209 -0.0822885941539 0.794 2.34736550434e-38
0.0470220538022 -0.0822885941539 0.794 2.34725788461e-38
0.0483693481649 -0.082081318098 0.792 2.26191544502e-38
0.0498350859881 -0.082081318098 0.792 2.34733145278e-38
0.0513008238113 -0.082081318098 0.792 2.34722439358e-38
0.0527665616345 -0.082081318098 0.792 2.34718613813e-38
0.0542322994576 -0.082081318098 0.792 2.34732963109e-38
0.0555573856715 -0.0818740420422 0.79 2.34874312086e-38
0.0570194221366 -0.0818740420422 0.79 2.34813089356e-38
0.0584814586016 -0.0818740420422 0.79 2.29278016473e-38
-0.0103119837762 -0.0810227296702 0.796 2.34993744754e-38
-0.00883884323675 -0.0810227296702 0.796 2.35058638886e-38
-0.00736570269729 -0.0810227296702 0.796 1.50894326963e-38
-0.00589256215783 -0.0810227296702 0.796 1.90491238059e-38
-0.00440831754396 -0.0808191549725 0.794 2.12642824053e-38
-0.00293887836264 -0.0808191549725 0.794 2.34822716276e-38
-0.00146943918132 -0.0808191549725 0.794 2.34884289331e-38
0.0 -0.0808191549725 0.794 2.34811884239e-38
0.00146943918132 -0.0808191549725 0.794 2.34905154665e-38
0.00293887836264 -0.0808191549725 0.794 2.34815471563e-38
0.00440831754396 -0.0808191549725 0.794 2.34869281424e-38
0.00587775672528 -0.0808191549725 0.794 2.34804709591e-38
0.00736570269729 -0.0810227296702 0.796 2.34844408376e-38
0.00883884323675 -0.0810227296702 0.796 2.34797534943e-38
0.0103119837762 -0.0810227296702 0.796 2.34790360295e-38
0.0117851243157 -0.0810227296702 0.796 2.34891379901e-38
0.0132915770784 -0.0812263043679 0.798 2.35014413906e-38
0.014768418976 -0.0812263043679 0.798 2.35079798492e-38
0.0162452608736 -0.0812263043679 0.798 2.35014932386e-38
0.0177221027712 -0.0812263043679 0.798 2.34808296915e-38
0.0191989446688 -0.0812263043679 0.798 2.34829904937e-38
0.0206239675524 -0.0810227296702 0.796 2.35011064803e-38
0.0220971080919 -0.0810227296702 0.796 2.35072665883e-38
0.0235110269011 -0.0808191549725 0.794 2.3505791021e-38
0.0249804660824 -0.0808191549725 0.794 2.35007855829e-38
0.0264499052637 -0.0808191549725 0.794 2.34920877234e-38
0.0279193444451 -0.0808191549725 0.794 2.35018351555e-38
0.0293887836264 -0.0808191549725 0.794 2.24754807199e-38
0.0308582228077 -0.0808191549725 0.794 2.34772423674e-38
0.032327661989 -0.0808191549725 0.794 2.34664803952e-38
0.0338822324075 -0.0810227296702 0.796 2.34463913804e-38
0.035355372947 -0.0810227296702 0.796 2.34729543941e-38
0.0368285134865 -0.0810227296702 0.796 2.34761661702e-38
0.0383016540259 -0.0810227296702 0.796 2.34732963109e-38
0.0397747945654 -0.0810227296702 0.796 2.34715026489e-38
0.0411442970769 -0.0808191549725 0.794 2.34711439165e-38
0.0426137362582 -0.0808191549725 0.794 2.34765249026e-38
0.0439721346954 -0.0806155802749 0.792 2.34722201137e-38
0.0454378725186 -0.0806155802749 0.792 2.3475089973e-38
0.0469036103417 -0.0806155802749 0.792 2.34736550434e-38
0.0482472033463 -0.0804120055772 0.79 2.34722201137e-38
0.0497092398114 -0.0804120055772 0.79 2.34762362351e-38
0.0511712762764 -0.0804120055772 0.79 2.34736550434e-38
0.0526333127414 -0.0804120055772 0.79 2.34729431837e-38
0.0540953492065 -0.0804120055772 0.79 2.34845038961e-38
0.0555573856715 -0.0804120055772 0.79 2.34787950061e-38
0.0570194221366 -0.0804120055772 0.79 2.34838803182e-38
0.0584814586016 -0.0804120055772 0.79 2.21902239968e-38
-0.00883884323675 -0.0795495891307 0.796 2.35051127926e-38
-0.00734719590659 -0.0793497157912 0.794 2.01741969156e-38
-0.00587775672528 -0.0793497157912 0.794 1.78523798849e-38
-0.00440831754396 -0.0793497157912 0.794 2.00683302179e-38
-0.00293147564636 -0.0791498424517 0.792 2.27362049109e-38
-0.00146573782318 -0.0791498424517 0.792 2.34837457936e-38
0.0 -0.0793497157912 0.794 2.34848430103e-38
0.00146943918132 -0.0793497157912 0.794 2.34854932128e-38
0.00293887836264 -0.0793497157912 0.794 2.34833408183e-38
0.00440831754396 -0.0793497157912 0.794 2.34862106776e-38
0.00587775672528 -0.0793497157912 0.794 2.34833408183e-38
0.00734719590659 -0.0793497157912 0.794 2.34797534943e-38
0.00881663508791 -0.0793497157912 0.794 2.34776010998e-38
0.0103119837762 -0.0795495891307 0.796 2.34808296915e-38
0.0117851243157 -0.0795495891307 0.796 2.34783185646e-38
0.0132582648551 -0.0795495891307 0.796 2.34801122267e-38
0.0147314053946 -0.0795495891307 0.796 2.34869281424e-38
0.016204545934 -0.0795495891307 0.796 2.34815471563e-38
0.0176776864735 -0.0795495891307 0.796 2.34776179154e-38
0.019150827013 -0.0795495891307 0.796 2.34783185646e-38
0.0205721485385 -0.0793497157912 0.794 2.34743725082e-38
0.0220415877198 -0.0793497157912 0.794 2.34776010998e-38
0.0235110269011 -0.0793497157912 0.794 2.34967708628e-38
0.0249804660824 -0.0793497157912 0.794 2.35061903911e-38
0.0264499052637 -0.0793497157912 0.794 2.35058036327e-38
0.0278490186404 -0.0791498424517 0.792 2.2945791517e-38
0.0293147564636 -0.0791498424517 0.792 2.3475089973e-38
0.0307804942868 -0.0791498424517 0.792 2.34664803952e-38
0.0322462321099 -0.0791498424517 0.792 2.34607406767e-38
0.0337971011703 -0.0793497157912 0.794 2.34697089869e-38
0.0352665403517 -0.0793497157912 0.794 2.34793947619e-38
0.036735979533 -0.0793497157912 0.794 2.34725788461e-38
0.0383016540259 -0.0795495891307 0.796 2.34758074378e-38
0.0397747945654 -0.0795495891307 0.796 2.34697215986e-38
0.0411442970769 -0.0793497157912 0.794 2.34776010998e-38
0.0425063968722 -0.0791498424517 0.792 2.34743725082e-38
0.0439721346954 -0.0791498424517 0.792 2.3475089973e-38
0.0454378725186 -0.0791498424517 0.792 2.34693502545e-38
0.0467851668813 -0.0789499691122 0.79 2.34722201137e-38
0.0482472033463 -0.0789499691122 0.79 2.34722201137e-38
0.0497092398114 -0.0789499691122 0.79 2.34804723604e-38
0.0511712762764 -0.0789499691122 0.79 2.34740137758e-38
0.0526333127414 -0.0789499691122 0.79 2.34862471114e-38
0.0540953492065 -0.0789499691122 0.79 2.34791481333e-38
0.0555573856715 -0.0789499691122 0.79 2.34827718912e-38
0.0570194221366 -0.0789499691122 0.79 2.26501427644e-38
-0.0073286891159 -0.0776841046285 0.792 2.11879789013e-38
-0.00586295129272 -0.0776841046285 0.792 1.59108962768e-38
-0.00439721346954 -0.0776841046285 0.792 1.88683268767e-38
-0.00293147564636 -0.0776841046285 0.792 2.04353022598e-38
-0.00146573782318 -0.0776841046285 0.792 2.28293716406e-38
0.0 -0.0776841046285 0.792 2.34837051559e-38
0.00146573782318 -0.0776841046285 0.792 2.34884303344e-38
0.00293147564636 -0.0776841046285 0.792 2.34837457936e-38
0.00439721346954 -0.0776841046285 0.792 2.34790360295e-38
0.00587775672528 -0.0778802766099 0.794 2.34808296915e-38
0.00734719590659 -0.0778802766099 0.794 2.34808296915e-38
0.00881663508791 -0.0778802766099 0.794 2.34815471563e-38
0.0102860742692 -0.0778802766099 0.794 2.34797534943e-38
0.0117851243157 -0.0780764485913 0.796 2.34779598322e-38
0.0132582648551 -0.0780764485913 0.796 2.34776010998e-38
0.0146943918132 -0.0778802766099 0.794 2.3483700952e-38
0.0161638309945 -0.0778802766099 0.794 2.34754487054e-38
0.0176332701758 -0.0778802766099 0.794 2.34743725082e-38
0.019150827013 -0.0780764485913 0.796 2.34801122267e-38
0.0205203295245 -0.0776841046285 0.792 2.34783185646e-38
0.0219860673477 -0.0776841046285 0.792 2.34743725082e-38
0.0234518051709 -0.0776841046285 0.792 2.34740137758e-38
0.0249175429941 -0.0776841046285 0.792 2.3475089973e-38
0.0263832808172 -0.0776841046285 0.792 2.34941224087e-38
0.0278490186404 -0.0776841046285 0.792 2.29276643201e-38
0.0293147564636 -0.0776841046285 0.792 2.34532072962e-38
0.0307804942868 -0.0776841046285 0.792 2.34521310989e-38
0.0322462321099 -0.0776841046285 0.792 2.34736550434e-38
0.0337119699331 -0.0776841046285 0.792 2.3478677297e-38
0.0351777077563 -0.0776841046285 0.792 2.34754487054e-38
0.036550911626 -0.0774879326471 0.79 2.3475089973e-38
0.038012948091 -0.0774879326471 0.79 2.34718613813e-38
0.0394749845561 -0.0774879326471 0.79 2.34725788461e-38
0.0409370210211 -0.0774879326471 0.79 2.34718613813e-38
0.0423990574862 -0.0774879326471 0.79 2.34736550434e-38
0.0438610939512 -0.0774879326471 0.79 2.34790584502e-38
0.0453231304162 -0.0774879326471 0.79 2.34740137758e-38
0.0467851668813 -0.0774879326471 0.79 2.34804709591e-38
0.048186130937 -0.0773898466564 0.789 2.34747312406e-38
0.049646316723 -0.0773898466564 0.789 2.34801122267e-38
0.051106502509 -0.0773898466564 0.789 2.34837668131e-38
0.0525666882949 -0.0773898466564 0.789 2.34809361902e-38
0.0540268740809 -0.0773898466564 0.789 2.34824103562e-38
0.0554870598669 -0.0773898466564 0.789 2.11718331404e-38
0.0570194221366 -0.0774879326471 0.79 2.22792596986e-38
-0.0073101823252 -0.0760258961821 0.79 2.16496983375e-38
-0.00584814586016 -0.0760258961821 0.79 1.59087060473e-38
-0.00438610939512 -0.0760258961821 0.79 1.84070012054e-38
-0.00292407293008 -0.0760258961821 0.79 1.91510528549e-38
-0.00146203646504 -0.0760258961821 0.79 1.9240705128e-38
0.0 -0.0760258961821 0.79 2.31996269248e-38
0.00146203646504 -0.0760258961821 0.79 2.34740810381e-38
0.00292407293008 -0.0760258961821 0.79 2.34866520866e-38
0.00439721346954 -0.0762183668053 0.792 2.34880043396e-38
0.00586295129272 -0.0762183668053 0.792 2.34829820859e-38
0.0073286891159 -0.0762183668053 0.792 2.34836995507e-38
0.00879442693908 -0.0762183668053 0.792 2.34776389349e-38
0.0102860742692 -0.0764108374286 0.794 2.3478677297e-38
0.0117555134506 -0.0764108374286 0.794 2.34776025011e-38
0.0132249526319 -0.0764108374286 0.794 2.34790360295e-38
0.0146943918132 -0.0764108374286 0.794 2.34772759986e-38
0.016123116055 -0.0762183668053 0.792 2.34772423674e-38
0.0175888538782 -0.0762183668053 0.792 2.3476883635e-38
0.0191027093571 -0.0764108374286 0.794 2.34801122267e-38
0.0204685105106 -0.0760258961821 0.79 2.34732963109e-38
0.0219305469756 -0.0760258961821 0.79 2.3475089973e-38
0.0233925834406 -0.0760258961821 0.79 2.34793947619e-38
0.0248546199057 -0.0760258961821 0.79 2.3476883635e-38
0.0263832808172 -0.0762183668053 0.792 2.34761661702e-38
0.0277786928358 -0.0760258961821 0.79 2.34808296915e-38
0.0292407293008 -0.0760258961821 0.79 2.33642458632e-38
0.0307027657658 -0.0760258961821 0.79 2.3457512085e-38
0.0321648022309 -0.0760258961821 0.79 2.34747312406e-38
0.0336268386959 -0.0760258961821 0.79 2.34743725082e-38
0.035088875161 -0.0760258961821 0.79 2.3475089973e-38
0.036550911626 -0.0760258961821 0.79 2.34758074378e-38
0.038012948091 -0.0760258961821 0.79 2.34718613813e-38
0.0394749845561 -0.0760258961821 0.79 2.34697089869e-38
0.0409370210211 -0.0760258961821 0.79 2.34736550434e-38
0.0423990574862 -0.0760258961821 0.79 2.3476883635e-38
0.0438610939512 -0.0760258961821 0.79 2.34747312406e-38
0.0453231304162 -0.0760258961821 0.79 2.34747312406e-38
0.0467851668813 -0.0760258961821 0.79 2.34725788461e-38
0.048186130937 -0.0759296608705 0.789 2.34758438716e-38
0.049646316723 -0.0759296608705 0.789 2.34869757866e-38
0.051106502509 -0.0759296608705 0.789 2.34863466035e-38
0.0525666882949 -0.0759296608705 0.789 2.3204426372e-38
0.0540268740809 -0.0759296608705 0.789 2.22838615627e-38
0.0554870598669 -0.0759296608705 0.789 2.01616244658e-38
-0.0073101823252 -0.074563859717 0.79 2.34979367431e-38
-0.00584814586016 -0.074563859717 0.79 1.44404913774e-38
-0.00438610939512 -0.074563859717 0.79 1.66520794684e-38
-0.00292407293008 -0.074563859717 0.79 1.73024431051e-38
-0.00146203646504 -0.074563859717 0.79 1.92431756172e-38
0.0 -0.074563859717 0.79 1.8228330046e-38
0.00146203646504 -0.074563859717 0.79 2.20951136661e-38
0.00292407293008 -0.074563859717 0.79 2.34711733438e-38
0.00438610939512 -0.074563859717 0.79 2.34791537385e-38
0.00584814586016 -0.074563859717 0.79 2.34824005471e-38
0.0073101823252 -0.074563859717 0.79 2.3484775748e-38
0.00877221879024 -0.074563859717 0.79 2.34783185646e-38
0.0102342552553 -0.074563859717 0.79 2.34790360295e-38
0.0116962917203 -0.074563859717 0.79 2.34793947619e-38
0.0131583281854 -0.074563859717 0.79 2.34797534943e-38
0.0146203646504 -0.074563859717 0.79 2.34804709591e-38
0.0160620436457 -0.0744694750845 0.789 2.34772423674e-38
0.0175222294316 -0.0744694750845 0.789 2.34743725082e-38
0.0189824152176 -0.0744694750845 0.789 2.3475089973e-38
0.0204426010036 -0.0744694750845 0.789 2.34747312406e-38
0.0219027867896 -0.0744694750845 0.789 2.34747312406e-38
0.0233925834406 -0.074563859717 0.79 2.34804709591e-38
0.0248546199057 -0.074563859717 0.79 2.3478677297e-38
0.0263166563707 -0.074563859717 0.79 2.34754487054e-38
0.0277786928358 -0.074563859717 0.79 2.34776010998e-38
0.0292407293008 -0.074563859717 0.79 2.34779598322e-38
0.0307027657658 -0.074563859717 0.79 2.34758074378e-38
0.0321648022309 -0.074563859717 0.79 2.34732963109e-38
0.0336268386959 -0.074563859717 0.79 2.34758074378e-38
0.0350444588633 -0.0744694750845 0.789 2.34743725082e-38
0.0365046446493 -0.0744694750845 0.789 2.34754487054e-38
0.0379648304352 -0.0744694750845 0.789 2.34704264517e-38
0.0394749845561 -0.074563859717 0.79 2.34722201137e-38
0.0409370210211 -0.074563859717 0.79 2.34761661702e-38
0.0423453877931 -0.0744694750845 0.789 2.34790360295e-38
0.0438055735791 -0.0744694750845 0.789 2.34776010998e-38
0.0452657593651 -0.0744694750845 0.789 2.34798067436e-38
0.0467259451511 -0.0744694750845 0.789 2.34819199017e-38
0.048186130937 -0.0744694750845 0.789 2.34798025397e-38
0.049646316723 -0.0744694750845 0.789 2.34809221772e-38
0.051106502509 -0.0744694750845 0.789 2.1637047415e-38
0.0525666882949 -0.0744694750845 0.789 2.20019048974e-38
0.0540268740809 -0.0744694750845 0.789 2.29278212655e-38
0.0554870598669 -0.0744694750845 0.789 1.8416272196e-38
-0.00438055735791 -0.0730092892985 0.789 1.66520570476e-38
-0.00292037157194 -0.0730092892985 0.789 1.57315861253e-38
-0.00146203646504 -0.073101823252 0.79 1.72974642917e-38
0.0 -0.073101823252 0.79 1.82255288503e-38
0.00146018578597 -0.0730092892985 0.789 1.77674121525e-38
0.00292037157194 -0.0730092892985 0.789 2.11749552334e-38
0.00438610939512 -0.073101823252 0.79 2.31077479883e-38
0.00584814586016 -0.073101823252 0.79 2.34761661702e-38
0.0073101823252 -0.073101823252 0.79 2.34812150486e-38
0.00877221879024 -0.073101823252 0.79 2.34830171184e-38
0.0102342552553 -0.073101823252 0.79 2.34869281424e-38
0.0116962917203 -0.073101823252 0.79 2.34887218044e-38
0.0131583281854 -0.073101823252 0.79 2.34801122267e-38
0.0146018578597 -0.0730092892985 0.789 2.34772423674e-38
0.0160620436457 -0.0730092892985 0.789 2.34793947619e-38
0.0175222294316 -0.0730092892985 0.789 2.34747312406e-38
0.0189824152176 -0.0730092892985 0.789 2.34801122267e-38
0.0204426010036 -0.0730092892985 0.789 2.34732963109e-38
0.0219027867896 -0.0730092892985 0.789 2.347724517e-38
0.0233629725755 -0.0730092892985 0.789 2.34779598322e-38
0.0248231583615 -0.0730092892985 0.789 2.34776010998e-38
0.0262833441475 -0.0730092892985 0.789 2.34758074378e-38
0.0277435299334 -0.0730092892985 0.789 2.34754487054e-38
0.0292037157194 -0.0730092892985 0.789 2.34736550434e-38
0.0305861729845 -0.0728242213916 0.787 2.34776010998e-38
0.0320426574123 -0.0728242213916 0.787 2.34711439165e-38
0.0334991418401 -0.0728242213916 0.787 2.34819058887e-38
0.0349556262679 -0.0728242213916 0.787 2.34772423674e-38
0.0364121106958 -0.0728242213916 0.787 2.34754487054e-38
0.0378685951236 -0.0728242213916 0.787 2.34776010998e-38
0.0393250795514 -0.0728242213916 0.787 2.3475089973e-38
0.0407815639793 -0.0728242213916 0.787 2.3475089973e-38
0.0422380484071 -0.0728242213916 0.787 2.34833590352e-38
0.0435834920908 -0.0726391534846 0.785 2.34787235399e-38
0.0450362751604 -0.0726391534846 0.785 2.34766271974e-38
0.0464890582301 -0.0726391534846 0.785 2.34838074507e-38
0.048186130937 -0.0730092892985 0.789 2.26505141085e-38
0.049646316723 -0.0730092892985 0.789 2.1822219198e-38
0.051106502509 -0.0730092892985 0.789 2.01623279176e-38
0.0525666882949 -0.0730092892985 0.789 2.24671808291e-38
0.0540953492065 -0.073101823252 0.79 1.86903871951e-38
-0.00438055735791 -0.0715491035126 0.789 1.54575187704e-38
-0.00292037157194 -0.0715491035126 0.789 1.71152058082e-38
-0.00146203646504 -0.071639786787 0.79 1.6189669192e-38
0.0 -0.071639786787 0.79 1.53613154269e-38
0.00146018578597 -0.0715491035126 0.789 1.711344858e-38
0.00292037157194 -0.0715491035126 0.789 1.87801375592e-38
0.00438610939512 -0.071639786787 0.79 1.9332563045e-38
0.00584814586016 -0.071639786787 0.79 2.14472653601e-38
0.0073101823252 -0.071639786787 0.79 2.34794031697e-38
0.00877221879024 -0.071639786787 0.79 2.34740137758e-38
0.0102342552553 -0.071639786787 0.79 2.34837598066e-38
0.0116962917203 -0.071639786787 0.79 2.34884457486e-38
0.0131416720737 -0.0715491035126 0.789 2.34811884239e-38
0.0146018578597 -0.0715491035126 0.789 2.34804709591e-38
0.0160620436457 -0.0715491035126 0.789 2.34779598322e-38
0.0175222294316 -0.0715491035126 0.789 2.34761661702e-38
0.0189342975618 -0.0713677369637 0.787 2.34793947619e-38
0.0203907819896 -0.0713677369637 0.787 2.34707851841e-38
0.0218472664175 -0.0713677369637 0.787 2.34790388321e-38
0.0233037508453 -0.0713677369637 0.787 2.34872868748e-38
0.0247602352731 -0.0713677369637 0.787 2.34779598322e-38
0.0262833441475 -0.0715491035126 0.789 2.34790360295e-38
0.0277435299334 -0.0715491035126 0.789 2.34793947619e-38
0.0292037157194 -0.0715491035126 0.789 2.3475089973e-38
0.0305861729845 -0.0713677369637 0.787 2.34754487054e-38
0.0320426574123 -0.0713677369637 0.787 2.34783185646e-38
0.0334991418401 -0.0713677369637 0.787 2.34779598322e-38
0.0349556262679 -0.0713677369637 0.787 2.34758074378e-38
0.0364121106958 -0.0713677369637 0.787 2.34740137758e-38
0.0378685951236 -0.0713677369637 0.787 2.34822814367e-38
0.0393250795514 -0.0713677369637 0.787 2.34847953661e-38
0.0407815639793 -0.0713677369637 0.787 2.3480874533e-38
0.0422380484071 -0.0713677369637 0.787 2.34797955332e-38
0.0435834920908 -0.0711863704149 0.785 2.34841619792e-38
0.0450362751604 -0.0711863704149 0.785 2.34813523758e-38
0.0464890582301 -0.0711863704149 0.785 2.14548267666e-38
0.0479418412998 -0.0711863704149 0.785 2.173101849e-38
0.0495204705463 -0.0713677369637 0.787 2.02566367056e-38
0.0509769549741 -0.0713677369637 0.787 1.99822358416e-38
0.0525666882949 -0.0715491035126 0.789 2.16395235094e-38
-0.00438610939512 -0.0701777503219 0.79 1.47238353282e-38
-0.00292407293008 -0.0701777503219 0.79 1.53613406503e-38
-0.00146203646504 -0.0701777503219 0.79 1.61896565803e-38
0.0 -0.0701777503219 0.79 1.52702170138e-38
0.00146203646504 -0.0701777503219 0.79 1.3975512521e-38
0.00292407293008 -0.0701777503219 0.79 1.72094865702e-38
0.00438610939512 -0.0701777503219 0.79 1.87807429201e-38
0.00584814586016 -0.0701777503219 0.79 1.86894034836e-38
0.0073101823252 -0.0701777503219 0.79 1.94276271328e-38
0.00877221879024 -0.0701777503219 0.79 2.18200121529e-38
0.0102342552553 -0.0701777503219 0.79 2.33861887958e-38
0.0116814862878 -0.0700889177266 0.789 2.24610081094e-38
0.0131416720737 -0.0700889177266 0.789 2.34769705155e-38
0.0146018578597 -0.0700889177266 0.789 2.34808296915e-38
0.0160213287061 -0.0699112525359 0.787 2.34851835258e-38
0.017477813134 -0.0699112525359 0.787 2.34898736718e-38
0.0189342975618 -0.0699112525359 0.787 2.34819969731e-38
0.0203389629757 -0.0697335873452 0.785 2.34840596844e-38
0.0217917460454 -0.0697335873452 0.785 2.34844450415e-38
0.0233037508453 -0.0699112525359 0.787 2.34804709591e-38
0.0247602352731 -0.0699112525359 0.787 2.34772423674e-38
0.026216719701 -0.0699112525359 0.787 2.34772423674e-38
0.0276732041288 -0.0699112525359 0.787 2.34801122267e-38
0.0291296885566 -0.0699112525359 0.787 2.34740137758e-38
0.0305861729845 -0.0699112525359 0.787 2.34787039217e-38
0.0320426574123 -0.0699112525359 0.787 2.34822870419e-38
0.0334991418401 -0.0699112525359 0.787 2.34873373216e-38
0.0349556262679 -0.0699112525359 0.787 2.34873499332e-38
0.0363195767423 -0.0697335873452 0.785 2.34823725211e-38
0.037772359812 -0.0697335873452 0.785 2.34723196059e-38
0.0392251428817 -0.0697335873452 0.785 2.34772647882e-38
0.0406779259514 -0.0697335873452 0.785 2.34870430489e-38
0.0421307090211 -0.0697335873452 0.785 2.34799188475e-38
0.0435834920908 -0.0697335873452 0.785 2.17317850003e-38
0.0450362751604 -0.0697335873452 0.785 2.11793314885e-38
0.0464890582301 -0.0697335873452 0.785 2.02548738721e-38
0.0479418412998 -0.0697335873452 0.785 2.01565629757e-38
0.0495204705463 -0.0699112525359 0.787 1.8600744731e-38
0.0509769549741 -0.0699112525359 0.787 2.06336980963e-38
0.0525666882949 -0.0700889177266 0.789 1.81311345832e-38
-0.00146573782318 -0.0688896776894 0.792 1.58230376657e-38
0.0 -0.0688896776894 0.792 1.55450032348e-38
0.00146203646504 -0.0687157138569 0.79 1.54535110568e-38
0.00292407293008 -0.0687157138569 0.79 1.33265683996e-38
0.00438610939512 -0.0687157138569 0.79 1.42460233805e-38
0.00584814586016 -0.0687157138569 0.79 1.8496632459e-38
0.0073101823252 -0.0687157138569 0.79 1.77670366045e-38
0.00877221879024 -0.0687157138569 0.79 1.8962688914e-38
0.0102213005018 -0.0686287319406 0.789 1.97938032371e-38
0.0116814862878 -0.0686287319406 0.789 2.16359712178e-38
0.0131416720737 -0.0686287319406 0.789 2.31074915507e-38
0.0145648442783 -0.0684547681081 0.787 2.31035230735e-38
0.0160213287061 -0.0684547681081 0.787 2.34779752465e-38
0.0174333968363 -0.0682808042755 0.785 2.34779598322e-38
0.018886179906 -0.0682808042755 0.785 2.34761661702e-38
0.0203389629757 -0.0682808042755 0.785 2.34740586173e-38
0.0217917460454 -0.0682808042755 0.785 2.34769761207e-38
0.0232445291151 -0.0682808042755 0.785 2.34790626541e-38
0.0246973121848 -0.0682808042755 0.785 2.34822898445e-38
0.026216719701 -0.0684547681081 0.787 2.34808941512e-38
0.0276732041288 -0.0684547681081 0.787 2.34780509166e-38
0.0291296885566 -0.0684547681081 0.787 2.34833996729e-38
0.0305861729845 -0.0684547681081 0.787 2.3471564306e-38
0.0320426574123 -0.0684547681081 0.787 2.34779920621e-38
0.0334140106029 -0.0682808042755 0.785 2.34729375785e-38
0.0348667936726 -0.0682808042755 0.785 2.34840652896e-38
0.0363195767423 -0.0682808042755 0.785 2.34841283481e-38
0.037772359812 -0.0682808042755 0.785 2.34885606551e-38
0.0392251428817 -0.0682808042755 0.785 2.32054647342e-38
0.0406779259514 -0.0682808042755 0.785 2.25593946759e-38
0.0421307090211 -0.0682808042755 0.785 2.11793314885e-38
0.0435834920908 -0.0682808042755 0.785 1.93314938542e-38
0.0450362751604 -0.0682808042755 0.785 1.89623385894e-38
0.0464890582301 -0.0682808042755 0.785 1.67539020187e-38
0.0480639861184 -0.0684547681081 0.787 1.59163319136e-38
0.049646316723 -0.0686287319406 0.789 1.49160934775e-38
-0.00147314053946 -0.0677644648151 0.796 1.55493248393e-38
0.0 -0.0677644648151 0.796 1.60073714722e-38
0.00146943918132 -0.0675942023407 0.794 1.58183335068e-38
0.00293147564636 -0.0674239398663 0.792 1.47120083692e-38
0.00439721346954 -0.0674239398663 0.792 1.39733685344e-38
0.00584814586016 -0.0672536773918 0.79 1.23059564852e-38
0.0073101823252 -0.0672536773918 0.79 1.69142512007e-38
0.00877221879024 -0.0672536773918 0.79 1.80350489488e-38
0.0102213005018 -0.0671685461546 0.789 1.78549386559e-38
0.0116814862878 -0.0671685461546 0.789 1.97902635572e-38
0.0131083598505 -0.0669982836802 0.787 2.01626334007e-38
0.0145278306969 -0.0668280212058 0.785 2.15491831987e-38
0.0159806137666 -0.0668280212058 0.785 2.16392334406e-38
0.0174333968363 -0.0668280212058 0.785 2.3388767185e-38
0.018886179906 -0.0668280212058 0.785 2.34827676873e-38
0.0203389629757 -0.0668280212058 0.785 2.34831152093e-38
0.0217917460454 -0.0668280212058 0.785 2.34799034332e-38
0.0232445291151 -0.0668280212058 0.785 2.34795054644e-38
0.0246973121848 -0.0668280212058 0.785 2.3481306133e-38
0.026216719701 -0.0669982836802 0.787 2.34795110696e-38
0.0276732041288 -0.0669982836802 0.787 2.34834697378e-38
0.0291296885566 -0.0669982836802 0.787 2.34848920557e-38
0.0305861729845 -0.0669982836802 0.787 2.34885102084e-38
0.0319612275332 -0.0668280212058 0.785 2.34846159999e-38
0.0334140106029 -0.0668280212058 0.785 2.34849368973e-38
0.0348667936726 -0.0668280212058 0.785 2.27448397121e-38
0.0363195767423 -0.0668280212058 0.785 2.2744506203e-38
0.0376761245004 -0.0666577587314 0.783 2.08080280331e-38
0.0391252062119 -0.0666577587314 0.783 2.17292808799e-38
0.0405742879235 -0.0666577587314 0.783 1.92385793582e-38
0.0421307090211 -0.0668280212058 0.785 1.65655773142e-38
0.0435834920908 -0.0668280212058 0.785 1.89644083072e-38
0.0449215330581 -0.0666577587314 0.783 2.06286338037e-38
0.0463706147697 -0.0666577587314 0.783 1.51066490492e-38
0.0480639861184 -0.0669982836802 0.787 1.92522111897e-38
0.0497092398114 -0.0672536773918 0.79 1.6662796599e-38
-0.00296848922775 -0.0667910076244 0.802 1.29718324959e-38
-0.00148424461388 -0.0667910076244 0.802 1.55521960998e-38
0.0 -0.0666244465082 0.8 1.46252203501e-38
0.00147314053946 -0.0662913242756 0.796 1.52662457339e-38
0.00294628107892 -0.0662913242756 0.796 1.49867945903e-38
0.00439721346954 -0.0659582020431 0.792 1.48013103177e-38
0.00586295129272 -0.0659582020431 0.792 1.47080370893e-38
0.0073101823252 -0.0657916409268 0.79 1.39683224586e-38
0.00877221879024 -0.0657916409268 0.79 1.41437426056e-38
0.0102213005018 -0.0657083603687 0.789 1.53465751684e-38
0.0116814862878 -0.0657083603687 0.789 1.78440757902e-38
0.0131083598505 -0.0655417992524 0.787 1.76694333639e-38
0.0145278306969 -0.0653752381361 0.785 1.73917674745e-38
0.0159806137666 -0.0653752381361 0.785 1.9327525377e-38
0.0174333968363 -0.0653752381361 0.785 2.05310487799e-38
0.018886179906 -0.0653752381361 0.785 2.02552269993e-38
0.0202871439617 -0.0652086770199 0.783 2.18236247003e-38
0.0217362256733 -0.0652086770199 0.783 2.15466846835e-38
0.0232445291151 -0.0653752381361 0.785 2.34852704063e-38
0.0246973121848 -0.0653752381361 0.785 2.34834977638e-38
0.0261500952545 -0.0653752381361 0.785 2.30218147613e-38
0.0276028783241 -0.0653752381361 0.785 2.21931330924e-38
0.0290556613938 -0.0653752381361 0.785 2.23771656197e-38
0.0305084444635 -0.0653752381361 0.785 2.14548393783e-38
0.0318797976542 -0.0652086770199 0.783 2.18236247003e-38
0.0333288793657 -0.0652086770199 0.783 2.14541177096e-38
0.0347779610773 -0.0652086770199 0.783 2.23757040654e-38
0.0362270427888 -0.0652086770199 0.783 1.92399834593e-38
0.0376761245004 -0.0652086770199 0.783 2.02505606754e-38
0.0391252062119 -0.0652086770199 0.783 1.45376938467e-38
0.0405742879235 -0.0652086770199 0.783 1.48073975583e-38
0.042023369635 -0.0652086770199 0.783 1.73091973637e-38
0.0434724513466 -0.0652086770199 0.783 2.03489052029e-38
0.0448067909558 -0.0650421159036 0.781 1.89683683767e-38
0.0462521713092 -0.0650421159036 0.781 1.40928432414e-38
0.0476975516626 -0.0650421159036 0.781 1.86039873357e-38
0.0505272399602 -0.0668742881826 0.803 2.26518999927e-38
0.0520133352531 -0.0668742881826 0.803 2.20061928707e-38
-0.00600360290201 -0.0660396319221 0.811 2.17404212027e-38
-0.00450270217651 -0.0660396319221 0.811 2.29267520748e-38
-0.00299439873473 -0.065876772164 0.809 1.9244686217e-38
-0.00148979665109 -0.0655510526477 0.805 1.3153999895e-38
0.0 -0.0653881928896 0.803 1.46259588344e-38
0.00148054325574 -0.0651439032524 0.8 1.37918261144e-38
0.00295368379519 -0.0649810434943 0.798 1.47984362546e-38
0.00440831754396 -0.064655323978 0.794 1.58983028075e-38
0.00586295129272 -0.0644924642199 0.792 1.47980705157e-38
0.0073101823252 -0.0643296044618 0.79 1.46133233261e-38
0.00877221879024 -0.0643296044618 0.79 1.45204242444e-38
0.0102213005018 -0.0642481745827 0.789 1.4606148678e-38
0.0116814862878 -0.0642481745827 0.789 1.41426664083e-38
0.0131416720737 -0.0642481745827 0.789 1.41426664083e-38
0.0145278306969 -0.0639224550664 0.785 1.54312332138e-38
0.0159806137666 -0.0639224550664 0.785 1.71898193463e-38
0.0174333968363 -0.0639224550664 0.785 1.83072203469e-38
0.018886179906 -0.0639224550664 0.785 1.92342185174e-38
0.0202871439617 -0.0637595953083 0.783 1.90527181364e-38
0.0217362256733 -0.0637595953083 0.783 1.96048199223e-38
0.0232445291151 -0.0639224550664 0.785 1.87740040758e-38
0.0246973121848 -0.0639224550664 0.785 1.96966834444e-38
0.0261500952545 -0.0639224550664 0.785 2.00654435431e-38
0.0276028783241 -0.0639224550664 0.785 2.01580091158e-38
0.0290556613938 -0.0639224550664 0.785 2.03427535027e-38
0.0305084444635 -0.0639224550664 0.785 1.89605351183e-38
0.0318797976542 -0.0637595953083 0.783 1.94229271777e-38
0.0333288793657 -0.0637595953083 0.783 1.63807978948e-38
0.0347779610773 -0.0637595953083 0.783 1.38876300878e-38
0.0362270427888 -0.0637595953083 0.783 1.42513623276e-38
0.0376761245004 -0.0637595953083 0.783 1.6185288733e-38
0.0391252062119 -0.0637595953083 0.783 1.87830032145e-38
0.0405742879235 -0.0637595953083 0.783 1.32570289633e-38
0.042023369635 -0.0637595953083 0.783 1.91563974072e-38
0.0434724513466 -0.0637595953083 0.783 2.27455627821e-38
0.0448067909558 -0.0635967355502 0.781 1.61088801317e-38
0.0462521713092 -0.0635967355502 0.781 1.73156545471e-38
0.0490411446672 -0.0653881928896 0.803 2.18275497373e-38
0.0505272399602 -0.0653881928896 0.803 2.05332432133e-38
0.0520133352531 -0.0653881928896 0.803 2.34892402849e-38
0.0537659283321 -0.0657139124059 0.807 2.34838564962e-38
-0.00600360290201 -0.0645387311966 0.811 2.34928892661e-38
-0.00450270217651 -0.0645387311966 0.811 2.08973776258e-38
-0.00299439873473 -0.0643795727966 0.809 2.13659059712e-38
-0.00149349800922 -0.0642204143967 0.807 1.53667860961e-38
0.0 -0.0640612559967 0.805 1.55456688516e-38
0.00148424461388 -0.0638225183967 0.802 1.58230166462e-38
0.00296108651147 -0.0636633599967 0.8 1.47087615607e-38
0.00443052569279 -0.0635042015967 0.798 1.54405658616e-38
0.00589256215783 -0.0633450431967 0.796 1.47980705157e-38
0.00734719590659 -0.0631858847967 0.794 1.47062406247e-38
0.00879442693908 -0.0630267263967 0.792 1.56235446124e-38
0.0102342552553 -0.0628675679967 0.79 1.50710658773e-38
0.0116962917203 -0.0628675679967 0.79 1.5254414571e-38
0.0131416720737 -0.0627879887967 0.789 1.61727330988e-38
0.0145648442783 -0.0626288303967 0.787 1.44246300801e-38
0.0160213287061 -0.0626288303967 0.787 1.48787853072e-38
0.0174333968363 -0.0624696719967 0.785 1.50610213699e-38
0.018886179906 -0.0624696719967 0.785 1.37753244237e-38
0.0203389629757 -0.0624696719967 0.785 1.42345019045e-38
0.0217917460454 -0.0624696719967 0.785 1.42345019045e-38
0.0232445291151 -0.0624696719967 0.785 1.53365278584e-38
0.0246973121848 -0.0624696719967 0.785 1.51564441901e-38
0.0261500952545 -0.0624696719967 0.785 1.46039962836e-38
0.0276028783241 -0.0624696719967 0.785 1.24896274775e-38
0.0290556613938 -0.0624696719967 0.785 1.45132369846e-38
0.0305084444635 -0.0624696719967 0.785 1.47908972688e-38
0.0319612275332 -0.0624696719967 0.785 1.78387634677e-38
0.0333288793657 -0.0623105135968 0.783 2.12632832795e-38
0.0347779610773 -0.0623105135968 0.783 2.03481863368e-38
0.0362270427888 -0.0623105135968 0.783 1.27920388965e-38
0.0376761245004 -0.0623105135968 0.783 1.68507373478e-38
0.0391252062119 -0.0623105135968 0.783 1.31586816332e-38
0.0405742879235 -0.0623105135968 0.783 1.694950787e-38
0.042023369635 -0.0623105135968 0.783 1.316368567e-38
0.0441942161837 -0.0633450431967 0.796 2.00667929935e-38
0.0457820988255 -0.0635042015967 0.798 2.34802341396e-38
0.0472589407231 -0.0635042015967 0.798 2.08144193554e-38
0.0489800722579 -0.0638225183967 0.802 2.00740405092e-38
0.0505272399602 -0.0639020975967 0.803 2.16377887019e-38
0.052142882788 -0.0640612559967 0.805 2.21873667492e-38
0.0537659283321 -0.0642204143967 0.807 2.08994977904e-38
-0.00450270217651 -0.0630378304711 0.811 1.62876129482e-38
-0.00299439873473 -0.0628823734293 0.809 2.19176574325e-38
-0.00149349800922 -0.0627269163874 0.807 1.99800820458e-38
0.0 -0.0627269163874 0.807 1.25158485744e-38
0.00148609529295 -0.0624160023037 0.803 1.42545909193e-38
0.00296848922775 -0.0623382737828 0.802 1.48999743413e-38
0.00444162976721 -0.0621828167409 0.8 1.48935003424e-38
0.00592217302295 -0.0621828167409 0.8 1.47987879805e-38
0.00738420948799 -0.0620273596991 0.798 1.45182592383e-38
0.00883884323675 -0.0618719026572 0.796 1.51621839086e-38
0.0103119837762 -0.0618719026572 0.796 1.55288084285e-38
0.0117259025854 -0.0615609885735 0.792 1.46115296641e-38
0.0131583281854 -0.0614055315317 0.79 1.54391253267e-38
0.0146018578597 -0.0613278030108 0.789 1.55284496961e-38
0.0160213287061 -0.0611723459689 0.787 1.53447787037e-38
0.017477813134 -0.0611723459689 0.787 1.55270189703e-38
0.018886179906 -0.0610168889271 0.785 1.44224776857e-38
0.0203389629757 -0.0610168889271 0.785 1.61705807044e-38
0.0217917460454 -0.0610168889271 0.785 1.54351792703e-38
0.0232445291151 -0.0610168889271 0.785 1.60783864758e-38
0.0246973121848 -0.0610168889271 0.785 1.5158955317e-38
0.0261500952545 -0.0610168889271 0.785 1.52497146159e-38
0.0276028783241 -0.0610168889271 0.785 2.03337655743e-38
0.0290556613938 -0.0610168889271 0.785 1.48265280849e-38
0.0305084444635 -0.0610168889271 0.785 1.61057005855e-38
0.0319612275332 -0.0610168889271 0.785 1.98838464725e-38
0.0334140106029 -0.0610168889271 0.785 1.73913470849e-38
0.0348667936726 -0.0610168889271 0.785 2.17317667834e-38
0.0363195767423 -0.0610168889271 0.785 1.44598489144e-38
0.0376761245004 -0.0608614318852 0.783 1.58481727563e-38
0.0391252062119 -0.0608614318852 0.783 1.40809644343e-38
0.0411442970769 -0.0617164456154 0.794 1.94239599347e-38
0.0426137362582 -0.0617164456154 0.794 1.98943127707e-38
0.0441942161837 -0.0618719026572 0.796 2.27527052003e-38
0.0457820988255 -0.0620273596991 0.798 2.06265080339e-38
0.0472589407231 -0.0620273596991 0.798 2.01698080488e-38
0.0489800722579 -0.0623382737828 0.802 2.19193572075e-38
0.0505272399602 -0.0624160023037 0.803 2.08998537202e-38
0.052142882788 -0.0625714593456 0.805 2.33895084719e-38
0.0536326794391 -0.0625714593456 0.805 1.50022298928e-38
-0.00149719936736 -0.0613851740619 0.809 1.73032320362e-38
0.0 -0.0612334183782 0.807 2.19212279409e-38
0.00148979665109 -0.0610816626945 0.805 1.06726478367e-38
0.00297219058589 -0.0609299070108 0.803 1.31514943734e-38
0.00445273384163 -0.0608540291689 0.802 1.43439461171e-38
0.0059369784555 -0.0608540291689 0.802 1.3510221175e-38
0.00740271627868 -0.0607022734852 0.8 1.49774367191e-38
0.00888325953442 -0.0607022734852 0.8 1.42413178202e-38
0.0103378932832 -0.0605505178015 0.798 1.47898238742e-38
0.0117851243157 -0.0603987621178 0.796 1.45171830411e-38
0.0132249526319 -0.0602470064341 0.794 1.47912545999e-38
0.0146203646504 -0.0599434950666 0.79 1.46047137484e-38
0.0160620436457 -0.0598676172248 0.789 1.50678372856e-38
0.0175222294316 -0.0598676172248 0.789 1.53440612389e-38
0.0189342975618 -0.0597158615411 0.787 1.52529432076e-38
0.0203907819896 -0.0597158615411 0.787 1.58947154835e-38
0.0218472664175 -0.0597158615411 0.787 1.5158955317e-38
0.0233037508453 -0.0597158615411 0.787 1.56181327978e-38
0.0247602352731 -0.0597158615411 0.787 1.59912257113e-38
0.026216719701 -0.0597158615411 0.787 1.46990603714e-38
0.0276732041288 -0.0597158615411 0.787 1.95007805178e-38
0.0291296885566 -0.0597158615411 0.787 1.67701318575e-38
0.0305861729845 -0.0597158615411 0.787 1.47400497528e-38
0.0320426574123 -0.0597158615411 0.787 1.55626427799e-38
0.0334991418401 -0.0597158615411 0.787 1.24211600345e-38
0.0349556262679 -0.0597158615411 0.787 1.97952381667e-38
0.0364121106958 -0.0597158615411 0.787 1.32505073202e-38
0.0383016540259 -0.0603987621178 0.796 1.98021577785e-38
0.0397747945654 -0.0603987621178 0.796 1.86936171881e-38
0.0413515731327 -0.0605505178015 0.798 1.8965834829e-38
0.0428284150303 -0.0605505178015 0.798 2.1548795039e-38
0.0444162976721 -0.0607022734852 0.8 1.83197675734e-38
0.0458968409278 -0.0607022734852 0.8 1.99825833636e-38
0.0473773841836 -0.0607022734852 0.8 2.00790599603e-38
0.0490411446672 -0.0609299070108 0.803 2.0717958173e-38
0.0506530861369 -0.0610816626945 0.805 2.09923814578e-38
0.052142882788 -0.0610816626945 0.805 1.65623445186e-38
0.0542989239041 -0.0618404411131 0.815 2.26498106567e-38
0.0558072273459 -0.0618404411131 0.815 2.34860158971e-38
0.057456182397 -0.0619921967968 0.817 2.19136146864e-38
-0.0015009007255 -0.0600360290201 0.811 1.80417653723e-38
0.0 -0.0600360290201 0.811 2.26552098597e-38
0.00149349800922 -0.059739920369 0.807 1.85085519038e-38
0.00297959330217 -0.0595918660434 0.805 1.00190373914e-38
0.00445828587884 -0.0594438117178 0.803 1.34241814493e-38
0.0059369784555 -0.059369784555 0.802 1.44300236779e-38
0.00742122306938 -0.059369784555 0.802 1.48895472794e-38
0.00888325953442 -0.0592217302295 0.8 1.45211304989e-38
0.0103638027902 -0.0592217302295 0.8 1.4793048262e-38
0.0118147351808 -0.0590736759039 0.798 1.4147688662e-38
0.0132582648551 -0.0589256215783 0.796 1.45157481115e-38
0.0146943918132 -0.0587775672528 0.794 1.48859599554e-38
0.0161638309945 -0.0587775672528 0.794 1.43331533164e-38
0.0175888538782 -0.0586295129272 0.792 1.61723827742e-38
0.0189824152176 -0.0584074314388 0.789 1.5347648563e-38
0.0204426010036 -0.0584074314388 0.789 1.54366226077e-38
0.0219027867896 -0.0584074314388 0.789 1.54391603592e-38
0.0233629725755 -0.0584074314388 0.789 1.52543781372e-38
0.0248231583615 -0.0584074314388 0.789 1.57131968856e-38
0.0262833441475 -0.0584074314388 0.789 1.44246300801e-38
0.0277435299334 -0.0584074314388 0.789 1.86692275883e-38
0.0292037157194 -0.0584074314388 0.789 1.51066252271e-38
0.0306639015054 -0.0584074314388 0.789 1.58359702492e-38
0.0321648022309 -0.0584814586016 0.79 1.75015227754e-38
0.0336268386959 -0.0584814586016 0.79 1.98990001141e-38
0.035088875161 -0.0584814586016 0.79 1.96152301686e-38
0.0366434455795 -0.0586295129272 0.792 1.80445987978e-38
0.0383016540259 -0.0589256215783 0.796 2.09942017445e-38
0.0397747945654 -0.0589256215783 0.796 1.89705922373e-38
0.0413515731327 -0.0590736759039 0.798 1.60177635016e-38
0.0429357544164 -0.0592217302295 0.8 2.01615824268e-38
0.0445273384163 -0.059369784555 0.802 2.13604030722e-38
0.0460115830302 -0.059369784555 0.802 2.17296312045e-38
0.047495827644 -0.059369784555 0.802 2.0630428867e-38
0.0490411446672 -0.0594438117178 0.803 2.01705086981e-38
0.0506530861369 -0.0595918660434 0.805 1.58298746009e-38
0.0522724303229 -0.059739920369 0.807 2.31111012956e-38
0.0542989239041 -0.0603321376713 0.815 2.09917102358e-38
0.0558072273459 -0.0603321376713 0.815 2.17314164588e-38
0.057456182397 -0.0604801919968 0.817 2.34860313114e-38
0.0 -0.0585351282946 0.811 1.81318534493e-38
0.0015009007255 -0.0585351282946 0.811 2.19191049738e-38
0.00298699601845 -0.0582464223598 0.807 1.52806090432e-38
0.00445828587884 -0.0579577164249 0.803 1.12982771543e-38
0.00594438117178 -0.0579577164249 0.803 1.46129645937e-38
0.00743047646473 -0.0579577164249 0.803 1.50721420745e-38
0.00890546768326 -0.0578855399412 0.802 1.44300685195e-38
0.0103638027902 -0.0577411869737 0.8 1.44246384879e-38
0.0118443460459 -0.0577411869737 0.8 1.46075836076e-38
0.0132915770784 -0.0575968340063 0.798 1.43313596543e-38
0.0147314053946 -0.0574524810389 0.796 1.55259441744e-38
0.016204545934 -0.0574524810389 0.796 1.50692722153e-38
0.0176332701758 -0.0573081280714 0.794 1.49763605219e-38
0.0190064740455 -0.0570194221366 0.79 1.55273734988e-38
0.0204685105106 -0.0570194221366 0.79 1.58043149169e-38
0.0219305469756 -0.0570194221366 0.79 1.52515208896e-38
0.0233925834406 -0.0570194221366 0.79 1.50678372856e-38
0.0248546199057 -0.0570194221366 0.79 1.60801801378e-38
0.0263166563707 -0.0570194221366 0.79 1.50699896801e-38
0.0277786928358 -0.0570194221366 0.79 1.68256737234e-38
