# .PCD v0.7 - Point Cloud Data file format
VERSION 0.7
FIELDS x y z rgb
SIZE 4 4 4 4
TYPE F F F F
COUNT 1 1 1 1
WIDTH 838
HEIGHT 1
VIEWPOINT 0 0 0 1 0 0 0
POINTS 838
DATA ascii
-0.0329828023797 -0.0763812265635 0.938 7.62593350518e-39
-0.0310803042961 -0.0759740771681 0.933 8.91055425417e-39
-0.0293536207241 -0.0759740771681 0.933 8.0815236619e-39
-0.0275381045567 -0.0757297875309 0.93 7.4386751888e-39
-0.0257614526498 -0.0755669277728 0.928 8.35738888278e-39
-0.0239662939522 -0.0753226381356 0.925 8.63253663885e-39
-0.0222544158128 -0.0753226381356 0.925 8.81620763117e-39
-0.0205425376733 -0.0753226381356 0.925 8.54070114269e-39
-0.0188306595339 -0.0753226381356 0.925 8.63253663885e-39
-0.0171187813945 -0.0753226381356 0.925 8.72437213501e-39
-0.0153735910318 -0.0751597783775 0.923 8.72437213501e-39
-0.0136654142505 -0.0751597783775 0.923 8.90804312733e-39
-0.0119183732087 -0.0749154887403 0.92 9.64272709659e-39
-0.0101935403157 -0.0747526289822 0.918 1.05610820582e-38
-0.00849461692979 -0.0747526289822 0.918 1.21233616901e-38
-0.00679569354383 -0.0747526289822 0.918 1.82103794126e-38
-0.00509677015787 -0.0747526289822 0.918 1.72051649658e-38
-0.00339784677192 -0.0747526289822 0.918 1.72955655323e-38
-0.00169892338596 -0.0747526289822 0.918 1.59126521038e-38
0.0 -0.0747526289822 0.918 1.56375043477e-38
0.0017026247441 -0.0749154887403 0.92 1.46248027632e-38
0.00340524948819 -0.0749154887403 0.92 1.63775693031e-38
0.00510787423229 -0.0749154887403 0.92 1.44343158551e-38
0.00681049897639 -0.0749154887403 0.92 1.46201392419e-38
0.00851312372049 -0.0749154887403 0.92 1.24085539535e-38
0.0102157484646 -0.0749154887403 0.92 1.44339571227e-38
0.0119183732087 -0.0749154887403 0.92 1.3698914421e-38
0.0136209979528 -0.0749154887403 0.92 1.55420815275e-38
0.0153735910318 -0.0751597783775 0.923 1.51776094021e-38
0.0170817678131 -0.0751597783775 0.923 1.51786855994e-38
0.0188306595339 -0.0753226381356 0.925 1.59165981603e-38
0.0205425376733 -0.0753226381356 0.925 1.61017040822e-38
0.0222544158128 -0.0753226381356 0.925 1.90540858037e-38
0.0240440224732 -0.0755669277728 0.928 1.38947823152e-38
0.0258169730219 -0.0757297875309 0.93 1.2765133966e-38
0.027626937152 -0.0759740771681 0.933 1.3958995416e-38
0.0294165438124 -0.0761369369263 0.935 1.45121607874e-38
0.0311469287426 -0.0761369369263 0.935 1.63574802883e-38
0.0329828023797 -0.0763812265635 0.938 1.52565305317e-38
0.034718739347 -0.0763812265635 0.938 1.59912145009e-38
0.0365324048353 -0.0765440863216 0.94 2.34871439424e-38
0.0382720431608 -0.0765440863216 0.94 2.34867768022e-38
-0.0366489976167 -0.0750431855961 0.943 2.34874676423e-38
-0.0347927665098 -0.0748044479961 0.94 1.87873220164e-38
-0.0329828023797 -0.0746452895961 0.938 8.8233822793e-39
-0.0311469287426 -0.0744065519961 0.935 1.04810847314e-38
-0.0293536207241 -0.0742473935961 0.933 8.82015508894e-39
-0.0275381045567 -0.0740086559961 0.93 7.62234618111e-39
-0.0258169730219 -0.0740086559961 0.93 8.54249480473e-39
-0.0240440224732 -0.0738494975962 0.928 8.81620763117e-39
-0.0223265922965 -0.0738494975962 0.928 9.09171411964e-39
-0.0206091621199 -0.0738494975962 0.928 8.54070114269e-39
-0.0188306595339 -0.0736107599962 0.925 8.63253663885e-39
-0.0171187813945 -0.0736107599962 0.925 8.81620763117e-39
-0.0153735910318 -0.0734516015962 0.923 8.90804312733e-39
-0.0136654142505 -0.0734516015962 0.923 8.99987862348e-39
-0.0119572374691 -0.0734516015962 0.923 9.64272709659e-39
-0.0102157484646 -0.0732128639962 0.92 1.01937400735e-38
-0.00851312372049 -0.0732128639962 0.92 1.17553022406e-38
-0.00679569354383 -0.0730537055962 0.918 1.68263715701e-38
-0.00509677015787 -0.0730537055962 0.918 1.74824651163e-38
-0.00339784677192 -0.0730537055962 0.918 1.70204177762e-38
-0.00169892338596 -0.0730537055962 0.918 1.60037701352e-38
0.0 -0.0730537055962 0.918 1.59148044983e-38
0.0017026247441 -0.0732128639962 0.92 1.46258789604e-38
0.00340524948819 -0.0732128639962 0.92 1.49010267164e-38
0.00510787423229 -0.0732128639962 0.92 1.42488512008e-38
0.00683270712523 -0.0734516015962 0.923 1.52680099687e-38
0.00854088390653 -0.0734516015962 0.923 1.44393381088e-38
0.0102490606878 -0.0734516015962 0.923 1.43446327534e-38
0.0119572374691 -0.0734516015962 0.923 1.42502861304e-38
0.0136950251156 -0.0736107599962 0.925 1.57253937874e-38
0.015406903255 -0.0736107599962 0.925 1.3887607667e-38
0.0171187813945 -0.0736107599962 0.925 1.60116622481e-38
0.0188306595339 -0.0736107599962 0.925 1.60113035157e-38
0.0205425376733 -0.0736107599962 0.925 1.73030989128e-38
0.0223265922965 -0.0738494975962 0.928 1.85037958968e-38
0.0240958414871 -0.0740086559961 0.93 1.01948162708e-38
0.02590025358 -0.0742473935961 0.933 1.29488049583e-38
0.0276861588823 -0.0744065519961 0.935 1.82003391091e-38
0.0294165438124 -0.0744065519961 0.935 1.44260650098e-38
0.0311469287426 -0.0744065519961 0.935 1.5157161655e-38
0.0329828023797 -0.0746452895961 0.938 1.5345503175e-38
0.034718739347 -0.0746452895961 0.938 1.70053524164e-38
0.0366489976167 -0.0750431855961 0.943 2.34864362866e-38
0.0383941879794 -0.0750431855961 0.943 2.34896382536e-38
-0.0366489976167 -0.0732979952334 0.943 2.32087297596e-38
-0.034903807254 -0.0732979952334 0.943 1.80497569775e-38
-0.0330531281843 -0.0730648096706 0.94 9.65133667435e-39
-0.0312468654123 -0.0729093526288 0.938 8.63612396292e-39
-0.0293536207241 -0.0725207100241 0.933 9.28149197066e-39
-0.027626937152 -0.0725207100241 0.933 8.91091298658e-39
-0.0258169730219 -0.0722875244614 0.93 8.90840185973e-39
-0.0240440224732 -0.0721320674195 0.928 9.09171411964e-39
-0.0223265922965 -0.0721320674195 0.928 8.99987862348e-39
-0.0206091621199 -0.0721320674195 0.928 8.81620763117e-39
-0.0188917319432 -0.0721320674195 0.928 8.63253663885e-39
-0.0171187813945 -0.0718988818567 0.925 8.44886564654e-39
-0.015406903255 -0.0718988818567 0.925 8.81620763117e-39
-0.0136654142505 -0.0717434248149 0.923 8.99987862348e-39
-0.0119572374691 -0.0717434248149 0.923 1.00100690812e-38
-0.0102490606878 -0.0717434248149 0.923 1.07447530505e-38
-0.00851312372049 -0.0715102392521 0.92 1.13876015236e-38
-0.00681049897639 -0.0715102392521 0.92 1.26740159346e-38
-0.00510787423229 -0.0715102392521 0.92 1.64643825456e-38
-0.00340524948819 -0.0715102392521 0.92 1.92320128736e-38
-0.0017026247441 -0.0715102392521 0.92 1.61921046488e-38
0.0 -0.0715102392521 0.92 1.58258388614e-38
0.00170817678131 -0.0717434248149 0.923 1.60098685861e-38
0.00341635356261 -0.0717434248149 0.923 1.41631141555e-38
0.00512453034392 -0.0717434248149 0.923 1.53602041972e-38
0.00683270712523 -0.0717434248149 0.923 1.48052451638e-38
0.00854088390653 -0.0717434248149 0.923 1.61935395784e-38
0.0102490606878 -0.0717434248149 0.923 1.37028604775e-38
0.0119831469761 -0.0718988818567 0.925 1.59112171742e-38
0.0136950251156 -0.0718988818567 0.925 1.52708798279e-38
0.015406903255 -0.0718988818567 0.925 1.53641502537e-38
0.0171187813945 -0.0718988818567 0.925 1.5919826752e-38
0.0188917319432 -0.0721320674195 0.928 1.5827273791e-38
0.0206091621199 -0.0721320674195 0.928 1.8225048205e-38
0.0223265922965 -0.0721320674195 0.928 1.32490639828e-38
0.0240958414871 -0.0722875244614 0.93 1.24896274775e-38
0.02590025358 -0.0725207100241 0.933 1.34998179352e-38
0.0276861588823 -0.072676167066 0.935 1.59840636749e-38
0.0294165438124 -0.072676167066 0.935 1.67378109084e-38
0.0312468654123 -0.0729093526288 0.938 1.49774367191e-38
0.0329828023797 -0.0729093526288 0.938 1.35955994879e-38
0.034718739347 -0.0729093526288 0.938 1.73701944846e-38
0.0366489976167 -0.0732979952334 0.943 2.34907747067e-38
0.0383941879794 -0.0732979952334 0.943 2.34882131331e-38
-0.0367655903981 -0.0717804383963 0.946 2.33013107465e-38
-0.034903807254 -0.0715528048707 0.943 1.81419554099e-38
-0.0331586168913 -0.0715528048707 0.943 1.06665493858e-38
-0.0313134898588 -0.0713251713451 0.94 9.10032369741e-39
-0.0294165438124 -0.0709457821358 0.935 9.09674197853e-39
-0.027626937152 -0.0707940264521 0.933 8.91019552177e-39
-0.02590025358 -0.0707940264521 0.933 8.90947805695e-39
-0.0240958414871 -0.0705663929266 0.93 8.63253663885e-39
-0.0223747099523 -0.0705663929266 0.93 8.99987862348e-39
-0.0206091621199 -0.0704146372428 0.928 8.72437213501e-39
-0.0188917319432 -0.0704146372428 0.928 8.81620763117e-39
-0.0171187813945 -0.0701870037173 0.925 8.72437213501e-39
-0.015406903255 -0.0701870037173 0.925 9.1835496158e-39
-0.0136950251156 -0.0701870037173 0.925 9.64272709659e-39
-0.0119831469761 -0.0701870037173 0.925 9.64272709659e-39
-0.0102712688367 -0.0701870037173 0.925 1.02855755697e-38
-0.00854088390653 -0.0700352480336 0.923 1.09284240428e-38
-0.00683270712523 -0.0700352480336 0.923 1.26758109979e-38
-0.00510787423229 -0.069807614508 0.92 1.71051038476e-38
-0.00340524948819 -0.069807614508 0.92 1.63764931059e-38
-0.0017026247441 -0.069807614508 0.92 1.75786054013e-38
0.0 -0.069807614508 0.92 1.6194974508e-38
0.00170817678131 -0.0700352480336 0.923 1.57325684356e-38
0.00341635356261 -0.0700352480336 0.923 1.64719159261e-38
0.00512453034392 -0.0700352480336 0.923 1.51790443318e-38
0.00683270712523 -0.0700352480336 0.923 1.5453474623e-38
0.00854088390653 -0.0700352480336 0.923 1.60087923889e-38
0.0102490606878 -0.0700352480336 0.923 1.56392980098e-38
0.0119831469761 -0.0701870037173 0.925 1.51790443318e-38
0.0136950251156 -0.0701870037173 0.925 1.52708798279e-38
0.015406903255 -0.0701870037173 0.925 1.53627153241e-38
0.0171187813945 -0.0701870037173 0.925 1.64722746585e-38
0.0188917319432 -0.0704146372428 0.928 1.54581381443e-38
0.0206535784175 -0.0705663929266 0.93 1.88700448686e-38
0.0223747099523 -0.0705663929266 0.93 1.01937400735e-38
0.024173570008 -0.0707940264521 0.933 1.29488063596e-38
0.0259557739521 -0.0709457821358 0.935 1.34998179352e-38
0.0276861588823 -0.0709457821358 0.935 1.40508309122e-38
0.029510928445 -0.0711734156614 0.938 1.34126459604e-38
0.0312468654123 -0.0711734156614 0.938 1.55266658431e-38
0.0330531281843 -0.0713251713451 0.94 1.44239476478e-38
0.034903807254 -0.0715528048707 0.943 1.81095475803e-38
0.0367655903981 -0.0717804383963 0.946 2.34911124196e-38
0.038516332798 -0.0717804383963 0.946 2.34856837894e-38
-0.0367655903981 -0.0700296959964 0.946 2.31161838051e-38
-0.034903807254 -0.069807614508 0.943 1.74043875684e-38
-0.0331586168913 -0.069807614508 0.943 9.92899555727e-39
-0.0313134898588 -0.0695855330196 0.94 9.00705327162e-39
-0.0294165438124 -0.0692153972057 0.935 9.09459378799e-39
-0.027626937152 -0.0690673428801 0.933 9.18570201024e-39
-0.02590025358 -0.0690673428801 0.933 8.72473086742e-39
-0.0240958414871 -0.0688452613918 0.93 9.0005960883e-39
-0.0223747099523 -0.0688452613918 0.93 8.44886564654e-39
-0.0206091621199 -0.0686972070662 0.928 8.72437213501e-39
-0.0188917319432 -0.0686972070662 0.928 9.09171411964e-39
-0.0171743017665 -0.0686972070662 0.928 8.99987862348e-39
-0.015406903255 -0.0684751255778 0.925 9.73456259275e-39
-0.0136950251156 -0.0684751255778 0.925 9.55089160043e-39
-0.0119831469761 -0.0684751255778 0.925 9.64272709659e-39
-0.0102712688367 -0.0684751255778 0.925 1.01019045774e-38
-0.00854088390653 -0.0683270712523 0.923 1.06532762867e-38
-0.00683270712523 -0.0683270712523 0.923 1.11120950351e-38
-0.00512453034392 -0.0683270712523 0.923 1.38721863774e-38
-0.00341635356261 -0.0683270712523 0.923 1.80352843669e-38
-0.00170817678131 -0.0683270712523 0.923 1.61942570432e-38
0.0 -0.0683270712523 0.923 1.64701222641e-38
0.00170817678131 -0.0683270712523 0.923 1.75768299561e-38
0.00341635356261 -0.0683270712523 0.923 1.81328918115e-38
0.00512453034392 -0.0683270712523 0.923 1.66559456508e-38
0.00684751255778 -0.0684751255778 0.925 1.37957721709e-38
0.00855939069723 -0.0684751255778 0.925 1.66516436646e-38
0.0102712688367 -0.0684751255778 0.925 1.44418492357e-38
0.0119831469761 -0.0684751255778 0.925 1.52708798279e-38
0.0136950251156 -0.0684751255778 0.925 1.5178326867e-38
0.015406903255 -0.0684751255778 0.925 1.50864913708e-38
0.0171743017665 -0.0686972070662 0.928 1.64701222641e-38
0.0189324468827 -0.0688452613918 0.93 1.6839259312e-38
0.0206535784175 -0.0688452613918 0.93 1.43528835988e-38
0.0223747099523 -0.0688452613918 0.93 1.68274435634e-38
0.024173570008 -0.0690673428801 0.933 1.19386145005e-38
0.0259557739521 -0.0692153972057 0.935 1.32243114468e-38
0.0276861588823 -0.0692153972057 0.935 1.37778355505e-38
0.029510928445 -0.0694374786941 0.938 1.37774838246e-38
0.0312468654123 -0.0694374786941 0.938 1.50682058271e-38
0.0331586168913 -0.069807614508 0.943 1.4238447961e-38
0.034903807254 -0.069807614508 0.943 1.74652571711e-38
0.0367655903981 -0.0700296959964 0.946 2.34925053103e-38
0.038516332798 -0.0700296959964 0.946 2.34878515981e-38
-0.036843318919 -0.0684233065639 0.948 2.34878403877e-38
-0.0350148479982 -0.0682789535964 0.946 1.77738721384e-38
-0.0331586168913 -0.0680624241453 0.943 1.02992074012e-38
-0.0314134265286 -0.0680624241453 0.943 8.82087115246e-39
-0.0294165438124 -0.0674850122756 0.935 8.17909887657e-39
-0.0276861588823 -0.0674850122756 0.935 9.46443709038e-39
-0.02590025358 -0.0673406593081 0.933 9.36901427015e-39
-0.0240958414871 -0.067124129857 0.93 8.35703015038e-39
-0.0223747099523 -0.067124129857 0.93 8.81620763117e-39
-0.0206535784175 -0.067124129857 0.93 9.09171411964e-39
-0.0188917319432 -0.0669797768895 0.928 9.27538511196e-39
-0.0171743017665 -0.0669797768895 0.928 9.09171411964e-39
-0.0154568715899 -0.0669797768895 0.928 9.09171411964e-39
-0.0136950251156 -0.0667632474384 0.925 8.99987862348e-39
-0.0119831469761 -0.0667632474384 0.925 9.64272709659e-39
-0.0102712688367 -0.0667632474384 0.925 9.64272709659e-39
-0.00855939069723 -0.0667632474384 0.925 1.08365885466e-38
-0.00684751255778 -0.0667632474384 0.925 1.12039305313e-38
-0.00513563441834 -0.0667632474384 0.925 1.09284240428e-38
-0.00341635356261 -0.0666188944709 0.923 1.47101908851e-38
-0.00170817678131 -0.0666188944709 0.923 1.80371214692e-38
0.0 -0.0666188944709 0.923 1.66559456508e-38
0.00171187813945 -0.0667632474384 0.925 1.63797216976e-38
0.00342375627889 -0.0667632474384 0.925 1.58244039317e-38
0.00513563441834 -0.0667632474384 0.925 1.77608428653e-38
0.00684751255778 -0.0667632474384 0.925 1.81353580968e-38
0.00855939069723 -0.0667632474384 0.925 1.53666613806e-38
0.0102712688367 -0.0667632474384 0.925 1.60091511213e-38
0.0119831469761 -0.0667632474384 0.925 1.5642167869e-38
0.0136950251156 -0.0667632474384 0.925 1.61034977443e-38
0.015406903255 -0.0667632474384 0.925 1.55496149081e-38
0.0171743017665 -0.0669797768895 0.928 1.63797216976e-38
0.0189324468827 -0.067124129857 0.93 1.85013071907e-38
0.020720202864 -0.0673406593081 0.933 9.55089160043e-39
0.0224950040919 -0.0674850122756 0.935 1.23977919813e-38
0.024225389022 -0.0674850122756 0.935 1.32243114468e-38
0.0259557739521 -0.0674850122756 0.935 1.28569694621e-38
0.0277749914776 -0.0677015417267 0.938 1.34086999039e-38
0.029510928445 -0.0677015417267 0.938 1.36892286461e-38
0.0312468654123 -0.0677015417267 0.938 1.34119284955e-38
0.0332641055983 -0.0682789535964 0.946 1.48841662933e-38
0.0350148479982 -0.0682789535964 0.946 1.85712487997e-38
0.0367655903981 -0.0682789535964 0.946 2.34918102663e-38
-0.036843318919 -0.0666688628058 0.948 2.34863900438e-38
-0.0350148479982 -0.0665282111965 0.946 1.67593740892e-38
-0.0331586168913 -0.0663172337826 0.943 1.1586339277e-38
-0.0314134265286 -0.0663172337826 0.943 1.00222659831e-38
-0.029510928445 -0.0659656047594 0.938 8.63793163794e-39
-0.0276861588823 -0.0657546273454 0.935 9.00454214477e-39
-0.02590025358 -0.0656139757361 0.933 9.0005960883e-39
-0.024173570008 -0.0656139757361 0.933 8.54070114269e-39
-0.022446886436 -0.0656139757361 0.933 8.72437213501e-39
-0.0206535784175 -0.0654029983222 0.93 8.99987862348e-39
-0.0189324468827 -0.0654029983222 0.93 8.99987862348e-39
-0.0171743017665 -0.0652623467129 0.928 9.1835496158e-39
-0.0154568715899 -0.0652623467129 0.928 9.09171411964e-39
-0.0136950251156 -0.0650513692989 0.925 8.99987862348e-39
-0.0119831469761 -0.0650513692989 0.925 1.07447530505e-38
-0.0102712688367 -0.0650513692989 0.925 1.03824767598e-38
-0.00855939069723 -0.0650513692989 0.925 1.05610820582e-38
-0.00684751255778 -0.0650513692989 0.925 1.12957660274e-38
-0.00513563441834 -0.0650513692989 0.925 1.22162747848e-38
-0.00342375627889 -0.0650513692989 0.925 1.12039305313e-38
-0.00171187813945 -0.0650513692989 0.925 1.49903679013e-38
0.0 -0.0650513692989 0.925 1.74842587783e-38
0.00171187813945 -0.0650513692989 0.925 1.65630339575e-38
0.00342375627889 -0.0650513692989 0.925 1.92359575288e-38
0.00513563441834 -0.0650513692989 0.925 1.38883251319e-38
0.00684751255778 -0.0650513692989 0.925 1.64701222641e-38
0.00855939069723 -0.0650513692989 0.925 1.65619577602e-38
0.0102712688367 -0.0650513692989 0.925 1.60991929554e-38
0.0119831469761 -0.0650513692989 0.925 1.49017441813e-38
0.0137394414132 -0.0652623467129 0.928 1.48077562907e-38
0.0154568715899 -0.0652623467129 0.928 1.58254801289e-38
0.0171743017665 -0.0652623467129 0.928 1.67488573442e-38
0.0189324468827 -0.0654029983222 0.93 1.57343620976e-38
0.0207646191617 -0.0657546273454 0.935 1.21222854929e-38
0.0224950040919 -0.0657546273454 0.935 1.2765133966e-38
0.024225389022 -0.0657546273454 0.935 1.31324759506e-38
0.0259557739521 -0.0657546273454 0.935 1.28569694621e-38
0.0277749914776 -0.0659656047594 0.938 1.30413579192e-38
0.029510928445 -0.0659656047594 0.938 1.3319734267e-38
0.0312468654123 -0.0659656047594 0.938 1.42420577058e-38
0.0332641055983 -0.0665282111965 0.946 1.47062350195e-38
0.0350148479982 -0.0665282111965 0.946 1.88518237847e-38
0.0367655903981 -0.0665282111965 0.946 2.34936207439e-38
-0.0350148479982 -0.0647774687966 0.946 1.70366840488e-38
-0.0331586168913 -0.0645720434199 0.943 1.14008746226e-38
-0.0314134265286 -0.0645720434199 0.943 1.02059369754e-38
-0.029510928445 -0.064229667792 0.938 9.64814311515e-39
-0.0276861588823 -0.0640242424153 0.935 9.37080793218e-39
-0.02590025358 -0.0638872921641 0.933 9.46013230149e-39
-0.024173570008 -0.0638872921641 0.933 8.5410598751e-39
-0.022446886436 -0.0638872921641 0.933 9.1835496158e-39
-0.0206535784175 -0.0636818667874 0.93 9.09171411964e-39
-0.0189324468827 -0.0636818667874 0.93 8.72437213501e-39
-0.0172113153479 -0.0636818667874 0.93 8.54070114269e-39
-0.0154568715899 -0.0635449165362 0.928 9.36722060812e-39
-0.0137394414132 -0.0635449165362 0.928 9.09171411964e-39
-0.0120220112366 -0.0635449165362 0.928 9.91823358506e-39
-0.0103045810599 -0.0635449165362 0.928 9.73456259275e-39
-0.00855939069723 -0.0633394911595 0.925 9.55089160043e-39
-0.00684751255778 -0.0633394911595 0.925 1.65527091904e-38
-0.00513563441834 -0.0633394911595 0.925 9.09422524649e-39
-0.00342375627889 -0.0633394911595 0.925 1.14794370197e-38
-0.00171187813945 -0.0633394911595 0.925 1.26783207235e-38
0.0 -0.0633394911595 0.925 1.50804125381e-38
0.00171187813945 -0.0633394911595 0.925 1.7208034825e-38
0.00342375627889 -0.0633394911595 0.925 1.88668176783e-38
0.00513563441834 -0.0633394911595 0.925 1.65676974788e-38
0.00684751255778 -0.0633394911595 0.925 1.6749574809e-38
0.00855939069723 -0.0633394911595 0.925 1.58258388614e-38
0.0102712688367 -0.0633394911595 0.925 1.75768117393e-38
0.0119831469761 -0.0633394911595 0.925 1.50893612301e-38
0.0137394414132 -0.0635449165362 0.928 1.6653434524e-38
0.0154568715899 -0.0635449165362 0.928 1.61017040822e-38
0.0171743017665 -0.0635449165362 0.928 1.82210979446e-38
0.018993519292 -0.0638872921641 0.933 1.09388272826e-38
0.0207646191617 -0.0640242424153 0.935 1.20304499967e-38
0.0224950040919 -0.0640242424153 0.935 1.23059564852e-38
0.024225389022 -0.0640242424153 0.935 1.29488049583e-38
0.0260390545103 -0.064229667792 0.938 1.24896274775e-38
0.0278342132079 -0.0643666180432 0.94 1.24910624071e-38
0.0295738515333 -0.0643666180432 0.94 1.30420753841e-38
0.0314134265286 -0.0645720434199 0.943 1.45204214419e-38
0.0332641055983 -0.0647774687966 0.946 1.46115296641e-38
0.0350148479982 -0.0647774687966 0.946 1.93174682579e-38
0.036843318919 -0.0649144190478 0.948 2.34885802733e-38
-0.0371542330027 -0.0636929708618 0.956 2.31165467414e-38
-0.035088875161 -0.0631599752897 0.948 1.73128813774e-38
-0.0332641055983 -0.0630267263967 0.946 1.21380865343e-38
-0.0315133631984 -0.0630267263967 0.946 1.01133840144e-38
-0.0295738515333 -0.0626269797177 0.94 1.00176248825e-38
-0.0277749914776 -0.0624937308247 0.938 9.737432452e-39
-0.0259557739521 -0.0622938574851 0.935 9.27610257677e-39
-0.024173570008 -0.0621606085921 0.933 8.99987862348e-39
-0.022446886436 -0.0621606085921 0.933 9.27538511196e-39
-0.020720202864 -0.0621606085921 0.933 9.1835496158e-39
-0.018993519292 -0.0621606085921 0.933 8.72437213501e-39
-0.0172113153479 -0.0619607352526 0.93 8.90804312733e-39
-0.0154568715899 -0.0618274863596 0.928 9.1835496158e-39
-0.0137394414132 -0.0618274863596 0.928 8.44886564654e-39
-0.0120220112366 -0.0618274863596 0.928 8.54070114269e-39
-0.0103045810599 -0.0618274863596 0.928 8.90804312733e-39
-0.00858715088327 -0.0618274863596 0.928 9.45905610427e-39
-0.00686972070662 -0.0618274863596 0.928 1.07447530505e-38
-0.00515229052996 -0.0618274863596 0.928 1.12039305313e-38
-0.00343486035331 -0.0618274863596 0.928 1.17549435082e-38
-0.00171743017665 -0.0618274863596 0.928 1.12039305313e-38
0.0 -0.0618274863596 0.928 1.07447530505e-38
0.00171743017665 -0.0618274863596 0.928 1.66419831129e-38
0.00343486035331 -0.0618274863596 0.928 1.87750550496e-38
0.00515229052996 -0.0618274863596 0.928 1.85977641692e-38
0.00684751255778 -0.06162761302 0.925 1.80442400654e-38
0.00855939069723 -0.06162761302 0.925 1.78605690731e-38
0.0103045810599 -0.0618274863596 0.928 1.71179929909e-38
0.0120220112366 -0.0618274863596 0.928 1.52715972927e-38
0.0137394414132 -0.0618274863596 0.928 1.73917128238e-38
0.0154568715899 -0.0618274863596 0.928 1.61027802795e-38
0.0172113153479 -0.0619607352526 0.93 1.74860888741e-38
0.0190342342316 -0.0622938574851 0.935 9.82711555372e-39
0.0207646191617 -0.0622938574851 0.935 1.20304499967e-38
0.0225671805756 -0.0624937308247 0.938 1.23977919813e-38
0.0243031175429 -0.0624937308247 0.938 1.24896274775e-38
0.0260945748824 -0.0626269797177 0.94 1.2765133966e-38
0.0278342132079 -0.0626269797177 0.94 1.26732984698e-38
0.0296682361659 -0.0628268530572 0.943 1.2859480589e-38
0.0314134265286 -0.0628268530572 0.943 1.30435201228e-38
0.0331586168913 -0.0628268530572 0.943 1.59015440109e-38
0.0350148479982 -0.0630267263967 0.946 2.01490197861e-38
0.036843318919 -0.0631599752897 0.948 2.34911026105e-38
-0.0389234821933 -0.0619237216712 0.956 2.23807655554e-38
-0.0371542330027 -0.0619237216712 0.956 2.33934909621e-38
-0.0353109566493 -0.0617941741363 0.954 1.71277992775e-38
-0.0333344314029 -0.0614055315317 0.948 1.07537297684e-38
-0.0315799876449 -0.0614055315317 0.948 1.2232431756e-38
-0.0295738515333 -0.0608873413922 0.94 8.63576803311e-39
-0.0277749914776 -0.0607577938573 0.938 9.82819175094e-39
-0.0259557739521 -0.060563472555 0.935 9.55232653006e-39
-0.024225389022 -0.060563472555 0.935 8.72437213501e-39
-0.0224950040919 -0.060563472555 0.935 9.0005960883e-39
-0.0207646191617 -0.060563472555 0.935 1.13065882555e-38
-0.018993519292 -0.0604339250201 0.933 8.81620763117e-39
-0.01726683572 -0.0604339250201 0.933 8.44886564654e-39
-0.0154901838131 -0.0602396037178 0.93 8.81620763117e-39
-0.0137690522784 -0.0602396037178 0.93 8.35703015038e-39
-0.0120479207436 -0.0602396037178 0.93 8.44886564654e-39
-0.0103045810599 -0.0601100561829 0.928 9.36722060812e-39
-0.00858715088327 -0.0601100561829 0.928 9.91823358506e-39
-0.00686972070662 -0.0601100561829 0.928 1.05610820582e-38
-0.00515229052996 -0.0601100561829 0.928 1.1020259539e-38
-0.00343486035331 -0.0601100561829 0.928 1.14794370197e-38
-0.00171743017665 -0.0601100561829 0.928 1.13876015236e-38
0.0 -0.0601100561829 0.928 1.02855755697e-38
0.00171743017665 -0.0601100561829 0.928 1.21240791549e-38
0.00343486035331 -0.0601100561829 0.928 1.27741022761e-38
0.00515229052996 -0.0601100561829 0.928 1.75700350599e-38
0.00686972070662 -0.0601100561829 0.928 1.89618775622e-38
0.00858715088327 -0.0601100561829 0.928 1.79516871044e-38
0.0103045810599 -0.0601100561829 0.928 1.69339632662e-38
0.0120220112366 -0.0601100561829 0.928 1.80406527413e-38
0.0137394414132 -0.0601100561829 0.928 1.61974856349e-38
0.0154901838131 -0.0602396037178 0.93 1.6747781147e-38
0.0173038493014 -0.060563472555 0.935 1.56436027987e-38
0.0190342342316 -0.060563472555 0.935 1.11120950351e-38
0.0208312436082 -0.0607577938573 0.938 1.23059564852e-38
0.0225671805756 -0.0607577938573 0.938 1.2214120989e-38
0.0243031175429 -0.0607577938573 0.938 1.25814629736e-38
0.0260945748824 -0.0608873413922 0.94 1.20304499967e-38
0.0278342132079 -0.0608873413922 0.94 1.28587701306e-38
0.0295738515333 -0.0608873413922 0.94 1.24013793054e-38
0.0314134265286 -0.0610816626945 0.943 1.43367770742e-38
0.0331586168913 -0.0610816626945 0.943 1.47987879805e-38
0.0350148479982 -0.0612759839968 0.946 2.07018250238e-38
0.0367655903981 -0.0612759839968 0.946 2.34914501326e-38
-0.0389234821933 -0.0601544724806 0.956 2.21031024686e-38
-0.0370765044818 -0.0600286263038 0.954 2.34860593374e-38
-0.0353109566493 -0.0600286263038 0.954 1.60214405088e-38
-0.0334399201099 -0.0598398570387 0.951 1.1491992654e-38
-0.0315799876449 -0.0596510877736 0.948 1.07565912199e-38
-0.0296682361659 -0.0593364723318 0.943 1.05725755082e-38
-0.0278342132079 -0.0591477030667 0.94 9.737432452e-39
-0.0260390545103 -0.0590218568899 0.938 8.72508959982e-39
-0.024225389022 -0.0588330876248 0.935 8.72437213501e-39
-0.0224950040919 -0.0588330876248 0.935 8.99987862348e-39
-0.0208312436082 -0.0590218568899 0.938 8.81620763117e-39
-0.0190342342316 -0.0588330876248 0.935 9.1835496158e-39
-0.0173038493014 -0.0588330876248 0.935 8.81620763117e-39
-0.015540152148 -0.0587072414481 0.933 8.90804312733e-39
-0.013813468576 -0.0587072414481 0.933 8.90804312733e-39
-0.012086785004 -0.0587072414481 0.933 8.99987862348e-39
-0.0103267892088 -0.058518472183 0.93 9.36722060812e-39
-0.00860565767397 -0.058518472183 0.93 9.1835496158e-39
-0.00688452613918 -0.058518472183 0.93 1.01937400735e-38
-0.00516339460438 -0.058518472183 0.93 1.12039305313e-38
-0.00344226306959 -0.058518472183 0.93 1.16634667445e-38
-0.00171743017665 -0.0583926260063 0.928 1.16652604065e-38
0.0 -0.0583926260063 0.928 1.12957660274e-38
0.00171743017665 -0.0583926260063 0.928 1.09284240428e-38
0.00343486035331 -0.0583926260063 0.928 1.0469246562e-38
0.00515229052996 -0.0583926260063 0.928 1.56228285489e-38
0.00686972070662 -0.0583926260063 0.928 1.78512420305e-38
0.00858715088327 -0.0583926260063 0.928 1.99792819044e-38
0.0103045810599 -0.0583926260063 0.928 1.81361147979e-38
0.0120220112366 -0.0583926260063 0.928 1.7489281032e-38
0.0137690522784 -0.058518472183 0.93 1.78573404814e-38
0.0154901838131 -0.058518472183 0.93 1.67492160766e-38
0.0173038493014 -0.0588330876248 0.935 1.28777759417e-38
0.0190342342316 -0.0588330876248 0.935 1.20304499967e-38
0.0208312436082 -0.0590218568899 0.938 1.2214120989e-38
0.0225671805756 -0.0590218568899 0.938 1.23059564852e-38
0.0243031175429 -0.0590218568899 0.938 1.17549435082e-38
0.0260945748824 -0.0591477030667 0.94 1.1663112216e-38
0.0278342132079 -0.0591477030667 0.94 1.23999471784e-38
0.0295738515333 -0.0591477030667 0.94 1.28627091806e-38
0.0314134265286 -0.0593364723318 0.943 1.18467790044e-38
0.0331586168913 -0.0593364723318 0.943 1.49785129163e-38
0.0350148479982 -0.0595252415969 0.946 2.22702297313e-38
0.0367655903981 -0.0595252415969 0.946 2.3491109617e-38
-0.0370765044818 -0.0582630784714 0.954 2.34860467257e-38
-0.0353109566493 -0.0582630784714 0.954 1.64820767413e-38
-0.0334399201099 -0.0580798612435 0.951 1.11246506694e-38
-0.0315799876449 -0.0578966440156 0.948 1.12200734896e-38
-0.0296682361659 -0.0575912819691 0.943 9.18821313709e-39
-0.0278342132079 -0.0574080647412 0.94 9.92361457117e-39
-0.0260945748824 -0.0574080647412 0.94 9.1835496158e-39
-0.0243031175429 -0.0572859199226 0.938 9.1835496158e-39
-0.0225671805756 -0.0572859199226 0.938 8.99987862348e-39
-0.0208312436082 -0.0572859199226 0.938 8.81620763117e-39
-0.0190342342316 -0.0571027026947 0.935 9.27538511196e-39
-0.0173038493014 -0.0571027026947 0.935 8.99987862348e-39
-0.0155734643713 -0.0571027026947 0.935 8.99987862348e-39
-0.013813468576 -0.0569805578761 0.933 9.27538511196e-39
-0.012086785004 -0.0569805578761 0.933 9.64272709659e-39
-0.010360101432 -0.0569805578761 0.933 9.64272709659e-39
-0.00863341786002 -0.0569805578761 0.933 8.99987862348e-39
-0.00690673428801 -0.0569805578761 0.933 1.00100690812e-38
-0.00518005071601 -0.0569805578761 0.933 1.05610820582e-38
-0.00345336714401 -0.0569805578761 0.933 1.09284240428e-38
-0.00172113153479 -0.0567973406482 0.93 1.11120950351e-38
0.0 -0.0567973406482 0.93 1.09284240428e-38
0.00172113153479 -0.0567973406482 0.93 1.09284240428e-38
0.00345336714401 -0.0569805578761 0.933 1.09284240428e-38
0.00518005071601 -0.0569805578761 0.933 1.23059564852e-38
0.00688452613918 -0.0567973406482 0.93 1.1755660973e-38
0.00860565767397 -0.0567973406482 0.93 1.53490890978e-38
0.010360101432 -0.0569805578761 0.933 1.72970158762e-38
0.012086785004 -0.0569805578761 0.933 2.00707362474e-38
0.0138430794411 -0.0571027026947 0.935 1.74893160645e-38
0.0155734643713 -0.0571027026947 0.935 1.95150429336e-38
0.0173038493014 -0.0571027026947 0.935 1.25115101543e-38
0.0190953066409 -0.0572859199226 0.938 1.18467790044e-38
0.0208312436082 -0.0572859199226 0.938 1.18467790044e-38
0.0226152982314 -0.0574080647412 0.94 1.21222854929e-38
0.0243549365569 -0.0574080647412 0.94 1.19386145005e-38
0.0260945748824 -0.0574080647412 0.94 1.16641842093e-38
0.0279230458032 -0.0575912819691 0.943 1.23077515485e-38
0.0296682361659 -0.0575912819691 0.943 1.35077100482e-38
0.0314134265286 -0.0575912819691 0.943 1.29556404922e-38
0.0331586168913 -0.0575912819691 0.943 1.47955691979e-38
0.0350148479982 -0.057774499197 0.946 2.31922042468e-38
-0.0371542330027 -0.0566159740994 0.956 2.32083962505e-38
-0.0353109566493 -0.0564975306389 0.954 1.59288847452e-38
-0.0334399201099 -0.0563198654482 0.951 1.18625856511e-38
-0.0315799876449 -0.0561422002575 0.948 1.16796265184e-38
-0.0297626207984 -0.0560237567971 0.946 9.1889306019e-39
-0.0279230458032 -0.0558460916064 0.943 1.04739128859e-38
-0.0260945748824 -0.0556684264157 0.94 9.09207285205e-39
-0.0243031175429 -0.0555499829552 0.938 9.09171411964e-39
-0.0225671805756 -0.0555499829552 0.938 8.72437213501e-39
-0.0208312436082 -0.0555499829552 0.938 8.81620763117e-39
-0.0190953066409 -0.0555499829552 0.938 9.27538511196e-39
-0.0173038493014 -0.0553723177646 0.935 8.90804312733e-39
-0.0155734643713 -0.0553723177646 0.935 9.27538511196e-39
-0.0138430794411 -0.0553723177646 0.935 9.36722060812e-39
-0.012086785004 -0.0552538743041 0.933 9.27538511196e-39
-0.010360101432 -0.0552538743041 0.933 9.36722060812e-39
-0.00863341786002 -0.0552538743041 0.933 9.27538511196e-39
-0.00690673428801 -0.0552538743041 0.933 9.45905610427e-39
-0.00518005071601 -0.0552538743041 0.933 1.01019045774e-38
-0.00345336714401 -0.0552538743041 0.933 1.08365885466e-38
-0.001726683572 -0.0552538743041 0.933 1.1020259539e-38
0.0 -0.0552538743041 0.933 1.0469246562e-38
0.001726683572 -0.0552538743041 0.933 1.09284240428e-38
0.00345336714401 -0.0552538743041 0.933 1.1020259539e-38
0.00518005071601 -0.0552538743041 0.933 1.1020259539e-38
0.00690673428801 -0.0552538743041 0.933 1.15712725159e-38
0.00863341786002 -0.0552538743041 0.933 1.13876015236e-38
0.0103823095809 -0.0553723177646 0.935 1.52511677624e-38
0.012112694511 -0.0553723177646 0.935 1.36038503332e-38
0.0138430794411 -0.0553723177646 0.935 1.92367184339e-38
0.0155734643713 -0.0553723177646 0.935 2.15462012355e-38
0.0173593696735 -0.0555499829552 0.938 1.03903254325e-38
0.0190953066409 -0.0555499829552 0.938 1.14794370197e-38
0.0208312436082 -0.0555499829552 0.938 1.23977919813e-38
0.0226152982314 -0.0556684264157 0.94 1.21222854929e-38
0.0244326650778 -0.0558460916064 0.943 1.19386145005e-38
0.0261778554405 -0.0558460916064 0.943 1.19386145005e-38
0.0280118783985 -0.0560237567971 0.946 1.27651353673e-38
0.0297626207984 -0.0560237567971 0.946 1.31324759506e-38
0.0314134265286 -0.0558460916064 0.943 1.52547845138e-38
0.0331586168913 -0.0558460916064 0.943 1.50717833421e-38
0.034903807254 -0.0558460916064 0.943 2.34745448679e-38
-0.0371542330027 -0.0548467249088 0.956 2.34899899796e-38
-0.0353109566493 -0.0547319828065 0.954 1.48243322502e-38
-0.0335454088169 -0.0547319828065 0.954 1.17678746905e-38
-0.0316799243146 -0.054559869653 0.951 1.09416971419e-38
-0.0297626207984 -0.0542730143972 0.946 1.00165262645e-38
-0.0279230458032 -0.0541009012437 0.943 9.55376145969e-39
-0.0261778554405 -0.0541009012437 0.943 9.55591385413e-39
-0.0243549365569 -0.0539287880902 0.94 8.81620763117e-39
-0.0226152982314 -0.0539287880902 0.94 8.81620763117e-39
-0.0208756599059 -0.0539287880902 0.94 9.1835496158e-39
-0.0190953066409 -0.0538140459879 0.938 9.27538511196e-39
-0.0173593696735 -0.0538140459879 0.938 8.72437213501e-39
-0.0156234327062 -0.0538140459879 0.938 8.90804312733e-39
-0.0138430794411 -0.0536419328344 0.935 9.27538511196e-39
-0.012112694511 -0.0536419328344 0.935 8.99987862348e-39
-0.010360101432 -0.0535271907321 0.933 9.27538511196e-39
-0.00863341786002 -0.0535271907321 0.933 9.36722060812e-39
-0.00690673428801 -0.0535271907321 0.933 9.91823358506e-39
-0.00518005071601 -0.0535271907321 0.933 1.03774110659e-38
-0.00345336714401 -0.0535271907321 0.933 1.03774110659e-38
-0.001726683572 -0.0535271907321 0.933 1.08365885466e-38
0.0 -0.0535271907321 0.933 1.0469246562e-38
0.001726683572 -0.0535271907321 0.933 1.07447530505e-38
0.00346076986028 -0.0536419328344 0.935 1.12039305313e-38
0.00519115479043 -0.0536419328344 0.935 1.15712725159e-38
0.00692153972057 -0.0536419328344 0.935 1.17563784379e-38
0.00865192465071 -0.0536419328344 0.935 1.19386145005e-38
0.0103823095809 -0.0536419328344 0.935 1.23059564852e-38
0.012112694511 -0.0536419328344 0.935 1.14794370197e-38
0.0138430794411 -0.0536419328344 0.935 1.77418818958e-38
0.0156234327062 -0.0538140459879 0.938 2.07171818537e-38
0.0173593696735 -0.0538140459879 0.938 1.6201486342e-38
0.0190953066409 -0.0538140459879 0.938 1.19386145005e-38
0.0208756599059 -0.0539287880902 0.94 1.24896274775e-38
0.0226874747151 -0.0541009012437 0.943 1.26732984698e-38
0.0244326650778 -0.0541009012437 0.943 1.23059564852e-38
0.0262611359986 -0.0542730143972 0.946 1.2765133966e-38
0.0280118783985 -0.0542730143972 0.946 1.42373885793e-38
0.0297626207984 -0.0542730143972 0.946 1.5161110514e-38
0.0315133631984 -0.0542730143972 0.946 1.52522663804e-38
0.0332641055983 -0.0542730143972 0.946 1.48834488285e-38
0.0351999159051 -0.054559869653 0.951 2.34777958803e-38
-0.0371542330027 -0.0530774757182 0.956 2.29325128128e-38
-0.0353109566493 -0.052966434974 0.954 1.52845915334e-38
-0.0335454088169 -0.052966434974 0.954 1.15842065007e-38
-0.0317798609844 -0.052966434974 0.954 1.07573086847e-38
-0.0299199285194 -0.0527998738577 0.951 9.46443849167e-39
-0.0280118783985 -0.0525222719973 0.946 9.64595568825e-39
-0.0261778554405 -0.052355710881 0.943 9.27538511196e-39
-0.0244326650778 -0.052355710881 0.943 9.09171411964e-39
-0.0226874747151 -0.052355710881 0.943 8.81620763117e-39
-0.0208756599059 -0.0521891497647 0.94 8.99987862348e-39
-0.0190953066409 -0.0520781090205 0.938 9.27538511196e-39
-0.0173593696735 -0.0520781090205 0.938 9.1835496158e-39
-0.0156234327062 -0.0520781090205 0.938 8.90804312733e-39
-0.0138430794411 -0.0519115479043 0.935 9.27538511196e-39
-0.012112694511 -0.0519115479043 0.935 9.27538511196e-39
-0.0103823095809 -0.0519115479043 0.935 9.36722060812e-39
-0.00865192465071 -0.0519115479043 0.935 9.27538511196e-39
-0.00692153972057 -0.0519115479043 0.935 1.00100690812e-38
-0.00519115479043 -0.0519115479043 0.935 1.01937400735e-38
-0.00346076986028 -0.0519115479043 0.935 1.05610820582e-38
-0.00173038493014 -0.0519115479043 0.935 1.07447530505e-38
0.0 -0.0518005071601 0.933 1.06529175543e-38
0.001726683572 -0.0518005071601 0.933 1.07447530505e-38
0.00346076986028 -0.0519115479043 0.935 1.11120950351e-38
0.00519115479043 -0.0519115479043 0.935 1.12039305313e-38
0.00692153972057 -0.0519115479043 0.935 1.12957660274e-38
0.00865192465071 -0.0519115479043 0.935 1.19386145005e-38
0.0103823095809 -0.0519115479043 0.935 1.25814629736e-38
0.012112694511 -0.0519115479043 0.935 1.3591656234e-38
0.0138430794411 -0.0519115479043 0.935 1.31389331339e-38
0.0156234327062 -0.0520781090205 0.938 1.4238447961e-38
0.0173593696735 -0.0520781090205 0.938 1.84969883889e-38
0.0191360215804 -0.0521891497647 0.94 1.1020259539e-38
0.0209422843524 -0.052355710881 0.943 1.28569694621e-38
0.0226874747151 -0.052355710881 0.943 1.32243114468e-38
0.0245103935987 -0.0525222719973 0.946 1.33161469429e-38
0.0262611359986 -0.0525222719973 0.946 1.42345019045e-38
0.0280118783985 -0.0525222719973 0.946 1.59818874583e-38
0.0297626207984 -0.0525222719973 0.946 1.60747991517e-38
0.0315133631984 -0.0525222719973 0.946 1.72769422757e-38
0.0334399201099 -0.0527998738577 0.951 1.69081345329e-38
0.0351999159051 -0.0527998738577 0.951 2.34767182818e-38
-0.0372708257841 -0.0514692356066 0.959 2.34878263747e-38
-0.0353109566493 -0.0512008871415 0.954 1.5377508832e-38
-0.0335454088169 -0.0512008871415 0.954 1.01065680987e-38
-0.0317798609844 -0.0512008871415 0.954 1.19558434652e-38
-0.0299199285194 -0.0510398780625 0.951 9.28292549899e-39
-0.0280118783985 -0.0507715295974 0.946 9.55591385413e-39
-0.0262611359986 -0.0507715295974 0.946 9.00023735589e-39
-0.0244326650778 -0.0506105205183 0.943 8.72437213501e-39
-0.0226874747151 -0.0506105205183 0.943 8.35703015038e-39
-0.0209422843524 -0.0506105205183 0.943 8.72437213501e-39
-0.0191360215804 -0.0504495114392 0.94 9.1835496158e-39
-0.0173963832549 -0.0504495114392 0.94 9.1835496158e-39
-0.0156234327062 -0.0503421720532 0.938 8.90804312733e-39
-0.0138874957388 -0.0503421720532 0.938 9.36722060812e-39
-0.0121515587715 -0.0503421720532 0.938 9.27538511196e-39
-0.0103823095809 -0.0501811629741 0.935 9.27538511196e-39
-0.00865192465071 -0.0501811629741 0.935 9.36722060812e-39
-0.00692153972057 -0.0501811629741 0.935 9.82639808891e-39
-0.00519115479043 -0.0501811629741 0.935 9.73456259275e-39
-0.00346076986028 -0.0501811629741 0.935 1.07447530505e-38
-0.00173038493014 -0.0501811629741 0.935 1.0469246562e-38
0.0 -0.0501811629741 0.935 1.09284240428e-38
0.00173038493014 -0.0501811629741 0.935 1.06529175543e-38
0.00346076986028 -0.0501811629741 0.935 1.27701716339e-38
0.00519115479043 -0.0501811629741 0.935 1.06529175543e-38
0.00692153972057 -0.0501811629741 0.935 1.12039305313e-38
0.00865192465071 -0.0501811629741 0.935 1.17549435082e-38
0.0103823095809 -0.0501811629741 0.935 1.23059564852e-38
0.0121515587715 -0.0503421720532 0.938 1.59887229922e-38
0.0138874957388 -0.0503421720532 0.938 1.29570558036e-38
0.0156234327062 -0.0503421720532 0.938 1.28569694621e-38
0.0173593696735 -0.0503421720532 0.938 1.44253475449e-38
0.0191970939897 -0.0506105205183 0.943 1.72945341766e-38
0.0209422843524 -0.0506105205183 0.943 1.23095438092e-38
0.0227596511988 -0.0507715295974 0.946 1.49691858738e-38
0.0245103935987 -0.0507715295974 0.946 1.49691858738e-38
0.0262611359986 -0.0507715295974 0.946 1.59793763315e-38
0.0280118783985 -0.0507715295974 0.946 1.79115118775e-38
0.0297626207984 -0.0507715295974 0.946 1.69041884764e-38
0.0315133631984 -0.0507715295974 0.946 1.69942303105e-38
0.0335454088169 -0.0512008871415 0.954 1.67165714276e-38
0.0353109566493 -0.0512008871415 0.954 2.34835678287e-38
-0.0372708257841 -0.0496944343788 0.959 2.34878249734e-38
-0.0353849838121 -0.049538977337 0.956 1.41789656438e-38
-0.0335454088169 -0.0494353393091 0.954 1.19515470841e-38
-0.0317798609844 -0.0494353393091 0.954 1.13094020628e-38
-0.0299199285194 -0.0492798822672 0.951 9.64740042697e-39
-0.0280118783985 -0.0490207871974 0.946 9.55376145969e-39
-0.0262611359986 -0.0490207871974 0.946 9.27610257677e-39
-0.0244326650778 -0.0488653301556 0.943 8.90804312733e-39
-0.0226874747151 -0.0488653301556 0.943 8.90804312733e-39
-0.0209422843524 -0.0488653301556 0.943 8.99987862348e-39
-0.0191360215804 -0.0487098731137 0.94 8.63253663885e-39
-0.0173963832549 -0.0487098731137 0.94 8.63253663885e-39
-0.0156234327062 -0.0486062350858 0.938 9.1835496158e-39
-0.0138874957388 -0.0486062350858 0.938 9.64272709659e-39
-0.0121515587715 -0.0486062350858 0.938 9.1835496158e-39
-0.0103823095809 -0.048450778044 0.935 9.27538511196e-39
-0.00865192465071 -0.048450778044 0.935 9.64272709659e-39
-0.00692153972057 -0.048450778044 0.935 9.91823358506e-39
-0.00519115479043 -0.048450778044 0.935 1.01019045774e-38
-0.00346076986028 -0.048450778044 0.935 1.05610820582e-38
-0.00173038493014 -0.048450778044 0.935 1.08365885466e-38
0.0 -0.048450778044 0.935 1.13876015236e-38
0.00173038493014 -0.048450778044 0.935 1.1020259539e-38
0.00346076986028 -0.048450778044 0.935 1.12957660274e-38
0.00519115479043 -0.048450778044 0.935 1.17549435082e-38
0.00692153972057 -0.048450778044 0.935 1.16631080121e-38
0.00865192465071 -0.048450778044 0.935 1.29488049583e-38
0.0104156218041 -0.0486062350858 0.938 1.34079824391e-38
0.0121515587715 -0.0486062350858 0.938 1.65418785545e-38
0.0138874957388 -0.0486062350858 0.938 1.51654125003e-38
0.0156567449294 -0.0487098731137 0.94 1.40569293631e-38
0.0173963832549 -0.0487098731137 0.94 1.19389732329e-38
0.0191970939897 -0.0488653301556 0.943 1.41473299296e-38
0.0209422843524 -0.0488653301556 0.943 1.51689998244e-38
0.0227596511988 -0.0490207871974 0.946 1.63467183161e-38
0.0245103935987 -0.0490207871974 0.946 1.65303893084e-38
0.0263166563707 -0.0491244252253 0.948 1.65303893084e-38
0.0280711001288 -0.0491244252253 0.948 1.82766986651e-38
0.0298255438868 -0.0491244252253 0.948 1.76363613188e-38
0.0315799876449 -0.0491244252253 0.948 1.83789486114e-38
0.0335454088169 -0.0494353393091 0.954 1.79190424554e-38
0.0353109566493 -0.0494353393091 0.954 2.34860775542e-38
-0.0353849838121 -0.0477697281463 0.956 1.42711486619e-38
-0.0335454088169 -0.0476697914766 0.954 1.08466442644e-38
-0.0317798609844 -0.0476697914766 0.954 1.00179724046e-38
-0.0299199285194 -0.0475198864719 0.951 1.02927642308e-38
-0.0280118783985 -0.0472700447975 0.946 9.73635625478e-39
-0.0262611359986 -0.0472700447975 0.946 9.45905610427e-39
-0.0244326650778 -0.0471201397929 0.943 9.45905610427e-39
-0.0226874747151 -0.0471201397929 0.943 8.99987862348e-39
-0.0209422843524 -0.0471201397929 0.943 9.45905610427e-39
-0.0191970939897 -0.0471201397929 0.943 9.27538511196e-39
-0.0173963832549 -0.0469702347883 0.94 9.27538511196e-39
-0.0156234327062 -0.0468702981185 0.938 9.1835496158e-39
-0.0138874957388 -0.0468702981185 0.938 9.82639808891e-39
-0.0121515587715 -0.0468702981185 0.938 1.02855755697e-38
-0.0104156218041 -0.0468702981185 0.938 1.00100690812e-38
-0.00867968483676 -0.0468702981185 0.938 1.06529175543e-38
-0.00694374786941 -0.0468702981185 0.938 1.07447530505e-38
-0.00520781090205 -0.0468702981185 0.938 1.08365885466e-38
-0.0034718739347 -0.0468702981185 0.938 1.12957660274e-38
-0.00173038493014 -0.0467203931138 0.935 1.15712725159e-38
0.0 -0.0467203931138 0.935 1.20304499967e-38
0.00173038493014 -0.0467203931138 0.935 1.2214120989e-38
0.0034718739347 -0.0468702981185 0.938 1.26732984698e-38
0.00520781090205 -0.0468702981185 0.938 1.30406404544e-38
0.00694374786941 -0.0468702981185 0.938 1.34998179352e-38
0.00867968483676 -0.0468702981185 0.938 1.44181728968e-38
0.0104156218041 -0.0468702981185 0.938 1.47855148814e-38
0.0121515587715 -0.0468702981185 0.938 1.83807660955e-38
0.0138874957388 -0.0468702981185 0.938 1.44321634607e-38
0.0156567449294 -0.0469702347883 0.94 1.48870361526e-38
0.017451903627 -0.0471201397929 0.943 1.3506633851e-38
0.0191970939897 -0.0471201397929 0.943 1.09284240428e-38
0.0210089087989 -0.0472700447975 0.946 1.87663810121e-38
0.0227596511988 -0.0472700447975 0.946 1.50610213699e-38
0.0245622126127 -0.0473699814673 0.948 1.68058957969e-38
0.0263166563707 -0.0473699814673 0.948 1.67140603008e-38
0.0280711001288 -0.0473699814673 0.948 1.71732377815e-38
0.0298255438868 -0.0473699814673 0.948 1.79097154128e-38
0.0315799876449 -0.0473699814673 0.948 1.80040620358e-38
0.0335454088169 -0.0476697914766 0.954 1.74595314656e-38
0.0353109566493 -0.0476697914766 0.954 2.34871425411e-38
-0.0353849838121 -0.0460004789557 0.956 1.50083759879e-38
-0.0336157346215 -0.0460004789557 0.956 1.34295708432e-38
-0.0317798609844 -0.0459042436441 0.954 8.63397156848e-39
-0.0300143131519 -0.0459042436441 0.954 1.08466442644e-38
-0.0281599327241 -0.0457598906767 0.951 9.46013230149e-39
-0.0262611359986 -0.0455193023976 0.946 9.45905610427e-39
-0.0245103935987 -0.0455193023976 0.946 9.36722060812e-39
-0.0227596511988 -0.0455193023976 0.946 9.09171411964e-39
-0.0210089087989 -0.0455193023976 0.946 9.45905610427e-39
-0.0191970939897 -0.0453749494302 0.943 9.64272709659e-39
-0.017451903627 -0.0453749494302 0.943 1.03774110659e-38
-0.0156567449294 -0.0452305964628 0.94 1.01019045774e-38
-0.0139171066039 -0.0452305964628 0.94 1.03774110659e-38
-0.0121515587715 -0.0451343611511 0.938 1.07447530505e-38
-0.0104156218041 -0.0451343611511 0.938 1.12039305313e-38
-0.00867968483676 -0.0451343611511 0.938 1.12039305313e-38
-0.00694374786941 -0.0451343611511 0.938 1.15712725159e-38
-0.00520781090205 -0.0451343611511 0.938 1.18467790044e-38
-0.0034718739347 -0.0451343611511 0.938 1.23059564852e-38
-0.00173593696735 -0.0451343611511 0.938 1.2765133966e-38
0.0 -0.0451343611511 0.938 1.32243114468e-38
0.00173593696735 -0.0451343611511 0.938 1.32243114468e-38
0.0034718739347 -0.0451343611511 0.938 1.34998179352e-38
0.00520781090205 -0.0451343611511 0.938 1.47855148814e-38
0.00694374786941 -0.0451343611511 0.938 1.48773503776e-38
0.00867968483676 -0.0451343611511 0.938 1.56120343469e-38
0.0104156218041 -0.0451343611511 0.938 1.55201988507e-38
0.0121515587715 -0.0451343611511 0.938 1.72733395373e-38
0.0139171066039 -0.0452305964628 0.94 1.72956061699e-38
0.0156567449294 -0.0452305964628 0.94 1.40633865464e-38
0.017451903627 -0.0453749494302 0.943 1.51675648948e-38
0.019258166399 -0.0455193023976 0.946 1.01937400735e-38
0.0210089087989 -0.0455193023976 0.946 1.96783250332e-38
0.0227596511988 -0.0455193023976 0.946 1.38685948495e-38
0.0245622126127 -0.0456155377093 0.948 1.64385538123e-38
0.0263166563707 -0.0456155377093 0.948 1.65303893084e-38
0.0280711001288 -0.0456155377093 0.948 1.76327739947e-38
0.0299199285194 -0.0457598906767 0.951 1.71768251056e-38
0.0317798609844 -0.0459042436441 0.954 1.90229139194e-38
0.0336157346215 -0.0460004789557 0.956 1.70989801733e-38
0.0353849838121 -0.0460004789557 0.956 2.34892991394e-38
-0.0356070653005 -0.0445088316256 0.962 1.28871548323e-38
-0.0336157346215 -0.0442312297651 0.956 1.87751026938e-38
-0.0318464854309 -0.0442312297651 0.956 9.28974842122e-39
-0.0300143131519 -0.0441386958117 0.954 1.00115040108e-38
-0.0282487653195 -0.0441386958117 0.954 8.91019552177e-39
-0.0262611359986 -0.0437685599977 0.946 9.36793807293e-39
-0.0245103935987 -0.0437685599977 0.946 1.00100690812e-38
-0.0227596511988 -0.0437685599977 0.946 9.27538511196e-39
-0.0210089087989 -0.0437685599977 0.946 9.91823358506e-39
-0.019258166399 -0.0437685599977 0.946 1.01937400735e-38
-0.017451903627 -0.0436297590675 0.943 1.03774110659e-38
-0.0157067132643 -0.0436297590675 0.943 1.05610820582e-38
-0.0139615229016 -0.0436297590675 0.943 1.11120950351e-38
-0.0121774682784 -0.0434909581373 0.94 1.12957660274e-38
-0.0104156218041 -0.0433984241838 0.938 1.14794370197e-38
-0.00867968483676 -0.0433984241838 0.938 1.21222854929e-38
-0.00694374786941 -0.0433984241838 0.938 1.23977919813e-38
-0.00520781090205 -0.0433984241838 0.938 1.24896274775e-38
-0.0034718739347 -0.0433984241838 0.938 1.28569694621e-38
-0.00173593696735 -0.0433984241838 0.938 1.36834889275e-38
0.0 -0.0433984241838 0.938 1.50610213699e-38
0.00173593696735 -0.0433984241838 0.938 1.48773503776e-38
0.0034718739347 -0.0433984241838 0.938 1.51528568661e-38
0.00520781090205 -0.0433984241838 0.938 1.51528568661e-38
0.00694374786941 -0.0433984241838 0.938 1.53365278584e-38
0.00867968483676 -0.0433984241838 0.938 1.57957053392e-38
0.0104156218041 -0.0433984241838 0.938 1.58875408353e-38
