# .PCD v0.7 - Point Cloud Data file format
VERSION 0.7
FIELDS x y z rgb
SIZE 4 4 4 4
TYPE F F F F
COUNT 1 1 1 1
WIDTH 855
HEIGHT 1
VIEWPOINT 0 0 0 1 0 0 0
POINTS 855
DATA ascii
0.042023369635 -0.143459089444 0.783 1.78329466778e-38
0.0436945328349 -0.144191958355 0.787 1.79233472443e-38
0.0451510172628 -0.144191958355 0.787 1.73705420066e-38
-0.0235702486313 -0.144367772867 0.796 1.95161948009e-38
-0.0220971080919 -0.144367772867 0.796 1.99785784526e-38
-0.0205721485385 -0.144005039769 0.794 1.20548858393e-38
-0.0190545917013 -0.143642306672 0.792 1.01198608159e-38
-0.0175444375805 -0.143279573574 0.79 1.03774110659e-38
-0.0160620436457 -0.143098207025 0.789 9.73456259275e-39
-0.0145648442783 -0.142735473927 0.787 9.82639808891e-39
-0.013041735404 -0.142010007732 0.783 9.55089160043e-39
-0.0115630428273 -0.141647274634 0.781 9.55089160043e-39
-0.0101047077204 -0.141465908086 0.78 1.01937400735e-38
-0.00861676174839 -0.14074044189 0.776 1.08365885466e-38
-0.00718063479032 -0.14074044189 0.776 1.05610820582e-38
-0.00574450783226 -0.14074044189 0.776 1.05610820582e-38
-0.00429727679978 -0.140377708793 0.774 7.71418167727e-39
-0.00286485119985 -0.140377708793 0.774 7.71418167727e-39
-0.00143242559993 -0.140377708793 0.774 5.32645877716e-39
0.0 -0.140196342244 0.773 5.88106608467e-39
0.00143057492086 -0.140196342244 0.773 5.88034161337e-39
0.00285374712543 -0.139833609146 0.771 5.32968736883e-39
0.00428062068815 -0.139833609146 0.771 5.05490254906e-39
0.00570749425087 -0.139833609146 0.771 5.51300663523e-39
0.00713436781358 -0.139833609146 0.771 6.33845130473e-39
0.0085612413763 -0.139833609146 0.771 8.82230608208e-39
0.00998811493901 -0.139833609146 0.771 8.44886564654e-39
0.0114149885017 -0.139833609146 0.771 1.15763003748e-38
0.0128418620644 -0.139833609146 0.771 1.26790381883e-38
0.0143057492086 -0.140196342244 0.773 6.3366492349e-39
0.0157363241294 -0.140196342244 0.773 1.02149291076e-38
0.0171668990503 -0.140196342244 0.773 6.79654418051e-39
0.0185974739711 -0.140196342244 0.773 9.01960890586e-39
0.020028048892 -0.140196342244 0.773 7.35724293244e-39
0.0214586238128 -0.140196342244 0.773 7.17106081327e-39
0.0228891987337 -0.140196342244 0.773 8.36276986889e-39
0.0243197736545 -0.140196342244 0.773 8.36635719296e-39
0.0257836607987 -0.140377708793 0.774 6.80300136383e-39
0.0272160863986 -0.140377708793 0.774 8.17802267935e-39
0.0287225391613 -0.14074044189 0.776 7.62521604037e-39
0.0301586661194 -0.14074044189 0.776 1.07483515849e-38
0.0316762229565 -0.141103174988 0.778 1.93343777265e-38
0.0331160512727 -0.141103174988 0.778 1.92439645482e-38
0.0345558795889 -0.141103174988 0.778 1.80392626533e-38
0.0360882418586 -0.141465908086 0.78 1.89569099591e-38
0.0375798891887 -0.141647274634 0.781 2.00643463264e-38
0.0390252695422 -0.141647274634 0.781 1.96973448573e-38
0.0405742879235 -0.142010007732 0.783 1.80338382269e-38
0.0421307090211 -0.14237274083 0.785 1.91344278499e-38
0.0436945328349 -0.142735473927 0.787 1.69077996225e-38
0.0451510172628 -0.142735473927 0.787 1.93091697684e-38
-0.0235702486313 -0.142894632327 0.796 1.83183550645e-38
-0.0220971080919 -0.142894632327 0.796 1.99767777841e-38
-0.0206239675524 -0.142894632327 0.796 1.18705015861e-38
-0.0191027093571 -0.142535600588 0.794 1.20577416856e-38
-0.0175888538782 -0.142176568848 0.792 1.06554286812e-38
-0.0160824011154 -0.141817537109 0.79 1.08365885466e-38
-0.0146018578597 -0.141638021239 0.789 1.01937400735e-38
-0.0130750476272 -0.14091995776 0.785 9.91823358506e-39
-0.0115926536924 -0.140560926021 0.783 9.73456259275e-39
-0.0101176624739 -0.140201894281 0.781 1.02855755697e-38
-0.00861676174839 -0.139304314932 0.776 1.09284240428e-38
-0.00718063479032 -0.139304314932 0.776 1.07447530505e-38
-0.00574450783226 -0.139304314932 0.776 7.16316870032e-39
-0.00430838087419 -0.139304314932 0.776 5.32645877716e-39
-0.00287225391613 -0.139304314932 0.776 5.42116413258e-39
-0.00143242559993 -0.138945283193 0.774 5.9714666512e-39
0.0 -0.138945283193 0.774 6.15800049628e-39
0.00143242559993 -0.138945283193 0.774 6.52498374851e-39
0.00286114984171 -0.138765767323 0.773 6.52319008647e-39
0.00429172476257 -0.138765767323 0.773 5.88105907818e-39
0.00572229968342 -0.138765767323 0.773 8.18161560861e-39
0.00715287460428 -0.138765767323 0.773 8.63935395588e-39
0.00858344952513 -0.138765767323 0.773 8.18413654455e-39
0.010014024446 -0.138765767323 0.773 8.8287716732e-39
0.0114445993668 -0.138765767323 0.773 8.0815236619e-39
0.0128751742877 -0.138765767323 0.773 7.34684249524e-39
0.0143242559993 -0.138945283193 0.774 7.71957527506e-39
0.0157566815992 -0.138945283193 0.774 6.71367699452e-39
0.0171891071991 -0.138945283193 0.774 7.99219929259e-39
0.018621532799 -0.138945283193 0.774 4.13259732711e-39
0.020053958399 -0.138945283193 0.774 2.93873587706e-39
0.0214586238128 -0.138765767323 0.773 2.57139389242e-39
0.0228891987337 -0.138765767323 0.773 3.12240686937e-39
0.0243512351987 -0.138945283193 0.774 3.39791335785e-39
0.0258502852452 -0.139304314932 0.776 4.40810381558e-39
0.0272864122032 -0.139304314932 0.776 6.88766221185e-39
0.0287225391613 -0.139304314932 0.776 6.06114274643e-39
0.0302363946403 -0.139663346672 0.778 6.52032022722e-39
0.0316762229565 -0.139663346672 0.778 1.59235317851e-38
0.0332011825099 -0.140022378411 0.78 1.90670940574e-38
0.0346447121842 -0.140022378411 0.78 1.82283272434e-38
0.0361345088353 -0.140201894281 0.781 1.87753647366e-38
0.0376761245004 -0.140560926021 0.783 1.90498062382e-38
0.0391252062119 -0.140560926021 0.783 2.0617169781e-38
0.0406779259514 -0.14091995776 0.785 2.00658162885e-38
0.0423453877931 -0.141638021239 0.789 1.91387606647e-38
0.0438055735791 -0.141638021239 0.789 2.02400509369e-38
0.0453231304162 -0.141817537109 0.79 1.70121669309e-38
-0.0235702486313 -0.141421491788 0.796 1.84055312433e-38
-0.0220971080919 -0.141421491788 0.796 1.96955413862e-38
-0.0206239675524 -0.141421491788 0.796 1.24250584468e-38
-0.0191027093571 -0.141066161407 0.794 1.22395923912e-38
-0.0175888538782 -0.140710831025 0.792 9.46515455519e-39
-0.0160824011154 -0.140355500644 0.79 1.07447530505e-38
-0.0146018578597 -0.140177835453 0.789 1.01937400735e-38
-0.0131083598505 -0.139822505072 0.787 1.00100690812e-38
-0.0116222645575 -0.13946717469 0.785 1.01019045774e-38
-0.0101435719809 -0.139111844309 0.783 1.0469246562e-38
-0.00867228212048 -0.138756513928 0.781 1.06529175543e-38
-0.00722690176707 -0.138756513928 0.781 1.03774110659e-38
-0.00577411869737 -0.138578848737 0.78 6.06114274643e-39
-0.00431948494861 -0.138223518356 0.778 5.69595315624e-39
-0.00287965663241 -0.138223518356 0.778 6.33736669972e-39
-0.00143612695806 -0.137868187974 0.776 5.69595315624e-39
0.0 -0.137868187974 0.776 6.43207205513e-39
0.00143242559993 -0.137512857593 0.774 7.16854968643e-39
0.00286485119985 -0.137512857593 0.774 7.16890841883e-39
0.00429727679978 -0.137512857593 0.774 6.8905320711e-39
0.0057297023997 -0.137512857593 0.774 6.06114274643e-39
0.00716212799963 -0.137512857593 0.774 5.60196526564e-39
0.00859455359955 -0.137512857593 0.774 3.67341984632e-39
0.0100269791995 -0.137512857593 0.774 5.78563625795e-39
0.0114594047994 -0.137512857593 0.774 6.88766221185e-39
0.0128918303993 -0.137512857593 0.774 5.23462328101e-39
0.0143242559993 -0.137512857593 0.774 7.71418167727e-39
0.0157566815992 -0.137512857593 0.774 8.91199478899e-39
0.0171891071991 -0.137512857593 0.774 1.15017569017e-38
0.018621532799 -0.137512857593 0.774 1.40879190786e-38
0.020053958399 -0.137512857593 0.774 1.60304158255e-38
0.0214863839989 -0.137512857593 0.774 1.65847064395e-38
0.0229188095988 -0.137512857593 0.774 1.86140991054e-38
0.0244141582871 -0.137868187974 0.776 1.87981246262e-38
0.0258502852452 -0.137868187974 0.776 1.86115809721e-38
0.0272864122032 -0.137868187974 0.776 1.83353514136e-38
0.0287225391613 -0.137868187974 0.776 1.70445901747e-38
0.0302363946403 -0.138223518356 0.778 1.23405026962e-38
0.0317983677751 -0.138756513928 0.781 6.06121701525e-39
0.0332437481285 -0.138756513928 0.781 5.78563625795e-39
0.0346891284819 -0.138756513928 0.781 1.50848644633e-38
0.0362270427888 -0.139111844309 0.783 1.81386903845e-38
0.0376761245004 -0.139111844309 0.783 1.86820985147e-38
0.0392251428817 -0.13946717469 0.785 1.89558533801e-38
0.0408852020072 -0.140177835453 0.789 2.16345488998e-38
0.0423453877931 -0.140177835453 0.789 1.87768150805e-38
0.0438610939512 -0.140355500644 0.79 2.0336580783e-38
0.0454378725186 -0.140710831025 0.792 1.86748916367e-38
-0.0235702486313 -0.139948351249 0.796 1.95150429336e-38
-0.0220971080919 -0.139948351249 0.796 2.18213616033e-38
-0.0206239675524 -0.139948351249 0.796 1.29771826535e-38
-0.0191027093571 -0.139596722225 0.794 1.22385203979e-38
-0.0176332701758 -0.139596722225 0.794 1.15920789955e-38
-0.0160824011154 -0.138893464179 0.79 9.82639808891e-39
-0.0146203646504 -0.138893464179 0.79 1.01937400735e-38
-0.0131416720737 -0.138717649667 0.789 9.91823358506e-39
-0.0116222645575 -0.138014391621 0.785 1.00100690812e-38
-0.0101694814878 -0.138014391621 0.785 1.0469246562e-38
-0.00869449026931 -0.137662762597 0.783 1.05610820582e-38
-0.00724540855776 -0.137662762597 0.783 7.16316870032e-39
-0.00578152141365 -0.137311133574 0.781 5.05095228869e-39
-0.00433058902303 -0.137135319063 0.78 4.5917748079e-39
-0.00288705934869 -0.137135319063 0.78 4.86764002878e-39
-0.0014398283162 -0.136783690039 0.778 4.04076183095e-39
0.0 -0.136432061016 0.776 2.11221641163e-39
0.00143612695806 -0.136432061016 0.776 3.21424236553e-39
0.00286485119985 -0.136080431993 0.774 5.41829427332e-39
0.00429727679978 -0.136080431993 0.774 7.4386751888e-39
0.0057297023997 -0.136080431993 0.774 1.25051706801e-38
0.00716212799963 -0.136080431993 0.774 1.63977970464e-38
0.00859455359955 -0.136080431993 0.774 1.72300954667e-38
0.0100269791995 -0.136080431993 0.774 1.90740038601e-38
0.0114594047994 -0.136080431993 0.774 1.98108668485e-38
0.0128918303993 -0.136080431993 0.774 2.04537181242e-38
0.0143242559993 -0.136080431993 0.774 2.1191648902e-38
0.0157566815992 -0.136080431993 0.774 1.99931127203e-38
0.0172335234968 -0.136432061016 0.776 2.10083366421e-38
0.0186696504548 -0.136432061016 0.776 2.03629840486e-38
0.0201057774129 -0.136432061016 0.776 2.13781953588e-38
0.021541904371 -0.136432061016 0.776 1.78805249645e-38
0.022978031329 -0.136432061016 0.776 1.91716141072e-38
0.0244141582871 -0.136432061016 0.776 2.22079756457e-38
0.0259169096917 -0.136783690039 0.778 1.97172446968e-38
0.0273567380079 -0.136783690039 0.778 2.08232265162e-38
0.0288705934869 -0.137135319063 0.78 2.16519053826e-38
0.0303529874217 -0.137311133574 0.781 2.2481668854e-38
0.0317983677751 -0.137311133574 0.781 2.34965410499e-38
0.0333288793657 -0.137662762597 0.783 2.0639165963e-38
0.0347779610773 -0.137662762597 0.783 2.75506488474e-39
0.0363195767423 -0.138014391621 0.785 9.75076580689e-39
0.0378685951236 -0.138366020644 0.787 1.78596259992e-38
0.0393250795514 -0.138366020644 0.787 1.90483895255e-38
0.0409370210211 -0.138893464179 0.79 2.05260503483e-38
0.0423990574862 -0.138893464179 0.79 2.09902739049e-38
0.0438610939512 -0.138893464179 0.79 1.9693028858e-38
0.0455526146209 -0.139596722225 0.794 1.92284171418e-38
0.0471404972627 -0.139948351249 0.796 1.719834905e-38
-0.0235702486313 -0.138475210709 0.796 1.94235913932e-38
-0.0220971080919 -0.138475210709 0.796 2.20979709137e-38
-0.0206239675524 -0.138475210709 0.796 1.28867470545e-38
-0.019150827013 -0.138475210709 0.796 1.2054485068e-38
-0.0176332701758 -0.138127283044 0.794 1.28835268706e-38
-0.016123116055 -0.137779355379 0.792 1.0933814838e-38
-0.0146203646504 -0.137431427714 0.79 1.03774110659e-38
-0.0131583281854 -0.137431427714 0.79 9.82639808891e-39
-0.0116814862878 -0.137257463881 0.789 1.01019045774e-38
-0.0101953909948 -0.136909536216 0.787 1.02855755697e-38
-0.00869449026931 -0.136213680886 0.783 1.07447698661e-38
-0.00724540855776 -0.136213680886 0.783 4.31626831943e-39
-0.00578152141365 -0.135865753221 0.781 2.75506488474e-39
-0.00433614106024 -0.135865753221 0.781 3.67341984632e-39
-0.00288705934869 -0.135691789388 0.78 2.57139389242e-39
-0.00144352967434 -0.135691789388 0.78 7.9035923881e-39
0.0 -0.135343861723 0.778 1.61164779719e-38
0.00143612695806 -0.134995934058 0.776 1.87058715431e-38
0.00287225391613 -0.134995934058 0.776 1.9348798489e-38
0.00430838087419 -0.134995934058 0.776 2.06366646452e-38
0.00574450783226 -0.134995934058 0.776 1.97183040784e-38
0.00716212799963 -0.134648006393 0.774 1.9718668416e-38
0.00859455359955 -0.134648006393 0.774 1.88874686137e-38
0.0100269791995 -0.134648006393 0.774 1.82439166888e-38
0.0114594047994 -0.134648006393 0.774 1.84272093305e-38
0.0129251426226 -0.134995934058 0.776 1.83328655101e-38
0.0143612695806 -0.134995934058 0.776 1.91626261789e-38
0.0157973965387 -0.134995934058 0.776 1.84250639426e-38
0.0172335234968 -0.134995934058 0.776 1.89778817919e-38
0.0187177681107 -0.135343861723 0.778 1.98090703839e-38
0.0201575964269 -0.135343861723 0.778 1.86126922018e-38
0.0215974247431 -0.135343861723 0.778 0.0
0.0230964747895 -0.135691789388 0.78 2.28972169071e-42
0.0245400044638 -0.135691789388 0.78 2.11962773908e-38
0.0260168463614 -0.135865753221 0.781 1.99923924528e-38
0.0274622267148 -0.135865753221 0.781 2.10987400112e-38
0.0289076070683 -0.135865753221 0.781 2.01778599098e-38
0.0303529874217 -0.135865753221 0.781 2.18377539927e-38
0.0318797976542 -0.136213680886 0.783 1.45600795897e-38
0.0333288793657 -0.136213680886 0.783 2.2857313532e-38
0.0347779610773 -0.136213680886 0.783 2.3497245903e-38
0.0363195767423 -0.136561608551 0.785 2.02038091548e-39
0.0378685951236 -0.136909536216 0.787 1.78517338863e-38
0.0393250795514 -0.136909536216 0.787 1.82237015571e-38
0.0411442970769 -0.138127283044 0.794 1.92334996513e-38
0.0426137362582 -0.138127283044 0.794 2.12650250935e-38
0.0440831754396 -0.138127283044 0.794 2.0157235599e-38
0.0456673567232 -0.138475210709 0.796 2.08905000529e-38
0.0471404972627 -0.138475210709 0.796 1.50811103847e-38
-0.022152628464 -0.137346296477 0.798 2.14523184423e-38
-0.0206757865664 -0.137346296477 0.798 1.35321290752e-38
-0.019150827013 -0.13700207017 0.796 1.16857081537e-38
-0.0176776864735 -0.13700207017 0.796 1.2329632824e-38
-0.0161638309945 -0.136657843863 0.794 1.0844839392e-38
-0.0146573782318 -0.136313617556 0.792 1.06529175543e-38
-0.0131583281854 -0.135969391249 0.79 1.01019045774e-38
-0.0116814862878 -0.135797278095 0.789 9.91823358506e-39
-0.0101953909948 -0.135453051788 0.787 1.00100690812e-38
-0.00871669841815 -0.135108825481 0.785 8.81620763117e-39
-0.00726391534846 -0.135108825481 0.785 2.38772290011e-39
-0.00579632684621 -0.134764599174 0.783 2.11221641163e-39
-0.00434724513466 -0.134764599174 0.783 6.24481373874e-39
-0.00289076070683 -0.134420372867 0.781 8.26519465422e-40
-0.00144538035341 -0.134420372867 0.781 2.06388758942e-38
0.0 -0.134248259714 0.78 1.87009249596e-38
0.0014398283162 -0.133904033407 0.778 1.75953004712e-38
0.00287965663241 -0.133904033407 0.778 1.78725936152e-38
0.00431948494861 -0.133904033407 0.778 1.86108803228e-38
0.00574450783226 -0.1335598071 0.776 2.75657828708e-40
0.00718063479032 -0.1335598071 0.776 1.05015941358e-38
0.00861676174839 -0.1335598071 0.776 1.94389272036e-38
0.0100528887065 -0.1335598071 0.776 1.87949198567e-38
0.0114890156645 -0.1335598071 0.776 1.8057707945e-38
0.0129251426226 -0.1335598071 0.776 1.8517975636e-38
0.0143612695806 -0.1335598071 0.776 1.89789411736e-38
0.0158381114782 -0.133904033407 0.778 1.93480796228e-38
0.0172779397944 -0.133904033407 0.778 1.95324848956e-38
0.0187658857665 -0.134248259714 0.78 1.97140245129e-38
0.0201575964269 -0.133904033407 0.778 1.89804041292e-38
0.0215974247431 -0.133904033407 0.778 7.70714155379e-44
0.0230964747895 -0.134248259714 0.78 4.90454462514e-44
0.024571466008 -0.134420372867 0.781 2.1102311921e-38
0.0260168463614 -0.134420372867 0.781 2.0913271153e-38
0.0274622267148 -0.134420372867 0.781 2.03626309214e-38
0.0289076070683 -0.134420372867 0.781 2.21157632003e-38
0.0304307159426 -0.134764599174 0.783 2.2759685068e-38
0.0318797976542 -0.134764599174 0.783 4.59296591159e-40
0.0333288793657 -0.134764599174 0.783 1.45670300301e-38
0.0347779610773 -0.134764599174 0.783 2.35001269726e-38
0.0365046446493 -0.135797278095 0.789 9.11760310877e-39
0.0379648304352 -0.135797278095 0.789 9.38018542151e-39
0.0394250162212 -0.135797278095 0.789 1.767521372e-38
0.0412479351048 -0.13700207017 0.796 1.99710801045e-38
0.0427210756443 -0.13700207017 0.796 2.13557913989e-38
0.0441942161837 -0.13700207017 0.796 2.10813498973e-38
0.0456673567232 -0.13700207017 0.796 1.99735828236e-38
0.0472589407231 -0.137346296477 0.798 1.58215340725e-38
-0.0222081488361 -0.136209979528 0.8 2.03462861761e-38
-0.0207276055803 -0.136209979528 0.8 1.4638849379e-38
-0.0191989446688 -0.135869454579 0.798 1.07652036003e-38
-0.0177221027712 -0.135869454579 0.798 1.36193080566e-38
-0.016204545934 -0.13552892963 0.796 1.14044619467e-38
-0.0146943918132 -0.135188404681 0.794 1.19436367542e-38
-0.0131916404086 -0.134847879733 0.792 1.02855755697e-38
-0.0116814862878 -0.134337092309 0.789 1.0469246562e-38
-0.0101953909948 -0.13399656736 0.787 7.98968816575e-39
-0.00873890656699 -0.13399656736 0.787 1.65303893084e-39
-0.00726391534846 -0.133656042412 0.785 9.20011016105e-39
-0.00579632684621 -0.133315517463 0.783 1.93448692481e-38
-0.00434724513466 -0.133315517463 0.783 1.88874686137e-38
-0.0028981634231 -0.133315517463 0.783 3.03057137321e-39
-0.00144908171155 -0.133315517463 0.783 1.8139058926e-38
0.0 -0.132974992514 0.781 1.83328683127e-38
0.00144352967434 -0.13280473004 0.78 1.75945774012e-38
0.00288705934869 -0.13280473004 0.78 1.79648046594e-38
0.00433058902303 -0.13280473004 0.78 1.73208813903e-38
0.00575931326482 -0.132464205091 0.778 6.42848473106e-40
0.00719914158102 -0.132464205091 0.778 7.28560715364e-39
0.00863896989722 -0.132464205091 0.778 1.73229553121e-38
0.0100787982134 -0.132464205091 0.778 1.84268618085e-38
0.0115186265296 -0.132464205091 0.778 1.9531759023e-38
0.0129584548458 -0.132464205091 0.778 1.84265086813e-38
0.014398283162 -0.132464205091 0.778 1.86101740684e-38
0.0158381114782 -0.132464205091 0.778 1.89785880464e-38
0.0173223560921 -0.13280473004 0.78 1.96225323349e-38
0.0187899445944 -0.132974992514 0.781 1.98069263972e-38
0.0202094154408 -0.13280473004 0.78 2.06377590593e-38
0.0216529451152 -0.13280473004 0.78 1.8336085694e-38
0.0230964747895 -0.13280473004 0.78 2.16554786937e-38
0.024571466008 -0.132974992514 0.781 2.15640313572e-38
0.0260168463614 -0.132974992514 0.781 2.04598361933e-38
0.0274622267148 -0.132974992514 0.781 1.96307943906e-38
0.0289076070683 -0.132974992514 0.781 1.53879583146e-38
0.0304307159426 -0.133315517463 0.783 4.86728129637e-39
0.0318797976542 -0.133315517463 0.783 4.22443282327e-39
0.0334991418401 -0.13399656736 0.787 1.46936793853e-39
0.0350444588633 -0.134337092309 0.789 2.23044508411e-38
0.0365046446493 -0.134337092309 0.789 2.03647665003e-38
0.0381091834027 -0.134847879733 0.792 4.31626831943e-39
0.0396748578956 -0.135188404681 0.794 1.7491506294e-38
0.0412479351048 -0.13552892963 0.796 2.0248408281e-38
0.0427210756443 -0.13552892963 0.796 1.93278336626e-38
0.0443052569279 -0.135869454579 0.798 2.19104127194e-38
0.0457820988255 -0.135869454579 0.798 2.02530367698e-38
0.0472589407231 -0.135869454579 0.798 1.90479943593e-38
-0.0222636692081 -0.135066259863 0.802 1.96058470741e-38
-0.0207276055803 -0.134729436272 0.8 1.53756885453e-38
-0.0192470623246 -0.134729436272 0.8 1.03053058521e-38
-0.0177221027712 -0.134392612681 0.798 1.31576278567e-38
-0.016204545934 -0.134055789091 0.796 1.34330937075e-38
-0.0147314053946 -0.134055789091 0.796 9.9200272471e-39
-0.0131916404086 -0.133382141909 0.792 1.14794370197e-38
-0.0116814862878 -0.132876906523 0.789 7.80601717343e-39
-0.0102213005018 -0.132876906523 0.789 1.01019045774e-39
-0.00873890656699 -0.132540082933 0.787 1.24341430648e-38
-0.00728242213916 -0.132540082933 0.787 1.80588051617e-38
-0.00581113227877 -0.132203259342 0.785 1.68566438208e-38
-0.00435834920908 -0.132203259342 0.785 1.67665991841e-38
-0.0028981634231 -0.131866435751 0.783 1.84254170698e-38
-0.00144908171155 -0.131866435751 0.783 1.69513603866e-38
0.0 -0.131866435751 0.783 1.69495751324e-38
0.00144538035341 -0.131529612161 0.781 1.72265207544e-38
0.00289076070683 -0.131529612161 0.781 1.82406670777e-38
0.00433614106024 -0.131529612161 0.781 2.04540712514e-38
0.00577411869737 -0.131361200365 0.78 3.30612410454e-39
0.00721764837172 -0.131361200365 0.78 1.01019045774e-39
0.00866117804606 -0.131361200365 0.78 2.01700841046e-38
0.0101047077204 -0.131361200365 0.78 1.81492127347e-38
0.0115482373947 -0.131361200365 0.78 1.80555793726e-38
0.0130084231807 -0.131529612161 0.781 1.94392326867e-38
0.0144538035341 -0.131529612161 0.781 1.96254049967e-38
0.0158991838875 -0.131529612161 0.781 1.95328408254e-38
0.017344564241 -0.131529612161 0.781 1.94374180051e-38
0.0187899445944 -0.131529612161 0.781 1.98072795244e-38
0.0202353249478 -0.131529612161 0.781 2.1651555058e-38
0.0216807053012 -0.131529612161 0.781 1.93513138197e-38
0.0231260856546 -0.131529612161 0.781 8.83964995318e-39
0.024571466008 -0.131529612161 0.781 6.52032022722e-39
0.0260168463614 -0.131529612161 0.781 6.3366492349e-39
0.0275325525195 -0.131866435751 0.783 7.16316870032e-39
0.028981634231 -0.131866435751 0.783 8.99987862348e-39
0.0304307159426 -0.131866435751 0.783 1.02012734541e-38
0.0318797976542 -0.131866435751 0.783 7.44190378046e-39
0.0335842730773 -0.132876906523 0.789 1.92854541932e-39
0.0350444588633 -0.132876906523 0.789 2.15629565613e-38
0.0365046446493 -0.132876906523 0.789 2.12860025315e-38
0.0382054187143 -0.1337189655 0.794 4.13259732711e-39
0.0397747945654 -0.134055789091 0.796 1.79539417937e-38
0.0413515731327 -0.134392612681 0.798 1.98802913783e-38
0.0428284150303 -0.134392612681 0.798 1.82214959134e-38
0.0443052569279 -0.134392612681 0.798 2.1724962078e-38
0.0457820988255 -0.134392612681 0.798 2.10831898021e-38
0.0472589407231 -0.134392612681 0.798 1.81271142579e-38
-0.0222914293942 -0.133748576365 0.803 1.98813423521e-38
-0.0207794245943 -0.133582015249 0.802 1.44522748962e-38
-0.0192951799804 -0.133582015249 0.802 1.03042296549e-38
-0.0177665190688 -0.133248893016 0.8 1.43568772994e-38
-0.0162452608736 -0.132915770784 0.798 1.30679041174e-38
-0.014768418976 -0.132915770784 0.798 1.1491992654e-38
-0.0132249526319 -0.132249526319 0.794 1.1020259539e-38
-0.0116962917203 -0.131583281854 0.79 4.13259732711e-39
-0.0102213005018 -0.131416720737 0.789 5.15575259824e-39
-0.00876111471582 -0.131416720737 0.789 1.8702020775e-38
-0.00728242213916 -0.131083598505 0.787 1.67651544454e-38
-0.00582593771132 -0.131083598505 0.787 1.3358623102e-38
-0.00436945328349 -0.131083598505 0.787 1.6126281456e-38
-0.00290556613938 -0.130750476272 0.785 1.66744161659e-38
-0.00145278306969 -0.130750476272 0.785 1.67676851904e-38
0.0 -0.13041735404 0.783 1.74112679439e-38
0.00144908171155 -0.13041735404 0.783 1.73183436388e-38
0.00289076070683 -0.130084231807 0.781 1.84232590702e-38
0.00433614106024 -0.130084231807 0.781 1.83328500958e-38
0.00578152141365 -0.130084231807 0.781 2.1558640562e-38
0.00721764837172 -0.129917670691 0.78 1.96275700029e-38
0.00866117804606 -0.129917670691 0.78 1.83418660502e-38
0.0101047077204 -0.129917670691 0.78 1.74170048598e-38
0.0115630428273 -0.130084231807 0.781 1.7692162425e-38
0.0130084231807 -0.130084231807 0.781 1.7784711182e-38
0.0144538035341 -0.130084231807 0.781 1.8432601527e-38
0.0158991838875 -0.130084231807 0.781 2.04598361933e-38
0.0173889805386 -0.13041735404 0.783 2.03640434303e-38
0.0187899445944 -0.130084231807 0.781 2.1837018311e-38
0.0202353249478 -0.130084231807 0.781 1.20646949286e-38
0.0216807053012 -0.130084231807 0.781 1.37753244237e-39
0.0231853073848 -0.13041735404 0.783 7.25968453335e-39
0.0246343890964 -0.13041735404 0.783 1.17732444662e-38
0.0260834708079 -0.13041735404 0.783 1.04839545907e-38
0.0275325525195 -0.13041735404 0.783 1.12197147572e-38
0.028981634231 -0.13041735404 0.783 1.10256405251e-38
0.0304307159426 -0.13041735404 0.783 1.17628356212e-38
0.0321240872913 -0.131416720737 0.789 7.16567982717e-39
0.0336268386959 -0.131583281854 0.79 1.65303893084e-39
0.035088875161 -0.131583281854 0.79 2.23901948928e-38
0.036735979533 -0.132249526319 0.794 2.17441038151e-38
0.0383016540259 -0.132582648551 0.796 4.95911679253e-39
0.0398747312351 -0.132915770784 0.798 1.80464975572e-38
0.0414552111606 -0.133248893016 0.8 1.88639912593e-38
0.0429357544164 -0.133248893016 0.8 2.02447929309e-38
0.0445273384163 -0.133582015249 0.802 2.04331372536e-38
0.0460115830302 -0.133582015249 0.802 2.08976845101e-38
0.0475550493743 -0.133748576365 0.803 2.02454781659e-38
-0.0223469497663 -0.132591901947 0.805 1.96062002013e-38
-0.0208053341012 -0.132262481072 0.803 1.62050456401e-38
-0.0193192388083 -0.132262481072 0.803 1.03982441701e-38
-0.0178109353665 -0.132097770635 0.802 1.20534537123e-38
-0.0162859758131 -0.131768349761 0.8 1.37114882722e-38
-0.0148054325574 -0.131768349761 0.8 1.28767025471e-38
-0.0132249526319 -0.130780087137 0.794 1.04731926185e-38
-0.0116962917203 -0.130121245389 0.79 1.19386145005e-39
-0.0102342552553 -0.130121245389 0.79 1.84196913643e-38
-0.00876111471582 -0.129956534951 0.789 1.83339473125e-38
-0.00730092892985 -0.129956534951 0.789 3.49154251604e-39
-0.00584074314388 -0.129956534951 0.789 6.07626135556e-39
-0.00438055735791 -0.129956534951 0.789 1.70496894998e-38
-0.00291296885566 -0.129627114077 0.787 1.65818674088e-38
-0.00145648442783 -0.129627114077 0.787 1.72279430723e-38
0.0 -0.129297693203 0.785 1.76871429739e-38
0.00144908171155 -0.128968272328 0.783 1.80562590023e-38
0.0028981634231 -0.128968272328 0.783 1.92558938021e-38
0.00433614106024 -0.128638851454 0.781 1.70471461431e-38
0.00578152141365 -0.128638851454 0.781 1.09569026315e-38
0.00722690176707 -0.128638851454 0.781 4.22446785573e-39
0.00867228212048 -0.128638851454 0.781 3.39791335785e-39
0.0101176624739 -0.128638851454 0.781 5.32645877716e-39
0.0115630428273 -0.128638851454 0.781 5.23462328101e-39
0.0130084231807 -0.128638851454 0.781 3.76525534248e-39
0.0144538035341 -0.128638851454 0.781 2.75506488474e-39
0.0158991838875 -0.128638851454 0.781 3.21424236553e-39
0.0173889805386 -0.128968272328 0.783 1.87049452849e-38
0.0188380622502 -0.128968272328 0.783 2.02725862847e-38
0.0202871439617 -0.128968272328 0.783 2.11221641163e-39
0.0217362256733 -0.128968272328 0.783 7.45127005939e-39
0.0231853073848 -0.128968272328 0.783 9.19036553153e-39
0.0246343890964 -0.128968272328 0.783 9.18534327783e-39
0.0260834708079 -0.128968272328 0.783 1.17667998945e-38
0.0276028783241 -0.129297693203 0.785 1.15931551927e-38
0.0290556613938 -0.129297693203 0.785 1.48131456846e-38
0.0305084444635 -0.129297693203 0.785 1.09431320715e-38
0.0321648022309 -0.130121245389 0.79 4.5917748079e-39
0.0336268386959 -0.130121245389 0.79 5.61420700902e-39
0.0351777077563 -0.130450666263 0.792 2.2947669257e-38
0.0368285134865 -0.131109508012 0.796 1.63067126463e-38
0.0383978893375 -0.131438928886 0.798 8.54610174697e-39
0.0398747312351 -0.131438928886 0.798 1.86925648129e-38
0.0414552111606 -0.131768349761 0.8 1.85877350761e-38
0.0430430938024 -0.132097770635 0.802 2.0152935014e-38
0.0445828587884 -0.132262481072 0.803 2.05249573355e-38
0.0460689540813 -0.132262481072 0.803 2.05274782715e-38
0.0475550493743 -0.132262481072 0.803 2.21833436213e-38
-0.0223469497663 -0.131102105295 0.805 1.88707861555e-38
-0.0208053341012 -0.130776385779 0.803 1.73092183832e-38
-0.0193192388083 -0.130776385779 0.803 9.29261687917e-39
-0.0178331435154 -0.130776385779 0.803 1.26977413189e-38
-0.0163266907526 -0.130613526021 0.802 1.4081690307e-38
-0.0148424461388 -0.130613526021 0.802 1.36203520239e-38
-0.0132582648551 -0.129636367472 0.796 7.4390339212e-39
-0.0117259025854 -0.12898492844 0.792 1.65303893084e-39
-0.0102342552553 -0.128659208924 0.79 1.73240861599e-38
-0.00876111471582 -0.128496349165 0.789 1.56606369828e-38
-0.00730092892985 -0.128496349165 0.789 3.67341984632e-40
-0.00584074314388 -0.128496349165 0.789 0.0
-0.00438055735791 -0.128496349165 0.789 1.75999920185e-38
-0.00292037157194 -0.128496349165 0.789 1.84286610757e-38
-0.00145648442783 -0.128170629649 0.787 1.83350137007e-38
0.0 -0.128170629649 0.787 1.87956415254e-38
0.00145278306969 -0.127844910133 0.785 1.70471489457e-38
0.00290556613938 -0.127844910133 0.785 8.74418789659e-39
0.00434724513466 -0.127519190617 0.783 4.5917748079e-39
0.00579632684621 -0.127519190617 0.783 7.62450558205e-39
0.00724540855776 -0.127519190617 0.783 1.18579039129e-38
0.00869449026931 -0.127519190617 0.783 1.40720115385e-38
0.0101435719809 -0.127519190617 0.783 1.19565511209e-38
0.0115926536924 -0.127519190617 0.783 1.03946302214e-38
0.013041735404 -0.127519190617 0.783 9.29116933786e-39
0.0144908171155 -0.127519190617 0.783 9.47628506889e-39
0.0159398988271 -0.127519190617 0.783 7.63454308295e-39
0.0173889805386 -0.127519190617 0.783 4.5917748079e-40
0.0188380622502 -0.127519190617 0.783 1.2804074649e-38
0.0202871439617 -0.127519190617 0.783 4.77544580022e-39
0.0217362256733 -0.127519190617 0.783 6.43458318198e-39
0.0232445291151 -0.127844910133 0.785 1.24207816839e-38
0.0246973121848 -0.127844910133 0.785 1.38008042337e-38
0.0261500952545 -0.127844910133 0.785 1.38004763298e-38
0.0276028783241 -0.127844910133 0.785 1.2695539879e-38
0.0290556613938 -0.127844910133 0.785 1.03928365593e-38
0.0305861729845 -0.128170629649 0.787 6.79869657495e-39
0.0321240872913 -0.128496349165 0.789 3.39791335785e-39
0.0336268386959 -0.128659208924 0.79 2.02582692183e-38
0.0351777077563 -0.12898492844 0.792 2.35004969154e-38
0.0368285134865 -0.129636367472 0.796 5.51012976948e-40
0.0384941246492 -0.130287806505 0.8 1.46353363237e-38
0.0399746679049 -0.130287806505 0.8 1.92425198095e-38
0.0415588491885 -0.130613526021 0.802 1.87717774125e-38
0.0430430938024 -0.130613526021 0.802 1.9507913127e-38
0.0445828587884 -0.130776385779 0.803 2.07082541811e-38
0.0460689540813 -0.130776385779 0.803 1.9419313229e-38
0.0475550493743 -0.130776385779 0.803 2.34748251276e-38
-0.0238959681476 -0.129934326803 0.807 1.81314120403e-38
-0.0224024701384 -0.129934326803 0.807 1.92377876246e-38
-0.0208571531152 -0.129612308644 0.805 1.76758751329e-38
-0.0193673564641 -0.129612308644 0.805 1.01231020192e-38
-0.0178331435154 -0.129290290486 0.803 1.2512231823e-38
-0.0163470482224 -0.129290290486 0.803 1.38051258381e-38
-0.0148424461388 -0.129129281407 0.802 1.37140218198e-38
-0.0132582648551 -0.128163226933 0.796 6.88909714148e-39
-0.0117555134506 -0.127841208775 0.794 1.65303893084e-39
-0.0102860742692 -0.127841208775 0.794 1.72301080784e-38
-0.00877221879024 -0.127197172458 0.79 1.57535388671e-38
-0.0073101823252 -0.127197172458 0.79 1.92854541932e-39
-0.00584814586016 -0.127197172458 0.79 2.47955839627e-39
-0.00438055735791 -0.127036163379 0.789 1.56120343469e-39
-0.00292037157194 -0.127036163379 0.789 1.17719552716e-38
-0.00146018578597 -0.127036163379 0.789 1.25170578949e-38
0.0 -0.126714145221 0.787 4.40819069609e-39
0.00145648442783 -0.126714145221 0.787 3.489748854e-39
0.00291296885566 -0.126714145221 0.787 6.3366492349e-39
0.00435834920908 -0.126392127063 0.785 1.34212849654e-38
0.00579632684621 -0.126070108905 0.783 1.30582183424e-38
0.00724540855776 -0.126070108905 0.783 1.15884916714e-38
0.00869449026931 -0.126070108905 0.783 6.97949770801e-39
0.0101435719809 -0.126070108905 0.783 7.80601717343e-39
0.0115926536924 -0.126070108905 0.783 8.91163045139e-39
0.013041735404 -0.126070108905 0.783 9.65277160398e-39
0.0144908171155 -0.126070108905 0.783 8.5514631149e-39
0.0159398988271 -0.126070108905 0.783 7.53517420624e-39
0.0174333968363 -0.126392127063 0.785 8.27416296439e-39
0.018886179906 -0.126392127063 0.785 2.66322938858e-39
0.0203389629757 -0.126392127063 0.785 4.68614245038e-39
0.0217917460454 -0.126392127063 0.785 7.99435168703e-39
0.0233037508453 -0.126714145221 0.787 8.26519465422e-39
0.0247602352731 -0.126714145221 0.787 9.37044919978e-39
0.0262833441475 -0.127036163379 0.789 9.55412019209e-39
0.0276732041288 -0.126714145221 0.787 9.00525960959e-39
0.0291296885566 -0.126714145221 0.787 8.7344166424e-39
0.0306639015054 -0.127036163379 0.789 4.40810381558e-39
0.0321240872913 -0.127036163379 0.789 4.22443282327e-39
0.0337119699331 -0.127519190617 0.792 2.09122173765e-38
0.0352665403517 -0.127841208775 0.794 2.34979773808e-38
0.0369210474399 -0.128485245091 0.798 1.37753244237e-39
0.0385903599608 -0.129129281407 0.802 1.76781031975e-38
0.0400746045747 -0.129129281407 0.802 1.92428533186e-38
0.0416106682025 -0.129290290486 0.803 1.84062697276e-38
0.0430967634954 -0.129290290486 0.803 1.95083040893e-38
0.0445828587884 -0.129290290486 0.803 2.12621720498e-38
0.0461836961836 -0.129612308644 0.805 1.785343226e-38
0.0475550493743 -0.129290290486 0.803 2.34770167584e-38
0.0490411446672 -0.129290290486 0.803 2.34976004315e-38
-0.0238959681476 -0.128440828793 0.807 1.81317987987e-38
-0.0224024701384 -0.128440828793 0.807 1.85013198024e-38
-0.0208571531152 -0.128122511993 0.805 1.76758751329e-38
-0.0193673564641 -0.128122511993 0.805 9.75288597147e-39
-0.017877559813 -0.128122511993 0.805 1.25136681539e-38
-0.0163470482224 -0.127804195193 0.803 1.29717722401e-38
-0.0148424461388 -0.127645036793 0.802 1.50037068614e-38
-0.0132582648551 -0.126690086393 0.796 7.720997593e-39
-0.0117851243157 -0.126690086393 0.796 1.46936793853e-39
-0.0103119837762 -0.126690086393 0.796 1.76006954703e-38
-0.00879442693908 -0.126053452793 0.792 1.52918320426e-38
-0.0073101823252 -0.125735135993 0.79 1.37753244237e-39
-0.00584814586016 -0.125735135993 0.79 4.40989887892e-39
-0.00438610939512 -0.125735135993 0.79 5.88034161337e-39
-0.00292037157194 -0.125575977593 0.789 5.96930725027e-39
-0.00146018578597 -0.125575977593 0.789 7.25500419648e-39
0.0 -0.125257660793 0.787 9.09960623259e-39
0.00145648442783 -0.125257660793 0.787 1.19569336754e-38
0.00291296885566 -0.125257660793 0.787 1.26901588929e-38
0.00436945328349 -0.125257660793 0.787 1.13133831517e-38
0.00581113227877 -0.124939343993 0.785 7.34719842505e-39
0.00726391534846 -0.124939343993 0.785 6.61215712467e-39
0.00871669841815 -0.124939343993 0.785 9.92794738602e-39
0.0101694814878 -0.124939343993 0.785 1.25107968934e-38
0.0116222645575 -0.124939343993 0.785 1.45340560759e-38
0.0130750476272 -0.124939343993 0.785 1.17757654021e-38
0.0145278306969 -0.124939343993 0.785 9.10283482425e-39
0.0159806137666 -0.124939343993 0.785 9.47269213963e-39
0.0174333968363 -0.124939343993 0.785 5.51407582596e-39
0.0189824152176 -0.125575977593 0.789 4.50388536822e-39
0.0203907819896 -0.125257660793 0.787 3.49298445216e-39
0.0218472664175 -0.125257660793 0.787 8.09409190783e-39
0.0233037508453 -0.125257660793 0.787 1.00255001799e-38
0.0247602352731 -0.125257660793 0.787 1.03910709233e-38
0.0262833441475 -0.125575977593 0.789 1.05750740233e-38
0.0277435299334 -0.125575977593 0.789 1.00240596451e-38
0.0292037157194 -0.125575977593 0.789 4.40810381558e-39
0.0306639015054 -0.125575977593 0.789 3.76525534248e-39
0.0322462321099 -0.126053452793 0.792 2.08167847472e-38
0.0337119699331 -0.126053452793 0.792 2.3495837598e-38
0.0352665403517 -0.126371769593 0.794 1.44656713096e-38
0.0369210474399 -0.127008403193 0.798 4.68361030406e-39
0.0385903599608 -0.127645036793 0.802 1.85096014763e-38
0.0400746045747 -0.127645036793 0.802 1.86889802915e-38
0.0416106682025 -0.127804195193 0.803 1.80393102974e-38
0.0430967634954 -0.127804195193 0.803 1.89554610165e-38
0.0445828587884 -0.127804195193 0.803 2.04305910943e-38
0.0460689540813 -0.127804195193 0.803 1.92331044851e-38
0.0475550493743 -0.127804195193 0.803 2.3474123077e-38
0.0490411446672 -0.127804195193 0.803 2.34972529095e-38
-0.0243105202592 -0.129149638877 0.821 1.81336008685e-38
-0.0225135108825 -0.127576561668 0.811 1.87792911749e-38
-0.0209089721291 -0.126947330784 0.807 1.84155477247e-38
-0.0194154741199 -0.126947330784 0.807 9.47486275095e-39
-0.017877559813 -0.126632715342 0.805 1.25118786958e-38
-0.0163877631619 -0.126632715342 0.805 1.21423843167e-38
-0.0148609529295 -0.1263180999 0.803 1.57386949125e-38
-0.0133582015249 -0.126160792179 0.802 8.45962761874e-39
-0.0118443460459 -0.125846176738 0.8 4.5917748079e-40
-0.0103378932832 -0.125531561296 0.798 1.73244967404e-38
-0.00881663508791 -0.124902330412 0.794 1.5569497932e-38
-0.00734719590659 -0.124902330412 0.794 1.01019045774e-39
-0.00586295129272 -0.12458771497 0.792 2.76010535532e-39
-0.00438610939512 -0.124273099528 0.79 4.68361030406e-39
-0.00292407293008 -0.124273099528 0.79 6.42848473106e-39
-0.00146018578597 -0.124115791807 0.789 7.72243252263e-39
0.0 -0.124115791807 0.789 9.01422791976e-39
0.00146018578597 -0.124115791807 0.789 8.82804580059e-39
0.00292037157194 -0.124115791807 0.789 7.25500419648e-39
0.00438055735791 -0.124115791807 0.789 7.07133320417e-39
0.00582593771132 -0.123801176366 0.787 9.46767549113e-39
0.00728242213916 -0.123801176366 0.787 1.24182453337e-38
0.00873890656699 -0.123801176366 0.787 1.31504125709e-38
0.0101953909948 -0.123801176366 0.787 1.40738234174e-38
0.0116814862878 -0.124115791807 0.789 9.46730694963e-39
0.0131083598505 -0.123801176366 0.787 6.3366492349e-39
0.0145648442783 -0.123801176366 0.787 9.37584980406e-39
0.0160213287061 -0.123801176366 0.787 9.19825764448e-39
0.0175222294316 -0.124115791807 0.789 6.80622995549e-39
0.0190064740455 -0.124273099528 0.79 3.94964379961e-39
0.0204685105106 -0.124273099528 0.79 1.24359997853e-38
0.0219305469756 -0.124273099528 0.79 3.58158435016e-39
0.0233925834406 -0.124273099528 0.79 3.39791335785e-39
0.0248546199057 -0.124273099528 0.79 5.6938007618e-39
0.0263166563707 -0.124273099528 0.79 4.68361030406e-39
0.0277786928358 -0.124273099528 0.79 3.03057137321e-39
0.0292407293008 -0.124273099528 0.79 8.18740156997e-39
0.0307027657658 -0.124273099528 0.79 1.98058698182e-38
0.0322462321099 -0.12458771497 0.792 2.18363204644e-38
0.0337971011703 -0.124902330412 0.794 2.34969053875e-38
0.0352665403517 -0.124902330412 0.794 1.19386145005e-39
0.0369210474399 -0.125531561296 0.798 1.48099997695e-38
0.0385903599608 -0.126160792179 0.802 1.94218734013e-38
0.0400746045747 -0.126160792179 0.802 1.87782948517e-38
0.0416106682025 -0.1263180999 0.803 1.85931623051e-38
0.0430967634954 -0.1263180999 0.803 1.85881274397e-38
0.0445828587884 -0.1263180999 0.803 2.06175060926e-38
0.0460689540813 -0.1263180999 0.803 1.86799138904e-38
0.0475550493743 -0.1263180999 0.803 2.34809978473e-38
0.0490411446672 -0.1263180999 0.803 2.34925725726e-38
-0.0243105202592 -0.127630231361 0.821 1.91398116386e-38
-0.0225135108825 -0.126075660942 0.811 2.34888507239e-38
-0.0209089721291 -0.125453832775 0.807 2.09100075288e-38
-0.0194154741199 -0.125453832775 0.807 7.81390928638e-39
-0.017877559813 -0.125142918691 0.805 1.19604971774e-38
-0.0163877631619 -0.125142918691 0.805 1.2788106853e-38
-0.0148609529295 -0.124832004607 0.803 1.62908121126e-38
-0.0133582015249 -0.124676547566 0.802 1.22371317111e-38
-0.0118443460459 -0.124365633482 0.8 1.83670992316e-40
-0.0103378932832 -0.124054719398 0.798 1.69557086157e-38
-0.00883884323675 -0.123743805314 0.796 1.65829534151e-38
-0.00736570269729 -0.123743805314 0.796 5.79711569497e-39
-0.00587775672528 -0.123432891231 0.794 1.01019045774e-39
-0.00440831754396 -0.123432891231 0.794 5.60878118137e-39
-0.00293147564636 -0.123121977147 0.792 5.78958231443e-39
-0.00146018578597 -0.122655606022 0.789 6.06544753531e-39
0.0 -0.122655606022 0.789 7.35688420003e-39
0.00146018578597 -0.122655606022 0.789 7.449437161e-39
0.00292037157194 -0.122655606022 0.789 8.64724466753e-39
0.00438055735791 -0.122655606022 0.789 1.14058968763e-38
0.00584074314388 -0.122655606022 0.789 1.36106704528e-38
0.00730092892985 -0.122655606022 0.789 1.29685506549e-38
0.00876111471582 -0.122655606022 0.789 1.18643568923e-38
0.0102213005018 -0.122655606022 0.789 7.25500419648e-39
0.0116814862878 -0.122655606022 0.789 7.71454040968e-39
0.0131583281854 -0.122811063063 0.79 1.03024528084e-38
0.0146203646504 -0.122811063063 0.79 1.0575462183e-38
0.0160824011154 -0.122811063063 0.79 1.12193560248e-38
0.0175444375805 -0.122811063063 0.79 2.93873587706e-39
0.0190545917013 -0.123121977147 0.792 1.26185539427e-38
0.0205203295245 -0.123121977147 0.792 1.94413458447e-38
0.0219860673477 -0.123121977147 0.792 1.56609774983e-38
0.0234518051709 -0.123121977147 0.792 9.85301855583e-39
0.0249175429941 -0.123121977147 0.792 7.91184743735e-39
0.0263832808172 -0.123121977147 0.792 1.34461117703e-38
0.0278490186404 -0.123121977147 0.792 1.76935567169e-38
0.0293147564636 -0.123121977147 0.792 2.02721658951e-38
0.0308582228077 -0.123432891231 0.794 2.14682427981e-38
0.032327661989 -0.123432891231 0.794 2.34969109927e-38
0.0338822324075 -0.123743805314 0.796 5.97828536953e-39
0.035355372947 -0.123743805314 0.796 6.61215572338e-39
0.0371061153469 -0.124676547566 0.802 1.69207378113e-38
0.0385903599608 -0.124676547566 0.802 1.96008696619e-38
0.0400746045747 -0.124676547566 0.802 2.05264034755e-38
0.0416106682025 -0.124832004607 0.803 1.86849823869e-38
0.0430967634954 -0.124832004607 0.803 1.86838599469e-38
0.0446938995326 -0.125142918691 0.805 1.85881274397e-38
0.0461836961836 -0.125142918691 0.805 1.93224484726e-38
0.0476734928347 -0.125142918691 0.805 2.34792336125e-38
-0.0259557739521 -0.126725249296 0.825 2.33894075784e-38
-0.0244289637197 -0.126725249296 0.825 2.34900418276e-38
-0.022791112743 -0.126110823845 0.821 2.34928878648e-38
-0.0211680671989 -0.125496398393 0.817 2.25695134521e-38
-0.0195117094315 -0.124574760217 0.811 6.98631362374e-39
-0.0179219761107 -0.123960334766 0.807 1.16857081537e-38
-0.0164284781015 -0.123960334766 0.807 1.2972137979e-38
-0.0148979665109 -0.12365312204 0.805 1.379972103e-38
-0.0133748576365 -0.123345909315 0.803 1.4448719802e-38
-0.011873956911 -0.123192302952 0.802 2.38772290011e-39
-0.0103638027902 -0.122885090226 0.8 1.42853227959e-38
-0.00886105138558 -0.122577877501 0.798 1.65843701279e-38
-0.00736570269729 -0.122270664775 0.796 1.50148794141e-38
-0.00589256215783 -0.122270664775 0.796 6.42848473106e-40
-0.00441942161837 -0.122270664775 0.796 2.85013878165e-39
-0.00293887836264 -0.121963452049 0.794 5.33004610123e-39
-0.00146573782318 -0.121656239324 0.792 6.71008967045e-39
0.0 -0.121349026598 0.79 8.64258114624e-39
0.00146203646504 -0.121349026598 0.79 9.56308850226e-39
0.00292407293008 -0.121349026598 0.79 9.83895372315e-39
0.00441942161837 -0.122270664775 0.796 1.07605372764e-38
0.00589256215783 -0.122270664775 0.796 1.01144602116e-38
0.00736570269729 -0.122270664775 0.796 8.45101944227e-39
0.00877221879024 -0.121349026598 0.79 6.70399121953e-39
0.0102342552553 -0.121349026598 0.79 8.46036049784e-39
0.0117259025854 -0.121656239324 0.792 1.00265721732e-38
0.0132249526319 -0.121963452049 0.794 9.74604202977e-39
0.0146943918132 -0.121963452049 0.794 1.00229834479e-38
0.0161638309945 -0.121963452049 0.794 6.61430811782e-39
0.0176332701758 -0.121963452049 0.794 9.1835496158e-40
0.0191027093571 -0.121963452049 0.794 1.89793461488e-38
0.0205721485385 -0.121963452049 0.794 1.96261084486e-38
0.0220415877198 -0.121963452049 0.794 1.8793808627e-38
0.0235110269011 -0.121963452049 0.794 1.84257673944e-38
0.0249804660824 -0.121963452049 0.794 1.99945182226e-38
0.0264499052637 -0.121963452049 0.794 1.95331883474e-38
0.0279193444451 -0.121963452049 0.794 2.07327881147e-38
0.0293887836264 -0.121963452049 0.794 2.04555328057e-38
0.0308582228077 -0.121963452049 0.794 2.26660432981e-38
0.0324090918681 -0.122270664775 0.796 1.6953193285e-38
0.0338822324075 -0.122270664775 0.796 4.31626831943e-39
0.035355372947 -0.122270664775 0.796 1.44329523917e-38
0.0371061153469 -0.123192302952 0.802 1.71904653449e-38
0.0385903599608 -0.123192302952 0.802 1.99639124629e-38
0.0401245729095 -0.123345909315 0.803 1.9972894786e-38
0.0416106682025 -0.123345909315 0.803 1.93293274468e-38
0.0432041028815 -0.12365312204 0.805 1.92363681093e-38
0.0446938995326 -0.12365312204 0.805 1.91409691111e-38
0.046298438286 -0.123960334766 0.807 1.89529400806e-38
-0.0259557739521 -0.125198439063 0.825 2.34889572226e-38
-0.0244289637197 -0.125198439063 0.825 2.34918396935e-38
-0.0228466331151 -0.124894927696 0.823 2.349329284e-38
-0.0212717052268 -0.124591416328 0.821 2.30305112196e-38
-0.019656062399 -0.123984393594 0.817 7.07492052823e-39
-0.0180552250037 -0.123377370859 0.813 1.15924377279e-38
-0.0164284781015 -0.122466836756 0.807 1.26934211158e-38
-0.0148979665109 -0.122163325389 0.805 1.37068163431e-38
-0.0133748576365 -0.121859814022 0.803 1.52770385347e-38
-0.0118887623436 -0.121859814022 0.803 5.23498201341e-39
-0.0103897122971 -0.121708058338 0.802 3.67341984632e-40
-0.00888325953442 -0.12140454697 0.8 1.74188237452e-38
-0.00738420948799 -0.121101035603 0.798 1.63063441048e-38
-0.00590736759039 -0.121101035603 0.798 1.18816923556e-38
-0.00441942161837 -0.120797524236 0.796 4.5917748079e-40
-0.00294628107892 -0.120797524236 0.796 1.92857204399e-39
-0.00147314053946 -0.120797524236 0.796 4.96091045457e-39
0.0 -0.121101035603 0.798 5.87747175411e-39
0.00147314053946 -0.120797524236 0.796 6.79762037773e-39
0.00294628107892 -0.120797524236 0.796 6.52032022722e-39
0.00441942161837 -0.120797524236 0.796 6.79582671569e-39
0.00589256215783 -0.120797524236 0.796 6.61538431504e-39
0.00736570269729 -0.120797524236 0.796 8.00010261593e-39
0.00879442693908 -0.120190501501 0.792 9.47449140686e-39
0.0102601647623 -0.120190501501 0.792 9.19575212283e-39
0.0117259025854 -0.120190501501 0.792 8.73513410722e-39
0.0132249526319 -0.120494012868 0.794 9.01064059569e-39
0.0146943918132 -0.120494012868 0.794 6.61897163911e-39
0.0161638309945 -0.120494012868 0.794 1.46936793853e-39
0.0176332701758 -0.120494012868 0.794 1.70445845695e-38
0.0191027093571 -0.120494012868 0.794 1.96268511367e-38
0.0205721485385 -0.120494012868 0.794 2.04544397929e-38
0.0220415877198 -0.120494012868 0.794 2.01767753048e-38
0.0235110269011 -0.120494012868 0.794 1.9992759593e-38
0.0249804660824 -0.120494012868 0.794 2.02707716032e-38
0.0264499052637 -0.120494012868 0.794 2.09154221461e-38
0.0279193444451 -0.120494012868 0.794 2.09146962735e-38
0.0294628107892 -0.120797524236 0.796 2.27582361254e-38
0.0309359513286 -0.120797524236 0.796 1.94432039665e-38
0.0324090918681 -0.120797524236 0.796 1.46936793853e-39
0.0339673636447 -0.121101035603 0.798 1.13054910388e-38
0.0354442055423 -0.121101035603 0.798 1.70029127558e-38
0.0372449162771 -0.122163325389 0.805 1.70975634606e-38
0.0387347129282 -0.122163325389 0.805 2.0792909424e-38
0.0402245095793 -0.122163325389 0.805 2.00672456129e-38
0.0417143062304 -0.122163325389 0.805 2.05314383409e-38
0.0433114422675 -0.122466836756 0.807 1.78563217375e-38
0.0448049402767 -0.122466836756 0.807 1.87736103109e-38
-0.0195598270874 -0.121872768775 0.813 5.78671245517e-39
-0.0180552250037 -0.121872768775 0.813 1.14076905384e-38
-0.0163877631619 -0.120673528738 0.805 1.20487453494e-38
-0.0148609529295 -0.120373718729 0.803 1.4260711791e-38
-0.0133582015249 -0.120223813724 0.802 1.49057280728e-38
-0.011873956911 -0.120223813724 0.802 1.2144554928e-38
-0.0103897122971 -0.120223813724 0.802 1.56120343469e-39
-0.00888325953442 -0.119924003715 0.8 1.70464006523e-38
-0.00738420948799 -0.119624193705 0.798 1.75992689485e-38
-0.00590736759039 -0.119624193705 0.798 1.63974607348e-38
-0.00443052569279 -0.119624193705 0.798 1.04998341049e-38
-0.00295368379519 -0.119624193705 0.798 2.11221641163e-39
-0.0014768418976 -0.119624193705 0.798 2.93873587706e-39
0.0 -0.119624193705 0.798 5.88323669599e-39
0.0014768418976 -0.119624193705 0.798 5.88177654299e-39
0.00295368379519 -0.119624193705 0.798 6.25055345725e-39
0.00443052569279 -0.119624193705 0.798 7.72279545893e-39
0.00590736759039 -0.119624193705 0.798 7.35616673522e-39
0.00738420948799 -0.119624193705 0.798 9.29045187305e-39
0.00883884323675 -0.119324383696 0.796 7.99686281388e-39
0.0102860742692 -0.119024573687 0.794 7.9089761768e-39
0.0117555134506 -0.119024573687 0.794 6.0647300705e-39
0.0132249526319 -0.119024573687 0.794 3.58158435016e-39
0.0146943918132 -0.119024573687 0.794 2.47955839627e-39
0.0161638309945 -0.119024573687 0.794 1.66761607825e-38
0.0176332701758 -0.119024573687 0.794 1.87041745707e-38
