# .PCD v0.7 - Point Cloud Data file format
VERSION 0.7
FIELDS x y z rgb
SIZE 4 4 4 4
TYPE F F F F
COUNT 1 1 1 1
WIDTH 854
HEIGHT 1
VIEWPOINT 0 0 0 1 0 0 0
POINTS 854
DATA ascii
0.0204685105106 -0.125735135993 0.79 1.83313591143e-38
0.0219305469756 -0.125735135993 0.79 1.78739584799e-38
0.0233925834406 -0.125735135993 0.79 2.01806442898e-38
0.0249175429941 -0.126053452793 0.792 2.21124435242e-38
0.0264499052637 -0.126371769593 0.794 2.04547326643e-38
0.0279896702497 -0.126690086393 0.796 1.89767313259e-38
0.0294628107892 -0.126690086393 0.796 1.79600752771e-38
0.0310136798495 -0.127008403193 0.798 2.04497370352e-38
0.0324905217471 -0.127008403193 0.798 2.02692539969e-38
0.0341801917378 -0.127804195193 0.803 1.86083187492e-38
0.035755119626 -0.128122511993 0.805 1.98100092538e-38
0.0373374502306 -0.128440828793 0.807 2.16532422213e-38
0.0388309482398 -0.128440828793 0.807 1.96217139766e-38
0.0403244462491 -0.128440828793 0.807 2.28489267607e-38
0.0419215822862 -0.128759145593 0.809 1.53828786077e-38
0.0435261210396 -0.129077462393 0.811 2.06246513135e-38
-0.0257040815987 -0.128520407993 0.817 1.83183354463e-38
-0.0240736333383 -0.12789117711 0.813 1.97924243594e-38
-0.0225135108825 -0.127576561668 0.811 1.7867150972e-38
-0.021012610157 -0.127576561668 0.811 5.60375892767e-39
-0.0195117094315 -0.127576561668 0.811 8.81692509598e-39
-0.0179219761107 -0.126947330784 0.807 9.36722060812e-39
-0.0163877631619 -0.126632715342 0.805 9.1835496158e-39
-0.0148979665109 -0.126632715342 0.805 9.73456259275e-39
-0.0133748576365 -0.1263180999 0.803 9.36722060812e-39
-0.011873956911 -0.126160792179 0.802 9.73456259275e-39
-0.0103378932832 -0.125531561296 0.798 7.07133320417e-39
-0.00886105138558 -0.125531561296 0.798 1.55709048356e-38
-0.00736570269729 -0.125216945854 0.796 1.61218897866e-38
-0.00589256215783 -0.125216945854 0.796 1.63959235104e-38
-0.00440831754396 -0.124902330412 0.794 1.23400360638e-38
-0.00293147564636 -0.12458771497 0.792 1.44595196093e-38
-0.00146573782318 -0.12458771497 0.792 1.45589207159e-38
0.0 -0.12458771497 0.792 1.41908612664e-38
0.00146573782318 -0.12458771497 0.792 1.52903522714e-38
0.00293147564636 -0.12458771497 0.792 1.50151947062e-38
0.00439721346954 -0.12458771497 0.792 1.63041538753e-38
0.00584814586016 -0.124273099528 0.79 1.67615194771e-38
0.0073101823252 -0.124273099528 0.79 1.61193898702e-38
0.00877221879024 -0.124273099528 0.79 1.79636177596e-38
0.0102342552553 -0.124273099528 0.79 1.71324529897e-38
0.0116962917203 -0.124273099528 0.79 1.79614723716e-38
0.0131583281854 -0.124273099528 0.79 1.63948977599e-38
0.0146203646504 -0.124273099528 0.79 1.70442174293e-38
0.0160824011154 -0.124273099528 0.79 1.78761234861e-38
0.0175444375805 -0.124273099528 0.79 1.64024409496e-38
0.0190064740455 -0.124273099528 0.79 1.98997582166e-38
0.0205203295245 -0.12458771497 0.792 1.7864995775e-38
0.0219860673477 -0.12458771497 0.792 1.16976318023e-38
0.0235110269011 -0.124902330412 0.794 1.99062448272e-38
0.0249804660824 -0.124902330412 0.794 1.81491006308e-38
0.0265165297102 -0.125216945854 0.796 1.77821355955e-38
0.0280599960544 -0.125531561296 0.798 1.61226492904e-38
0.0295368379519 -0.125531561296 0.798 2.15607116811e-38
0.0310136798495 -0.125531561296 0.798 1.87019212828e-38
0.0325719516262 -0.125846176738 0.8 1.94394709074e-38
0.0341801917378 -0.1263180999 0.803 2.10982873918e-38
0.035755119626 -0.126632715342 0.805 2.03610726775e-38
0.0373374502306 -0.126947330784 0.807 1.81458776443e-38
0.0388309482398 -0.126947330784 0.807 2.26606132666e-38
0.0403244462491 -0.126947330784 0.807 2.09149863423e-38
0.0419215822862 -0.127261946226 0.809 1.45552661295e-38
0.0435261210396 -0.127576561668 0.811 2.07143722502e-38
-0.025767004687 -0.127319317277 0.819 1.73963819503e-38
-0.0240736333383 -0.126386575026 0.813 1.87789240347e-38
-0.0225135108825 -0.126075660942 0.811 1.8969172722e-38
-0.021012610157 -0.126075660942 0.811 4.868716226e-39
-0.0195117094315 -0.126075660942 0.811 8.5410598751e-39
-0.0179219761107 -0.125453832775 0.807 8.63253663885e-39
-0.0163877631619 -0.125142918691 0.805 9.27538511196e-39
-0.0148979665109 -0.125142918691 0.805 9.91823358506e-39
-0.0133748576365 -0.124832004607 0.803 9.64272709659e-39
-0.011873956911 -0.124676547566 0.802 1.0469246562e-38
-0.0103638027902 -0.124365633482 0.8 7.34683969264e-39
-0.00886105138558 -0.124054719398 0.798 9.7600620209e-39
-0.00738420948799 -0.124054719398 0.798 9.84438655729e-39
-0.00589256215783 -0.123743805314 0.796 1.62101982145e-38
-0.00441942161837 -0.123743805314 0.796 1.4737881944e-38
-0.00293887836264 -0.123432891231 0.794 1.65807561791e-38
-0.00146943918132 -0.123432891231 0.794 1.16951108664e-38
0.0 -0.123432891231 0.794 1.40046707395e-38
0.00146573782318 -0.123121977147 0.792 1.5291411653e-38
0.00293147564636 -0.123121977147 0.792 1.28924993847e-38
0.00439721346954 -0.123121977147 0.792 1.48225624102e-38
0.00584814586016 -0.122811063063 0.79 1.48257783902e-38
0.0073101823252 -0.122811063063 0.79 1.57491780263e-38
0.00877221879024 -0.122811063063 0.79 1.55604385374e-38
0.0102342552553 -0.122811063063 0.79 1.65746268997e-38
0.0116962917203 -0.122811063063 0.79 1.78671215447e-38
0.0131583281854 -0.122811063063 0.79 1.51077784958e-38
0.0146573782318 -0.123121977147 0.792 1.33560615284e-38
0.016123116055 -0.123121977147 0.792 1.59374564879e-38
0.0175888538782 -0.123121977147 0.792 1.50155758594e-38
0.0191027093571 -0.123432891231 0.794 2.01749606233e-38
0.0205721485385 -0.123432891231 0.794 1.82391326558e-38
0.0220415877198 -0.123432891231 0.794 1.65864790821e-38
0.0235702486313 -0.123743805314 0.796 1.43759769974e-38
0.0250433891708 -0.123743805314 0.796 1.77796370803e-38
0.0265831541568 -0.124054719398 0.798 1.51066672661e-38
0.0280599960544 -0.124054719398 0.798 1.52902752e-38
0.0296108651147 -0.124365633482 0.8 1.85179181827e-38
0.0311691368914 -0.124676547566 0.802 2.09135794386e-38
0.0326533815053 -0.124676547566 0.802 2.10079036409e-38
0.0341801917378 -0.124832004607 0.803 1.7591665503e-38
0.035755119626 -0.125142918691 0.805 2.12819373646e-38
0.0373374502306 -0.125453832775 0.807 2.26652361502e-38
0.0388309482398 -0.125453832775 0.807 1.64892331725e-38
0.0403244462491 -0.125453832775 0.807 1.91617125323e-38
0.0419215822862 -0.125764746859 0.809 1.46471534737e-38
0.0435261210396 -0.126075660942 0.811 2.07157945682e-38
-0.0241328550685 -0.125189185668 0.815 1.87731843162e-38
-0.0226245516267 -0.125189185668 0.815 1.74936138468e-38
-0.0212198862128 -0.125803611119 0.819 6.71654685377e-39
-0.0196079447432 -0.125189185668 0.815 4.40810381558e-39
-0.0180552250037 -0.124881972942 0.813 8.44922437894e-39
-0.0165099079805 -0.124574760217 0.811 9.36722060812e-39
-0.0149349800922 -0.123960334766 0.807 9.73456259275e-39
-0.0134081698598 -0.12365312204 0.805 9.91823358506e-39
-0.0118887623436 -0.123345909315 0.803 9.55089160043e-39
-0.0103897122971 -0.123192302952 0.802 6.88766221185e-39
-0.00888325953442 -0.122885090226 0.8 1.48336873187e-38
-0.00738420948799 -0.122577877501 0.798 1.34464172533e-38
-0.00590736759039 -0.122577877501 0.798 9.0185733463e-39
-0.00443052569279 -0.122577877501 0.798 1.17775450512e-38
-0.00294628107892 -0.122270664775 0.796 1.23347419582e-38
-0.00147314053946 -0.122270664775 0.796 1.53883086392e-38
0.0 -0.122270664775 0.796 1.40979019289e-38
0.00146943918132 -0.121963452049 0.794 1.52031760926e-38
0.00293887836264 -0.121963452049 0.794 1.54758197283e-38
0.00440831754396 -0.121963452049 0.794 1.85146279339e-38
0.00587775672528 -0.121963452049 0.794 1.61197373922e-38
0.00734719590659 -0.121963452049 0.794 1.6305598614e-38
0.00881663508791 -0.121963452049 0.794 1.54737121754e-38
0.0102860742692 -0.121963452049 0.794 1.71371333266e-38
0.0117555134506 -0.121963452049 0.794 1.64024409496e-38
0.0132249526319 -0.121963452049 0.794 1.53937204539e-38
0.0146943918132 -0.121963452049 0.794 1.74219850745e-38
0.0161638309945 -0.121963452049 0.794 1.36405167088e-38
0.0176332701758 -0.121963452049 0.794 1.42855778322e-38
0.019150827013 -0.122270664775 0.796 1.19721307572e-38
0.0206239675524 -0.122270664775 0.796 1.23351104997e-38
0.0220971080919 -0.122270664775 0.796 1.60271157676e-38
0.0235702486313 -0.122270664775 0.796 1.71368264422e-38
0.0251063122592 -0.122577877501 0.798 1.81451741925e-38
0.0266497786033 -0.122885090226 0.8 2.07294838529e-38
0.028130321859 -0.122885090226 0.8 2.10068190358e-38
0.0296848922775 -0.123192302952 0.802 1.98100639045e-38
0.0311691368914 -0.123192302952 0.802 1.73207847007e-38
0.0326940964448 -0.123345909315 0.803 1.98075331594e-38
0.034265322975 -0.12365312204 0.805 2.19266005193e-38
0.0358439522214 -0.123960334766 0.807 2.20173906468e-38
0.0374299841841 -0.124267547491 0.809 2.25719573166e-38
0.0390234188631 -0.124574760217 0.811 1.84264232021e-38
0.0405243195886 -0.124574760217 0.811 1.90700353829e-38
0.0420252203141 -0.124574760217 0.811 1.38159648818e-38
0.0436334604256 -0.124881972942 0.813 2.15430399062e-38
0.0454711847418 -0.125803611119 0.819 1.91434718302e-38
-0.0259557739521 -0.125198439063 0.825 2.34929200946e-38
-0.0241920767987 -0.123984393594 0.817 2.34961528902e-38
-0.0226800719988 -0.123984393594 0.817 1.52874585901e-38
-0.0211680671989 -0.123984393594 0.817 9.29439792952e-39
-0.019656062399 -0.123984393594 0.817 1.24344359362e-38
-0.0180996413014 -0.123680882226 0.815 6.24481373874e-39
-0.0165506229201 -0.123377370859 0.813 8.81620763117e-39
-0.015009007255 -0.123073859491 0.811 8.99987862348e-39
-0.013441482083 -0.122466836756 0.807 9.64272709659e-39
-0.0119183732087 -0.122163325389 0.805 9.64272709659e-39
-0.0104026670506 -0.121859814022 0.803 6.06114274643e-39
-0.00891657175768 -0.121859814022 0.803 1.16979695153e-38
-0.00742122306938 -0.121708058338 0.802 1.34467549663e-38
-0.00592217302295 -0.12140454697 0.8 1.55694797151e-38
-0.00444162976721 -0.12140454697 0.8 1.40021315866e-38
-0.00295368379519 -0.121101035603 0.798 1.44635006982e-38
-0.0014768418976 -0.121101035603 0.798 1.2343309497e-38
0.0 -0.121101035603 0.798 1.27127604359e-38
0.0014768418976 -0.121101035603 0.798 6.16555069241e-39
0.00295368379519 -0.121101035603 0.798 1.21481226339e-38
0.00443052569279 -0.121101035603 0.798 1.04922362646e-38
0.00590736759039 -0.121101035603 0.798 1.31640724284e-38
0.00738420948799 -0.121101035603 0.798 1.15925077928e-38
0.00883884323675 -0.120797524236 0.796 1.48282404716e-38
0.0103119837762 -0.120797524236 0.796 1.06870700005e-38
0.0117851243157 -0.120797524236 0.796 7.73537351395e-39
0.0132582648551 -0.120797524236 0.796 6.544428166e-39
0.0147314053946 -0.120797524236 0.796 6.72487056665e-39
0.016204545934 -0.120797524236 0.796 1.09661007546e-38
0.0176776864735 -0.120797524236 0.796 1.37306202001e-38
0.019150827013 -0.120797524236 0.796 1.80601518095e-38
0.0206239675524 -0.120797524236 0.796 1.9806479383e-38
0.022152628464 -0.121101035603 0.798 2.10053827049e-38
0.0236294703616 -0.121101035603 0.798 2.06380267073e-38
0.0251692353475 -0.12140454697 0.8 2.12826982697e-38
0.0266497786033 -0.12140454697 0.8 2.0266733061e-38
0.0282006476636 -0.121708058338 0.802 1.78668104565e-38
0.0297219058589 -0.121859814022 0.803 2.04535639814e-38
0.0312080011519 -0.121859814022 0.803 2.07323803368e-38
0.0326940964448 -0.121859814022 0.803 2.0083410992e-38
0.034265322975 -0.122163325389 0.805 2.15574872934e-38
0.0359327848167 -0.122770348124 0.809 2.08202697765e-38
0.0374299841841 -0.122770348124 0.809 2.06344576001e-38
0.0390234188631 -0.123073859491 0.811 1.66747090373e-38
0.0406242562583 -0.123377370859 0.813 1.97188519861e-38
0.042128858342 -0.123377370859 0.813 1.41850388713e-38
0.0438481391977 -0.123984393594 0.817 2.13586878828e-38
0.0454711847418 -0.124287904961 0.819 1.97895951378e-38
-0.0259557739521 -0.123671628831 0.825 2.34907494833e-38
-0.024251298529 -0.122772198803 0.819 2.34947123554e-38
-0.0227355923709 -0.122772198803 0.819 1.75001985483e-38
-0.0211680671989 -0.122472388794 0.817 8.4628562104e-39
-0.019656062399 -0.122472388794 0.817 1.53846232243e-38
-0.0180996413014 -0.122172578784 0.815 4.31842071387e-39
-0.0165506229201 -0.121872768775 0.813 8.35703015038e-39
-0.0150460208364 -0.121872768775 0.813 9.45905610427e-39
-0.0134747943063 -0.121273148756 0.809 9.1835496158e-39
-0.0119479840738 -0.120973338747 0.807 9.1835496158e-39
-0.0104285765576 -0.120673528738 0.805 5.87747175411e-39
-0.00891657175768 -0.120373718729 0.803 1.58464099228e-38
-0.00743047646473 -0.120373718729 0.803 1.37245287557e-38
-0.0059369784555 -0.120223813724 0.802 1.1330962441e-38
-0.00445273384163 -0.120223813724 0.802 8.09587295818e-39
-0.00296108651147 -0.119924003715 0.8 1.16018180198e-38
-0.00148054325574 -0.119924003715 0.8 1.40039098344e-38
0.0 -0.119924003715 0.8 1.53915106062e-38
0.00148054325574 -0.119924003715 0.8 1.41933836036e-38
0.00295368379519 -0.119624193705 0.798 1.45603248169e-38
0.00443052569279 -0.119624193705 0.798 1.66786761132e-38
0.00590736759039 -0.119624193705 0.798 1.68590680671e-38
0.00738420948799 -0.119624193705 0.798 1.74058323071e-38
0.00886105138558 -0.119624193705 0.798 1.57513332233e-38
0.0103378932832 -0.119624193705 0.798 1.71378423836e-38
0.0118147351808 -0.119624193705 0.798 1.73200812489e-38
0.0132915770784 -0.119624193705 0.798 1.72300380135e-38
0.014768418976 -0.119624193705 0.798 1.78772179002e-38
0.0162452608736 -0.119624193705 0.798 1.75099095467e-38
0.0177221027712 -0.119624193705 0.798 1.51113784315e-38
0.0191989446688 -0.119624193705 0.798 1.76881266854e-38
0.0206757865664 -0.119624193705 0.798 2.10972125959e-38
0.0222081488361 -0.119924003715 0.8 1.98983204843e-38
0.023747913822 -0.120223813724 0.802 1.92536531258e-38
0.0252321584359 -0.120223813724 0.802 1.76852316028e-38
0.026749715273 -0.120373718729 0.803 2.13720394546e-38
0.028235810566 -0.120373718729 0.803 2.11894110283e-38
0.0297219058589 -0.120373718729 0.803 2.10050351829e-38
0.0312857296728 -0.120673528738 0.805 2.03611091113e-38
0.032938386082 -0.121273148756 0.809 2.15599858085e-38
0.0344355854494 -0.121273148756 0.809 2.0363234881e-38
0.0360216174121 -0.121572958766 0.811 1.90685584143e-38
0.0376150520911 -0.121872768775 0.813 2.22918321484e-38
0.0392158894863 -0.122172578784 0.815 1.92565426033e-38
0.0408241295979 -0.122472388794 0.817 2.2207507612e-38
0.0424397724257 -0.122772198803 0.819 1.3076893447e-38
0.0439554785838 -0.122772198803 0.819 2.02498095794e-38
0.0454711847418 -0.122772198803 0.819 2.04363742531e-38
-0.0260186970405 -0.122440927249 0.827 2.31187439774e-38
-0.0244289637197 -0.122144818598 0.825 2.34954494384e-38
-0.0229021534872 -0.122144818598 0.825 1.78686097237e-38
-0.0213235242407 -0.121848709947 0.823 6.71080713526e-39
-0.0197522977106 -0.121552601296 0.821 9.30267680085e-39
-0.0181440575991 -0.120960383994 0.817 3.30607786169e-39
-0.0165913378596 -0.120664275343 0.815 7.80673463824e-39
-0.0150460208364 -0.120368166691 0.813 9.36722060812e-39
-0.0134747943063 -0.119775949389 0.809 9.64272709659e-39
-0.0119479840738 -0.119479840738 0.807 9.73456259275e-39
-0.0104285765576 -0.119183732087 0.805 5.87747175411e-39
-0.00893877990651 -0.119183732087 0.805 1.75955737244e-38
-0.00743047646473 -0.118887623436 0.803 1.40009671076e-38
-0.0059369784555 -0.11873956911 0.802 1.4647446345e-38
-0.00445273384163 -0.11873956911 0.802 1.58431182727e-38
-0.00296108651147 -0.118443460459 0.8 1.3174174389e-38
-0.00148054325574 -0.118443460459 0.8 1.37313082376e-38
0.0 -0.11873956911 0.802 1.03182398369e-38
0.00148054325574 -0.118443460459 0.8 1.23468519796e-38
0.00296108651147 -0.118443460459 0.8 5.52268540372e-39
0.00444162976721 -0.118443460459 0.8 1.06827413895e-38
0.00592217302295 -0.118443460459 0.8 9.75967386123e-39
0.00740271627868 -0.118443460459 0.8 9.65779385768e-39
0.00886105138558 -0.118147351808 0.798 1.11397888967e-38
0.0103378932832 -0.118147351808 0.798 1.91599945404e-38
0.0118147351808 -0.118147351808 0.798 1.73143975823e-38
0.0133248893016 -0.118443460459 0.8 1.41786517529e-38
0.0148054325574 -0.118443460459 0.8 1.60272488909e-38
0.0162859758131 -0.118443460459 0.8 1.67719339273e-38
0.0177665190688 -0.118443460459 0.8 1.61258582639e-38
0.0192470623246 -0.118443460459 0.8 1.63059111035e-38
0.0207276055803 -0.118443460459 0.8 1.86089871686e-38
0.0222636692081 -0.11873956911 0.802 2.05433367662e-38
0.023747913822 -0.11873956911 0.802 2.10057204178e-38
0.0252636199801 -0.118887623436 0.803 2.22043028424e-38
0.026749715273 -0.118887623436 0.803 2.04543641228e-38
0.028235810566 -0.118887623436 0.803 2.04547298617e-38
0.0297959330217 -0.119183732087 0.805 2.12819737984e-38
0.0313634581937 -0.119479840738 0.807 2.11908347476e-38
0.032938386082 -0.119775949389 0.809 1.87905590158e-38
0.0344355854494 -0.119775949389 0.809 2.02696001177e-38
0.0360216174121 -0.12007205804 0.811 2.11004397862e-38
0.0376150520911 -0.120368166691 0.813 1.98039878743e-38
0.0392158894863 -0.120664275343 0.815 2.14663482425e-38
0.0409240662676 -0.121256492645 0.819 2.21124617411e-38
0.0424397724257 -0.121256492645 0.819 1.17840008332e-38
0.0439554785838 -0.121256492645 0.819 2.07078856396e-38
0.0454711847418 -0.121256492645 0.819 2.08066015113e-38
-0.0260186970405 -0.120910415659 0.827 2.34889586239e-38
-0.0244289637197 -0.120618008366 0.825 2.34911222287e-38
-0.0229021534872 -0.120618008366 0.825 1.78671607811e-38
-0.0213753432547 -0.120618008366 0.825 4.04076183095e-39
-0.0197522977106 -0.12003319378 0.821 1.28925246081e-38
-0.0182328901944 -0.12003319378 0.821 3.12240686937e-39
-0.0166320527991 -0.119448379194 0.817 8.54393814215e-39
-0.0150830344178 -0.119155971901 0.815 9.27538511196e-39
-0.0135081065295 -0.118571157315 0.811 1.03774110659e-38
-0.0119775949389 -0.118278750022 0.809 9.91823358506e-39
-0.0104544860646 -0.117986342729 0.807 6.42848473106e-39
-0.00893877990651 -0.117693935436 0.805 1.39056227601e-38
-0.00743047646473 -0.117401528143 0.803 1.51062987246e-38
-0.00594438117178 -0.117401528143 0.803 1.5016221858e-38
-0.00445273384163 -0.117255324496 0.802 1.0399295144e-38
-0.00296848922775 -0.117255324496 0.802 9.93724640263e-39
-0.00148424461388 -0.117255324496 0.802 1.43716427813e-38
0.0 -0.117255324496 0.802 1.20587898568e-38
0.00148424461388 -0.117255324496 0.802 1.59404650757e-38
0.00296108651147 -0.116962917203 0.8 1.55744725415e-38
0.00444162976721 -0.116962917203 0.8 1.60332646652e-38
0.00592217302295 -0.116962917203 0.8 1.57588890246e-38
0.00740271627868 -0.116962917203 0.8 1.61240730096e-38
0.00888325953442 -0.116962917203 0.8 1.60311416981e-38
0.0103638027902 -0.116962917203 0.8 1.77810565956e-38
0.0118443460459 -0.116962917203 0.8 1.56595131414e-38
0.0133248893016 -0.116962917203 0.8 1.80601644212e-38
0.0148054325574 -0.116962917203 0.8 1.64024409496e-38
0.0162859758131 -0.116962917203 0.8 1.41872501203e-38
0.0178109353665 -0.117255324496 0.802 1.32656413437e-38
0.0192951799804 -0.117255324496 0.802 2.10075505136e-38
0.0207794245943 -0.117255324496 0.802 2.04525662568e-38
0.0222636692081 -0.117255324496 0.802 2.11894460608e-38
0.0237775246871 -0.117401528143 0.803 1.93458291375e-38
0.0252636199801 -0.117401528143 0.803 2.12811708544e-38
0.026749715273 -0.117401528143 0.803 1.30780102819e-38
0.028235810566 -0.117401528143 0.803 2.0274301474e-38
0.0297959330217 -0.117693935436 0.805 1.71338753077e-38
0.0314411867146 -0.118278750022 0.809 2.0912078648e-38
0.032938386082 -0.118278750022 0.809 2.08209984517e-38
0.0345207166866 -0.118571157315 0.811 2.00852088579e-38
0.0361104500074 -0.118863564608 0.813 1.99007853683e-38
0.0376150520911 -0.118863564608 0.813 2.18355189217e-38
0.039312124798 -0.119448379194 0.817 1.95277611184e-38
0.0409240662676 -0.119740786487 0.819 2.34942695451e-38
0.0424397724257 -0.119740786487 0.819 1.15092370329e-38
0.0440628179698 -0.12003319378 0.821 1.94171468216e-38
-0.0260186970405 -0.119379904068 0.827 2.34889698343e-38
-0.0244289637197 -0.119091198133 0.825 2.34946983424e-38
-0.0229021534872 -0.119091198133 0.825 1.79593774304e-38
-0.0213753432547 -0.119091198133 0.825 1.07638387356e-38
-0.0197522977106 -0.118513786264 0.821 1.50987345155e-38
-0.0182328901944 -0.118513786264 0.821 4.04076183095e-39
-0.0166727677387 -0.118225080329 0.819 8.45102504747e-39
-0.0151200479992 -0.117936374394 0.817 9.36722060812e-39
-0.0135081065295 -0.117070256589 0.811 1.25876230817e-38
-0.0119775949389 -0.116781550654 0.809 9.91823358506e-39
-0.0104544860646 -0.11649284472 0.807 7.07133320417e-39
-0.00896098805535 -0.11649284472 0.807 1.74112273062e-38
-0.00744898325543 -0.116204138785 0.805 1.18794236534e-38
-0.00595918660434 -0.116204138785 0.805 1.15059832179e-38
-0.00445828587884 -0.11591543285 0.803 1.04893874248e-38
-0.00297219058589 -0.11591543285 0.803 1.60276272415e-38
-0.00148609529295 -0.11591543285 0.803 1.63099174159e-38
0.0 -0.115771079882 0.802 1.58424148209e-38
0.00148424461388 -0.115771079882 0.802 1.0862441102e-38
0.00296848922775 -0.115771079882 0.802 1.31680507147e-38
0.00445273384163 -0.115771079882 0.802 1.02160375347e-38
0.0059369784555 -0.115771079882 0.802 1.04029497304e-38
0.00742122306938 -0.115771079882 0.802 7.90933210661e-39
0.00890546768326 -0.115771079882 0.802 1.37208013018e-38
0.0103897122971 -0.115771079882 0.802 1.47277589639e-38
0.011873956911 -0.115771079882 0.802 1.3716492309e-38
0.0133582015249 -0.115771079882 0.802 1.78724366698e-38
0.0148424461388 -0.115771079882 0.802 1.28942776324e-38
0.0163266907526 -0.115771079882 0.802 1.79664918227e-38
0.0178109353665 -0.115771079882 0.802 1.58525335971e-38
0.0192951799804 -0.115771079882 0.802 1.79740994721e-38
0.0207794245943 -0.115771079882 0.802 1.0318663029e-38
0.0222914293942 -0.11591543285 0.803 2.10061464126e-38
0.0237775246871 -0.11591543285 0.803 1.69469869341e-38
0.0252636199801 -0.11591543285 0.803 1.9528477182e-38
0.0268163397195 -0.116204138785 0.805 1.58417141717e-38
0.0283061363706 -0.116204138785 0.805 1.70463726264e-38
0.0299439873473 -0.116781550654 0.809 2.14692573382e-38
0.0314411867146 -0.116781550654 0.809 2.05458310774e-38
0.0330198159611 -0.117070256589 0.811 1.79636499894e-38
0.0346058479238 -0.117358962524 0.813 2.1648648765e-38
0.0361104500074 -0.117358962524 0.813 2.03621684929e-38
0.0377075860445 -0.117647668459 0.815 1.94370130299e-38
0.0394083601096 -0.118225080329 0.819 2.32141373704e-38
0.0409240662676 -0.118225080329 0.819 1.75030852232e-38
0.0425434104536 -0.118513786264 0.821 9.94513851558e-39
0.0440628179698 -0.118513786264 0.821 1.95025433513e-38
0.0456932662302 -0.118802492198 0.823 2.02523585414e-38
-0.0260186970405 -0.117849392478 0.827 2.34885984902e-38
-0.0244289637197 -0.117564387901 0.825 2.34939864828e-38
-0.0229021534872 -0.117564387901 0.825 1.83288858225e-38
-0.0214271622687 -0.117849392478 0.827 1.38073188702e-38
-0.0198485330222 -0.117564387901 0.825 1.22385203979e-38
-0.0182328901944 -0.116994378747 0.821 3.85744957104e-39
-0.0166727677387 -0.116709374171 0.819 8.54177733991e-39
-0.0151570615806 -0.116709374171 0.819 9.1835496158e-39
-0.0135414187528 -0.11585436044 0.813 9.64272709659e-39
-0.012007205804 -0.115569355864 0.811 1.01937400735e-38
-0.0104803955715 -0.115284351287 0.809 6.88766221185e-39
-0.00896098805535 -0.11499934671 0.807 1.9435173125e-38
-0.00744898325543 -0.114714342134 0.805 1.86094005517e-38
-0.00595918660434 -0.114714342134 0.805 1.35365081329e-38
-0.00446938995326 -0.114714342134 0.805 1.54740022442e-38
-0.00297219058589 -0.114429337557 0.803 1.22514515801e-38
-0.00148609529295 -0.114429337557 0.803 8.27918802068e-39
0.0 -0.114429337557 0.803 1.15852630798e-38
0.00148609529295 -0.114429337557 0.803 1.53713599343e-38
0.00297219058589 -0.114429337557 0.803 1.16835557593e-38
0.00445828587884 -0.114429337557 0.803 1.72260723388e-38
0.00594438117178 -0.114429337557 0.803 1.55704760383e-38
0.00743047646473 -0.114429337557 0.803 1.74158543938e-38
0.00891657175768 -0.114429337557 0.803 1.67712304755e-38
0.0104026670506 -0.114429337557 0.803 1.62127962219e-38
0.0118887623436 -0.114429337557 0.803 1.33582265345e-38
0.0133748576365 -0.114429337557 0.803 1.50055187403e-38
0.0148609529295 -0.114429337557 0.803 1.39870536152e-38
0.0163470482224 -0.114429337557 0.803 1.16843559007e-38
0.0178331435154 -0.114429337557 0.803 1.17850770304e-38
0.0193192388083 -0.114429337557 0.803 1.22521956696e-38
0.0208053341012 -0.114429337557 0.803 1.62199316337e-38
0.0223469497663 -0.114714342134 0.805 1.7598107272e-38
0.0238367464174 -0.114714342134 0.805 1.92557830995e-38
0.0253265430684 -0.114714342134 0.805 2.01774437242e-38
0.0268163397195 -0.114714342134 0.805 1.99000791139e-38
0.0284467879799 -0.115284351287 0.809 1.23372054409e-38
0.0300180145101 -0.115569355864 0.811 1.8422488356e-38
0.0315966437565 -0.11585436044 0.813 2.10989754294e-38
0.0331012458401 -0.11585436044 0.813 2.05476289434e-38
0.034690979161 -0.116139365017 0.815 2.01745500428e-38
0.0361992826028 -0.116139365017 0.815 2.11915564163e-38
0.037800119998 -0.116424369594 0.817 2.18391132522e-38
0.0394083601096 -0.116709374171 0.819 9.479924241e-39
0.0409240662676 -0.116709374171 0.819 1.80636690686e-38
0.0425434104536 -0.116994378747 0.821 9.2115615721e-39
0.0440628179698 -0.116994378747 0.821 2.01504266898e-38
0.0456932662302 -0.117279383324 0.823 2.11718303378e-38
-0.0260186970405 -0.116318880887 0.827 2.28428535331e-38
-0.0244289637197 -0.116037577668 0.825 2.34918298844e-38
-0.0229021534872 -0.116037577668 0.825 2.00802468601e-38
-0.0214271622687 -0.116318880887 0.827 8.6411588283e-39
-0.019896650678 -0.116318880887 0.827 1.33448665549e-38
-0.0183217227897 -0.116037577668 0.825 5.33327469289e-39
-0.0167134826782 -0.115474971231 0.821 8.63468903329e-39
-0.0151570615806 -0.115193668013 0.819 9.45905610427e-39
-0.013574730976 -0.114631061575 0.815 1.01937400735e-38
-0.0120368166691 -0.114349758357 0.813 1.0469246562e-38
-0.0105063050785 -0.114068455138 0.811 7.71418167727e-39
-0.00898319620418 -0.11378715192 0.809 1.86950843476e-38
-0.00746749004612 -0.113505848701 0.807 1.70431258178e-38
-0.00595918660434 -0.113224545482 0.805 1.36322630609e-38
-0.00446938995326 -0.113224545482 0.805 1.25258930817e-38
-0.00297959330217 -0.113224545482 0.805 1.39067353911e-38
-0.00148979665109 -0.113224545482 0.805 1.6495028943e-38
0.0 -0.113224545482 0.805 1.50170149929e-38
0.00148979665109 -0.113224545482 0.805 1.70388294367e-38
0.00297219058589 -0.112943242264 0.803 1.60246705018e-38
0.00445828587884 -0.112943242264 0.803 1.51091783929e-38
0.00594438117178 -0.112943242264 0.803 1.51091629787e-38
0.00743047646473 -0.112943242264 0.803 1.61240435824e-38
0.00891657175768 -0.112943242264 0.803 1.52031536718e-38
0.0104026670506 -0.112943242264 0.803 1.53922140581e-38
0.0118887623436 -0.112943242264 0.803 1.72340036882e-38
0.0133748576365 -0.112943242264 0.803 1.75037340244e-38
0.0148609529295 -0.112943242264 0.803 1.89734887213e-38
0.0163877631619 -0.113224545482 0.805 1.73153995108e-38
0.017877559813 -0.113224545482 0.805 1.86126375511e-38
0.0193673564641 -0.113224545482 0.805 1.65843280889e-38
0.0208571531152 -0.113224545482 0.805 1.43680834832e-38
0.0224024701384 -0.113505848701 0.807 1.4919424364e-38
0.0239551898778 -0.11378715192 0.809 1.41829313184e-38
0.0254523892452 -0.11378715192 0.809 1.98972849248e-38
0.0269495886125 -0.11378715192 0.809 1.8976713109e-38
0.0285171137846 -0.114068455138 0.811 2.09153422721e-38
0.0300920416729 -0.114349758357 0.813 2.10060861567e-38
0.0315966437565 -0.114349758357 0.813 2.08202543622e-38
0.0331826757192 -0.114631061575 0.815 1.96227985816e-38
0.034690979161 -0.114631061575 0.815 2.28496904684e-38
0.0362881151981 -0.114912364794 0.817 1.89839157831e-38
0.037800119998 -0.114912364794 0.817 4.77580453262e-39
0.0394083601096 -0.115193668013 0.819 2.12725963091e-38
0.0410240029374 -0.115474971231 0.821 2.00870081252e-38
0.0425434104536 -0.115474971231 0.821 8.55792029822e-39
0.0441701573558 -0.11575627445 0.823 2.03315823513e-38
0.0456932662302 -0.11575627445 0.823 2.0434970152e-38
-0.0259557739521 -0.114510767436 0.825 2.25666393889e-38
-0.0244289637197 -0.114510767436 0.825 2.34893173563e-38
-0.0229021534872 -0.114510767436 0.825 2.07245442758e-38
-0.0214271622687 -0.114788369296 0.827 8.64045257388e-39
-0.019896650678 -0.114788369296 0.827 1.49143194337e-38
-0.0183217227897 -0.114510767436 0.825 8.18806718674e-39
-0.0167134826782 -0.113955563715 0.821 8.26519465422e-39
-0.015194075162 -0.113955563715 0.821 9.45905610427e-39
-0.0136413554225 -0.113677961855 0.819 1.01937400735e-38
-0.0120368166691 -0.112845156273 0.813 1.03774110659e-38
-0.0105063050785 -0.112567554413 0.811 8.35703015038e-39
-0.00898319620418 -0.112289952552 0.809 1.93369210832e-38
-0.00746749004612 -0.112012350692 0.807 1.85175524438e-38
-0.0059739920369 -0.112012350692 0.807 1.15131774842e-38
-0.00448049402767 -0.112012350692 0.807 1.56616206943e-38
-0.00298699601845 -0.112012350692 0.807 1.50148163556e-38
-0.00148979665109 -0.111734748831 0.805 1.05901772182e-38
0.0 -0.111734748831 0.805 1.34482599608e-38
0.00148979665109 -0.111734748831 0.805 1.94387100023e-38
0.00297959330217 -0.111734748831 0.805 1.6572806613e-38
0.00446938995326 -0.111734748831 0.805 1.18762455085e-38
0.00595918660434 -0.111734748831 0.805 1.55666238688e-38
0.00744898325543 -0.111734748831 0.805 1.64888982622e-38
0.00893877990651 -0.111734748831 0.805 1.22461196394e-38
0.0104285765576 -0.111734748831 0.805 1.61175920042e-38
0.0119183732087 -0.111734748831 0.805 1.49197774912e-38
0.0134081698598 -0.111734748831 0.805 1.620620031e-38
0.0148979665109 -0.111734748831 0.805 1.99847932113e-38
0.0163877631619 -0.111734748831 0.805 1.492295984e-38
0.017877559813 -0.111734748831 0.805 1.31705534338e-38
0.0194154741199 -0.112012350692 0.807 1.7503788675e-38
0.0209607911431 -0.112289952552 0.809 1.7966507237e-38
0.0225135108825 -0.112567554413 0.811 1.87008675063e-38
0.0240144116081 -0.112567554413 0.811 2.10071875773e-38
0.0255153123336 -0.112567554413 0.811 2.09139353684e-38
0.0270162130591 -0.112567554413 0.811 1.9714997014e-38
0.0285171137846 -0.112567554413 0.811 1.91629190503e-38
0.0300920416729 -0.112845156273 0.813 1.86072313416e-38
0.0315966437565 -0.112845156273 0.813 2.23869172557e-38
0.0331826757192 -0.113122758134 0.815 2.02725288314e-38
0.0347761103982 -0.113400359994 0.817 1.3264624001e-38
0.0363769477935 -0.113677961855 0.819 6.71511192415e-39
0.0378926539515 -0.113677961855 0.819 2.16440048619e-38
0.0395045954212 -0.113955563715 0.821 2.11872754495e-38
0.0410240029374 -0.113955563715 0.821 2.34953569527e-38
0.0426470484815 -0.114233165575 0.823 7.3554492704e-39
0.0441701573558 -0.114233165575 0.823 2.03215462517e-38
0.0461374292069 -0.115343573017 0.831 2.043245342e-38
-0.0260186970405 -0.113257857706 0.827 2.33027596891e-38
-0.0244881854499 -0.113257857706 0.827 2.3493630553e-38
-0.0229576738593 -0.113257857706 0.827 2.19227175212e-38
-0.0214789812826 -0.113531758208 0.829 1.0116654645e-38
-0.0199447683338 -0.113531758208 0.829 9.28327722491e-39
-0.0183661390874 -0.113257857706 0.827 6.06688246494e-39
-0.0167949125573 -0.112983957203 0.825 7.99184056019e-39
-0.015194075162 -0.112436156199 0.821 9.36793807293e-39
-0.0136413554225 -0.112162255696 0.819 1.00100690812e-38
-0.0120960383994 -0.111888355194 0.817 1.0469246562e-38
-0.0105322145855 -0.11134055419 0.813 8.17335915806e-39
-0.00900540435302 -0.111066653687 0.811 1.95151984777e-38
-0.00748599683682 -0.110792753185 0.809 1.72246233962e-38
-0.00598879746946 -0.110792753185 0.809 1.15131774842e-38
-0.00450270217651 -0.111066653687 0.811 1.51087552008e-38
-0.00299439873473 -0.110792753185 0.809 1.32624015416e-38
-0.00149719936736 -0.110792753185 0.809 1.65846658019e-38
0.0 -0.110518852683 0.807 1.43716399787e-38
0.00149349800922 -0.110518852683 0.807 1.55676356063e-38
0.00298699601845 -0.110518852683 0.807 1.77727819282e-38
0.00446938995326 -0.11024495218 0.805 1.67633495729e-38
0.00595918660434 -0.11024495218 0.805 1.64910436502e-38
0.00746749004612 -0.110518852683 0.807 1.76874358452e-38
0.00893877990651 -0.11024495218 0.805 1.90696542297e-38
0.0104285765576 -0.11024495218 0.805 1.87019633217e-38
0.0119183732087 -0.11024495218 0.805 1.69523567098e-38
0.0134081698598 -0.11024495218 0.805 1.67647564766e-38
0.0149349800922 -0.110518852683 0.807 1.84188702034e-38
0.016469193041 -0.110792753185 0.809 1.72275170776e-38
0.0179663924084 -0.110792753185 0.809 1.95356672444e-38
0.0194635917757 -0.110792753185 0.809 2.04547326643e-38
0.0209607911431 -0.110792753185 0.809 2.07298720125e-38
0.0225135108825 -0.111066653687 0.811 2.04543823397e-38
0.0240144116081 -0.111066653687 0.811 1.92579859407e-38
0.0255153123336 -0.111066653687 0.811 1.86086564622e-38
0.0270162130591 -0.111066653687 0.811 2.11900892568e-38
0.0285874395892 -0.11134055419 0.813 2.23908380888e-38
0.0301660688356 -0.111614454692 0.815 2.0640570064e-38
0.0316743722774 -0.111614454692 0.815 1.66718447832e-38
0.0333455354773 -0.112162255696 0.819 1.37204383654e-38
0.0348612416354 -0.112162255696 0.819 1.72356614242e-38
0.0364657803888 -0.112436156199 0.821 1.72254067221e-38
0.0380777218585 -0.112710056701 0.823 2.1365848518e-38
0.0396008307328 -0.112710056701 0.823 2.31233710649e-38
0.0413238129467 -0.113257857706 0.827 2.34946759216e-38
0.0428543245373 -0.113257857706 0.827 7.0781491199e-39
0.044492175514 -0.113531758208 0.829 2.06885337079e-38
0.0461374292069 -0.11380565871 0.831 2.06168418771e-38
-0.0261445432172 -0.112267744403 0.831 2.34903921522e-38
-0.0246066289103 -0.112267744403 0.831 2.3489315955e-38
-0.0230131942314 -0.111997545259 0.829 2.28453968899e-38
-0.0214789812826 -0.111997545259 0.829 1.12229867891e-38
-0.0199447683338 -0.111997545259 0.829 6.79726164532e-39
-0.0183661390874 -0.111727346115 0.827 3.03057137321e-39
-0.0167949125573 -0.111457146971 0.825 7.07635545786e-39
-0.0152681023248 -0.111457146971 0.825 9.27610257677e-39
-0.0137079798691 -0.111186947827 0.823 1.00100690812e-38
-0.0120960383994 -0.110376350394 0.817 1.01019045774e-38
-0.0105840335994 -0.110376350394 0.817 8.90804312733e-39
-0.00904982065069 -0.11010615125 0.815 1.92393374607e-38
-0.00752301041821 -0.109835952106 0.813 8.91665270509e-39
-0.00601840833457 -0.109835952106 0.813 1.75870538297e-38
-0.00450270217651 -0.109565752962 0.811 1.46475220152e-38
-0.00300180145101 -0.109565752962 0.811 1.24301591733e-38
-0.0015009007255 -0.109565752962 0.811 1.40889756577e-38
0.0 -0.109295553818 0.809 1.30773040275e-38
0.00149719936736 -0.109295553818 0.809 1.52921123023e-38
0.00299439873473 -0.109295553818 0.809 1.44576656914e-38
0.00448049402767 -0.109025354673 0.807 1.57455921035e-38
0.0059739920369 -0.109025354673 0.807 1.43644681332e-38
0.00748599683682 -0.109295553818 0.809 1.55637427992e-38
0.00896098805535 -0.109025354673 0.807 1.51952447433e-38
0.0104544860646 -0.109025354673 0.807 1.34446446108e-38
0.0119775949389 -0.109295553818 0.809 1.6117614425e-38
0.0134747943063 -0.109295553818 0.809 1.86101208191e-38
0.0149719936736 -0.109295553818 0.809 2.05432947272e-38
0.0165099079805 -0.109565752962 0.811 1.26130818722e-38
0.018010808706 -0.109565752962 0.811 1.90739856432e-38
0.0195117094315 -0.109565752962 0.811 1.92533042025e-38
0.021012610157 -0.109565752962 0.811 1.74998047835e-38
0.0225690312546 -0.109835952106 0.813 1.96242307086e-38
0.0240736333383 -0.109835952106 0.813 1.93505346978e-38
0.0255782354219 -0.109835952106 0.813 2.24826861966e-38
0.0271494619521 -0.11010615125 0.815 2.04568682431e-38
0.0287280911985 -0.110376350394 0.817 1.34496794762e-38
0.0302400959984 -0.110376350394 0.817 1.38133500588e-38
0.0318298293193 -0.110646549538 0.819 1.54714112434e-38
0.0334269653564 -0.110916748683 0.821 1.83296257081e-38
0.0349463728726 -0.110916748683 0.821 1.63084544603e-38
0.0366434455795 -0.111457146971 0.825 2.13719637845e-38
0.0382627897654 -0.111727346115 0.827 2.23857906117e-38
0.0398895366677 -0.111997545259 0.829 2.10943427366e-38
0.0415236862862 -0.112267744403 0.831 1.91496585629e-38
0.0430616005931 -0.112267744403 0.831 9.93258288134e-39
0.044706854286 -0.112537943548 0.833 2.03179491186e-38
0.0463595106953 -0.112808142692 0.835 2.07075955709e-38
0.0479048277184 -0.112808142692 0.835 2.34940046997e-38
-0.0278823308637 -0.111529323455 0.837 2.34900516367e-38
-0.0261445432172 -0.110729830097 0.831 2.34900348211e-38
-0.0246066289103 -0.110729830097 0.831 2.34921886168e-38
-0.0230687146034 -0.110729830097 0.831 2.29365163225e-38
-0.0214789812826 -0.110463332311 0.829 1.32509529332e-38
-0.0199447683338 -0.110463332311 0.829 1.00190710226e-38
-0.0183661390874 -0.110196834524 0.827 5.60196526564e-39
-0.0168356274968 -0.110196834524 0.827 7.99256503149e-39
-0.0152681023248 -0.109930336738 0.825 8.99987862348e-39
-0.0137412920923 -0.109930336738 0.825 9.36722060812e-39
-0.0121552601296 -0.109397341166 0.821 1.01019045774e-38
-0.0105840335994 -0.108864345594 0.817 9.09171411964e-39
-0.00907202879953 -0.108864345594 0.817 2.00633401941e-38
-0.00752301041821 -0.108331350022 0.813 1.30729305749e-38
-0.00601840833457 -0.108331350022 0.813 1.26210734773e-38
-0.00451380625093 -0.108331350022 0.813 1.20663232374e-38
-0.00300920416729 -0.108331350022 0.813 1.29782532455e-38
-0.0015009007255 -0.108064852236 0.811 1.1781220657e-38
0.0 -0.108064852236 0.811 1.61244695771e-38
0.0015009007255 -0.108064852236 0.811 1.23494303687e-38
0.00300180145101 -0.108064852236 0.811 1.30859416312e-38
0.00450270217651 -0.108064852236 0.811 1.66750789801e-38
0.00598879746946 -0.10779835445 0.809 1.66715098729e-38
0.00748599683682 -0.10779835445 0.809 1.68580240998e-38
0.00898319620418 -0.10779835445 0.809 1.75030403816e-38
0.0104803955715 -0.10779835445 0.809 1.75952402154e-38
0.0119775949389 -0.10779835445 0.809 1.72275352944e-38
0.0134747943063 -0.10779835445 0.809 1.74126468216e-38
0.015009007255 -0.108064852236 0.811 1.80572581282e-38
0.0165099079805 -0.108064852236 0.811 2.19244775521e-38
0.018010808706 -0.108064852236 0.811 1.57524416504e-38
0.0195598270874 -0.108331350022 0.813 2.19302326849e-38
0.021064429171 -0.108331350022 0.813 2.2019912984e-38
0.0225690312546 -0.108331350022 0.813 2.0546209428e-38
0.0240736333383 -0.108331350022 0.813 1.75977835721e-38
0.0256411585103 -0.108597847808 0.815 7.82004276976e-39
0.0272160863986 -0.108864345594 0.817 9.29188680267e-39
0.0287280911985 -0.108864345594 0.817 1.72227876952e-38
0.0303141231612 -0.10913084338 0.819 1.88866852879e-38
0.0318298293193 -0.10913084338 0.819 1.75040997633e-38
0.0334269653564 -0.109397341166 0.821 1.72271667529e-38
0.0350315041098 -0.109663838952 0.823 2.2483288755e-38
0.0366434455795 -0.109930336738 0.825 2.20177619909e-38
0.0382627897654 -0.110196834524 0.827 1.84253385971e-38
0.0398895366677 -0.110463332311 0.829 1.97110705757e-38
0.0415236862862 -0.110729830097 0.831 2.34956974682e-38
0.0430616005931 -0.110729830097 0.831 7.81426801879e-39
0.044706854286 -0.110996327883 0.833 1.95814602769e-38
0.0463595106953 -0.111262825669 0.835 2.08887792584e-38
0.0479048277184 -0.111262825669 0.835 2.34911362417e-38
-0.0278823308637 -0.109980305073 0.837 2.33949581216e-38
-0.0263333124823 -0.109980305073 0.837 2.34885984902e-38
-0.0247250723708 -0.109717508645 0.835 2.34864446944e-38
-0.0231797553476 -0.109717508645 0.835 2.34911208274e-38
-0.0215826193105 -0.109454712218 0.833 1.26073855939e-38
-0.0200410036455 -0.109454712218 0.833 1.0018678659e-38
-0.0184105553851 -0.108929119362 0.829 9.18964806672e-39
-0.0168763424363 -0.108929119362 0.829 7.34719842505e-39
-0.0153051159062 -0.108666322934 0.827 9.27789623881e-39
-0.0137412920923 -0.108403526506 0.825 1.0469246562e-38
-0.0121848709947 -0.108140730078 0.823 1.05610820582e-38
-0.0106099431064 -0.107615137222 0.819 9.45905610427e-39
-0.00907202879953 -0.107352340794 0.817 2.16306967303e-38
-0.00754151720891 -0.107089544367 0.815 1.18802097818e-38
-0.00601840833457 -0.106826747939 0.813 4.22730268252e-39
-0.00451380625093 -0.106826747939 0.813 8.82589340615e-39
-0.00300920416729 -0.106826747939 0.813 1.15965155064e-38
-0.00150460208364 -0.106826747939 0.813 1.25350085283e-38
0.0 -0.106826747939 0.813 1.12477841667e-38
0.0015009007255 -0.106563951511 0.811 1.17976634932e-38
0.00300180145101 -0.106563951511 0.811 1.28085700145e-38
0.00450270217651 -0.106563951511 0.811 1.54760747647e-38
0.00600360290201 -0.106563951511 0.811 1.25154562108e-38
0.00750450362752 -0.106563951511 0.811 1.70351566335e-38
0.00900540435302 -0.106563951511 0.811 1.29775035508e-38
0.0104803955715 -0.106301155083 0.809 1.47245836216e-38
0.0119775949389 -0.106301155083 0.809 1.49164522099e-38
0.0135081065295 -0.106563951511 0.811 1.18690204136e-38
0.015009007255 -0.106563951511 0.811 2.13770617083e-38
0.0165099079805 -0.106563951511 0.811 1.99011651202e-38
0.018010808706 -0.106563951511 0.811 1.01324935216e-38
0.0195598270874 -0.106826747939 0.813 1.37342201358e-38
0.021064429171 -0.106826747939 0.813 5.87862502275e-39
0.0225690312546 -0.106826747939 0.813 7.07133320417e-39
0.0241920767987 -0.107352340794 0.817 1.5364930777e-38
0.0257040815987 -0.107352340794 0.817 1.879599185e-38
0.0272827108451 -0.107615137222 0.819 1.82435061083e-38
0.0287984170032 -0.107615137222 0.819 1.77785258506e-38
0.0303141231612 -0.107615137222 0.819 1.94384199335e-38
0.0319075578402 -0.10787793365 0.821 1.73186561284e-38
0.0335083952355 -0.108140730078 0.823 1.77753154758e-38
0.035116635347 -0.108403526506 0.825 2.18350929269e-38
0.0367322781748 -0.108666322934 0.827 1.94412281357e-38
0.0383553237189 -0.108929119362 0.829 1.60286235647e-38
0.0398895366677 -0.108929119362 0.829 2.29418678813e-38
0.0415236862862 -0.10919191579 0.831 1.82352202305e-38
0.0430616005931 -0.10919191579 0.831 1.10389136241e-38
0.044706854286 -0.109454712218 0.833 1.88500091032e-38
0.0464705514394 -0.109980305073 0.837 2.01497526652e-38
0.0480195698208 -0.109980305073 0.837 2.34954368267e-38
-0.0263333124823 -0.108431286692 0.837 2.34903851457e-38
-0.024784294101 -0.108431286692 0.837 2.26603021783e-38
-0.0232352757197 -0.108431286692 0.837 2.34940018971e-38
-0.0216344383245 -0.108172191622 0.835 1.27924803055e-38
-0.0200410036455 -0.107913096553 0.833 1.29707577e-38
-0.0184549716828 -0.107654001483 0.831 8.44886564654e-39
-0.0168763424363 -0.107394906413 0.829 7.80601717343e-39
-0.0153051159062 -0.107135811343 0.827 9.45905610427e-39
-0.0137412920923 -0.106876716274 0.825 1.07447530505e-38
-0.0121848709947 -0.106617621204 0.823 1.12039305313e-38
-0.0106358526134 -0.106358526134 0.821 9.64272709659e-39
-0.0091164450972 -0.106358526134 0.821 2.12611603123e-38
-0.00756002399961 -0.105840335994 0.817 1.47389539374e-38
-0.00603321376713 -0.105581240925 0.815 1.47393238802e-38
-0.00452491032535 -0.105581240925 0.815 1.60279397311e-38
-0.00300920416729 -0.105322145855 0.813 1.3083790638e-38
-0.00150460208364 -0.105322145855 0.813 9.21153074353e-39
0.0 -0.105322145855 0.813 5.23928680229e-39
0.00150460208364 -0.105322145855 0.813 7.80601717343e-39
0.00300920416729 -0.105322145855 0.813 9.8325119541e-39
0.00451380625093 -0.105322145855 0.813 9.00419322145e-39
0.00601840833457 -0.105322145855 0.813 1.34249549661e-38
0.00750450362752 -0.105063050785 0.811 1.15020974172e-38
0.00900540435302 -0.105063050785 0.811 1.17811772168e-38
0.0105063050785 -0.105063050785 0.811 1.1041838134e-38
0.012007205804 -0.105063050785 0.811 8.91415138733e-39
0.0135081065295 -0.105063050785 0.811 1.03774110659e-38
0.015009007255 -0.105063050785 0.811 7.89785266959e-39
0.0165506229201 -0.105322145855 0.813 7.53051068496e-39
0.0180552250037 -0.105322145855 0.813 1.00308755608e-38
0.0195598270874 -0.105322145855 0.813 1.74169207819e-38
0.0211162481849 -0.105581240925 0.815 1.73276342476e-38
0.0226800719988 -0.105840335994 0.817 1.73208393514e-38
0.0241920767987 -0.105840335994 0.817 1.62976896855e-38
0.025767004687 -0.106099431064 0.819 1.79611318561e-38
0.0272827108451 -0.106099431064 0.819 1.81509125097e-38
0.0287984170032 -0.106099431064 0.819 1.89824780509e-38
0.030388150324 -0.106358526134 0.821 1.69502491569e-38
0.0319852863611 -0.106617621204 0.823 1.63041482701e-38
0.0335898251145 -0.106876716274 0.825 1.91643679929e-38
0.0352017665842 -0.107135811343 0.827 1.37173414958e-38
0.0368211107702 -0.107394906413 0.829 2.34956372124e-38
0.0383553237189 -0.107394906413 0.829 2.13770589057e-38
0.0398895366677 -0.107394906413 0.829 1.68594604307e-38
0.0415236862862 -0.107654001483 0.831 1.98875809329e-38
0.0430616005931 -0.107654001483 0.831 9.4708942737e-39
0.0448141936721 -0.108172191622 0.835 1.96790410967e-38
0.0464705514394 -0.108431286692 0.837 1.9965354399e-38
0.0480195698208 -0.108431286692 0.837 2.34950738904e-38
-0.0264591586591 -0.107393055734 0.841 2.32109368047e-38
-0.0248435158313 -0.107137662022 0.839 2.34900348211e-38
-0.0232907960918 -0.107137662022 0.839 2.34925585596e-38
-0.0217380763524 -0.107137662022 0.839 1.42668845107e-38
-0.0200891213013 -0.106626874599 0.835 1.47249787878e-38
-0.0184549716828 -0.106116087176 0.831 8.63541770849e-39
-0.0169170573759 -0.106116087176 0.831 9.64272709659e-39
-0.0153421294876 -0.105860693464 0.829 1.01937400735e-38
-0.0137746043156 -0.105605299753 0.827 1.03774110659e-38
-0.0122144818598 -0.105349906041 0.825 1.11120950351e-38
-0.0106358526134 -0.104839118618 0.821 9.1835496158e-39
-0.0091164450972 -0.104839118618 0.821 1.98782258644e-38
-0.0075785307903 -0.104583724906 0.819 1.41872319034e-38
-0.00604801919968 -0.104328331195 0.817 1.38166669323e-38
-0.00452491032535 -0.104072937483 0.815 1.57534407762e-38
-0.00301660688356 -0.104072937483 0.815 1.23401145365e-38
-0.00150830344178 -0.104072937483 0.815 1.7225368887e-38
0.0 -0.104072937483 0.815 1.42719067644e-38
0.00150830344178 -0.104072937483 0.815 1.6298781297e-38
0.00301660688356 -0.104072937483 0.815 1.66679365618e-38
0.00451380625093 -0.103817543771 0.813 1.69520400164e-38
0.00601840833457 -0.103817543771 0.813 1.76002596665e-38
0.00752301041821 -0.103817543771 0.813 1.62184196326e-38
0.00902761250186 -0.103817543771 0.813 1.64035339624e-38
0.0105322145855 -0.103817543771 0.813 1.79712338167e-38
0.0120368166691 -0.103817543771 0.813 1.40082706752e-38
0.0135414187528 -0.103817543771 0.813 1.99952160693e-38
0.0150460208364 -0.103817543771 0.813 1.76852736417e-38
0.0165506229201 -0.103817543771 0.813 1.83320471518e-38
0.0180996413014 -0.104072937483 0.815 2.09157332344e-38
0.0196079447432 -0.104072937483 0.815 2.03607167477e-38
0.0211162481849 -0.104072937483 0.815 1.78765046392e-38
0.0226800719988 -0.104328331195 0.817 1.76903057045e-38
0.024251298529 -0.104583724906 0.819 1.93472752775e-38
0.025767004687 -0.104583724906 0.819 1.63063413022e-38
0.0272827108451 -0.104583724906 0.819 1.75940869467e-38
0.0288687428078 -0.104839118618 0.821 1.76895868384e-38
0.0304621774868 -0.105094512329 0.823 1.76931615508e-38
0.0320630148821 -0.105349906041 0.825 1.59418159275e-38
0.0335898251145 -0.105349906041 0.825 1.87069281222e-38
0.0352017665842 -0.105605299753 0.827 2.31251409049e-38
0.0368211107702 -0.105860693464 0.829 2.0085969763e-38
0.0383553237189 -0.105860693464 0.829 1.40993270494e-38
0.0399857719793 -0.106116087176 0.831 1.54744128247e-38
0.041623622956 -0.106371480887 0.833 2.34985995573e-38
0.0433725146768 -0.106882268311 0.837 8.3688683198e-39
0.0449215330581 -0.106882268311 0.837 1.94028073344e-38
0.0465815921836 -0.107137662022 0.839 1.9687347994e-38
0.0481343119231 -0.107137662022 0.839 2.34990381637e-38
-0.0265850048358 -0.106340019343 0.845 2.34893145537e-38
-0.0249027375615 -0.105836634636 0.841 2.26584846942e-38
-0.0233463164639 -0.105836634636 0.841 2.34940018971e-38
-0.0217898953663 -0.105836634636 0.841 1.5097013721e-38
-0.0201853566129 -0.105584942283 0.839 1.11304506437e-38
-0.0185438042781 -0.105081557576 0.835 9.82639808891e-39
-0.0169577723154 -0.104829865222 0.833 9.91823358506e-39
-0.0153421294876 -0.104326480515 0.829 1.05610820582e-38
-0.0137746043156 -0.104074788162 0.827 1.07447530505e-38
-0.0122144818598 -0.103823095809 0.825 1.05610820582e-38
-0.0106876716274 -0.103823095809 0.825 9.09171411964e-39
-0.00913865324604 -0.103571403455 0.823 2.02462965242e-38
-0.0075785307903 -0.103068018748 0.819 1.48304531219e-38
-0.00606282463224 -0.103068018748 0.819 1.1969862055e-38
-0.00453601439976 -0.102816326395 0.817 1.49215347195e-38
-0.00301660688356 -0.102564634041 0.815 1.54761882698e-38
-0.00150830344178 -0.102564634041 0.815 1.56627052993e-38
0.0 -0.102816326395 0.817 1.44627173724e-38
0.00150830344178 -0.102564634041 0.815 1.65789400963e-38
