# .PCD v0.7 - Point Cloud Data file format
VERSION 0.7
FIELDS x y z rgb
SIZE 4 4 4 4
TYPE F F F F
COUNT 1 1 1 1
WIDTH 840
HEIGHT 1
VIEWPOINT 0 0 0 1 0 0 0
POINTS 840
DATA ascii
-0.00153421294876 -0.0935869898742 0.829 1.74140817512e-38
0.0 -0.0935869898742 0.829 1.49254751708e-38
0.00153421294876 -0.0935869898742 0.829 1.69505574426e-38
0.00306102318124 -0.0933612070277 0.827 1.29800286907e-38
0.00459153477185 -0.0933612070277 0.827 1.38055139978e-38
0.00612204636247 -0.0933612070277 0.827 1.18740791011e-38
0.00765255795309 -0.0933612070277 0.827 1.56511389818e-38
0.00916086139487 -0.0931354241812 0.825 2.11887243921e-38
0.0106876716274 -0.0931354241812 0.825 2.02710644746e-38
0.0122144818598 -0.0931354241812 0.825 2.07309860448e-38
0.0137412920923 -0.0931354241812 0.825 2.14678069942e-38
0.0152681023248 -0.0931354241812 0.825 1.91654399862e-38
0.0167949125573 -0.0931354241812 0.825 2.02724867925e-38
0.0183217227897 -0.0931354241812 0.825 1.90742939289e-38
0.019896650678 -0.0933612070277 0.827 1.57549009292e-38
0.0214271622687 -0.0933612070277 0.827 1.57502584274e-38
0.0230131942314 -0.0935869898742 0.829 2.10979945204e-38
0.0245474071801 -0.0935869898742 0.829 1.94390953594e-38
0.0260816201289 -0.0935869898742 0.829 1.89763445675e-38
0.0276824575241 -0.0938127727207 0.831 1.53742844442e-38
0.029220371831 -0.0938127727207 0.831 2.00787068331e-38
0.0308323133007 -0.0940385555672 0.833 2.23858004208e-38
0.0324516574867 -0.0942643384137 0.835 2.08202697765e-38
0.0340784043889 -0.0944901212602 0.837 2.2019912984e-38
0.0357125540074 -0.0947159041067 0.839 1.23321986015e-38
0.0373541063422 -0.0949416869532 0.841 1.98997456049e-38
0.0390030613933 -0.0951674697997 0.843 1.67626054835e-38
0.0406594191607 -0.0953932526462 0.845 6.70793727601e-39
0.0422232429745 -0.0953932526462 0.845 1.84754980756e-38
0.0438907048163 -0.0956190354927 0.847 1.72859400131e-38
0.0454582299883 -0.0956190354927 0.847 1.83050945771e-38
0.0470257551603 -0.0956190354927 0.847 2.0153014888e-38
0.0485932803324 -0.0956190354927 0.847 2.349795496e-38
-0.0234573572081 -0.0938294288323 0.845 2.34929256998e-38
-0.0218935333942 -0.0938294288323 0.845 1.74044029827e-38
-0.0203297095803 -0.0938294288323 0.845 1.37994281586e-38
-0.0187214694688 -0.093607347344 0.843 1.28753110577e-38
-0.0171613470131 -0.093607347344 0.843 1.13072889047e-38
-0.0156012245573 -0.093607347344 0.843 1.11182145055e-38
-0.0140077898783 -0.0933852658556 0.841 8.90804312733e-39
-0.0124217579156 -0.0931631843672 0.839 1.48300971921e-38
-0.0108431286692 -0.0929411028789 0.837 1.22515314541e-38
-0.00927190213905 -0.0927190213905 0.835 1.37273271487e-38
-0.00770807832518 -0.0924969399022 0.833 1.31688116198e-38
-0.00616646266014 -0.0924969399022 0.833 1.26192027439e-38
-0.00461374292069 -0.0922748584138 0.831 1.34438865083e-38
-0.00307582861379 -0.0922748584138 0.831 1.47361261171e-38
-0.0015379143069 -0.0922748584138 0.831 1.40946985606e-38
0.0 -0.0922748584138 0.831 1.70406595325e-38
0.0015379143069 -0.0922748584138 0.831 1.82387977455e-38
0.00306842589751 -0.0920527769254 0.829 1.89788809178e-38
0.00460263884627 -0.0920527769254 0.829 1.8888836281e-38
0.00613685179503 -0.0920527769254 0.829 1.84268015527e-38
0.00767106474379 -0.0920527769254 0.829 1.95313484425e-38
0.00918306954371 -0.0918306954371 0.827 1.4367326782e-38
0.0107135811343 -0.0918306954371 0.827 1.11375804503e-38
0.0122440927249 -0.0918306954371 0.827 1.18719715482e-38
0.0137746043156 -0.0918306954371 0.827 1.21464074446e-38
0.0153051159062 -0.0918306954371 0.827 1.57505302793e-38
0.0168356274968 -0.0918306954371 0.827 1.42786862464e-38
0.0183661390874 -0.0918306954371 0.827 1.56594823129e-38
0.019896650678 -0.0918306954371 0.827 1.52031971121e-38
0.0214789812826 -0.0920527769254 0.829 1.88888909317e-38
0.0230131942314 -0.0920527769254 0.829 1.19684551513e-38
0.0245474071801 -0.0920527769254 0.829 2.21110113972e-38
0.0261445432172 -0.0922748584138 0.831 2.11897809711e-38
0.0277490819706 -0.0924969399022 0.833 1.55604959906e-38
0.0292906976357 -0.0924969399022 0.833 1.97128165936e-38
0.0309063404635 -0.0927190213905 0.835 2.02703610227e-38
0.0324516574867 -0.0927190213905 0.835 2.10993958189e-38
0.0340784043889 -0.0929411028789 0.837 2.02682002205e-38
0.0357125540074 -0.0931631843672 0.839 1.61147179411e-38
0.0373541063422 -0.0933852658556 0.841 1.94376856531e-38
0.0390030613933 -0.093607347344 0.843 2.35036526396e-38
0.0406594191607 -0.0938294288323 0.845 5.69702935346e-39
0.0422232429745 -0.0938294288323 0.845 1.71858410599e-38
0.0438907048163 -0.0940515103207 0.847 1.64540269499e-38
0.0455655693744 -0.094273591809 0.849 1.75646568764e-38
0.0471367959045 -0.094273591809 0.849 2.0333806212e-38
0.0487080224347 -0.094273591809 0.849 2.34957941578e-38
-0.0237071988825 -0.0932483156044 0.854 2.34918396935e-38
-0.022126718957 -0.0932483156044 0.854 1.75894976943e-38
-0.0203778272361 -0.0924839851487 0.847 1.2968212942e-38
-0.0187658857665 -0.0922656050184 0.845 1.25987311746e-38
-0.0172020619526 -0.0922656050184 0.845 1.19519352437e-38
-0.0156012245573 -0.0920472248882 0.843 1.08402024954e-38
-0.0140077898783 -0.091828844758 0.841 1.08391038774e-38
-0.0124513687807 -0.091828844758 0.841 1.47357519704e-38
-0.0108690381762 -0.0916104646278 0.839 1.28054240994e-38
-0.00929411028789 -0.0913920844976 0.837 1.19737912959e-38
-0.00772658511588 -0.0911737043673 0.835 1.50113047017e-38
-0.0061812680927 -0.0911737043673 0.835 1.16975715465e-38
-0.00462484699511 -0.0909553242371 0.833 1.53792464421e-38
-0.00308323133007 -0.0909553242371 0.833 1.52035866731e-38
-0.0015379143069 -0.0907369441069 0.831 1.05942003461e-38
0.0 -0.0907369441069 0.831 1.87025672814e-38
0.0015379143069 -0.0907369441069 0.831 1.8426455432e-38
0.00307582861379 -0.0907369441069 0.831 1.69520063852e-38
0.00461374292069 -0.0907369441069 0.831 1.73190092556e-38
0.00615165722759 -0.0907369441069 0.831 1.84249854699e-38
0.00767106474379 -0.0905185639767 0.829 1.89770816505e-38
0.00920527769254 -0.0905185639767 0.829 1.43719636786e-38
0.0107394906413 -0.0905185639767 0.829 1.55702013838e-38
0.0122737035901 -0.0905185639767 0.829 1.71382305433e-38
0.0138079165388 -0.0905185639767 0.829 1.49222984271e-38
0.0153421294876 -0.0905185639767 0.829 1.62083653161e-38
0.0168763424363 -0.0905185639767 0.829 1.34413949997e-38
0.0184105553851 -0.0905185639767 0.829 1.48189470602e-38
0.0199447683338 -0.0905185639767 0.829 1.7224645817e-38
0.0214789812826 -0.0905185639767 0.829 1.97182634408e-38
0.0230687146034 -0.0907369441069 0.831 1.44599329923e-38
0.0246066289103 -0.0907369441069 0.831 2.11908529645e-38
0.0261445432172 -0.0907369441069 0.831 2.06369757335e-38
0.0277490819706 -0.0909553242371 0.833 1.53768278009e-38
0.0293610234403 -0.0911737043673 0.835 1.74068888862e-38
0.0309063404635 -0.0911737043673 0.835 1.17876189858e-38
0.0325293860076 -0.0913920844976 0.837 2.11906399671e-38
0.034159834268 -0.0916104646278 0.839 2.11904970347e-38
0.0357976852446 -0.091828844758 0.841 2.18369258253e-38
0.0374429389376 -0.0920472248882 0.843 2.14699579874e-38
0.0390030613933 -0.0920472248882 0.843 2.34993660676e-38
0.0406594191607 -0.0922656050184 0.845 6.24983599244e-39
0.0422232429745 -0.0922656050184 0.845 1.77390148391e-38
0.0438907048163 -0.0924839851487 0.847 1.72880924076e-38
0.0455655693744 -0.0927023652789 0.849 1.66445166606e-38
0.0471367959045 -0.0927023652789 0.849 2.11668080841e-38
0.0487080224347 -0.0927023652789 0.849 2.34961542915e-38
-0.0237071988825 -0.0916678356789 0.854 2.34900334198e-38
-0.022126718957 -0.0916678356789 0.854 2.02635437057e-38
-0.0204740625478 -0.0913458175208 0.851 1.20484468729e-38
-0.0188547183618 -0.0911311387487 0.849 1.2508292773e-38
-0.0172427768921 -0.0909164599767 0.847 1.16732001636e-38
-0.0156382381387 -0.0907017812046 0.845 1.19450927033e-38
-0.0140411021016 -0.0904871024325 0.843 1.05610820582e-38
-0.0124809796459 -0.0904871024325 0.843 1.57459452307e-38
-0.0108690381762 -0.0900577448883 0.839 1.26152917199e-38
-0.00929411028789 -0.0898430661163 0.837 1.36336671619e-38
-0.00774509190657 -0.0898430661163 0.837 1.30795096712e-38
-0.0061812680927 -0.0896283873442 0.835 1.1236949327e-38
-0.00463595106953 -0.0896283873442 0.835 1.5751665331e-38
-0.00309063404635 -0.0896283873442 0.835 1.15204264011e-38
-0.00154161566504 -0.0894137085721 0.833 1.20696569264e-38
0.0 -0.0894137085721 0.833 1.27066816031e-38
0.00154161566504 -0.0894137085721 0.833 1.18729804831e-38
0.00308323133007 -0.0894137085721 0.833 1.86994423858e-38
0.00461374292069 -0.0891990298 0.831 1.85150371131e-38
0.00615165722759 -0.0891990298 0.831 1.92518706742e-38
0.00768957153448 -0.0891990298 0.831 1.98976198351e-38
0.00922748584138 -0.0891990298 0.831 1.59396649343e-38
0.0107394906413 -0.0889843510279 0.829 1.58532874957e-38
0.0122737035901 -0.0889843510279 0.829 1.59472655772e-38
0.0138079165388 -0.0889843510279 0.829 1.40990369806e-38
0.0153421294876 -0.0889843510279 0.829 1.65804072558e-38
0.0168763424363 -0.0889843510279 0.829 1.33506314968e-38
0.0184105553851 -0.0889843510279 0.829 1.58320073772e-38
0.0199928859897 -0.0891990298 0.831 1.72192185881e-38
0.0215308002966 -0.0891990298 0.831 1.94366795209e-38
0.0230687146034 -0.0891990298 0.831 1.45565020747e-38
0.0246066289103 -0.0891990298 0.831 2.08271095143e-38
0.0262074663056 -0.0894137085721 0.833 2.05443947465e-38
0.0278157064172 -0.0896283873442 0.835 1.62112547936e-38
0.0293610234403 -0.0896283873442 0.835 1.47306722634e-38
0.0309803676263 -0.0898430661163 0.837 1.77770586911e-38
0.0326848430495 -0.0902724236604 0.841 2.14649385363e-38
0.0342412641471 -0.0902724236604 0.841 2.11897781685e-38
0.0358828164819 -0.0904871024325 0.843 1.57474446201e-38
0.0374429389376 -0.0904871024325 0.843 1.53778381371e-38
0.0390955953468 -0.0907017812046 0.845 2.35015240672e-38
0.0407556544723 -0.0909164599767 0.847 6.15835922869e-39
0.0423231796443 -0.0909164599767 0.847 1.81077931547e-38
0.0439943428442 -0.0911311387487 0.849 1.56300144075e-38
0.0456729087604 -0.0913458175208 0.851 1.70136551098e-38
0.0472478366487 -0.0913458175208 0.851 2.09820468816e-38
0.048822764537 -0.0913458175208 0.851 2.3495438228e-38
-0.0288816975613 -0.0914587089441 0.867 2.29346988384e-38
-0.0272771588079 -0.0914587089441 0.867 2.3119094302e-38
-0.0256726200545 -0.0914587089441 0.867 2.31191069137e-38
-0.0239848007429 -0.0911422428232 0.864 2.34896746874e-38
-0.0222303569849 -0.0905093105813 0.858 2.09096417899e-38
-0.0205462390315 -0.0900873557534 0.854 1.26019990026e-38
-0.0188991346595 -0.0897708896325 0.851 1.18643891222e-38
-0.0172834918317 -0.0895599122186 0.849 1.19508604478e-38
-0.0156752517201 -0.0893489348046 0.847 1.15784709861e-38
-0.0140744143248 -0.0891379573907 0.845 9.91823358506e-39
-0.0124809796459 -0.0889269799768 0.843 1.63887965064e-38
-0.0108949476832 -0.0887160025628 0.841 1.34400203259e-38
-0.00931631843672 -0.0885050251489 0.839 1.36322784752e-38
-0.00774509190657 -0.0882940477349 0.837 1.30802341425e-38
-0.00619607352526 -0.0882940477349 0.837 1.22500292622e-38
-0.00464705514394 -0.0882940477349 0.837 1.45524523221e-38
-0.00309063404635 -0.088083070321 0.835 1.4192633909e-38
-0.00154531702318 -0.088083070321 0.835 1.12341102963e-38
0.0 -0.088083070321 0.835 1.39023409191e-38
0.00154161566504 -0.0878720929071 0.833 1.81436327642e-38
0.00308323133007 -0.0878720929071 0.833 1.89760544987e-38
0.00462484699511 -0.0878720929071 0.833 1.83309933754e-38
0.00616646266014 -0.0878720929071 0.833 1.87930505245e-38
0.00770807832518 -0.0878720929071 0.833 1.97139278233e-38
0.00924969399022 -0.0878720929071 0.833 1.54797826004e-38
0.0107654001483 -0.0876611154931 0.831 1.3460134564e-38
0.0123033144552 -0.0876611154931 0.831 1.48456417959e-38
0.0138412287621 -0.0876611154931 0.831 1.50256371824e-38
0.015379143069 -0.0876611154931 0.831 1.65879854779e-38
0.0169170573759 -0.0876611154931 0.831 1.22472154548e-38
0.0184549716828 -0.0876611154931 0.831 1.61989696099e-38
0.0199928859897 -0.0876611154931 0.831 1.71248243209e-38
0.0215308002966 -0.0876611154931 0.831 1.96195643847e-38
0.0231242349755 -0.0878720929071 0.833 1.37317580544e-38
0.0246658506406 -0.0878720929071 0.833 2.00013495526e-38
0.026270389394 -0.088083070321 0.835 1.99915909101e-38
0.0278157064172 -0.088083070321 0.835 1.91628672022e-38
0.029431349245 -0.0882940477349 0.837 2.19287655254e-38
0.0310543947891 -0.0885050251489 0.839 2.15578404206e-38
0.0327625715704 -0.0889269799768 0.843 2.17418981713e-38
0.0343226940261 -0.0889269799768 0.843 2.18351657945e-38
0.0358828164819 -0.0889269799768 0.843 1.63952747092e-38
0.0375317715329 -0.0891379573907 0.845 2.18365698955e-38
0.0391881293003 -0.0893489348046 0.847 1.53743236806e-38
0.0408518897839 -0.0895599122186 0.849 1.01090792255e-38
0.0425230529838 -0.0897708896325 0.851 1.69204000983e-38
0.0440979808721 -0.0897708896325 0.851 1.54456203451e-38
0.0458339178395 -0.0900873557534 0.854 1.74742773293e-38
0.047414397765 -0.0900873557534 0.854 1.97813414898e-38
-0.0288816975613 -0.0898541701907 0.867 2.26599308342e-38
-0.0272771588079 -0.0898541701907 0.867 2.32112871293e-38
-0.0256726200545 -0.0898541701907 0.867 2.34885956876e-38
-0.0239848007429 -0.089543256107 0.864 2.34893089485e-38
-0.0222303569849 -0.0889214279396 0.858 2.13695451433e-38
-0.0205943566873 -0.0887141518838 0.856 1.18662010011e-38
-0.018965759106 -0.0885068758279 0.854 1.19554749237e-38
-0.0173242067712 -0.0881959617442 0.851 1.15824366608e-38
-0.0157122653015 -0.0879886856884 0.849 1.18557515184e-38
-0.0141077265481 -0.0877814096326 0.847 9.73456259275e-39
-0.012510590511 -0.0875741335768 0.845 2.01673922103e-38
-0.0109208571901 -0.087366857521 0.843 1.32584751033e-38
-0.00933852658556 -0.0871595814652 0.841 1.38187772878e-38
-0.00776359869727 -0.0869523054094 0.839 1.26203546112e-38
-0.00621087895782 -0.0869523054094 0.839 1.28957125621e-38
-0.00464705514394 -0.0867450293536 0.837 1.45535355259e-38
-0.00309063404635 -0.0865377532978 0.835 1.66826207684e-38
-0.00154531702318 -0.0865377532978 0.835 1.79669024032e-38
0.0 -0.0865377532978 0.835 1.87012206335e-38
0.00154531702318 -0.0865377532978 0.835 1.89770662362e-38
0.00309063404635 -0.0865377532978 0.835 1.84231862026e-38
0.00463595106953 -0.0865377532978 0.835 1.81476811155e-38
0.00616646266014 -0.086330477242 0.833 1.84249616478e-38
0.00770807832518 -0.086330477242 0.833 1.98983204843e-38
0.00924969399022 -0.086330477242 0.833 1.60311599149e-38
0.0107654001483 -0.0861232011862 0.831 1.35508644357e-38
0.0123033144552 -0.0861232011862 0.831 1.41059089483e-38
0.0138412287621 -0.0861232011862 0.831 1.45664639055e-38
0.015379143069 -0.0861232011862 0.831 1.52994326854e-38
0.0169170573759 -0.0861232011862 0.831 1.31695473015e-38
0.0184549716828 -0.0861232011862 0.831 1.54654136859e-38
0.0199928859897 -0.0861232011862 0.831 1.55582819391e-38
0.0215826193105 -0.086330477242 0.833 1.97110187277e-38
0.0231242349755 -0.086330477242 0.833 1.70466935237e-38
0.0246658506406 -0.086330477242 0.833 2.03657964546e-38
0.0263333124823 -0.0867450293536 0.837 2.10071721631e-38
0.0278823308637 -0.0867450293536 0.837 1.85211299588e-38
0.0295016750496 -0.0869523054094 0.839 1.5570554511e-38
0.0311284219519 -0.0871595814652 0.841 2.22954026569e-38
0.0327625715704 -0.087366857521 0.843 2.31240843258e-38
0.0343226940261 -0.087366857521 0.843 2.29411406074e-38
0.0358828164819 -0.087366857521 0.843 1.75041389996e-38
0.0375317715329 -0.0875741335768 0.845 5.60949864618e-39
0.0392806632538 -0.0879886856884 0.849 1.07447530505e-38
0.0409481250955 -0.0881959617442 0.851 1.37800299839e-38
0.0425230529838 -0.0881959617442 0.851 1.61835385113e-38
0.044253437914 -0.0885068758279 0.854 1.67385143603e-38
0.0458339178395 -0.0885068758279 0.854 1.73853060872e-38
0.0475254385092 -0.0887141518838 0.856 2.11646458806e-38
0.0491096197928 -0.0887141518838 0.856 2.34972234822e-38
-0.0256726200545 -0.0882496314373 0.867 2.28421374696e-38
-0.0240680813011 -0.0882496314373 0.867 2.34939794763e-38
-0.0223858140267 -0.0879442693908 0.864 2.10929568524e-38
-0.0205943566873 -0.0871299706001 0.856 1.15914091748e-38
-0.018965759106 -0.0869263959024 0.854 1.30607462848e-38
-0.0173242067712 -0.086621033856 0.851 1.12150932748e-38
-0.0157122653015 -0.0864174591583 0.849 1.14894955401e-38
-0.0141077265481 -0.0862138844606 0.847 1.01955337356e-38
-0.0125402013761 -0.0862138844606 0.847 1.24135762072e-38
-0.0109467666971 -0.086010309763 0.845 1.42691083714e-38
-0.0093607347344 -0.0858067350653 0.843 1.34522032147e-38
-0.00778210548797 -0.0856031603676 0.841 1.32631806636e-38
-0.00622568439037 -0.0856031603676 0.841 1.32609119613e-38
-0.00465815921836 -0.08539958567 0.839 1.4368453426e-38
-0.00309803676263 -0.0851960109723 0.837 1.20742882179e-38
-0.00154901838131 -0.0851960109723 0.837 9.85115062498e-39
0.0 -0.0849924362746 0.835 1.98053975806e-38
0.00154531702318 -0.0849924362746 0.835 1.78703711559e-38
0.00309063404635 -0.0849924362746 0.835 1.94359158132e-38
0.00463595106953 -0.0849924362746 0.835 1.82398935609e-38
0.0061812680927 -0.0849924362746 0.835 1.84256917243e-38
0.00772658511588 -0.0849924362746 0.835 1.9806479383e-38
0.00927190213905 -0.0849924362746 0.835 1.56591347908e-38
0.0107913096553 -0.084788861577 0.833 1.45549003906e-38
0.0123329253203 -0.084788861577 0.833 1.60308039851e-38
0.0138745409853 -0.084788861577 0.833 1.77846116898e-38
0.0154161566504 -0.084788861577 0.833 1.82459822027e-38
0.0169577723154 -0.084788861577 0.833 1.93490927616e-38
0.0184993879804 -0.084788861577 0.833 2.14663706633e-38
0.0200410036455 -0.084788861577 0.833 2.10061127814e-38
0.0215826193105 -0.084788861577 0.833 2.16507549166e-38
0.0231797553476 -0.0849924362746 0.835 2.13755819371e-38
0.0247250723708 -0.0849924362746 0.835 2.05443947465e-38
0.0263962355707 -0.08539958567 0.839 2.1006115584e-38
0.0279489553102 -0.08539958567 0.839 1.44638159904e-38
0.0296423266589 -0.0858067350653 0.843 1.94460303855e-38
0.0312024491147 -0.0858067350653 0.843 2.24841295341e-38
0.0328403000913 -0.086010309763 0.845 1.92550950619e-38
0.0344041239052 -0.086010309763 0.845 6.15477190462e-39
0.0359679477191 -0.086010309763 0.845 7.34683969264e-39
0.0375317715329 -0.086010309763 0.845 1.21298272812e-38
0.0393731972073 -0.086621033856 0.851 1.25900991761e-38
0.041092478063 -0.0869263959024 0.854 1.7195898179e-38
0.0426729579885 -0.0869263959024 0.854 1.55388753566e-38
0.0443570759419 -0.0871299706001 0.856 1.489281791e-38
0.0459412572255 -0.0871299706001 0.856 1.74742745267e-38
0.0475254385092 -0.0871299706001 0.856 2.10738921868e-38
0.0491096197928 -0.0871299706001 0.856 2.3495076693e-38
-0.0274030049846 -0.0870448393629 0.871 2.32109424099e-38
-0.0257318417847 -0.0868449660234 0.869 2.32120116006e-38
-0.0240680813011 -0.0866450926839 0.867 2.34918116676e-38
-0.0223858140267 -0.0863452826746 0.864 2.18305190888e-38
-0.0205943566873 -0.0855457893165 0.856 1.06680277557e-38
-0.018965759106 -0.0853459159769 0.854 1.36121628357e-38
-0.0173242067712 -0.0850461059677 0.851 1.19562484404e-38
-0.0157492788829 -0.0850461059677 0.851 1.1305121096e-38
-0.0141410387714 -0.0848462326281 0.849 1.130187709e-38
-0.0125698122412 -0.0848462326281 0.849 9.09207285205e-39
-0.0109726762041 -0.0846463592886 0.847 6.79582671569e-39
-0.00938294288323 -0.0844464859491 0.845 1.34420858398e-38
-0.00780061227866 -0.0842466126096 0.843 1.49194593964e-38
-0.00624048982293 -0.0842466126096 0.843 1.4551695621e-38
-0.00466926329278 -0.08404673927 0.841 1.51060184649e-38
-0.00310543947891 -0.0838468659305 0.839 1.08757604439e-38
-0.00154901838131 -0.083646992591 0.837 1.20605835189e-38
0.0 -0.083646992591 0.837 1.5838753228e-38
0.00154901838131 -0.083646992591 0.837 1.8144486155e-38
0.00309803676263 -0.083646992591 0.837 1.92522111897e-38
0.00464705514394 -0.083646992591 0.837 1.87919519065e-38
0.0061812680927 -0.0834471192515 0.835 1.87919519065e-38
0.00772658511588 -0.0834471192515 0.835 1.93440536924e-38
0.00927190213905 -0.0834471192515 0.835 1.94366318767e-38
0.0108172191622 -0.0834471192515 0.835 1.98986764142e-38
0.0123625361854 -0.0834471192515 0.835 1.94391359971e-38
0.0139078532086 -0.0834471192515 0.835 1.94391359971e-38
0.0154531702318 -0.0834471192515 0.835 2.00834081894e-38
0.0169984872549 -0.0834471192515 0.835 2.03578468884e-38
0.0185438042781 -0.0834471192515 0.835 2.04496921937e-38
0.0200891213013 -0.0834471192515 0.835 2.14638819573e-38
0.0216344383245 -0.0834471192515 0.835 2.05433157467e-38
0.0232352757197 -0.083646992591 0.837 2.12812311102e-38
0.024784294101 -0.083646992591 0.837 2.23879682296e-38
0.0265220817475 -0.0842466126096 0.843 2.20192095322e-38
0.0280822042032 -0.0842466126096 0.843 1.67679808644e-38
0.0296423266589 -0.0842466126096 0.843 1.56609326568e-38
0.0312024491147 -0.0842466126096 0.843 6.24481373874e-39
0.0328403000913 -0.0844464859491 0.845 6.88766221185e-39
0.0344041239052 -0.0844464859491 0.845 1.0469246562e-38
0.0359679477191 -0.0844464859491 0.845 1.19468807602e-38
0.0377094367236 -0.0848462326281 0.849 1.24064043617e-38
0.0393731972073 -0.0850461059677 0.851 1.41505907511e-38
0.041092478063 -0.0853459159769 0.854 1.48917052791e-38
0.0427728946582 -0.0855457893165 0.856 1.68246143418e-38
0.0444607139698 -0.085745662656 0.858 1.54441980272e-38
0.0459412572255 -0.0855457893165 0.856 1.68285393788e-38
0.0475254385092 -0.0855457893165 0.856 2.19969246827e-38
0.0491096197928 -0.0855457893165 0.856 2.3492555757e-38
-0.0290815709008 -0.0856290698746 0.873 2.27510306487e-38
-0.0274030049846 -0.0854328978932 0.871 2.34896718848e-38
-0.0257318417847 -0.0852367259118 0.869 2.23790209389e-38
-0.0241236016732 -0.0852367259118 0.869 2.34875180891e-38
-0.0223858140267 -0.0847462959584 0.864 2.29368638445e-38
-0.0207387096547 -0.084550123977 0.862 1.17768794344e-38
-0.018965759106 -0.0837654360515 0.854 1.28792206804e-38
-0.0173852791805 -0.0837654360515 0.854 1.14934724252e-38
-0.0157492788829 -0.0834711780794 0.851 1.13051267012e-38
-0.0141743509946 -0.0834711780794 0.851 1.18554039964e-38
-0.0125698122412 -0.083275006098 0.849 1.07501340366e-38
-0.0109985857111 -0.083275006098 0.849 8.54142000881e-39
-0.00938294288323 -0.0828826621352 0.845 7.89785266959e-39
-0.00781911906936 -0.0828826621352 0.845 6.88766221185e-39
-0.00624048982293 -0.0826864901538 0.843 1.2877819382e-38
-0.0046803673672 -0.0826864901538 0.843 1.56549140799e-38
-0.00310543947891 -0.0822941461911 0.839 1.35440429148e-38
-0.00154901838131 -0.0820979742097 0.837 1.53836072829e-38
0.0 -0.0820979742097 0.837 1.73165107404e-38
0.00154901838131 -0.0820979742097 0.837 1.63034476208e-38
0.00309803676263 -0.0820979742097 0.837 1.65839651526e-38
0.00464705514394 -0.0820979742097 0.837 1.82427634202e-38
0.00619607352526 -0.0820979742097 0.837 1.87033856397e-38
0.00772658511588 -0.0819018022283 0.835 1.93465746283e-38
0.00927190213905 -0.0819018022283 0.835 1.94369695896e-38
0.0108172191622 -0.0819018022283 0.835 1.91614602986e-38
0.0123625361854 -0.0819018022283 0.835 1.91611043688e-38
0.0139078532086 -0.0819018022283 0.835 1.9898670809e-38
0.0154531702318 -0.0819018022283 0.835 2.00820040883e-38
0.0169984872549 -0.0819018022283 0.835 2.0266761087e-38
0.0185438042781 -0.0819018022283 0.835 2.12819794036e-38
0.0200891213013 -0.0819018022283 0.835 2.16511318658e-38
0.0216862573384 -0.0820979742097 0.837 2.16525724007e-38
0.0232352757197 -0.0820979742097 0.837 2.09160807564e-38
0.024784294101 -0.0820979742097 0.837 1.78714361427e-38
0.0265220817475 -0.0826864901538 0.843 8.8230235469e-39
0.0280822042032 -0.0826864901538 0.843 8.81620763117e-39
0.0296423266589 -0.0826864901538 0.843 8.90804312733e-39
0.0312764762774 -0.0828826621352 0.845 1.24003031082e-38
0.0328403000913 -0.0828826621352 0.845 1.14830257451e-38
0.0344855537843 -0.0830788341166 0.847 1.34198374241e-38
0.0361382101935 -0.083275006098 0.849 1.13919063125e-38
0.037798269319 -0.0834711780794 0.851 1.31364332175e-38
0.0395119981375 -0.0837654360515 0.854 1.62714153392e-38
0.041092478063 -0.0837654360515 0.854 1.46158442621e-38
0.042872831328 -0.0841577800142 0.858 1.65487463183e-38
0.0444607139698 -0.0841577800142 0.858 1.57200618468e-38
0.0459412572255 -0.0839616080328 0.856 1.71065527902e-38
0.0475254385092 -0.0839616080328 0.856 2.14455445655e-38
0.0491096197928 -0.0839616080328 0.856 2.34940046997e-38
-0.0290815709008 -0.0840134270468 0.873 2.29365009082e-38
-0.027465928073 -0.0840134270468 0.873 2.33045547525e-38
-0.0257910635149 -0.0838209564235 0.871 2.33038569058e-38
-0.0241236016732 -0.0836284858003 0.869 2.28421500813e-38
-0.0225153615616 -0.0836284858003 0.869 2.33060064977e-38
-0.0209071214501 -0.0836284858003 0.869 1.22378617876e-38
-0.0191434242967 -0.0829548386189 0.862 1.23268106089e-38
-0.01742599412 -0.0823774267492 0.856 1.25990814992e-38
-0.015804799255 -0.082184956126 0.854 1.09359854493e-38
-0.0141743509946 -0.0818962501911 0.851 1.17610615773e-38
-0.0125994231063 -0.0818962501911 0.851 1.10249230602e-38
-0.0109985857111 -0.0817037795678 0.849 1.00158087997e-38
-0.0094273591809 -0.0817037795678 0.849 1.02005559893e-38
-0.00781911906936 -0.0813188383213 0.845 8.90840185973e-39
-0.00625529525549 -0.0813188383213 0.845 8.90876059214e-39
-0.0046803673672 -0.0811263676981 0.843 7.34683969264e-39
-0.00311284219519 -0.0809338970749 0.841 9.55196779765e-39
-0.00155271973945 -0.0807414264516 0.839 1.1401247368e-38
0.0 -0.0807414264516 0.839 1.56501300469e-38
0.00155271973945 -0.0807414264516 0.839 1.60272166611e-38
0.00310543947891 -0.0807414264516 0.839 1.27164332391e-38
0.00465815921836 -0.0807414264516 0.839 1.27142850486e-38
0.00619607352526 -0.0805489558284 0.837 1.25259449298e-38
0.00774509190657 -0.0805489558284 0.837 2.00880801185e-38
0.00929411028789 -0.0805489558284 0.837 1.99012085605e-38
0.0108431286692 -0.0805489558284 0.837 1.98111751341e-38
0.0123921470505 -0.0805489558284 0.837 1.98115282614e-38
0.0139078532086 -0.0803564852051 0.835 1.91665147821e-38
0.0154531702318 -0.0803564852051 0.835 1.93505346978e-38
0.0169984872549 -0.0803564852051 0.835 1.93490927616e-38
0.0185438042781 -0.0803564852051 0.835 1.63955731858e-38
0.0201372389571 -0.0805489558284 0.837 1.1497443705e-38
0.0216862573384 -0.0805489558284 0.837 8.54070114269e-39
0.0232907960918 -0.0807414264516 0.839 7.16316870032e-39
0.0248435158313 -0.0807414264516 0.839 7.98968816575e-39
0.0265220817475 -0.0811263676981 0.843 1.23977919813e-38
0.0280822042032 -0.0811263676981 0.843 1.22177083131e-38
0.0296423266589 -0.0811263676981 0.843 1.20354792569e-38
0.0312764762774 -0.0813188383213 0.845 1.22205935866e-38
0.0329180286122 -0.0815113089446 0.847 1.11128124999e-38
0.0345669836633 -0.0817037795678 0.849 1.49814248145e-38
0.0362233414307 -0.0818962501911 0.851 1.30449452433e-38
0.037931518212 -0.082184956126 0.854 1.58072352229e-38
0.039604532091 -0.0823774267492 0.856 1.46133233261e-38
0.0411887133746 -0.0823774267492 0.856 1.57203967571e-38
0.042872831328 -0.0825698973724 0.858 1.61810245818e-38
0.0445643519977 -0.0827623679957 0.86 1.71051613008e-38
0.0460485966116 -0.0825698973724 0.858 1.68335798494e-38
0.0476364792533 -0.0825698973724 0.858 2.10764103202e-38
0.0492243618951 -0.0825698973724 0.858 2.34943480178e-38
-0.0205943566873 -0.0807932454656 0.856 1.15002925448e-38
-0.0190101754037 -0.0807932454656 0.856 1.30639804817e-38
-0.01742599412 -0.0807932454656 0.856 1.19533771799e-38
-0.015804799255 -0.0806044762005 0.854 1.16735532908e-38
-0.0141743509946 -0.0803213223028 0.851 1.12107646639e-38
-0.0125994231063 -0.0803213223028 0.851 1.05625338034e-38
-0.011024495218 -0.0803213223028 0.851 1.12990044282e-38
-0.0094273591809 -0.0801325530377 0.849 1.06550881656e-38
-0.00783762586006 -0.0799437837726 0.847 9.64595568825e-39
-0.00627010068805 -0.0799437837726 0.847 9.64774935029e-39
-0.00469147144162 -0.0797550145075 0.845 9.27574384436e-39
-0.00312024491147 -0.0795662452424 0.843 1.13883189884e-38
-0.00155642109759 -0.0793774759773 0.841 1.03774110659e-38
0.0 -0.0793774759773 0.841 9.55089160043e-39
0.00155642109759 -0.0793774759773 0.841 7.89785266959e-39
0.00311284219519 -0.0793774759773 0.841 7.25500419648e-39
0.00466926329278 -0.0793774759773 0.841 7.62234618111e-39
0.00621087895782 -0.0791887067122 0.839 8.72688326186e-39
0.00776359869727 -0.0791887067122 0.839 7.98968816575e-39
0.00929411028789 -0.078999937447 0.837 7.71418167727e-39
0.0108431286692 -0.078999937447 0.837 7.25500419648e-39
0.0124217579156 -0.0791887067122 0.839 8.0815236619e-39
0.0139411654318 -0.078999937447 0.837 6.97949770801e-39
0.0154901838131 -0.078999937447 0.837 6.15297824259e-39
0.0170392021945 -0.078999937447 0.837 5.96930725027e-39
0.0185882205758 -0.078999937447 0.837 8.54070114269e-39
0.0202334742687 -0.0793774759773 0.841 1.12039305313e-38
0.0217898953663 -0.0793774759773 0.841 1.19386145005e-38
0.0233463164639 -0.0793774759773 0.841 1.2126605696e-38
0.0249619592917 -0.0795662452424 0.843 1.13897595232e-38
0.0265220817475 -0.0795662452424 0.843 1.21262497662e-38
0.0281488286497 -0.0797550145075 0.845 1.24925085471e-38
0.0297126524636 -0.0797550145075 0.845 1.12975596895e-38
0.0313505034402 -0.0799437837726 0.847 1.22209411086e-38
0.0329957571332 -0.0801325530377 0.849 1.31360828928e-38
0.0346484135424 -0.0803213223028 0.851 1.47019610592e-38
0.0362233414307 -0.0803213223028 0.851 1.5068571566e-38
0.037931518212 -0.0806044762005 0.854 1.49803682355e-38
0.039604532091 -0.0807932454656 0.856 1.39676063951e-38
0.0412849486862 -0.0809820147307 0.858 1.53501877158e-38
0.0429727679978 -0.0811707839958 0.86 1.63657815804e-38
0.0445643519977 -0.0811707839958 0.86 1.63693941279e-38
0.0461559359976 -0.0811707839958 0.86 1.6832507856e-38
0.0477475199975 -0.0811707839958 0.86 2.18150529576e-38
0.0493391039974 -0.0811707839958 0.86 2.34936291517e-38
0.0509306879973 -0.0811707839958 0.86 2.34939864828e-38
-0.0226189995895 -0.0807821413911 0.873 2.3491471152e-38
-0.0209552391059 -0.0805970734842 0.871 1.21474640237e-38
-0.0192988813385 -0.0804120055772 0.869 1.31558131752e-38
-0.01742599412 -0.0792090641819 0.856 1.26902261553e-38
-0.0158418128364 -0.0792090641819 0.856 1.19508464348e-38
-0.0142243193295 -0.079023996275 0.854 1.14862753563e-38
-0.012643839404 -0.079023996275 0.854 1.03813571223e-38
-0.011024495218 -0.0787463944145 0.851 1.00150913349e-38
-0.00944956732974 -0.0787463944145 0.851 9.92253837395e-39
-0.00787463944145 -0.0787463944145 0.851 9.73707652219e-39
-0.0062849061206 -0.0785613265075 0.849 1.10245657291e-38
-0.00470257551603 -0.0783762586006 0.847 8.72437213501e-39
-0.00312024491147 -0.0780061227866 0.843 1.20351233271e-38
-0.00156012245573 -0.0780061227866 0.843 1.12039305313e-38
0.0 -0.0780061227866 0.843 1.07447530505e-38
0.00155642109759 -0.0778210548797 0.841 1.05621582554e-38
0.00311284219519 -0.0778210548797 0.841 8.63325410366e-39
0.00466926329278 -0.0778210548797 0.841 9.73851425442e-39
0.00622568439037 -0.0778210548797 0.841 1.04710416253e-38
0.00778210548797 -0.0778210548797 0.841 1.11149648944e-38
0.00933852658556 -0.0778210548797 0.841 1.11124733857e-38
0.0108949476832 -0.0778210548797 0.841 1.09284240428e-38
0.0124513687807 -0.0778210548797 0.841 1.24896274775e-38
0.0139744776551 -0.0776359869727 0.839 1.07447530505e-38
0.0155271973945 -0.0776359869727 0.839 1.22227613953e-38
0.0171206320735 -0.0778210548797 0.841 1.01973273976e-38
0.0186770531711 -0.0778210548797 0.841 1.25868439597e-38
0.0202334742687 -0.0778210548797 0.841 1.25814629736e-38
0.0217898953663 -0.0778210548797 0.841 1.27654926984e-38
0.023401836836 -0.0780061227866 0.843 1.20322562704e-38
0.0249619592917 -0.0780061227866 0.843 1.15752185724e-38
0.0265850048358 -0.0781911906936 0.845 1.17603315008e-38
0.0281488286497 -0.0781911906936 0.845 1.37821557537e-38
0.0297829782682 -0.0783762586006 0.847 1.24907036747e-38
0.0313505034402 -0.0783762586006 0.847 1.37821557537e-38
0.0330734856541 -0.0787463944145 0.851 1.45175417735e-38
0.034770558361 -0.079023996275 0.854 1.41498494643e-38
0.0363510382865 -0.079023996275 0.854 1.56249823447e-38
0.037931518212 -0.079023996275 0.854 1.31375122173e-38
0.039604532091 -0.0792090641819 0.856 1.27719498817e-38
0.0412849486862 -0.0793941320889 0.858 1.50750581766e-38
0.0429727679978 -0.0795791999959 0.86 1.65498253181e-38
0.0445643519977 -0.0795791999959 0.86 1.53548750592e-38
0.0461559359976 -0.0795791999959 0.86 1.71994827005e-38
0.0477475199975 -0.0795791999959 0.86 2.16324539586e-38
0.0493391039974 -0.0795791999959 0.86 2.34968619472e-38
0.0509306879973 -0.0795791999959 0.86 2.348895442e-38
-0.0226189995895 -0.0791664985633 0.873 2.34950738904e-38
-0.0209552391059 -0.0789851320145 0.871 1.18715889937e-38
-0.0192988813385 -0.0788037654657 0.869 1.17721934923e-38
-0.0175481389386 -0.0781689825448 0.862 1.2228506719e-38
-0.0158788264178 -0.0778062494471 0.858 1.1950114957e-38
-0.0142576315527 -0.0776248828983 0.856 1.21294923709e-38
-0.012643839404 -0.0774435163495 0.854 9.18570201024e-39
-0.0110633594785 -0.0774435163495 0.854 1.02002028621e-38
-0.00948287955299 -0.0774435163495 0.854 9.18606074265e-39
-0.00787463944145 -0.0771714665262 0.851 9.46300636464e-39
-0.0062849061206 -0.0769900999774 0.849 1.07469082475e-38
-0.00471367959045 -0.0769900999774 0.849 9.09171411964e-39
-0.00313505034402 -0.0768087334286 0.847 1.12071591229e-38
-0.00156382381387 -0.0766273668797 0.845 1.11120950351e-38
0.0 -0.0766273668797 0.845 1.07447530505e-38
0.00156382381387 -0.0766273668797 0.845 1.01044157042e-38
0.00312764762774 -0.0766273668797 0.845 9.09279031686e-39
0.00469147144162 -0.0766273668797 0.845 9.82999382076e-39
0.00625529525549 -0.0766273668797 0.845 1.11120978377e-38
0.00781911906936 -0.0766273668797 0.845 1.16641996236e-38
0.00938294288323 -0.0766273668797 0.845 1.17570959027e-38
0.0109467666971 -0.0766273668797 0.845 1.17549435082e-38
0.012510590511 -0.0766273668797 0.845 1.20315261939e-38
0.0140744143248 -0.0766273668797 0.845 1.23084704146e-38
0.0156382381387 -0.0766273668797 0.845 1.20347603908e-38
0.0171613470131 -0.0764460003309 0.843 1.02866783916e-38
0.0187214694688 -0.0764460003309 0.843 1.13876029249e-38
0.0202815919245 -0.0764460003309 0.843 1.40533602559e-38
0.0218935333942 -0.0766273668797 0.845 1.34108565022e-38
0.0234573572081 -0.0766273668797 0.845 1.19404137678e-38
0.0250804027522 -0.0768087334286 0.847 1.16652688143e-38
0.0266479279242 -0.0768087334286 0.847 1.07476341201e-38
0.0282154530962 -0.0768087334286 0.847 1.36024294166e-38
0.0297829782682 -0.0768087334286 0.847 1.43342295136e-38
0.031424530603 -0.0769900999774 0.849 1.36870762516e-38
0.0330734856541 -0.0771714665262 0.851 1.45132369846e-38
0.034770558361 -0.0774435163495 0.854 1.51629223929e-38
0.0363510382865 -0.0774435163495 0.854 1.30427956515e-38
0.037931518212 -0.0774435163495 0.854 1.2587943979e-38
0.039604532091 -0.0776248828983 0.856 1.24997014121e-38
0.0412849486862 -0.0778062494471 0.858 1.47080553062e-38
0.0429727679978 -0.0779876159959 0.86 1.57193429807e-38
0.0445643519977 -0.0779876159959 0.86 1.68296660228e-38
0.0461559359976 -0.0779876159959 0.86 1.56346821326e-38
0.0477475199975 -0.0779876159959 0.86 2.22789065714e-38
0.0493391039974 -0.0779876159959 0.86 2.34918200753e-38
-0.0225671805756 -0.0773731905448 0.871 2.34929214959e-38
-0.0209552391059 -0.0773731905448 0.871 1.32563100972e-38
-0.0192988813385 -0.0771955253541 0.869 1.19558827015e-38
-0.0175481389386 -0.0765736971867 0.862 1.35217090198e-38
-0.0158788264178 -0.0762183668053 0.858 1.21352292868e-38
-0.0142576315527 -0.0760407016146 0.856 1.18554039964e-38
-0.0126734502691 -0.0760407016146 0.856 9.18677820746e-39
-0.0110633594785 -0.075863036424 0.854 1.05682777258e-38
-0.00948287955299 -0.075863036424 0.854 9.0945839789e-39
-0.0079023996275 -0.075863036424 0.854 1.08441373415e-38
-0.00629971155316 -0.0755965386379 0.851 1.07472851968e-38
-0.00472478366487 -0.0755965386379 0.851 9.27717877399e-39
-0.0031424530603 -0.0754188734472 0.849 9.92074471191e-39
-0.00156752517201 -0.0752412082565 0.847 1.14816034272e-38
0.0 -0.0750635430659 0.845 1.03774110659e-38
0.00156382381387 -0.0750635430659 0.845 9.8314203426e-39
0.00312764762774 -0.0750635430659 0.845 1.12075178553e-38
0.00469147144162 -0.0750635430659 0.845 1.1020259539e-38
0.00625529525549 -0.0750635430659 0.845 1.12039305313e-38
0.00781911906936 -0.0750635430659 0.845 1.18478552016e-38
0.00938294288323 -0.0750635430659 0.845 1.24006618406e-38
0.0109467666971 -0.0750635430659 0.845 1.23977975865e-38
0.012510590511 -0.0750635430659 0.845 1.29495224231e-38
0.0140744143248 -0.0750635430659 0.845 1.26743858774e-38
0.0156382381387 -0.0750635430659 0.845 1.22169908483e-38
0.0172020619526 -0.0750635430659 0.845 1.16631080121e-38
0.0187658857665 -0.0750635430659 0.845 1.12068144035e-38
0.0203297095803 -0.0750635430659 0.845 1.1849660074e-38
0.0218935333942 -0.0750635430659 0.845 1.23073984213e-38
0.0234573572081 -0.0750635430659 0.845 1.3226110714e-38
0.0251396244824 -0.0754188734472 0.849 1.32257463764e-38
0.0267108510126 -0.0754188734472 0.849 1.26754550681e-38
0.0282820775427 -0.0754188734472 0.849 1.38725521163e-38
0.0299236298775 -0.0755965386379 0.851 1.40562118983e-38
0.0314985577658 -0.0755965386379 0.851 1.30431515813e-38
0.0331900784355 -0.075863036424 0.854 1.38740038616e-38
0.034770558361 -0.075863036424 0.854 1.31364766577e-38
0.0364361695237 -0.0760407016146 0.856 1.25886740555e-38
0.0380203508073 -0.0760407016146 0.856 1.25007579912e-38
0.0397895999979 -0.076396031996 0.86 1.20401427782e-38
0.0413811839978 -0.076396031996 0.86 1.47991999622e-38
0.0430727046675 -0.0765736971867 0.862 1.54470552748e-38
0.0445643519977 -0.076396031996 0.86 1.61861014861e-38
0.0461559359976 -0.076396031996 0.86 1.59109144937e-38
0.0477475199975 -0.076396031996 0.86 2.34774539635e-38
-0.0225671805756 -0.0757612490751 0.871 2.34921956233e-38
-0.0209552391059 -0.0757612490751 0.871 1.29772148833e-38
-0.0192988813385 -0.0755872852426 0.869 1.40767100922e-38
-0.0176499262875 -0.07541332141 0.867 1.12139848478e-38
-0.0159528535806 -0.0749784118287 0.862 1.23181772091e-38
-0.0143242559993 -0.0748044479961 0.86 1.15788185081e-38
-0.0127030611342 -0.0746304841636 0.858 1.06558056305e-38
-0.0110892689855 -0.074456520331 0.856 9.46516856817e-39
-0.00948287955299 -0.0742825564985 0.854 9.18642087635e-39
-0.0079023996275 -0.0742825564985 0.854 1.09320197747e-38
-0.00629971155316 -0.0740216107496 0.851 1.03781285307e-38
-0.00472478366487 -0.0740216107496 0.851 1.05632372552e-38
-0.00314985577658 -0.0740216107496 0.851 1.07447530505e-38
-0.00157122653015 -0.0738476469171 0.849 1.14794370197e-38
0.0 -0.0736736830845 0.847 1.07447530505e-38
0.00156752517201 -0.0736736830845 0.847 1.08376647439e-38
0.00313505034402 -0.0736736830845 0.847 1.2033319856e-38
0.00470257551603 -0.0736736830845 0.847 1.13876015236e-38
0.00627010068805 -0.0736736830845 0.847 1.16645513495e-38
0.00783762586006 -0.0736736830845 0.847 1.15719899807e-38
0.00940515103207 -0.0736736830845 0.847 1.2214120989e-38
0.0109726762041 -0.0736736830845 0.847 1.23063152176e-38
0.0125402013761 -0.0736736830845 0.847 1.19386145005e-38
0.0141077265481 -0.0736736830845 0.847 1.28569694621e-38
0.0156752517201 -0.0736736830845 0.847 1.3224312848e-38
0.0172020619526 -0.073499719252 0.845 1.27658514308e-38
0.0187658857665 -0.073499719252 0.845 1.30410131998e-38
0.0203778272361 -0.0736736830845 0.847 1.31332088297e-38
0.0219971714221 -0.0738476469171 0.849 1.30410033907e-38
0.0235683979523 -0.0738476469171 0.849 1.40515553835e-38
0.0251396244824 -0.0738476469171 0.849 1.50613801023e-38
0.0267737741009 -0.0740216107496 0.851 1.45128782522e-38
0.0283487019892 -0.0740216107496 0.851 1.32264638412e-38
0.0299236298775 -0.0740216107496 0.851 1.23109787389e-38
0.03160959851 -0.0742825564985 0.854 1.3781086563e-38
0.0331900784355 -0.0742825564985 0.854 1.21280420269e-38
0.03485198824 -0.074456520331 0.856 1.2039090403e-38
0.0364361695237 -0.074456520331 0.856 1.12086066643e-38
0.0381091834027 -0.0746304841636 0.858 1.25907998253e-38
0.0397895999979 -0.0748044479961 0.86 1.24075057823e-38
0.0414774193095 -0.0749784118287 0.862 1.47091539242e-38
0.0430727046675 -0.0749784118287 0.862 1.57232834319e-38
0.0445643519977 -0.0748044479961 0.86 1.58191098261e-38
0.0461559359976 -0.0748044479961 0.86 1.65559307755e-38
0.0477475199975 -0.0748044479961 0.86 2.34774595687e-38
-0.0225671805756 -0.0741493076054 0.871 2.34929200946e-38
-0.0209552391059 -0.0741493076054 0.871 1.3622934617e-38
-0.0193432976362 -0.0741493076054 0.871 1.40755988625e-38
-0.017690641227 -0.073979045131 0.869 1.25990997161e-38
-0.015989867162 -0.073553388945 0.864 1.16710295523e-38
-0.0143242559993 -0.0732128639962 0.86 1.1852528532e-38
-0.0127030611342 -0.0730426015218 0.858 1.02880866965e-38
-0.0110892689855 -0.0728723390474 0.856 9.64595568825e-39
-0.00950508770183 -0.0728723390474 0.856 9.9203859795e-39
-0.0079023996275 -0.072702076573 0.854 9.55232653006e-39
-0.006321919702 -0.072702076573 0.854 9.55304399487e-39
-0.00472478366487 -0.0724466828613 0.851 1.09305946541e-38
-0.00314985577658 -0.0724466828613 0.851 1.0469246562e-38
-0.00157492788829 -0.0724466828613 0.851 1.12071591229e-38
0.0 -0.0724466828613 0.851 1.08365885466e-38
0.00157492788829 -0.0724466828613 0.851 1.12042892637e-38
0.00313505034402 -0.0721061579125 0.847 1.16631080121e-38
0.00470257551603 -0.0721061579125 0.847 1.15712725159e-38
0.00627010068805 -0.0721061579125 0.847 1.13876015236e-38
0.00783762586006 -0.0721061579125 0.847 1.12957660274e-38
0.0094273591809 -0.0722764203869 0.849 1.12039305313e-38
0.0109985857111 -0.0722764203869 0.849 1.17549435082e-38
0.0125698122412 -0.0722764203869 0.849 1.22166321159e-38
0.0141410387714 -0.0722764203869 0.849 1.3225387644e-38
0.0157122653015 -0.0722764203869 0.849 1.39597128808e-38
0.0172834918317 -0.0722764203869 0.849 1.36842148001e-38
0.0188547183618 -0.0722764203869 0.849 1.39600716132e-38
0.020425944892 -0.0722764203869 0.849 1.46047137484e-38
0.0219971714221 -0.0722764203869 0.849 1.33179406049e-38
0.0236239183244 -0.0724466828613 0.851 1.24896274775e-38
0.0251988462126 -0.0724466828613 0.851 1.35916590366e-38
0.0267737741009 -0.0724466828613 0.851 1.46972975379e-38
0.0283487019892 -0.0724466828613 0.851 1.12957660274e-38
0.0300291185845 -0.072702076573 0.854 1.12957856456e-38
0.03160959851 -0.072702076573 0.854 1.48920962413e-38
0.0332678069564 -0.0728723390474 0.856 1.19411256274e-38
0.03485198824 -0.0728723390474 0.856 1.24049722347e-38
0.0365213007609 -0.0730426015218 0.858 1.26823130228e-38
0.038198015998 -0.0732128639962 0.86 1.25929662327e-38
0.0398821339514 -0.0733831264706 0.862 1.33255146231e-38
0.0414774193095 -0.0733831264706 0.862 1.50750609792e-38
0.0430727046675 -0.0733831264706 0.862 1.5444553957e-38
0.0445643519977 -0.0732128639962 0.86 1.52652171808e-38
0.0461559359976 -0.0732128639962 0.86 1.60945924925e-38
0.0477475199975 -0.0732128639962 0.86 2.34770924285e-38
-0.0242901627894 -0.0728704883683 0.875 2.33024037593e-38
-0.0226189995895 -0.072703927252 0.873 2.34943592282e-38
-0.0209552391059 -0.0725373661358 0.871 1.25172989183e-38
-0.0193432976362 -0.0725373661358 0.871 1.53645201965e-38
-0.017690641227 -0.0723708050195 0.869 1.21388264199e-38
-0.015989867162 -0.0719544022288 0.864 1.20372939384e-38
-0.0143575682225 -0.0717878411125 0.862 1.17614119019e-38
-0.0127326719993 -0.0716212799963 0.86 1.06557888149e-38
-0.0111151784924 -0.07145471888 0.858 9.92074471191e-39
-0.00950508770183 -0.0712881577637 0.856 1.0198047665e-38
-0.00792090641819 -0.0712881577637 0.856 9.45941483668e-39
-0.006321919702 -0.0711215966475 0.854 9.92110764821e-39
-0.0047414397765 -0.0711215966475 0.854 1.09320197747e-38
-0.003160959851 -0.0711215966475 0.854 8.63253663885e-39
-0.0015804799255 -0.0711215966475 0.854 1.03820745871e-38
0.0 -0.0708717549731 0.851 1.15727074455e-38
0.00157492788829 -0.0708717549731 0.851 1.16649016741e-38
0.0031424530603 -0.0707051938568 0.849 1.1389406396e-38
0.00471367959045 -0.0707051938568 0.849 1.11149648944e-38
0.0062849061206 -0.0707051938568 0.849 1.07465467125e-38
0.00785613265075 -0.0707051938568 0.849 1.12071591229e-38
0.0094273591809 -0.0707051938568 0.849 1.04703381735e-38
0.0109985857111 -0.0707051938568 0.849 1.1116399824e-38
0.0125698122412 -0.0707051938568 0.849 1.15752185724e-38
0.0141743509946 -0.0708717549731 0.851 1.20326023911e-38
0.0157492788829 -0.0708717549731 0.851 1.25857677625e-38
0.0173242067712 -0.0708717549731 0.851 1.17553022406e-38
0.0188991346595 -0.0708717549731 0.851 1.21226442253e-38
0.0204740625478 -0.0708717549731 0.851 1.3133196218e-38
0.0220489904361 -0.0708717549731 0.851 1.23088263444e-38
0.0236239183244 -0.0708717549731 0.851 1.14833830762e-38
0.025287678808 -0.0711215966475 0.854 1.10227706658e-38
0.0268681587335 -0.0711215966475 0.854 1.58086603435e-38
0.028448638659 -0.0711215966475 0.854 1.21222854929e-38
0.0300291185845 -0.0711215966475 0.854 1.18511118192e-38
0.03160959851 -0.0711215966475 0.854 1.24960846608e-38
0.0332678069564 -0.0712881577637 0.856 1.31364332175e-38
0.0349334181191 -0.07145471888 0.858 1.25872251129e-38
0.0366064319981 -0.0716212799963 0.86 1.36903510861e-38
0.038198015998 -0.0716212799963 0.86 1.3968361695e-38
0.0398821339514 -0.0717878411125 0.862 1.47058874975e-38
0.0414774193095 -0.0717878411125 0.862 1.50753986922e-38
0.0430727046675 -0.0717878411125 0.862 1.52598039649e-38
0.0446679900256 -0.0717878411125 0.862 1.49879086225e-38
0.0462632753836 -0.0717878411125 0.862 1.60048981804e-38
-0.0242901627894 -0.0712511441823 0.875 2.30272503981e-38
-0.0226189995895 -0.0710882844242 0.873 2.34939948906e-38
-0.0210033567617 -0.0710882844242 0.873 1.26098616883e-38
-0.0193432976362 -0.0709254246661 0.871 1.57347922962e-38
-0.0177313561665 -0.0709254246661 0.871 1.25086613145e-38
-0.0160824011154 -0.0707625649079 0.869 1.23171178274e-38
-0.0143908804458 -0.0703554155126 0.864 1.18543292005e-38
-0.0127622828645 -0.0701925557545 0.862 1.08423282652e-38
-0.0111410879994 -0.0700296959964 0.86 9.46013230149e-39
-0.00952729585067 -0.0698668362382 0.858 9.64811649048e-39
-0.00793941320889 -0.0698668362382 0.858 1.09305974567e-38
-0.00633672513455 -0.0697039764801 0.856 1.14819509492e-38
-0.00475254385092 -0.0697039764801 0.856 1.06565104836e-38
-0.003160959851 -0.069541116722 0.854 8.72508959982e-39
-0.0015804799255 -0.069541116722 0.854 1.06590258143e-38
0.0 -0.069541116722 0.854 1.08366039609e-38
0.00157492788829 -0.0692968270848 0.851 1.17578175714e-38
0.00314985577658 -0.0692968270848 0.851 1.04703227592e-38
0.00472478366487 -0.0692968270848 0.851 1.06550699488e-38
0.00629971155316 -0.0692968270848 0.851 1.12975596895e-38
0.00787463944145 -0.0692968270848 0.851 1.12968422247e-38
0.00944956732974 -0.0692968270848 0.851 1.09284268454e-38
0.011024495218 -0.0692968270848 0.851 1.09302177048e-38
0.0125994231063 -0.0692968270848 0.851 1.12039305313e-38
0.0141743509946 -0.0692968270848 0.851 1.13894035934e-38
0.0157492788829 -0.0692968270848 0.851 1.05639519174e-38
0.0173242067712 -0.0692968270848 0.851 1.07483403746e-38
0.0188991346595 -0.0692968270848 0.851 1.15773723681e-38
0.0204740625478 -0.0692968270848 0.851 1.20333254611e-38
0.0220489904361 -0.0692968270848 0.851 1.31353640267e-38
0.0237071988825 -0.069541116722 0.854 1.12039375378e-38
0.025287678808 -0.069541116722 0.854 1.21258770208e-38
0.0268681587335 -0.069541116722 0.854 1.31324759506e-38
0.028448638659 -0.069541116722 0.854 1.33161469429e-38
0.0300291185845 -0.069541116722 0.854 1.28588023605e-38
0.0316836256728 -0.0697039764801 0.856 1.33201084137e-38
0.0333455354773 -0.0698668362382 0.858 1.39647491475e-38
0.0349334181191 -0.0698668362382 0.858 1.36888867292e-38
0.0366064319981 -0.0700296959964 0.86 1.51618714191e-38
0.038198015998 -0.0700296959964 0.86 1.49803289991e-38
0.0401134688351 -0.0705997051498 0.867 1.45218689832e-38
0.0417180075885 -0.0705997051498 0.867 1.47073364401e-38
0.0431726413373 -0.0703554155126 0.864 1.57211576622e-38
0.0447716280535 -0.0703554155126 0.864 1.63704927459e-38
0.0463706147697 -0.0703554155126 0.864 1.44372137403e-38
-0.0242901627894 -0.0696317999964 0.875 2.29343485138e-38
-0.0226708186035 -0.0696317999964 0.875 2.34925585596e-38
-0.0210514744175 -0.0696317999964 0.875 1.27946032727e-38
-0.0193432976362 -0.0693134831964 0.871 1.68389496251e-38
-0.0177313561665 -0.0693134831964 0.871 1.21405990625e-38
-0.0160824011154 -0.0691543247964 0.869 1.2591563533e-38
