# .PCD v0.7 - Point Cloud Data file format
VERSION 0.7
FIELDS x y z rgb
SIZE 4 4 4 4
TYPE F F F F
COUNT 1 1 1 1
WIDTH 839
HEIGHT 1
VIEWPOINT 0 0 0 1 0 0 0
POINTS 839
DATA ascii
0.0197522977106 -0.0926838584882 0.821 1.71123121269e-38
0.0212717052268 -0.0926838584882 0.821 1.21362760567e-38
0.022791112743 -0.0926838584882 0.821 3.12240686937e-39
0.0243697419894 -0.0929096413347 0.823 2.33084629739e-38
0.0258928508638 -0.0929096413347 0.823 2.25657635774e-38
0.0274825841846 -0.0931354241812 0.825 4.22443282327e-39
0.0290093944171 -0.0931354241812 0.825 6.52391876167e-39
0.0306102318124 -0.0933612070277 0.827 1.58244417668e-38
0.0322184719239 -0.0935869898742 0.829 4.86728129637e-39
0.0339969745099 -0.0942643384137 0.835 8.08801868029e-39
0.035542291533 -0.0942643384137 0.835 1.5825931347e-38
0.0371764411516 -0.0944901212602 0.837 1.8029561464e-38
0.0389105274398 -0.0949416869532 0.841 1.91327252723e-38
0.040563183849 -0.0951674697997 0.843 1.89550952776e-38
0.0421233063048 -0.0951674697997 0.843 2.17245963391e-38
0.0436834287605 -0.0951674697997 0.843 2.34874564319e-38
0.0453508906023 -0.0953932526462 0.845 1.8875469295e-38
0.0469147144162 -0.0953932526462 0.845 2.34802859877e-38
-0.0237071988825 -0.0948287955299 0.854 2.34940103048e-38
-0.0218417143803 -0.093607347344 0.843 1.31605397549e-38
-0.0202815919245 -0.093607347344 0.843 1.62969666154e-38
-0.0186770531711 -0.0933852658556 0.841 1.51906162545e-38
-0.0171206320735 -0.0933852658556 0.841 1.38987830223e-38
-0.0155642109759 -0.0933852658556 0.841 1.7866399876e-38
-0.0139744776551 -0.0931631843672 0.839 1.86051209862e-38
-0.0123921470505 -0.0929411028789 0.837 8.27954395049e-39
-0.0108172191622 -0.0927190213905 0.835 1.9060359417e-38
-0.00924969399022 -0.0924969399022 0.833 9.83608386389e-39
-0.00767106474379 -0.0920527769254 0.829 1.85072627092e-38
-0.00612204636247 -0.0918306954371 0.827 7.98977784885e-39
-0.00459153477185 -0.0918306954371 0.827 1.11120950351e-38
-0.00306102318124 -0.0918306954371 0.827 1.06529175543e-38
-0.00153051159062 -0.0918306954371 0.827 1.24896274775e-38
0.0 -0.0918306954371 0.827 1.61738499337e-38
0.00152681023248 -0.0916086139487 0.825 6.79582671569e-39
0.00305362046496 -0.0916086139487 0.825 2.17012717262e-38
0.00458043069744 -0.0916086139487 0.825 1.66484795326e-38
0.00610724092991 -0.0916086139487 0.825 1.25032593089e-38
0.00763405116239 -0.0916086139487 0.825 1.74757262719e-38
0.00916086139487 -0.0916086139487 0.825 1.15813170233e-38
0.0106617621204 -0.0913865324604 0.823 1.29516748175e-38
0.0121848709947 -0.0913865324604 0.823 1.42380892286e-38
0.0137079798691 -0.0913865324604 0.823 1.46090185373e-38
0.0152310887434 -0.0913865324604 0.823 1.64633245652e-38
0.0167541976177 -0.0913865324604 0.823 1.71129973619e-38
0.0182773064921 -0.0913865324604 0.823 1.75754622888e-38
0.0198004153664 -0.0913865324604 0.823 1.84973541278e-38
0.0213235242407 -0.0913865324604 0.823 1.11264527392e-38
0.0229021534872 -0.0916086139487 0.825 3.03057137321e-39
0.0244289637197 -0.0916086139487 0.825 2.24794239738e-38
0.0259557739521 -0.0916086139487 0.825 2.20114925815e-38
0.0275492086311 -0.0918306954371 0.827 3.67341984632e-39
0.0290797202217 -0.0918306954371 0.827 1.41646457747e-38
0.0306842589751 -0.0920527769254 0.829 1.56367938894e-38
0.0323739289658 -0.0924969399022 0.833 1.00100690812e-38
0.0339969745099 -0.0927190213905 0.835 1.45226326908e-38
0.0356274227702 -0.0929411028789 0.837 1.91316504763e-38
0.0372652737469 -0.0931631843672 0.839 1.83043336721e-38
0.0390030613933 -0.093607347344 0.843 1.86745805484e-38
0.040563183849 -0.093607347344 0.843 2.03384501151e-38
0.0421233063048 -0.093607347344 0.843 2.34827929106e-38
0.0436834287605 -0.093607347344 0.843 1.55510946792e-38
0.0452435512162 -0.093607347344 0.843 2.07997491618e-38
0.046803673672 -0.093607347344 0.843 2.3481371994e-38
-0.0237071988825 -0.0932483156044 0.854 2.34954396293e-38
-0.022126718957 -0.0932483156044 0.854 1.08545896267e-38
-0.0203297095803 -0.0922656050184 0.845 1.6013502153e-38
-0.0187214694688 -0.0920472248882 0.843 1.29743282085e-38
-0.0171613470131 -0.0920472248882 0.843 1.65713632755e-38
-0.0156012245573 -0.0920472248882 0.843 1.49150509115e-38
-0.0140077898783 -0.091828844758 0.841 1.08538077022e-38
-0.0124217579156 -0.0916104646278 0.839 1.33304962392e-38
-0.0108431286692 -0.0913920844976 0.837 2.12702225095e-38
-0.00927190213905 -0.0911737043673 0.835 6.42848473106e-39
-0.00767106474379 -0.0905185639767 0.829 2.34655989785e-38
-0.00613685179503 -0.0905185639767 0.829 2.13691948187e-38
-0.00460263884627 -0.0905185639767 0.829 1.69438228022e-38
-0.00306102318124 -0.0903001838465 0.827 1.02088530775e-38
-0.00153051159062 -0.0903001838465 0.827 2.21888297048e-38
0.0 -0.0903001838465 0.827 7.89791572802e-39
0.00153051159062 -0.0903001838465 0.827 1.43537103648e-38
0.00306102318124 -0.0903001838465 0.827 1.68379098616e-38
0.00459153477185 -0.0903001838465 0.827 1.62753838165e-38
0.00612204636247 -0.0903001838465 0.827 1.70252354403e-38
0.00765255795309 -0.0903001838465 0.827 1.64662364634e-38
0.00916086139487 -0.0900818037162 0.825 9.1835496158e-39
0.0106876716274 -0.0900818037162 0.825 1.8296112254e-38
0.0122144818598 -0.0900818037162 0.825 1.92285530677e-38
0.0137412920923 -0.0900818037162 0.825 1.08441261311e-38
0.0152310887434 -0.089863423586 0.823 1.6827793888e-38
0.0167541976177 -0.089863423586 0.823 1.64651252338e-38
0.0183217227897 -0.0900818037162 0.825 1.79427958657e-38
0.0198485330222 -0.0900818037162 0.825 1.81325442894e-38
0.0213753432547 -0.0900818037162 0.825 9.74568329736e-39
0.0229021534872 -0.0900818037162 0.825 2.38772290011e-39
0.0244881854499 -0.0903001838465 0.827 2.20202184671e-38
0.0260186970405 -0.0903001838465 0.827 2.27483345504e-38
0.0276158330776 -0.0905185639767 0.829 3.94892633479e-39
0.0291500460264 -0.0905185639767 0.829 1.41646850111e-38
0.0307582861379 -0.0907369441069 0.831 1.50796754551e-38
0.0324516574867 -0.0911737043673 0.835 1.59022502653e-38
0.0340784043889 -0.0913920844976 0.837 1.67298753552e-38
0.0357125540074 -0.0916104646278 0.839 1.56246039941e-38
0.0373541063422 -0.091828844758 0.841 1.94103253006e-38
0.0390030613933 -0.0920472248882 0.843 2.17256361026e-38
0.040563183849 -0.0920472248882 0.843 2.2190882607e-38
0.0421233063048 -0.0920472248882 0.843 1.81318744688e-38
0.0436834287605 -0.0920472248882 0.843 1.8494543123e-38
0.0452435512162 -0.0920472248882 0.843 1.88650870747e-38
0.046803673672 -0.0920472248882 0.843 2.34875040761e-38
-0.0236239183244 -0.0913458175208 0.851 2.34932984452e-38
-0.0220489904361 -0.0913458175208 0.851 1.36229374196e-38
-0.020425944892 -0.0911311387487 0.849 1.47180942084e-38
-0.0188103020641 -0.0909164599767 0.847 1.26945169311e-38
-0.0172020619526 -0.0907017812046 0.845 1.27859740767e-38
-0.0156012245573 -0.0904871024325 0.843 1.73968051424e-38
-0.0140411021016 -0.0904871024325 0.843 1.69412612286e-38
-0.0124513687807 -0.0902724236604 0.841 1.48127785444e-38
-0.0108431286692 -0.0898430661163 0.837 1.41541458454e-38
-0.00927190213905 -0.0896283873442 0.835 1.10256769588e-38
-0.00770807832518 -0.0894137085721 0.833 2.09853665577e-38
-0.00613685179503 -0.0889843510279 0.829 1.77739113748e-38
-0.00460263884627 -0.0889843510279 0.829 6.61219636103e-39
-0.00306842589751 -0.0889843510279 0.829 2.02653261573e-38
-0.00153421294876 -0.0889843510279 0.829 1.98911360271e-38
0.0 -0.0887696722558 0.827 5.60202412017e-39
0.00153051159062 -0.0887696722558 0.827 1.93355772379e-38
0.00306102318124 -0.0887696722558 0.827 7.53342118187e-39
0.00459153477185 -0.0887696722558 0.827 1.22174084352e-38
0.00612204636247 -0.0887696722558 0.827 1.08365885466e-38
0.00765255795309 -0.0887696722558 0.827 1.19386145005e-38
0.00918306954371 -0.0887696722558 0.827 1.21222854929e-38
0.0107135811343 -0.0887696722558 0.827 1.63600404606e-38
0.0122144818598 -0.0885549934838 0.825 2.34961669032e-38
0.0137412920923 -0.0885549934838 0.825 5.87926541615e-39
0.0152681023248 -0.0885549934838 0.825 1.80170436648e-38
0.0167949125573 -0.0885549934838 0.825 1.56342925717e-38
0.0183217227897 -0.0885549934838 0.825 1.78484576505e-38
0.019896650678 -0.0887696722558 0.827 1.88697295765e-38
0.0214271622687 -0.0887696722558 0.827 7.4440561749e-39
0.0229576738593 -0.0887696722558 0.827 2.20405190779e-39
0.0244881854499 -0.0887696722558 0.827 2.18365348631e-38
0.0260816201289 -0.0889843510279 0.829 2.09951728443e-38
0.0276158330776 -0.0889843510279 0.829 5.32645877716e-39
0.029220371831 -0.0891990298 0.831 1.59170703979e-38
0.0308323133007 -0.0894137085721 0.833 1.45261513513e-38
0.0324516574867 -0.0896283873442 0.835 1.59894208389e-38
0.0340784043889 -0.0898430661163 0.837 1.78347949904e-38
0.0357976852446 -0.0902724236604 0.841 1.81188732216e-38
0.0373541063422 -0.0902724236604 0.841 1.98695434191e-38
0.0390030613933 -0.0904871024325 0.843 2.34842530636e-38
0.0406594191607 -0.0907017812046 0.845 2.15484671352e-38
0.0422232429745 -0.0907017812046 0.845 1.86849851895e-38
0.0437870667884 -0.0907017812046 0.845 1.85892386694e-38
0.0454582299883 -0.0909164599767 0.847 1.94161238737e-38
0.0470257551603 -0.0909164599767 0.847 2.34867922165e-38
-0.0236239183244 -0.0897708896325 0.851 2.34965200304e-38
-0.0220489904361 -0.0897708896325 0.851 1.2424397034e-38
-0.0204740625478 -0.0897708896325 0.851 1.39776495012e-38
-0.0188103020641 -0.0893489348046 0.847 1.40756366976e-38
-0.0172427768921 -0.0893489348046 0.847 1.46301991635e-38
-0.0156382381387 -0.0891379573907 0.845 1.21402221132e-38
-0.0140411021016 -0.0889269799768 0.843 1.92424777706e-38
-0.0124513687807 -0.0887160025628 0.841 1.80460449378e-38
-0.0108690381762 -0.0885050251489 0.839 1.41677776768e-38
-0.00929411028789 -0.0882940477349 0.837 1.46176547397e-38
-0.00772658511588 -0.088083070321 0.835 9.82639808891e-39
-0.00616646266014 -0.0878720929071 0.833 2.16366746696e-38
-0.00462484699511 -0.0878720929071 0.833 1.40842939195e-38
-0.00306842589751 -0.0874501380792 0.829 7.34683969264e-39
-0.00153421294876 -0.0874501380792 0.829 2.34623801959e-38
0.0 -0.0874501380792 0.829 3.489748854e-39
0.00153421294876 -0.0874501380792 0.829 2.25656010268e-38
0.00306842589751 -0.0874501380792 0.829 6.06186021124e-39
0.00459153477185 -0.0872391606652 0.827 2.34853979245e-38
0.00612204636247 -0.0872391606652 0.827 1.12273154e-38
0.00765255795309 -0.0872391606652 0.827 1.91469036101e-38
0.00918306954371 -0.0872391606652 0.827 2.20084489613e-38
0.0107135811343 -0.0872391606652 0.827 8.91521777546e-39
0.0122440927249 -0.0872391606652 0.827 2.33085414466e-38
0.0137746043156 -0.0872391606652 0.827 6.61466685022e-39
0.0153051159062 -0.0872391606652 0.827 1.7186559926e-38
0.0168356274968 -0.0872391606652 0.827 1.61871132236e-38
0.0183661390874 -0.0872391606652 0.827 1.70190262868e-38
0.019896650678 -0.0872391606652 0.827 1.93288930443e-38
0.0214271622687 -0.0872391606652 0.827 6.24481373874e-39
0.0229576738593 -0.0872391606652 0.827 3.67377998002e-39
0.0245474071801 -0.0874501380792 0.829 2.15581879426e-38
0.0260816201289 -0.0874501380792 0.829 2.00714789356e-38
0.0276824575241 -0.0876611154931 0.831 5.60196526564e-39
0.029220371831 -0.0876611154931 0.831 1.68433006568e-38
0.0308323133007 -0.0878720929071 0.833 1.43446327534e-38
0.0325293860076 -0.0882940477349 0.837 1.70979320021e-38
0.034159834268 -0.0885050251489 0.839 1.60862912004e-38
0.0357976852446 -0.0887160025628 0.841 1.75606743862e-38
0.0374429389376 -0.0889269799768 0.843 2.34867754009e-38
0.0390955953468 -0.0891379573907 0.845 2.34882495669e-38
0.0406594191607 -0.0891379573907 0.845 1.82276812448e-38
0.0422232429745 -0.0891379573907 0.845 1.65601767099e-38
0.0437870667884 -0.0891379573907 0.845 1.81236096104e-38
0.0455655693744 -0.0895599122186 0.849 1.95994109102e-38
0.0471367959045 -0.0895599122186 0.849 2.3489315955e-38
-0.0205462390315 -0.0885068758279 0.854 1.3519573441e-38
-0.0188991346595 -0.0881959617442 0.851 1.42553364101e-38
-0.0172834918317 -0.0879886856884 0.849 1.30596644824e-38
-0.0156752517201 -0.0877814096326 0.847 1.48135016144e-38
-0.0140744143248 -0.0875741335768 0.845 1.37043150253e-38
-0.0124809796459 -0.087366857521 0.843 1.49075105244e-38
-0.0108690381762 -0.0869523054094 0.839 1.72148591485e-38
-0.00931631843672 -0.0869523054094 0.839 1.35213418796e-38
-0.00774509190657 -0.0867450293536 0.837 1.20322436587e-38
-0.0061812680927 -0.0865377532978 0.835 1.98868774811e-38
-0.00462484699511 -0.086330477242 0.833 1.31611745431e-38
-0.00307582861379 -0.0861232011862 0.831 2.07091327953e-38
-0.0015379143069 -0.0861232011862 0.831 1.86947788645e-38
0.0 -0.0859159251304 0.829 1.1693343829e-38
0.00153421294876 -0.0859159251304 0.829 2.14646680857e-38
0.00306842589751 -0.0859159251304 0.829 5.51012976948e-39
0.00460263884627 -0.0859159251304 0.829 2.28332294153e-38
0.00612204636247 -0.0857086490746 0.827 1.44581183108e-38
0.00765255795309 -0.0857086490746 0.827 1.55623372968e-38
0.00918306954371 -0.0857086490746 0.827 2.19188064972e-38
0.0107135811343 -0.0857086490746 0.827 1.08595922622e-38
0.0122440927249 -0.0857086490746 0.827 2.18366525721e-38
0.0137746043156 -0.0857086490746 0.827 6.98200883486e-39
0.0153051159062 -0.0857086490746 0.827 1.62631588887e-38
0.0168356274968 -0.0857086490746 0.827 1.63664850323e-38
0.0183661390874 -0.0857086490746 0.827 1.64661762076e-38
0.019896650678 -0.0857086490746 0.827 1.84041439578e-38
0.0214789812826 -0.0859159251304 0.829 5.60196526564e-39
0.0230131942314 -0.0859159251304 0.829 6.80591045944e-39
0.0245474071801 -0.0859159251304 0.829 2.13755973514e-38
0.0261445432172 -0.0861232011862 0.831 6.97949770801e-39
0.0277490819706 -0.086330477242 0.833 7.89785266959e-39
0.0292906976357 -0.086330477242 0.833 1.58205559661e-38
0.0309063404635 -0.0865377532978 0.835 1.76629075169e-38
0.0325293860076 -0.0867450293536 0.837 1.57218064634e-38
0.034159834268 -0.0869523054094 0.839 1.90408169086e-38
0.0357976852446 -0.0871595814652 0.841 2.25565808686e-38
0.0374429389376 -0.087366857521 0.843 2.34954340241e-38
0.0390955953468 -0.0875741335768 0.845 1.97953979147e-38
0.0407556544723 -0.0877814096326 0.847 1.80342305905e-38
0.0423231796443 -0.0877814096326 0.847 1.74800030349e-38
0.0438907048163 -0.0877814096326 0.847 1.83043504877e-38
0.0454582299883 -0.0877814096326 0.847 2.05221028905e-38
-0.0204740625478 -0.086621033856 0.851 1.47209682716e-38
-0.0188991346595 -0.086621033856 0.851 1.28741886176e-38
-0.0173242067712 -0.086621033856 0.851 1.32429921566e-38
-0.0156752517201 -0.0862138844606 0.847 1.33322913025e-38
-0.0140744143248 -0.086010309763 0.845 1.31493419789e-38
-0.012510590511 -0.086010309763 0.845 1.3707891139e-38
-0.0109208571901 -0.0858067350653 0.843 1.26901588929e-38
-0.00933852658556 -0.0856031603676 0.841 1.69343416167e-38
-0.00776359869727 -0.08539958567 0.839 1.24168047989e-38
-0.00619607352526 -0.0851960109723 0.837 1.03774110659e-38
-0.00463595106953 -0.0849924362746 0.835 1.72999067549e-38
-0.00308323133007 -0.084788861577 0.833 1.98872838576e-38
-0.00154161566504 -0.084788861577 0.833 6.24481373874e-39
0.0 -0.0845852868793 0.831 8.26519465422e-39
0.00153421294876 -0.0843817121817 0.829 1.09284240428e-38
0.00306842589751 -0.0843817121817 0.829 1.40602252171e-38
0.00460263884627 -0.0843817121817 0.829 2.03528876932e-38
0.00613685179503 -0.0843817121817 0.829 1.45492293357e-38
0.00767106474379 -0.0843817121817 0.829 1.73125829008e-38
0.00920527769254 -0.0843817121817 0.829 1.79504707774e-38
0.0107394906413 -0.0843817121817 0.829 2.05383761696e-38
0.0122737035901 -0.0843817121817 0.829 2.12820466659e-38
0.0138079165388 -0.0843817121817 0.829 7.53051068496e-39
0.0153051159062 -0.084178137484 0.827 1.58940204394e-38
0.0168356274968 -0.084178137484 0.827 1.51657908509e-38
0.0183661390874 -0.084178137484 0.827 1.63718604132e-38
0.0199447683338 -0.0843817121817 0.829 1.78505624008e-38
0.0214789812826 -0.0843817121817 0.829 6.06114274643e-39
0.0230131942314 -0.0843817121817 0.829 9.84728023862e-39
0.0245474071801 -0.0843817121817 0.829 7.45312537856e-39
0.0261445432172 -0.0845852868793 0.831 8.0815236619e-39
0.0277490819706 -0.084788861577 0.833 1.39819767108e-38
0.0292906976357 -0.084788861577 0.833 1.46151211921e-38
0.0309803676263 -0.0851960109723 0.837 1.86720413956e-38
0.0326071145285 -0.08539958567 0.839 1.69228607784e-38
0.034159834268 -0.08539958567 0.839 1.60877303339e-38
0.0357976852446 -0.0856031603676 0.841 2.2647319148e-38
0.0374429389376 -0.0858067350653 0.843 2.34871159164e-38
0.0390955953468 -0.086010309763 0.845 1.5826574543e-38
0.0407556544723 -0.0862138844606 0.847 1.89550616465e-38
0.0423231796443 -0.0862138844606 0.847 1.89540415012e-38
0.0438907048163 -0.0862138844606 0.847 1.66477060159e-38
0.0458339178395 -0.0869263959024 0.854 2.16288259969e-38
0.047414397765 -0.0869263959024 0.854 2.34882187383e-38
-0.0204740625478 -0.0850461059677 0.851 1.42589391484e-38
-0.0188991346595 -0.0850461059677 0.851 1.3061446934e-38
-0.0173242067712 -0.0850461059677 0.851 1.31540153093e-38
-0.0157122653015 -0.0848462326281 0.849 1.32429669332e-38
-0.0140744143248 -0.0844464859491 0.845 1.34269952566e-38
-0.012510590511 -0.0844464859491 0.845 1.52748651208e-38
-0.0109208571901 -0.0842466126096 0.843 1.16796097028e-38
-0.0093607347344 -0.0842466126096 0.843 1.31479014441e-38
-0.00778210548797 -0.08404673927 0.841 1.58301674723e-38
-0.00621087895782 -0.0838468659305 0.839 1.16774573083e-38
-0.00464705514394 -0.083646992591 0.837 1.09284240428e-38
-0.00309063404635 -0.0834471192515 0.835 1.02855755697e-38
-0.00154161566504 -0.0832472459119 0.833 1.21222854929e-38
0.0 -0.0830473725724 0.831 1.2214120989e-38
0.0015379143069 -0.0830473725724 0.831 1.15712725159e-38
0.00306842589751 -0.0828474992329 0.829 1.15712725159e-38
0.00460263884627 -0.0828474992329 0.829 1.01019045774e-38
0.00613685179503 -0.0828474992329 0.829 9.64272709659e-39
0.00767106474379 -0.0828474992329 0.829 1.03774110659e-38
0.00920527769254 -0.0828474992329 0.829 1.02855755697e-38
0.0107394906413 -0.0828474992329 0.829 2.2547695235e-38
0.0122737035901 -0.0828474992329 0.829 2.12798690481e-38
0.0138079165388 -0.0828474992329 0.829 1.32545710858e-38
0.0153051159062 -0.0826476258934 0.827 1.42377304962e-38
0.0168356274968 -0.0826476258934 0.827 1.5350888365e-38
0.0184105553851 -0.0828474992329 0.829 1.57214659478e-38
0.0199447683338 -0.0828474992329 0.829 1.68324798301e-38
0.0215308002966 -0.0830473725724 0.831 1.14959387105e-38
0.0230687146034 -0.0830473725724 0.831 5.60197367343e-39
0.0246066289103 -0.0830473725724 0.831 9.375168773e-39
0.026270389394 -0.0834471192515 0.835 1.4167501621e-38
0.0278157064172 -0.0834471192515 0.835 1.72992243226e-38
0.0293610234403 -0.0834471192515 0.835 1.48906332857e-38
0.0309803676263 -0.083646992591 0.837 1.57135626245e-38
0.0326071145285 -0.0838468659305 0.839 1.72870120065e-38
0.034159834268 -0.0838468659305 0.839 2.03337109237e-38
0.0357976852446 -0.08404673927 0.841 2.13601228125e-38
0.0374429389376 -0.0842466126096 0.843 1.8223719774e-38
0.0391881293003 -0.0846463592886 0.847 1.75707132884e-38
0.0407556544723 -0.0846463592886 0.847 1.59984255828e-38
0.0423231796443 -0.0846463592886 0.847 1.89515331769e-38
0.0440979808721 -0.0850461059677 0.851 1.9506842535e-38
0.0458339178395 -0.0853459159769 0.854 2.08944755367e-38
0.047414397765 -0.0853459159769 0.854 2.34939766737e-38
-0.0241236016732 -0.0852367259118 0.869 2.34936389608e-38
-0.0224635425477 -0.0850405539305 0.867 1.62991316216e-38
-0.0205462390315 -0.0837654360515 0.854 1.37997378455e-38
-0.018965759106 -0.0837654360515 0.854 1.29685506549e-38
-0.0173242067712 -0.0834711780794 0.851 1.30607490874e-38
-0.0157122653015 -0.083275006098 0.849 1.31514943734e-38
-0.0141410387714 -0.083275006098 0.849 1.34266393268e-38
-0.0125402013761 -0.0830788341166 0.847 1.31518629148e-38
-0.0109467666971 -0.0828826621352 0.845 1.42607510273e-38
-0.0093607347344 -0.0826864901538 0.843 1.16717330041e-38
-0.00778210548797 -0.0824903181724 0.841 1.35170398934e-38
-0.00622568439037 -0.0824903181724 0.841 1.61049368778e-38
-0.00465815921836 -0.0822941461911 0.839 1.06565048784e-38
-0.00309803676263 -0.0820979742097 0.837 1.27651353673e-38
-0.00154531702318 -0.0819018022283 0.835 1.23059564852e-38
0.0 -0.0817056302469 0.833 1.18467790044e-38
0.0015379143069 -0.0815094582655 0.831 1.25814629736e-38
0.00307582861379 -0.0815094582655 0.831 1.19386145005e-38
0.00461374292069 -0.0815094582655 0.831 1.21222854929e-38
0.00615165722759 -0.0815094582655 0.831 1.27658514308e-38
0.00767106474379 -0.0813132862841 0.829 1.27658514308e-38
0.00920527769254 -0.0813132862841 0.829 1.32243114468e-38
0.0107654001483 -0.0815094582655 0.831 1.19386145005e-38
0.0123033144552 -0.0815094582655 0.831 1.08365885466e-38
0.0138412287621 -0.0815094582655 0.831 1.20304499967e-38
0.0153051159062 -0.0811171143028 0.827 1.39622310142e-38
0.0168356274968 -0.0811171143028 0.827 1.55281273974e-38
0.0184105553851 -0.0813132862841 0.829 1.55370606751e-38
0.0200410036455 -0.0817056302469 0.833 1.58168831629e-38
0.0215826193105 -0.0817056302469 0.833 1.52683813128e-38
0.0231242349755 -0.0817056302469 0.833 1.47213213988e-38
0.0246658506406 -0.0817056302469 0.833 1.50901361481e-38
0.026270389394 -0.0819018022283 0.835 1.56389743098e-38
0.0278157064172 -0.0819018022283 0.835 1.591304727e-38
0.029431349245 -0.0820979742097 0.837 1.47048211094e-38
0.0310543947891 -0.0822941461911 0.839 1.58021625225e-38
0.0326071145285 -0.0822941461911 0.839 1.912767219e-38
0.034159834268 -0.0822941461911 0.839 2.34830885846e-38
0.0357976852446 -0.0824903181724 0.841 1.90551970334e-38
0.0375317715329 -0.0828826621352 0.845 1.65594760607e-38
0.0392806632538 -0.083275006098 0.849 1.69264354908e-38
0.0408518897839 -0.083275006098 0.849 1.89493275331e-38
0.0425230529838 -0.0834711780794 0.851 1.76618481353e-38
0.0443570759419 -0.0839616080328 0.856 1.95968899743e-38
0.0459412572255 -0.0839616080328 0.856 2.05260531509e-38
0.0476364792533 -0.0841577800142 0.858 2.34914627442e-38
0.0492243618951 -0.0841577800142 0.858 2.34911250313e-38
-0.0241236016732 -0.0836284858003 0.869 2.34936375595e-38
-0.0224635425477 -0.083436015177 0.867 1.68519382606e-38
-0.0207868273105 -0.0831473092422 0.864 1.35234942741e-38
-0.0190545917013 -0.0825698973724 0.858 1.26930553769e-38
-0.01742599412 -0.0823774267492 0.856 1.32437110227e-38
-0.0157492788829 -0.0818962501911 0.851 1.27823545228e-38
-0.0141410387714 -0.0817037795678 0.849 1.28749060825e-38
-0.0125402013761 -0.0815113089446 0.847 1.30592959409e-38
-0.0109467666971 -0.0813188383213 0.845 1.49986145428e-38
-0.00938294288323 -0.0813188383213 0.845 1.12164861655e-38
-0.00780061227866 -0.0811263676981 0.843 1.23156436615e-38
-0.00624048982293 -0.0811263676981 0.843 1.53605797452e-38
-0.00466926329278 -0.0809338970749 0.841 1.36121193955e-38
-0.00309803676263 -0.0805489558284 0.837 1.28598519331e-38
-0.00154531702318 -0.0803564852051 0.835 1.24896288788e-38
0.0 -0.0803564852051 0.835 1.25814629736e-38
0.00154161566504 -0.0801640145819 0.833 1.23977919813e-38
0.00308323133007 -0.0801640145819 0.833 1.2765133966e-38
0.00462484699511 -0.0801640145819 0.833 1.24896274775e-38
0.00615165722759 -0.0799715439586 0.831 1.30413579192e-38
0.00768957153448 -0.0799715439586 0.831 1.29495238244e-38
0.00922748584138 -0.0799715439586 0.831 1.3227181306e-38
0.0107654001483 -0.0799715439586 0.831 1.37821403394e-38
0.0123033144552 -0.0799715439586 0.831 1.35048401889e-38
0.0138412287621 -0.0799715439586 0.831 1.38718234411e-38
0.0153421294876 -0.0797790733354 0.829 1.4238447961e-38
0.0168763424363 -0.0797790733354 0.829 1.50692750179e-38
0.0185438042781 -0.0803564852051 0.835 1.51668474299e-38
0.0200891213013 -0.0803564852051 0.835 1.59072851307e-38
0.0216344383245 -0.0803564852051 0.835 1.67402870028e-38
0.0231797553476 -0.0803564852051 0.835 1.68367804151e-38
0.0247250723708 -0.0803564852051 0.835 1.67456595811e-38
0.0263333124823 -0.0805489558284 0.837 1.63750651828e-38
0.0278823308637 -0.0805489558284 0.837 1.67409862507e-38
0.0295016750496 -0.0807414264516 0.839 1.65548195459e-38
0.0310543947891 -0.0807414264516 0.839 1.54491810445e-38
0.0326848430495 -0.0809338970749 0.841 2.28298859172e-38
0.0342412641471 -0.0809338970749 0.841 2.07168091083e-38
0.0358828164819 -0.0811263676981 0.843 1.77622763936e-38
0.0375317715329 -0.0813188383213 0.845 1.73842144757e-38
0.0393731972073 -0.0818962501911 0.851 1.69225132564e-38
0.0409481250955 -0.0818962501911 0.851 1.93192254862e-38
0.0426729579885 -0.082184956126 0.854 1.79388077703e-38
0.0444607139698 -0.0825698973724 0.858 1.98773794801e-38
0.0460485966116 -0.0825698973724 0.858 2.2463959244e-38
0.0476364792533 -0.0825698973724 0.858 2.3485672579e-38
0.0492243618951 -0.0825698973724 0.858 2.34925739739e-38
-0.0241236016732 -0.0820202456888 0.869 2.34932676167e-38
-0.0224635425477 -0.0818314764236 0.867 1.8972454563e-38
-0.0207868273105 -0.081548322526 0.864 1.42625292751e-38
-0.0191434242967 -0.0813595532609 0.862 1.30625231313e-38
-0.01742599412 -0.0807932454656 0.856 1.24153796784e-38
-0.0157492788829 -0.0803213223028 0.851 1.34266547411e-38
-0.0141743509946 -0.0803213223028 0.851 1.25983416136e-38
-0.0125698122412 -0.0801325530377 0.849 1.39830473029e-38
-0.0109726762041 -0.0799437837726 0.847 1.28777759417e-38
-0.00938294288323 -0.0797550145075 0.845 1.37997350429e-38
-0.00781911906936 -0.0797550145075 0.845 1.23185121194e-38
-0.00624048982293 -0.0795662452424 0.843 1.24078364887e-38
-0.00466926329278 -0.0793774759773 0.841 1.34226904677e-38
-0.00310543947891 -0.0791887067122 0.839 1.25875614246e-38
-0.00154901838131 -0.078999937447 0.837 1.33161469429e-38
0.0 -0.0788111681819 0.835 1.25814671775e-38
0.00154531702318 -0.0788111681819 0.835 1.28569694621e-38
0.00309063404635 -0.0788111681819 0.835 1.17549435082e-38
0.00463595106953 -0.0788111681819 0.835 1.25814629736e-38
0.00616646266014 -0.0786223989168 0.833 1.28569694621e-38
0.00770807832518 -0.0786223989168 0.833 1.34079852417e-38
0.00924969399022 -0.0786223989168 0.833 1.31324759506e-38
0.0108172191622 -0.0788111681819 0.835 1.31324787532e-38
0.0123625361854 -0.0788111681819 0.835 1.3777119487e-38
0.0139078532086 -0.0788111681819 0.835 1.35012528649e-38
0.015379143069 -0.0784336296517 0.831 1.39622240077e-38
0.0169170573759 -0.0784336296517 0.831 1.42380892286e-38
0.0186326368734 -0.0791887067122 0.839 1.47937671281e-38
0.0201372389571 -0.078999937447 0.837 1.50760993414e-38
0.0216862573384 -0.078999937447 0.837 1.60888219454e-38
0.0232352757197 -0.078999937447 0.837 1.64662238518e-38
0.024784294101 -0.078999937447 0.837 1.70211646683e-38
0.0263962355707 -0.0791887067122 0.839 1.62814738596e-38
0.0279489553102 -0.0791887067122 0.839 1.73863822845e-38
0.0295720008543 -0.0793774759773 0.841 1.78523798849e-38
0.0311284219519 -0.0793774759773 0.841 1.94251104007e-38
0.0327625715704 -0.0795662452424 0.843 1.89619322128e-38
0.0343226940261 -0.0795662452424 0.843 1.65551418445e-38
0.0359679477191 -0.0797550145075 0.845 1.96880066043e-38
0.0377094367236 -0.0801325530377 0.849 1.84926878039e-38
0.0395119981375 -0.0806044762005 0.854 1.73838389277e-38
0.041092478063 -0.0806044762005 0.854 1.75678434291e-38
0.0426729579885 -0.0806044762005 0.854 1.88590110445e-38
0.0445643519977 -0.0811707839958 0.86 1.95104172473e-38
0.0461559359976 -0.0811707839958 0.86 2.29256562594e-38
0.0477475199975 -0.0811707839958 0.86 2.34871173177e-38
0.0493391039974 -0.0811707839958 0.86 2.34958263877e-38
-0.0257318417847 -0.0804120055772 0.869 2.31187411748e-38
-0.0241236016732 -0.0804120055772 0.869 2.34954214124e-38
-0.0225153615616 -0.0804120055772 0.869 2.00795251914e-38
-0.0208590037943 -0.0802269376702 0.867 1.27881194647e-38
-0.0191878405943 -0.0799493358098 0.864 1.40781183972e-38
-0.0175481389386 -0.0797642679028 0.862 1.29717876544e-38
-0.015804799255 -0.079023996275 0.854 1.34277127214e-38
-0.0141743509946 -0.0787463944145 0.851 1.29667415786e-38
-0.0125994231063 -0.0787463944145 0.851 1.34280742564e-38
-0.0109985857111 -0.0785613265075 0.849 1.3061446934e-38
-0.00940515103207 -0.0783762586006 0.847 1.45361958587e-38
-0.00781911906936 -0.0781911906936 0.845 1.17671404101e-38
-0.00625529525549 -0.0781911906936 0.845 1.2776613403e-38
-0.0046803673672 -0.0780061227866 0.843 1.31446728524e-38
-0.00311284219519 -0.0778210548797 0.841 1.38829441458e-38
-0.00154901838131 -0.0774509190657 0.837 1.2215914651e-38
0.0 -0.0774509190657 0.837 1.24896274775e-38
0.00154531702318 -0.0772658511588 0.835 1.25818217061e-38
0.00309063404635 -0.0772658511588 0.835 1.2214120989e-38
0.00463595106953 -0.0772658511588 0.835 1.32243114468e-38
0.0061812680927 -0.0772658511588 0.835 1.24896274775e-38
0.00772658511588 -0.0772658511588 0.835 1.33161483442e-38
0.00927190213905 -0.0772658511588 0.835 1.31335521478e-38
0.0108431286692 -0.0774509190657 0.837 1.3041366327e-38
0.0123921470505 -0.0774509190657 0.837 1.35012528649e-38
0.0139411654318 -0.0774509190657 0.837 1.38693165182e-38
0.0154901838131 -0.0774509190657 0.837 1.3594882023e-38
0.0170392021945 -0.0774509190657 0.837 1.41462537324e-38
0.0186326368734 -0.0776359869727 0.839 1.51625594566e-38
0.0201372389571 -0.0774509190657 0.837 1.52601178557e-38
0.0216862573384 -0.0774509190657 0.837 1.56285514519e-38
0.0232352757197 -0.0774509190657 0.837 1.74735556606e-38
0.024784294101 -0.0774509190657 0.837 1.63729562286e-38
0.0264591586591 -0.0778210548797 0.841 1.75721986647e-38
0.0280155797567 -0.0778210548797 0.841 1.75743482566e-38
0.0296423266589 -0.0780061227866 0.843 1.77609409562e-38
0.0312024491147 -0.0780061227866 0.843 2.20090319014e-38
0.0328403000913 -0.0781911906936 0.845 1.5916624785e-38
0.0344855537843 -0.0783762586006 0.847 1.87696278207e-38
0.0360530789563 -0.0783762586006 0.847 1.82150219145e-38
0.037798269319 -0.0787463944145 0.851 1.82182308879e-38
0.0393731972073 -0.0787463944145 0.851 1.71076051654e-38
0.041092478063 -0.079023996275 0.854 1.85827324406e-38
0.0426729579885 -0.079023996275 0.854 1.90462469401e-38
0.0445643519977 -0.0795791999959 0.86 2.10788163496e-38
0.0461559359976 -0.0795791999959 0.86 2.27423383943e-38
0.0477475199975 -0.0795791999959 0.86 2.3298439486e-38
0.0493391039974 -0.0795791999959 0.86 2.34940103048e-38
-0.0257318417847 -0.0788037654657 0.869 2.34867978216e-38
-0.0241236016732 -0.0788037654657 0.869 2.34907466807e-38
-0.0225153615616 -0.0788037654657 0.869 2.10933197887e-38
-0.0208590037943 -0.0786223989168 0.867 1.31597984681e-38
-0.0192544650409 -0.0786223989168 0.867 1.33419812814e-38
-0.0175888538782 -0.0783503490936 0.864 1.31554628506e-38
-0.0158418128364 -0.0776248828983 0.856 1.36153297702e-38
-0.0142243193295 -0.0774435163495 0.854 1.33358772253e-38
-0.0125994231063 -0.0771714665262 0.851 1.40737897862e-38
-0.011024495218 -0.0771714665262 0.851 1.37979245653e-38
-0.0094273591809 -0.0769900999774 0.849 1.37982861003e-38
-0.00783762586006 -0.0768087334286 0.847 1.26923112874e-38
-0.00625529525549 -0.0766273668797 0.845 1.29617193249e-38
-0.0046803673672 -0.0764460003309 0.843 1.34226904677e-38
-0.00311284219519 -0.0762646337821 0.841 1.38854622791e-38
-0.00155271973945 -0.0760832672332 0.839 1.35163196259e-38
0.0 -0.0760832672332 0.839 1.25814685788e-38
0.00154901838131 -0.0759019006844 0.837 1.24896274775e-38
0.00309803676263 -0.0759019006844 0.837 1.25814629736e-38
0.00464705514394 -0.0759019006844 0.837 1.2765133966e-38
0.00619607352526 -0.0759019006844 0.837 1.26732984698e-38
0.00774509190657 -0.0759019006844 0.837 1.27662101632e-38
0.00931631843672 -0.0760832672332 0.839 1.26732984698e-38
0.0108690381762 -0.0760832672332 0.839 1.34079852417e-38
0.0124217579156 -0.0760832672332 0.839 1.35030465269e-38
0.0139744776551 -0.0760832672332 0.839 1.38711171867e-38
0.0155271973945 -0.0760832672332 0.839 1.38729318682e-38
0.017079917134 -0.0760832672332 0.839 1.40554944335e-38
0.0186326368734 -0.0760832672332 0.839 1.44235552842e-38
0.0201853566129 -0.0760832672332 0.839 1.47944972046e-38
0.0217380763524 -0.0760832672332 0.839 1.50735980236e-38
0.0232907960918 -0.0760832672332 0.839 1.65494469676e-38
0.0249619592917 -0.0764460003309 0.843 1.72009176301e-38
0.0265220817475 -0.0764460003309 0.843 1.72991766784e-38
0.0280822042032 -0.0764460003309 0.843 1.79442223875e-38
0.0296423266589 -0.0764460003309 0.843 2.15427442322e-38
0.0312764762774 -0.0766273668797 0.845 2.01658381703e-38
0.0329180286122 -0.0768087334286 0.847 1.88697323791e-38
0.0344855537843 -0.0768087334286 0.847 1.80331613998e-38
0.0361382101935 -0.0769900999774 0.849 1.87717493865e-38
0.037798269319 -0.0771714665262 0.851 1.81249744751e-38
0.0393731972073 -0.0771714665262 0.851 1.66462738888e-38
0.041092478063 -0.0774435163495 0.854 2.00585687728e-38
0.042872831328 -0.0778062494471 0.858 1.9510082337e-38
0.0445643519977 -0.0779876159959 0.86 2.13564948507e-38
0.0461559359976 -0.0779876159959 0.86 2.20998402458e-38
0.0477475199975 -0.0779876159959 0.86 2.34835299936e-38
0.0493391039974 -0.0779876159959 0.86 2.34911250313e-38
-0.0257318417847 -0.0771955253541 0.869 2.31190971046e-38
-0.0241236016732 -0.0771955253541 0.869 2.34896901017e-38
-0.0225671805756 -0.0773731905448 0.871 2.1739042325e-38
-0.0209071214501 -0.0771955253541 0.869 1.44512505471e-38
-0.0192544650409 -0.0770178601634 0.867 1.26955763128e-38
-0.0175888538782 -0.0767513623774 0.864 1.35245900895e-38
-0.0158788264178 -0.0762183668053 0.858 1.34320245168e-38
-0.0142243193295 -0.075863036424 0.854 1.36156885026e-38
-0.0125994231063 -0.0755965386379 0.851 1.44450778273e-38
-0.011024495218 -0.0755965386379 0.851 1.33401820142e-38
-0.0094273591809 -0.0754188734472 0.849 1.46316214815e-38
-0.00785613265075 -0.0754188734472 0.849 1.49089188294e-38
-0.00627010068805 -0.0752412082565 0.847 1.28770584769e-38
-0.00469147144162 -0.0750635430659 0.845 1.32411718699e-38
-0.00312024491147 -0.0748858778752 0.843 1.30567834127e-38
-0.00156012245573 -0.0748858778752 0.843 1.34226904677e-38
0.0 -0.0747082126845 0.841 1.29498811555e-38
0.00155642109759 -0.0747082126845 0.841 1.28576869269e-38
0.00310543947891 -0.0745305474938 0.839 1.31324759506e-38
0.00465815921836 -0.0745305474938 0.839 1.25814629736e-38
0.00622568439037 -0.0747082126845 0.841 1.27662101632e-38
0.00778210548797 -0.0747082126845 0.841 1.25832566357e-38
0.00933852658556 -0.0747082126845 0.841 1.29488049583e-38
0.0108949476832 -0.0747082126845 0.841 1.32246701792e-38
0.0124513687807 -0.0747082126845 0.841 1.35023290621e-38
0.0139744776551 -0.0745305474938 0.839 1.35030465269e-38
0.0155271973945 -0.0745305474938 0.839 1.34119284955e-38
0.017079917134 -0.0745305474938 0.839 1.38703885115e-38
0.0186326368734 -0.0745305474938 0.839 1.40551357011e-38
0.0201853566129 -0.0745305474938 0.839 1.5161152553e-38
0.0217380763524 -0.0745305474938 0.839 1.49835505843e-38
0.0232907960918 -0.0745305474938 0.839 1.49813981899e-38
0.0249619592917 -0.0748858778752 0.843 1.86749687081e-38
0.0265220817475 -0.0748858778752 0.843 1.67485084209e-38
0.0281488286497 -0.0750635430659 0.845 1.77598171148e-38
0.0297126524636 -0.0750635430659 0.845 2.2374997811e-38
0.0313505034402 -0.0752412082565 0.847 2.01643780173e-38
0.0330734856541 -0.0755965386379 0.851 1.93307077258e-38
0.0346484135424 -0.0755965386379 0.851 1.72026930753e-38
0.0363510382865 -0.075863036424 0.854 1.83997733079e-38
0.037931518212 -0.075863036424 0.854 1.78473155922e-38
0.039604532091 -0.0760407016146 0.856 1.86760098729e-38
0.0411887133746 -0.0760407016146 0.856 1.74796120726e-38
0.042872831328 -0.0762183668053 0.858 2.02465375475e-38
0.0445643519977 -0.076396031996 0.86 2.08030113846e-38
0.0461559359976 -0.076396031996 0.86 2.15473881353e-38
0.0477475199975 -0.076396031996 0.86 2.34857034075e-38
0.0493391039974 -0.076396031996 0.86 2.34943648334e-38
-0.0257318417847 -0.0755872852426 0.869 2.32127276641e-38
-0.0241236016732 -0.0755872852426 0.869 2.3490748082e-38
-0.0225671805756 -0.0757612490751 0.871 2.22914972381e-38
-0.0209071214501 -0.0755872852426 0.869 1.50029907979e-38
-0.0192988813385 -0.0755872852426 0.869 1.52777545982e-38
-0.0176499262875 -0.07541332141 0.867 1.25126241866e-38
-0.0159528535806 -0.0749784118287 0.862 1.36175045855e-38
-0.0142576315527 -0.074456520331 0.856 1.38008070363e-38
-0.012643839404 -0.0742825564985 0.854 1.39859199647e-38
-0.0110633594785 -0.0742825564985 0.854 1.28799283362e-38
-0.00944956732974 -0.0740216107496 0.851 1.463342215e-38
-0.00785613265075 -0.0738476469171 0.849 1.4539075527e-38
-0.00627010068805 -0.0736736830845 0.847 1.47234878062e-38
-0.00470257551603 -0.0736736830845 0.847 1.32476290532e-38
-0.00312764762774 -0.073499719252 0.845 1.32440417291e-38
-0.00156382381387 -0.073499719252 0.845 1.21269490141e-38
0.0 -0.073499719252 0.845 1.34998221391e-38
0.00156012245573 -0.0733257554194 0.843 1.29491636907e-38
0.00312024491147 -0.0733257554194 0.843 1.29498811555e-38
0.0046803673672 -0.0733257554194 0.843 1.27658514308e-38
0.00624048982293 -0.0733257554194 0.843 1.28569694621e-38
0.00780061227866 -0.0733257554194 0.843 1.24896274775e-38
0.0093607347344 -0.0733257554194 0.843 1.31324759506e-38
0.0108949476832 -0.0731517915869 0.841 1.30406404544e-38
0.0124513687807 -0.0731517915869 0.841 1.35938058258e-38
0.0140077898783 -0.0731517915869 0.841 1.38707612569e-38
0.0155642109759 -0.0731517915869 0.841 1.38718234411e-38
0.0171206320735 -0.0731517915869 0.841 1.35959582203e-38
0.0186770531711 -0.0731517915869 0.841 1.31339122815e-38
0.0201853566129 -0.0729778277543 0.839 1.40508309122e-38
0.0217380763524 -0.0729778277543 0.839 1.49835379726e-38
0.0233463164639 -0.0731517915869 0.841 1.52597647285e-38
0.0249619592917 -0.0733257554194 0.843 1.68263911883e-38
0.0265220817475 -0.0733257554194 0.843 1.62800277196e-38
0.0281488286497 -0.073499719252 0.845 2.17242558236e-38
0.0297126524636 -0.073499719252 0.845 2.10871288521e-38
0.0313505034402 -0.0736736830845 0.847 1.87817952952e-38
0.0330734856541 -0.0740216107496 0.851 1.95147332466e-38
0.034770558361 -0.0742825564985 0.854 1.87742997497e-38
0.0363510382865 -0.0742825564985 0.854 1.63661192934e-38
0.037931518212 -0.0742825564985 0.854 1.8765662146e-38
0.0396970660444 -0.0746304841636 0.858 1.83068700223e-38
0.0412849486862 -0.0746304841636 0.858 1.84919689378e-38
0.042872831328 -0.0746304841636 0.858 2.01546852358e-38
0.0443570759419 -0.074456520331 0.856 2.30167826985e-38
0.0459412572255 -0.074456520331 0.856 1.96095254825e-38
0.0475254385092 -0.074456520331 0.856 2.34796133644e-38
-0.0241791220453 -0.0741493076054 0.871 2.27510334513e-38
-0.0225671805756 -0.0741493076054 0.871 2.34907536872e-38
-0.0209071214501 -0.073979045131 0.869 1.55576233288e-38
-0.0192988813385 -0.073979045131 0.869 1.41721132943e-38
-0.0176499262875 -0.0738087826566 0.867 1.3894842571e-38
-0.0159528535806 -0.0733831264706 0.862 1.3433476262e-38
-0.0143242559993 -0.0732128639962 0.86 1.49085965308e-38
-0.0127030611342 -0.0730426015218 0.858 1.41702930076e-38
-0.0110633594785 -0.072702076573 0.854 1.43568296552e-38
-0.00944956732974 -0.0724466828613 0.851 1.42646354267e-38
-0.00787463944145 -0.0724466828613 0.851 1.65680800332e-38
-0.0062849061206 -0.0722764203869 0.849 1.46334249526e-38
-0.00470257551603 -0.0721061579125 0.847 1.46309208323e-38
-0.00313505034402 -0.0721061579125 0.847 1.30607294692e-38
-0.00156382381387 -0.0719358954381 0.845 1.26801143855e-38
0.0 -0.0719358954381 0.845 1.36849238572e-38
0.00156382381387 -0.0719358954381 0.845 1.23059564852e-38
0.00312764762774 -0.0719358954381 0.845 1.32253918479e-38
0.0046803673672 -0.0717656329637 0.843 1.22141406072e-38
0.00624048982293 -0.0717656329637 0.843 1.26732984698e-38
0.00780061227866 -0.0717656329637 0.843 1.29491636907e-38
0.0093607347344 -0.0717656329637 0.843 1.32257463764e-38
0.0109208571901 -0.0717656329637 0.843 1.29495224231e-38
0.0124809796459 -0.0717656329637 0.843 1.32257463764e-38
0.0140411021016 -0.0717656329637 0.843 1.35952407555e-38
0.0156012245573 -0.0717656329637 0.843 1.34108522983e-38
0.0171613470131 -0.0717656329637 0.843 1.33168644077e-38
0.0186770531711 -0.0715953704893 0.841 1.33193755346e-38
0.0202334742687 -0.0715953704893 0.841 1.56206761545e-38
0.0217898953663 -0.0715953704893 0.841 1.4430728531e-38
0.023401836836 -0.0717656329637 0.843 1.48909850117e-38
0.0249619592917 -0.0717656329637 0.843 1.59966291182e-38
0.0265850048358 -0.0719358954381 0.845 1.84941199309e-38
0.0281488286497 -0.0719358954381 0.845 2.16356433139e-38
0.0297829782682 -0.0721061579125 0.847 1.95157870231e-38
0.031424530603 -0.0722764203869 0.849 1.96980483091e-38
0.0330734856541 -0.0724466828613 0.851 1.96047778833e-38
0.034770558361 -0.072702076573 0.854 1.74849762431e-38
0.0363510382865 -0.072702076573 0.854 1.80266874009e-38
0.0380203508073 -0.0728723390474 0.856 1.89522366287e-38
0.0396970660444 -0.0730426015218 0.858 1.81235577624e-38
0.0412849486862 -0.0730426015218 0.858 1.9967763231e-38
0.042872831328 -0.0730426015218 0.858 2.006430709e-38
0.0443570759419 -0.0728723390474 0.856 2.3203341767e-38
0.0459412572255 -0.0728723390474 0.856 1.71198469088e-38
0.0475254385092 -0.0728723390474 0.856 2.34828475613e-38
-0.0241791220453 -0.0725373661358 0.871 2.33956741851e-38
-0.0225671805756 -0.0725373661358 0.871 2.34918452987e-38
-0.0209071214501 -0.0723708050195 0.869 1.42665341861e-38
-0.0192988813385 -0.0723708050195 0.869 1.51869616681e-38
-0.017690641227 -0.0723708050195 0.869 1.4724233297e-38
-0.015989867162 -0.0719544022288 0.864 1.39862941114e-38
-0.0143242559993 -0.0716212799963 0.86 1.40788190464e-38
-0.0127030611342 -0.07145471888 0.858 1.41710174789e-38
-0.0110892689855 -0.0712881577637 0.856 1.48170833332e-38
-0.00948287955299 -0.0711215966475 0.854 1.54631632006e-38
-0.00787463944145 -0.0708717549731 0.851 1.48185785187e-38
-0.00629971155316 -0.0708717549731 0.851 1.52773440177e-38
-0.00471367959045 -0.0707051938568 0.849 1.40788120399e-38
-0.0031424530603 -0.0707051938568 0.849 1.44443603625e-38
-0.00156752517201 -0.0705386327405 0.847 1.31421617256e-38
0.0 -0.0705386327405 0.847 1.33193755346e-38
0.00156752517201 -0.0705386327405 0.847 1.30413579192e-38
0.00312764762774 -0.0703720716242 0.845 1.31324759506e-38
0.00469147144162 -0.0703720716242 0.845 1.32246701792e-38
0.00624048982293 -0.070205510508 0.843 1.30406404544e-38
0.00780061227866 -0.070205510508 0.843 1.2765133966e-38
0.0093607347344 -0.070205510508 0.843 1.29491636907e-38
0.0109208571901 -0.070205510508 0.843 1.31342696126e-38
0.0124809796459 -0.070205510508 0.843 1.35916534314e-38
0.0140411021016 -0.070205510508 0.843 1.3224688396e-38
0.0156012245573 -0.070205510508 0.843 1.34105089802e-38
0.0171613470131 -0.070205510508 0.843 1.35945232906e-38
0.0187214694688 -0.070205510508 0.843 1.46129645937e-38
0.0202815919245 -0.070205510508 0.843 1.34104935659e-38
0.0218417143803 -0.070205510508 0.843 1.4796635586e-38
0.0234573572081 -0.0703720716242 0.845 1.56256801913e-38
0.025021181022 -0.0703720716242 0.845 1.47055399755e-38
0.0266479279242 -0.0705386327405 0.847 2.04309414189e-38
0.0282154530962 -0.0705386327405 0.847 2.12678977553e-38
0.0298533040729 -0.0707051938568 0.849 1.99742862754e-38
0.0314985577658 -0.0708717549731 0.851 1.9790243939e-38
0.0331900784355 -0.0711215966475 0.854 1.96987489584e-38
0.034770558361 -0.0711215966475 0.854 1.80359892201e-38
0.0363510382865 -0.0711215966475 0.854 1.87667733757e-38
0.0380203508073 -0.0712881577637 0.856 1.87689215662e-38
0.0396970660444 -0.07145471888 0.858 1.89533226351e-38
0.0412849486862 -0.07145471888 0.858 1.94143077909e-38
0.042872831328 -0.07145471888 0.858 2.08033336832e-38
0.0444607139698 -0.07145471888 0.858 2.27434103876e-38
0.0460485966116 -0.07145471888 0.858 1.3710759597e-38
-0.0242346424173 -0.0710882844242 0.873 2.34914655468e-38
-0.0225671805756 -0.0709254246661 0.871 2.34900544393e-38
-0.0209552391059 -0.0709254246661 0.871 1.62019361588e-38
-0.0192988813385 -0.0707625649079 0.869 1.4727782786e-38
-0.017690641227 -0.0707625649079 0.869 1.39877598696e-38
-0.0160824011154 -0.0707625649079 0.869 1.42632271217e-38
-0.0143575682225 -0.0701925557545 0.862 1.500290672e-38
-0.0127326719993 -0.0700296959964 0.86 1.46348472706e-38
-0.0111151784924 -0.0698668362382 0.858 1.52787887565e-38
-0.00950508770183 -0.0697039764801 0.856 1.55560790979e-38
-0.0079023996275 -0.069541116722 0.854 1.58348183819e-38
-0.00629971155316 -0.0692968270848 0.851 1.46323361437e-38
-0.00472478366487 -0.0692968270848 0.851 1.50943834837e-38
-0.00314985577658 -0.0692968270848 0.851 1.50003955932e-38
-0.00157122653015 -0.0691339673266 0.849 1.37900450641e-38
0.0 -0.0691339673266 0.849 1.28584043917e-38
0.00156752517201 -0.0689711075685 0.847 1.35945232906e-38
0.00313505034402 -0.0689711075685 0.847 1.30424341165e-38
0.00469147144162 -0.0688082478104 0.845 1.30406404544e-38
0.00625529525549 -0.0688082478104 0.845 1.34090586363e-38
0.00781911906936 -0.0688082478104 0.845 1.27665688956e-38
0.00938294288323 -0.0688082478104 0.845 1.27658514308e-38
0.0109208571901 -0.0686453880522 0.843 1.31324759506e-38
0.0124809796459 -0.0686453880522 0.843 1.29488049583e-38
0.0140411021016 -0.0686453880522 0.843 1.31339178867e-38
0.0156012245573 -0.0686453880522 0.843 1.2859480589e-38
0.0171613470131 -0.0686453880522 0.843 1.36860140674e-38
0.0187658857665 -0.0688082478104 0.845 1.33183287646e-38
0.0203297095803 -0.0688082478104 0.845 1.38689605884e-38
0.0218935333942 -0.0688082478104 0.845 1.44199819731e-38
0.0234573572081 -0.0688082478104 0.845 1.61720618768e-38
0.0250804027522 -0.0689711075685 0.847 1.47966664146e-38
0.0267108510126 -0.0691339673266 0.849 1.93214115118e-38
0.0282820775427 -0.0691339673266 0.849 2.02508031001e-38
0.0299236298775 -0.0692968270848 0.851 2.07093107602e-38
0.0314985577658 -0.0692968270848 0.851 2.04338126795e-38
0.0331900784355 -0.069541116722 0.854 1.85923831831e-38
0.034770558361 -0.069541116722 0.854 1.8955092475e-38
0.0364361695237 -0.0697039764801 0.856 2.07067870216e-38
0.0380203508073 -0.0697039764801 0.856 1.87703438842e-38
0.0397895999979 -0.0700296959964 0.86 1.95072124778e-38
0.0413811839978 -0.0700296959964 0.86 2.07121778168e-38
0.042872831328 -0.0698668362382 0.858 2.06203871622e-38
0.0444607139698 -0.0698668362382 0.858 2.13597416593e-38
0.0460485966116 -0.0698668362382 0.858 1.37093344764e-38
-0.0242901627894 -0.0696317999964 0.875 2.27503019735e-38
-0.0226189995895 -0.0694726415964 0.873 2.34914949741e-38
-0.0209552391059 -0.0693134831964 0.871 1.28825277448e-38
-0.0193432976362 -0.0693134831964 0.871 1.60185370184e-38
-0.017690641227 -0.0691543247964 0.869 1.42646592487e-38
-0.0160824011154 -0.0691543247964 0.869 1.40788428685e-38
-0.0143908804458 -0.0687564287964 0.864 1.50926220516e-38
-0.0127622828645 -0.0685972703964 0.862 1.45415950616e-38
-0.0111410879994 -0.0684381119964 0.86 1.50021990643e-38
-0.00952729585067 -0.0682789535964 0.858 1.4818889607e-38
-0.00792090641819 -0.0681197951965 0.856 1.59259252029e-38
-0.006321919702 -0.0679606367965 0.854 1.73095560962e-38
-0.00472478366487 -0.0677218991965 0.851 1.30635993285e-38
-0.00314985577658 -0.0677218991965 0.851 1.36081551221e-38
-0.00157492788829 -0.0677218991965 0.851 1.40641040112e-38
0.0 -0.0675627407965 0.849 1.38750520328e-38
0.00157122653015 -0.0675627407965 0.849 1.35988280795e-38
0.00313505034402 -0.0674035823965 0.847 1.3685641322e-38
0.00469147144162 -0.0672444239965 0.845 1.36834889275e-38
0.00625529525549 -0.0672444239965 0.845 1.34079824391e-38
0.00781911906936 -0.0672444239965 0.845 1.30406404544e-38
0.00938294288323 -0.0672444239965 0.845 1.32243114468e-38
0.0109467666971 -0.0672444239965 0.845 1.2765133966e-38
0.012510590511 -0.0672444239965 0.845 1.30417194543e-38
0.0140744143248 -0.0672444239965 0.845 1.28584226086e-38
0.0156382381387 -0.0672444239965 0.845 1.32257463764e-38
0.0172020619526 -0.0672444239965 0.845 1.33200929994e-38
0.0187658857665 -0.0672444239965 0.845 1.35945246919e-38
0.0203297095803 -0.0672444239965 0.845 1.32264666438e-38
0.0219453524082 -0.0674035823965 0.847 1.37764160352e-38
0.0235128775802 -0.0674035823965 0.847 1.49756430571e-38
0.0251396244824 -0.0675627407965 0.849 1.53505352378e-38
0.0267108510126 -0.0675627407965 0.849 1.9779501585e-38
0.0283487019892 -0.0677218991965 0.851 2.13549884549e-38
0.0299236298775 -0.0677218991965 0.851 2.00668476442e-38
0.03160959851 -0.0679606367965 0.854 2.04345189339e-38
0.0331900784355 -0.0679606367965 0.854 1.91434297912e-38
0.03485198824 -0.0681197951965 0.856 1.84941325426e-38
