# .PCD v0.7 - Point Cloud Data file format
VERSION 0.7
FIELDS x y z rgb
SIZE 4 4 4 4
TYPE F F F F
COUNT 1 1 1 1
WIDTH 852
HEIGHT 1
VIEWPOINT 0 0 0 1 0 0 0
POINTS 852
DATA ascii
0.037798269319 -0.19371613026 0.851 6.3366492349e-39
0.0393731972073 -0.19371613026 0.851 1.7026975853e-38
-0.0297829782682 -0.191238070985 0.847 6.9895436167e-39
-0.0282154530962 -0.191238070985 0.847 7.25500419648e-39
-0.0265850048358 -0.190786505292 0.845 6.88766221185e-39
-0.025021181022 -0.190786505292 0.845 6.70399121953e-39
-0.0234573572081 -0.190786505292 0.845 7.16316870032e-39
-0.0218935333942 -0.190786505292 0.845 1.01040990108e-38
-0.0203297095803 -0.190786505292 0.845 1.11261024146e-38
-0.0187214694688 -0.190334939599 0.843 9.74784970479e-39
-0.0171613470131 -0.190334939599 0.843 1.10389808864e-38
-0.0156012245573 -0.190334939599 0.843 1.24247922001e-38
-0.0140411021016 -0.190334939599 0.843 1.29811651437e-38
-0.0124809796459 -0.190334939599 0.843 1.27975151709e-38
-0.0109208571901 -0.190334939599 0.843 1.30730286658e-38
-0.00933852658556 -0.189883373906 0.841 1.39020326334e-38
-0.00778210548797 -0.189883373906 0.841 1.39020298308e-38
-0.00622568439037 -0.189883373906 0.841 1.45470517179e-38
-0.00465815921836 -0.189431808213 0.839 1.48254462825e-38
-0.00310543947891 -0.189431808213 0.839 1.61154466163e-38
-0.00154901838131 -0.18898024252 0.837 1.63924090539e-38
0.0 -0.18898024252 0.837 1.81430217981e-38
0.00154901838131 -0.18898024252 0.837 1.82355929759e-38
0.00309803676263 -0.18898024252 0.837 1.7774264502e-38
0.00464705514394 -0.18898024252 0.837 1.90646529955e-38
0.00619607352526 -0.18898024252 0.837 1.85121980824e-38
0.00776359869727 -0.189431808213 0.839 1.83288858225e-38
0.00933852658556 -0.189883373906 0.841 1.85132756809e-38
0.0108949476832 -0.189883373906 0.841 1.78671818006e-38
0.0124217579156 -0.189431808213 0.839 1.74062022499e-38
0.0139744776551 -0.189431808213 0.839 1.6945582833e-38
0.0155642109759 -0.189883373906 0.841 1.66675638164e-38
0.0171206320735 -0.189883373906 0.841 1.58374500204e-38
0.0186326368734 -0.189431808213 0.839 1.51910142233e-38
0.0201853566129 -0.189431808213 0.839 1.60196776753e-38
0.0217380763524 -0.189431808213 0.839 1.65717402248e-38
0.023401836836 -0.190334939599 0.843 1.62058219594e-38
0.0249619592917 -0.190334939599 0.843 1.70366938579e-38
0.0265850048358 -0.190786505292 0.845 1.74047561099e-38
0.0281488286497 -0.190786505292 0.845 1.72196684049e-38
0.0297829782682 -0.191238070985 0.847 1.71252825455e-38
0.031424530603 -0.191689636678 0.849 1.51881149367e-38
0.0329957571332 -0.191689636678 0.849 1.68450859111e-38
0.0346484135424 -0.192141202371 0.851 1.0111241429e-38
0.0362233414307 -0.192141202371 0.851 9.45905610427e-39
0.037798269319 -0.192141202371 0.851 1.34370495731e-38
0.0393731972073 -0.192141202371 0.851 1.69452297058e-38
-0.0297829782682 -0.189670545813 0.847 6.71547065655e-39
-0.0282154530962 -0.189670545813 0.847 7.16316870032e-39
-0.0265850048358 -0.189222681479 0.845 7.4386751888e-39
-0.025021181022 -0.189222681479 0.845 7.62234618111e-39
-0.0234573572081 -0.189222681479 0.845 7.89785266959e-39
-0.0218935333942 -0.189222681479 0.845 8.0815236619e-39
-0.0203297095803 -0.189222681479 0.845 7.34683969264e-39
-0.0187214694688 -0.188774817144 0.843 7.71418167727e-39
-0.0171613470131 -0.188774817144 0.843 1.05657455795e-38
-0.0156012245573 -0.188774817144 0.843 1.09452844659e-38
-0.0140411021016 -0.188774817144 0.843 1.0205578243e-38
-0.0124513687807 -0.188326952809 0.841 9.83932927113e-39
-0.0108949476832 -0.188326952809 0.841 1.19583587959e-38
-0.00933852658556 -0.188326952809 0.841 1.21481983041e-38
-0.00778210548797 -0.188326952809 0.841 1.39931464609e-38
-0.00621087895782 -0.187879088474 0.839 1.38091307492e-38
-0.00465815921836 -0.187879088474 0.839 1.445520361e-38
-0.00310543947891 -0.187879088474 0.839 1.44548686997e-38
-0.00154901838131 -0.187431224139 0.837 1.47328849137e-38
0.0 -0.187431224139 0.837 1.45492139214e-38
0.00154901838131 -0.187431224139 0.837 1.54686450802e-38
0.00309803676263 -0.187431224139 0.837 1.51924211269e-38
0.00464705514394 -0.187431224139 0.837 1.53775284502e-38
0.00619607352526 -0.187431224139 0.837 1.4825077741e-38
0.00774509190657 -0.187431224139 0.837 1.57474025811e-38
0.00931631843672 -0.187879088474 0.839 1.5102023363e-38
0.0108690381762 -0.187879088474 0.839 1.64838760085e-38
0.0124217579156 -0.187879088474 0.839 1.65782268354e-38
0.0139744776551 -0.187879088474 0.839 1.63920741435e-38
0.0155642109759 -0.188326952809 0.841 1.68537529421e-38
0.0171206320735 -0.188326952809 0.841 1.7038844851e-38
0.0186770531711 -0.188326952809 0.841 1.722144385e-38
0.0202334742687 -0.188326952809 0.841 1.72199963087e-38
0.0217898953663 -0.188326952809 0.841 1.76780975923e-38
0.023401836836 -0.188774817144 0.843 1.6019638439e-38
0.0249619592917 -0.188774817144 0.843 1.46349257433e-38
0.0265850048358 -0.189222681479 0.845 1.45416371006e-38
0.0281488286497 -0.189222681479 0.845 1.50000915114e-38
0.0297829782682 -0.189670545813 0.847 1.20484468729e-38
0.031424530603 -0.190118410148 0.849 1.06529175543e-38
0.0329957571332 -0.190118410148 0.849 1.01937400735e-38
0.0346484135424 -0.190566274483 0.851 8.0815236619e-39
0.0362233414307 -0.190566274483 0.851 1.80321174324e-38
0.037798269319 -0.190566274483 0.851 1.0393224719e-38
0.0393731972073 -0.190566274483 0.851 1.6483159945e-38
-0.0283487019892 -0.188991346595 0.851 7.4386751888e-39
-0.0266479279242 -0.188103020641 0.847 7.89785266959e-39
-0.0250804027522 -0.188103020641 0.847 7.53051068496e-39
-0.0235128775802 -0.188103020641 0.847 7.62234618111e-39
-0.0218935333942 -0.187658857665 0.845 7.89785266959e-39
-0.0203297095803 -0.187658857665 0.845 7.98968816575e-39
-0.0187214694688 -0.187214694688 0.843 8.26519465422e-39
-0.0171613470131 -0.187214694688 0.843 7.80601717343e-39
-0.0156012245573 -0.187214694688 0.843 7.89785266959e-39
-0.0140411021016 -0.187214694688 0.843 7.71418167727e-39
-0.0124513687807 -0.186770531711 0.841 8.26519465422e-39
-0.0108949476832 -0.186770531711 0.841 9.1835496158e-39
-0.00933852658556 -0.186770531711 0.841 1.01029807746e-38
-0.00776359869727 -0.186326368734 0.839 1.08401758707e-38
-0.00621087895782 -0.186326368734 0.839 1.07562324875e-38
-0.00465815921836 -0.186326368734 0.839 1.06647557238e-38
-0.00310543947891 -0.186326368734 0.839 1.05725614952e-38
-0.00154901838131 -0.185882205758 0.837 1.04832511389e-38
0.0 -0.185882205758 0.837 1.11293422166e-38
0.00154901838131 -0.185882205758 0.837 1.24197251049e-38
0.00309803676263 -0.185882205758 0.837 1.22320996483e-38
0.00464705514394 -0.185882205758 0.837 1.34342399697e-38
0.00619607352526 -0.185882205758 0.837 1.22360751321e-38
0.00774509190657 -0.185882205758 0.837 1.37086912804e-38
0.00931631843672 -0.186326368734 0.839 1.38930601194e-38
0.0108690381762 -0.186326368734 0.839 1.35264355996e-38
0.0124217579156 -0.186326368734 0.839 1.260376604e-38
0.0139744776551 -0.186326368734 0.839 1.35242804025e-38
0.0155271973945 -0.186326368734 0.839 1.324912564e-38
0.0171206320735 -0.186770531711 0.841 1.23257442208e-38
0.0186770531711 -0.186770531711 0.841 1.22320996483e-38
0.0202334742687 -0.186770531711 0.841 1.2690891772e-38
0.0217898953663 -0.186770531711 0.841 1.27805692685e-38
0.023401836836 -0.187214694688 0.843 1.11121048442e-38
0.0249619592917 -0.187214694688 0.843 1.0469246562e-38
0.0265850048358 -0.187658857665 0.845 9.91823358506e-39
0.0282154530962 -0.188103020641 0.847 9.91823358506e-39
0.0298533040729 -0.188547183618 0.849 1.00100690812e-38
0.031424530603 -0.188547183618 0.849 8.44886564654e-39
0.0330734856541 -0.188991346595 0.851 1.01019045774e-38
0.0346484135424 -0.188991346595 0.851 1.69411617364e-38
0.0362233414307 -0.188991346595 0.851 1.70369923345e-38
0.037798269319 -0.188991346595 0.851 1.26098028338e-38
0.0393731972073 -0.188991346595 0.851 1.64838788111e-38
-0.0300291185845 -0.188077111134 0.854 6.15943542591e-39
-0.028448638659 -0.188077111134 0.854 7.25500419648e-39
-0.0267108510126 -0.186975957088 0.849 7.80601717343e-39
-0.0251396244824 -0.186975957088 0.849 7.80601717343e-39
-0.0235683979523 -0.186975957088 0.849 7.71418167727e-39
-0.0219453524082 -0.186535495469 0.847 7.62234618111e-39
-0.0203778272361 -0.186535495469 0.847 7.89785266959e-39
-0.0187658857665 -0.186095033851 0.845 8.17335915806e-39
-0.0172020619526 -0.186095033851 0.845 8.17335915806e-39
-0.0156012245573 -0.185654572232 0.843 8.17335915806e-39
-0.0140411021016 -0.185654572232 0.843 7.98968816575e-39
-0.0124809796459 -0.185654572232 0.843 8.81620763117e-39
-0.0108949476832 -0.185214110614 0.841 9.45905610427e-39
-0.00933852658556 -0.185214110614 0.841 9.09171411964e-39
-0.00776359869727 -0.184773648995 0.839 8.81620763117e-39
-0.00621087895782 -0.184773648995 0.839 8.72437213501e-39
-0.00465815921836 -0.184773648995 0.839 8.90804312733e-39
-0.00310543947891 -0.184773648995 0.839 8.99987862348e-39
-0.00154901838131 -0.184333187376 0.837 9.55089160043e-39
0.0 -0.184333187376 0.837 9.45905610427e-39
0.00154901838131 -0.184333187376 0.837 9.91823358506e-39
0.00309803676263 -0.184333187376 0.837 1.15712725159e-38
0.00464705514394 -0.184333187376 0.837 1.07447530505e-38
0.00619607352526 -0.184333187376 0.837 1.06529175543e-38
0.00774509190657 -0.184333187376 0.837 1.05610820582e-38
0.00931631843672 -0.184773648995 0.839 9.91823358506e-39
0.0108690381762 -0.184773648995 0.839 9.36722060812e-39
0.0124217579156 -0.184773648995 0.839 9.73456259275e-39
0.0139744776551 -0.184773648995 0.839 1.00100690812e-38
0.0155271973945 -0.184773648995 0.839 9.64272709659e-39
0.0171206320735 -0.185214110614 0.841 9.27538511196e-39
0.0186770531711 -0.185214110614 0.841 8.81620763117e-39
0.0202334742687 -0.185214110614 0.841 9.36722060812e-39
0.0217898953663 -0.185214110614 0.841 9.73456259275e-39
0.023401836836 -0.185654572232 0.843 1.01019045774e-38
0.0249619592917 -0.185654572232 0.843 1.07447530505e-38
0.0265850048358 -0.186095033851 0.845 9.1835496158e-39
0.0282820775427 -0.186975957088 0.849 7.89785266959e-39
0.0299236298775 -0.187416418707 0.851 1.1479438421e-38
0.0314985577658 -0.187416418707 0.851 1.63833244359e-38
0.0330734856541 -0.187416418707 0.851 1.84199870382e-38
0.0346484135424 -0.187416418707 0.851 1.06808986821e-38
0.0362233414307 -0.187416418707 0.851 1.32519940979e-38
0.037798269319 -0.187416418707 0.851 1.13187529274e-38
0.0393731972073 -0.187416418707 0.851 1.74940972948e-38
-0.0319057071611 -0.188243672251 0.862 4.68902912522e-39
-0.0300291185845 -0.186496631209 0.854 6.3416714886e-39
-0.028448638659 -0.186496631209 0.854 7.25500419648e-39
-0.0267108510126 -0.185404730558 0.849 7.34683969264e-39
-0.0251396244824 -0.185404730558 0.849 7.25500419648e-39
-0.0235683979523 -0.185404730558 0.849 7.53051068496e-39
-0.0219453524082 -0.184967970297 0.847 7.89785266959e-39
-0.0203778272361 -0.184967970297 0.847 7.89785266959e-39
-0.0187658857665 -0.184531210037 0.845 8.17335915806e-39
-0.0172020619526 -0.184531210037 0.845 8.17335915806e-39
-0.0156012245573 -0.184094449776 0.843 8.72437213501e-39
-0.0140411021016 -0.184094449776 0.843 8.54070114269e-39
-0.0124809796459 -0.184094449776 0.843 9.09171411964e-39
-0.0108949476832 -0.183657689516 0.841 9.45905610427e-39
-0.00933852658556 -0.183657689516 0.841 9.36722060812e-39
-0.00778210548797 -0.183657689516 0.841 9.73456259275e-39
-0.00621087895782 -0.183220929256 0.839 9.55089160043e-39
-0.00465815921836 -0.183220929256 0.839 9.45905610427e-39
-0.00310543947891 -0.183220929256 0.839 1.01937400735e-38
-0.00154901838131 -0.182784168995 0.837 1.01019045774e-38
0.0 -0.182784168995 0.837 1.0469246562e-38
0.00154901838131 -0.182784168995 0.837 1.11120950351e-38
0.00309803676263 -0.182784168995 0.837 1.11120950351e-38
0.00464705514394 -0.182784168995 0.837 1.09284240428e-38
0.00619607352526 -0.182784168995 0.837 1.05610820582e-38
0.00774509190657 -0.182784168995 0.837 9.91823358506e-39
0.00931631843672 -0.183220929256 0.839 9.82639808891e-39
0.0108690381762 -0.183220929256 0.839 1.01019045774e-38
0.0124217579156 -0.183220929256 0.839 1.02855755697e-38
0.0139744776551 -0.183220929256 0.839 1.01019045774e-38
0.0155271973945 -0.183220929256 0.839 9.73456259275e-39
0.0171206320735 -0.183657689516 0.841 9.55089160043e-39
0.0186770531711 -0.183657689516 0.841 8.35703015038e-39
0.0202334742687 -0.183657689516 0.841 7.53051068496e-39
0.0217898953663 -0.183657689516 0.841 7.25500419648e-39
0.023401836836 -0.184094449776 0.843 8.63253663885e-39
0.0249619592917 -0.184094449776 0.843 1.11120950351e-38
0.0265850048358 -0.184531210037 0.845 1.51790751603e-38
0.0282820775427 -0.185404730558 0.849 1.64895386556e-38
0.0299236298775 -0.185841490818 0.851 1.5658778861e-38
0.03160959851 -0.186496631209 0.854 1.15981774464e-38
0.0331900784355 -0.186496631209 0.854 1.17804163117e-38
0.03485198824 -0.186933391469 0.856 1.67643515013e-38
0.0363510382865 -0.186496631209 0.854 1.38108459385e-38
0.037931518212 -0.186496631209 0.854 1.29807601685e-38
0.039604532091 -0.186933391469 0.856 1.73136422825e-38
-0.0318316799983 -0.18621532799 0.86 5.8857898618e-39
-0.0302400959984 -0.18621532799 0.86 6.34095402378e-39
-0.028581887552 -0.185782269088 0.858 7.34683969264e-39
-0.0268681587335 -0.184916151283 0.854 6.79582671569e-39
-0.0251988462126 -0.18426656293 0.851 7.25500419648e-39
-0.0236239183244 -0.18426656293 0.851 7.53051068496e-39
-0.0219971714221 -0.183833504028 0.849 7.62234618111e-39
-0.0203778272361 -0.183400445125 0.847 7.89785266959e-39
-0.0187658857665 -0.182967386223 0.845 8.44886564654e-39
-0.0172020619526 -0.182967386223 0.845 8.44886564654e-39
-0.0156382381387 -0.182967386223 0.845 8.54070114269e-39
-0.0140411021016 -0.182534327321 0.843 8.54070114269e-39
-0.0124809796459 -0.182534327321 0.843 9.09171411964e-39
-0.0109208571901 -0.182534327321 0.843 9.45905610427e-39
-0.00933852658556 -0.182101268418 0.841 9.36722060812e-39
-0.00778210548797 -0.182101268418 0.841 9.73456259275e-39
-0.00621087895782 -0.181668209516 0.839 9.73456259275e-39
-0.00465815921836 -0.181668209516 0.839 9.55089160043e-39
-0.00310543947891 -0.181668209516 0.839 9.82639808891e-39
-0.00155271973945 -0.181668209516 0.839 1.01019045774e-38
0.0 -0.181668209516 0.839 1.07447530505e-38
0.00155271973945 -0.181668209516 0.839 1.08365885466e-38
0.00310543947891 -0.181668209516 0.839 1.15712725159e-38
0.00464705514394 -0.181235150614 0.837 1.07447558531e-38
0.00619607352526 -0.181235150614 0.837 1.05610820582e-38
0.00776359869727 -0.181668209516 0.839 1.00100690812e-38
0.00933852658556 -0.182101268418 0.841 1.02855755697e-38
0.0108690381762 -0.181668209516 0.839 1.0469246562e-38
0.0124217579156 -0.181668209516 0.839 1.05610820582e-38
0.0139744776551 -0.181668209516 0.839 9.73456259275e-39
0.0155642109759 -0.182101268418 0.841 1.08365885466e-38
0.0171206320735 -0.182101268418 0.841 1.11120950351e-38
0.0187214694688 -0.182534327321 0.843 1.40734913096e-38
0.0202815919245 -0.182534327321 0.843 1.46395107918e-38
0.0218417143803 -0.182534327321 0.843 1.55694404787e-38
0.023401836836 -0.182534327321 0.843 1.42815561056e-38
0.025021181022 -0.182967386223 0.845 1.63970347401e-38
0.0265850048358 -0.182967386223 0.845 1.33466391975e-38
0.0282820775427 -0.183833504028 0.849 1.50918765608e-38
0.0299236298775 -0.18426656293 0.851 6.79582671569e-39
0.03160959851 -0.184916151283 0.854 1.27935102599e-38
0.0332678069564 -0.185349210186 0.856 1.38105502645e-38
0.03485198824 -0.185349210186 0.856 1.16014536822e-38
0.0365213007609 -0.185782269088 0.858 1.0675569544e-38
0.0380203508073 -0.185349210186 0.856 1.60210873816e-38
0.039604532091 -0.185349210186 0.856 1.61169137758e-38
-0.0318316799983 -0.18462374399 0.86 7.63315579747e-39
-0.0302400959984 -0.18462374399 0.86 7.16424489754e-39
-0.028581887552 -0.184194386446 0.858 7.25500419648e-39
-0.0269310818219 -0.183765028902 0.856 6.52032022722e-39
-0.025287678808 -0.183335671358 0.854 7.25500419648e-39
-0.0237071988825 -0.183335671358 0.854 7.62234618111e-39
-0.0220489904361 -0.182691635042 0.851 7.62234618111e-39
-0.0204740625478 -0.182691635042 0.851 7.89785266959e-39
-0.0188547183618 -0.182262277497 0.849 8.26519465422e-39
-0.0172427768921 -0.181832919953 0.847 8.54070114269e-39
-0.0156382381387 -0.181403562409 0.845 8.54070114269e-39
-0.0140744143248 -0.181403562409 0.845 8.54070114269e-39
-0.0124809796459 -0.180974204865 0.843 8.81620763117e-39
-0.0109208571901 -0.180974204865 0.843 9.45905610427e-39
-0.0093607347344 -0.180974204865 0.843 9.36722060812e-39
-0.00778210548797 -0.180544847321 0.841 9.45905610427e-39
-0.00622568439037 -0.180544847321 0.841 9.64272709659e-39
-0.00466926329278 -0.180544847321 0.841 9.73456259275e-39
-0.00311284219519 -0.180544847321 0.841 1.01019045774e-38
-0.00155642109759 -0.180544847321 0.841 1.0469246562e-38
0.0 -0.180544847321 0.841 1.08365885466e-38
0.00155642109759 -0.180544847321 0.841 1.11120950351e-38
0.00311284219519 -0.180544847321 0.841 1.12957660274e-38
0.00465815921836 -0.180115489777 0.839 1.11120950351e-38
0.00621087895782 -0.180115489777 0.839 1.03774110659e-38
0.00776359869727 -0.180115489777 0.839 1.01019045774e-38
0.00933852658556 -0.180544847321 0.841 1.01019045774e-38
0.0108949476832 -0.180544847321 0.841 1.03774110659e-38
0.0124513687807 -0.180544847321 0.841 9.82639808891e-39
0.0140077898783 -0.180544847321 0.841 2.21712518168e-38
0.0155642109759 -0.180544847321 0.841 1.26152777069e-38
0.0171613470131 -0.180974204865 0.843 1.04980194234e-38
0.0187214694688 -0.180974204865 0.843 1.35339339476e-38
0.0202815919245 -0.180974204865 0.843 1.16878605481e-38
0.0218417143803 -0.180974204865 0.843 4.04614281705e-39
0.0234573572081 -0.181403562409 0.845 1.54142831076e-44
0.025021181022 -0.181403562409 0.845 8.7423578008e-39
0.0266479279242 -0.181832919953 0.847 1.85060463821e-38
0.0282820775427 -0.182262277497 0.849 1.80442400654e-38
0.0299236298775 -0.182691635042 0.851 1.84162665908e-38
0.03160959851 -0.183335671358 0.854 1.56471999318e-38
0.0332678069564 -0.183765028902 0.856 1.17807722415e-38
0.03485198824 -0.183765028902 0.856 9.01889144105e-39
0.0365213007609 -0.184194386446 0.858 1.98968140885e-38
0.0380203508073 -0.183765028902 0.856 1.48267957329e-38
0.039604532091 -0.183765028902 0.856 1.58385065995e-38
-0.0319057071611 -0.183457816176 0.862 1.04969838638e-38
-0.0303104218031 -0.183457816176 0.862 7.62234618111e-39
-0.028581887552 -0.182606503804 0.858 7.25500419648e-39
-0.0269940049102 -0.182606503804 0.858 6.52032022722e-39
-0.0253469005382 -0.182180847618 0.856 7.4386751888e-39
-0.0237627192546 -0.182180847618 0.856 7.25500419648e-39
-0.022126718957 -0.181755191432 0.854 7.62234618111e-39
-0.0204740625478 -0.181116707153 0.851 7.80601717343e-39
-0.0188991346595 -0.181116707153 0.851 8.17335915806e-39
-0.0172834918317 -0.180691050967 0.849 8.44886564654e-39
-0.0156382381387 -0.179839738595 0.845 8.54070114269e-39
-0.0140744143248 -0.179839738595 0.845 8.54070114269e-39
-0.0124809796459 -0.179414082409 0.843 8.81620763117e-39
-0.0109208571901 -0.179414082409 0.843 9.36722060812e-39
-0.0093607347344 -0.179414082409 0.843 9.45905610427e-39
-0.00780061227866 -0.179414082409 0.843 9.45905610427e-39
-0.00622568439037 -0.178988426223 0.841 9.64272709659e-39
-0.00466926329278 -0.178988426223 0.841 9.73456259275e-39
-0.00311284219519 -0.178988426223 0.841 1.03774110659e-38
-0.00155642109759 -0.178988426223 0.841 1.06529175543e-38
0.0 -0.178988426223 0.841 1.1020259539e-38
0.00155642109759 -0.178988426223 0.841 1.06529175543e-38
0.00311284219519 -0.178988426223 0.841 1.06529175543e-38
0.00466926329278 -0.178988426223 0.841 1.09284240428e-38
0.00622568439037 -0.178988426223 0.841 1.06529175543e-38
0.00778210548797 -0.178988426223 0.841 1.0469246562e-38
0.0093607347344 -0.179414082409 0.843 1.02855755697e-38
0.0108949476832 -0.178988426223 0.841 1.07447530505e-38
0.0124513687807 -0.178988426223 0.841 9.73456259275e-39
0.0140411021016 -0.179414082409 0.843 2.10681720865e-38
0.0156012245573 -0.179414082409 0.843 1.65303893084e-39
0.0171613470131 -0.179414082409 0.843 1.65915139475e-39
0.0187214694688 -0.179414082409 0.843 6.62722528706e-39
0.0202815919245 -0.179414082409 0.843 1.59242352369e-38
0.0218935333942 -0.179839738595 0.845 1.04954340277e-38
0.0234573572081 -0.179839738595 0.845 1.34500171891e-38
0.0250804027522 -0.180265394781 0.847 1.49252047202e-38
0.0267108510126 -0.180691050967 0.849 1.41854522543e-38
0.0283487019892 -0.181116707153 0.851 1.48228230518e-38
0.0300291185845 -0.181755191432 0.854 1.25158149432e-38
0.0316836256728 -0.182180847618 0.856 1.57351804559e-38
0.0332678069564 -0.182180847618 0.856 1.17779332108e-38
0.0349334181191 -0.182606503804 0.858 2.0628729092e-38
0.0365213007609 -0.182606503804 0.858 2.01686940165e-38
0.0381091834027 -0.182606503804 0.858 1.43615408207e-38
0.0396970660444 -0.182606503804 0.858 1.68519382606e-38
0.0422473018025 -0.186863065665 0.878 1.59310525539e-38
0.0438721980256 -0.186863065665 0.878 1.59310525539e-38
-0.0319797343239 -0.182284485646 0.864 1.04072278946e-38
-0.0303104218031 -0.181862530818 0.862 5.78564326445e-39
-0.0286485119985 -0.181440575991 0.86 6.98021517282e-39
-0.0269940049102 -0.181018621163 0.858 6.15297964388e-39
-0.0254061222684 -0.181018621163 0.858 7.53051068496e-39
-0.0238182396267 -0.181018621163 0.858 7.53051068496e-39
-0.0221785379709 -0.180596666335 0.856 7.62234618111e-39
-0.0205462390315 -0.180174711507 0.854 7.71418167727e-39
-0.0188991346595 -0.179541779265 0.851 7.98968816575e-39
-0.0172834918317 -0.179119824437 0.849 8.26519465422e-39
-0.0156752517201 -0.178697869609 0.847 8.54070114269e-39
-0.0140744143248 -0.178275914781 0.845 8.54070114269e-39
-0.012510590511 -0.178275914781 0.845 8.81620763117e-39
-0.0109208571901 -0.177853959954 0.843 9.73456259275e-39
-0.0093607347344 -0.177853959954 0.843 9.45905610427e-39
-0.00780061227866 -0.177853959954 0.843 9.36722060812e-39
-0.00622568439037 -0.177432005126 0.841 9.64272709659e-39
-0.00466926329278 -0.177432005126 0.841 1.01937400735e-38
-0.00311284219519 -0.177432005126 0.841 1.07447530505e-38
-0.00155642109759 -0.177432005126 0.841 1.07447530505e-38
0.0 -0.177432005126 0.841 1.1020259539e-38
0.00155642109759 -0.177432005126 0.841 1.06529175543e-38
0.00311284219519 -0.177432005126 0.841 1.07447530505e-38
0.00466926329278 -0.177432005126 0.841 1.07447530505e-38
0.00624048982293 -0.177853959954 0.843 1.0469246562e-38
0.00780061227866 -0.177853959954 0.843 1.03774110659e-38
0.0093607347344 -0.177853959954 0.843 1.05610820582e-38
0.0109208571901 -0.177853959954 0.843 1.07447530505e-38
0.0124809796459 -0.177853959954 0.843 9.36722060812e-39
0.0140411021016 -0.177853959954 0.843 2.27251416595e-38
0.0156012245573 -0.177853959954 0.843 1.40918146884e-38
0.0171613470131 -0.177853959954 0.843 1.30862891532e-38
0.0187214694688 -0.177853959954 0.843 1.24383637758e-38
0.0202815919245 -0.177853959954 0.843 1.13176585133e-38
0.0218935333942 -0.178275914781 0.845 1.03853129879e-38
0.0234573572081 -0.178275914781 0.845 1.29692527055e-38
0.0250804027522 -0.178697869609 0.847 6.24481373874e-39
0.0267108510126 -0.179119824437 0.849 4.77544580022e-39
0.0283487019892 -0.179541779265 0.851 1.34245864246e-38
0.0300291185845 -0.180174711507 0.854 1.55564308238e-38
0.0316836256728 -0.180596666335 0.856 1.74972319995e-38
0.0333455354773 -0.181018621163 0.858 1.48239062555e-38
0.0350148479982 -0.181440575991 0.86 1.86918067105e-38
0.0366064319981 -0.181440575991 0.86 1.88758056066e-38
0.038198015998 -0.181440575991 0.86 1.42689528272e-38
0.0399746679049 -0.182284485646 0.864 1.61154662345e-38
0.042102948835 -0.1846052372 0.875 1.52856831449e-38
0.0438721980256 -0.185238169442 0.878 1.57455921035e-38
-0.0321648022309 -0.181731132604 0.869 4.50137424137e-39
-0.0303807476077 -0.18068549893 0.864 6.15657817834e-39
-0.0286485119985 -0.179848991991 0.86 6.24481373874e-39
-0.0269940049102 -0.179430738521 0.858 6.52032022722e-39
-0.0254061222684 -0.179430738521 0.858 7.16316870032e-39
-0.0238182396267 -0.179430738521 0.858 7.62234618111e-39
-0.0221785379709 -0.179012485051 0.856 7.25500419648e-39
-0.0205462390315 -0.178594231581 0.854 7.98968816575e-39
-0.018965759106 -0.178594231581 0.854 7.98968816575e-39
-0.0173242067712 -0.177966851377 0.851 8.17335915806e-39
-0.0156752517201 -0.177130344437 0.847 8.44886564654e-39
-0.0140744143248 -0.176712090968 0.845 8.54070114269e-39
-0.012510590511 -0.176712090968 0.845 8.81620763117e-39
-0.0109467666971 -0.176712090968 0.845 9.45905610427e-39
-0.0093607347344 -0.176293837498 0.843 9.45905610427e-39
-0.00780061227866 -0.176293837498 0.843 9.45905610427e-39
-0.00624048982293 -0.176293837498 0.843 9.82639808891e-39
-0.0046803673672 -0.176293837498 0.843 1.02855755697e-38
-0.00312024491147 -0.176293837498 0.843 1.0469246562e-38
-0.00156012245573 -0.176293837498 0.843 1.0469246562e-38
0.0 -0.176293837498 0.843 1.06529175543e-38
0.00156012245573 -0.176293837498 0.843 1.06529175543e-38
0.00312024491147 -0.176293837498 0.843 1.07447530505e-38
0.0046803673672 -0.176293837498 0.843 1.07447530505e-38
0.00624048982293 -0.176293837498 0.843 1.06529175543e-38
0.00780061227866 -0.176293837498 0.843 1.05610820582e-38
0.0093607347344 -0.176293837498 0.843 1.06529175543e-38
0.0109208571901 -0.176293837498 0.843 1.06529175543e-38
0.0124809796459 -0.176293837498 0.843 9.1835496158e-39
0.0140411021016 -0.176293837498 0.843 2.17156672653e-38
0.0156012245573 -0.176293837498 0.843 6.71295952971e-39
0.0171613470131 -0.176293837498 0.843 7.90360359848e-39
0.0187214694688 -0.176293837498 0.843 8.4528243147e-39
0.0202815919245 -0.176293837498 0.843 1.4444381382e-38
0.0218935333942 -0.176712090968 0.845 1.1960138445e-38
0.0234573572081 -0.176712090968 0.845 1.30682628498e-38
0.0250804027522 -0.177130344437 0.847 1.34421236749e-38
0.0267737741009 -0.177966851377 0.851 1.63976835413e-38
0.028448638659 -0.178594231581 0.854 1.76838064822e-38
0.0300994443891 -0.179012485051 0.856 1.58391525981e-38
0.0316836256728 -0.179012485051 0.856 1.41717755813e-38
0.0333455354773 -0.179430738521 0.858 1.67572034779e-38
0.0350148479982 -0.179848991991 0.86 1.59310161202e-38
0.0366915632353 -0.18026724546 0.862 1.65713268418e-38
0.0382868485934 -0.18026724546 0.862 1.50998275283e-38
0.0399746679049 -0.18068549893 0.864 1.60232509864e-38
0.042102948835 -0.182985893014 0.875 1.5655191537e-38
-0.0322388293937 -0.180537444605 0.871 8.74446255109e-39
-0.0303807476077 -0.179086512214 0.864 4.31626831943e-39
-0.028715136445 -0.178671960102 0.862 6.24553680875e-39
-0.0270569279986 -0.178257407991 0.86 6.3366492349e-39
-0.0254061222684 -0.177842855879 0.858 6.88766221185e-39
-0.0238182396267 -0.177842855879 0.858 7.62234618111e-39
-0.0221785379709 -0.177428303768 0.856 7.53051068496e-39
-0.0205462390315 -0.177013751656 0.854 7.62234618111e-39
-0.018965759106 -0.177013751656 0.854 7.98968816575e-39
-0.0173242067712 -0.176391923488 0.851 8.26519465422e-39
-0.0157122653015 -0.175977371377 0.849 8.44886564654e-39
-0.0141077265481 -0.175562819265 0.847 8.44886564654e-39
-0.012510590511 -0.175148267154 0.845 8.81620763117e-39
-0.0109467666971 -0.175148267154 0.845 9.36722060812e-39
-0.00938294288323 -0.175148267154 0.845 9.27538511196e-39
-0.00781911906936 -0.175148267154 0.845 9.73456259275e-39
-0.00624048982293 -0.174733715042 0.843 1.01019045774e-38
-0.0046803673672 -0.174733715042 0.843 1.01019045774e-38
-0.00312024491147 -0.174733715042 0.843 1.03774110659e-38
-0.00156012245573 -0.174733715042 0.843 1.01019045774e-38
0.0 -0.174733715042 0.843 1.0469246562e-38
0.00156012245573 -0.174733715042 0.843 1.07447530505e-38
0.00312024491147 -0.174733715042 0.843 1.07447530505e-38
0.0046803673672 -0.174733715042 0.843 1.09284240428e-38
0.00624048982293 -0.174733715042 0.843 1.05610820582e-38
0.00780061227866 -0.174733715042 0.843 1.01019045774e-38
0.0093607347344 -0.174733715042 0.843 1.01019045774e-38
0.0109208571901 -0.174733715042 0.843 1.0469246562e-38
0.0124809796459 -0.174733715042 0.843 9.09171411964e-39
0.0140411021016 -0.174733715042 0.843 2.07058327374e-38
0.0156012245573 -0.174733715042 0.843 1.04922054361e-38
0.0171613470131 -0.174733715042 0.843 1.51062216532e-38
0.0187214694688 -0.174733715042 0.843 1.50119030561e-38
0.0203297095803 -0.175148267154 0.845 1.82366271342e-38
0.0218935333942 -0.175148267154 0.845 1.56601745543e-38
0.0234573572081 -0.175148267154 0.845 1.58424694715e-38
0.0251396244824 -0.175977371377 0.849 1.50065206687e-38
0.0267737741009 -0.176391923488 0.851 1.22392644874e-38
0.028448638659 -0.177013751656 0.854 1.82354780694e-38
0.0300994443891 -0.177428303768 0.856 1.72235542055e-38
0.0316836256728 -0.177428303768 0.856 1.47314149516e-38
0.0334232639983 -0.178257407991 0.86 1.50061353117e-38
0.0350148479982 -0.178257407991 0.86 1.60224676606e-38
0.0366915632353 -0.178671960102 0.862 1.59259364133e-38
0.0382868485934 -0.178671960102 0.862 1.48203693781e-38
0.0401134688351 -0.179708340381 0.867 1.66693210447e-38
-0.0322388293937 -0.178925503135 0.871 8.64903832957e-39
-0.0305565621193 -0.178514652381 0.869 3.85709083864e-39
-0.028715136445 -0.177076674744 0.862 6.15656556665e-39
-0.027119851087 -0.177076674744 0.862 6.06114274643e-39
-0.0254653439987 -0.176665823991 0.86 7.07133320417e-39
-0.0238737599988 -0.176665823991 0.86 7.62234618111e-39
-0.0222303569849 -0.176254973237 0.858 7.62234618111e-39
-0.0205943566873 -0.175844122484 0.856 7.98968816575e-39
-0.018965759106 -0.17543327173 0.854 8.17335915806e-39
-0.0173852791805 -0.17543327173 0.854 8.44886564654e-39
-0.0157492788829 -0.1748169956 0.851 8.54070114269e-39
-0.0141410387714 -0.174406144847 0.849 8.44886564654e-39
-0.0125402013761 -0.173995294093 0.847 9.09171411964e-39
-0.0109467666971 -0.17358444334 0.845 9.45905610427e-39
-0.00938294288323 -0.17358444334 0.845 9.45905610427e-39
-0.00781911906936 -0.17358444334 0.845 9.64272709659e-39
-0.00625529525549 -0.17358444334 0.845 9.91823358506e-39
-0.00469147144162 -0.17358444334 0.845 1.01019045774e-38
-0.00312024491147 -0.173173592586 0.843 1.03774110659e-38
-0.00156012245573 -0.173173592586 0.843 1.03774110659e-38
0.0 -0.173173592586 0.843 1.07447530505e-38
0.00156012245573 -0.173173592586 0.843 1.0469246562e-38
0.00312024491147 -0.173173592586 0.843 1.03774110659e-38
0.0046803673672 -0.173173592586 0.843 1.09284240428e-38
0.00624048982293 -0.173173592586 0.843 1.05610820582e-38
0.00780061227866 -0.173173592586 0.843 1.00100690812e-38
0.0093607347344 -0.173173592586 0.843 1.00100690812e-38
0.0109208571901 -0.173173592586 0.843 1.0469246562e-38
0.0124809796459 -0.173173592586 0.843 8.90804312733e-39
0.0140411021016 -0.173173592586 0.843 2.02459321866e-38
0.0156012245573 -0.173173592586 0.843 1.1326258282e-38
0.0171613470131 -0.173173592586 0.843 1.16911059554e-38
0.0187214694688 -0.173173592586 0.843 1.23325335118e-38
0.0203297095803 -0.17358444334 0.845 1.40827819185e-38
0.0218935333942 -0.17358444334 0.845 1.05865576643e-38
0.0236239183244 -0.1748169956 0.851 1.7407902025e-38
0.0251988462126 -0.1748169956 0.851 1.60246158511e-38
0.0268681587335 -0.17543327173 0.854 1.70381063667e-38
0.0285152631055 -0.175844122484 0.856 1.68507625711e-38
0.0300994443891 -0.175844122484 0.856 1.32540862365e-38
0.0317576528356 -0.176254973237 0.858 1.58366512803e-38
0.0335009925192 -0.177076674744 0.862 1.84181275152e-38
0.0350962778772 -0.177076674744 0.862 1.6389790027e-38
0.0366915632353 -0.177076674744 0.862 1.75836767004e-38
0.0382868485934 -0.177076674744 0.862 1.6020695018e-38
0.0402060027886 -0.178514652381 0.869 1.60239544382e-38
-0.0305565621193 -0.17690641227 0.869 4.31626831943e-39
-0.0287817608915 -0.175888538782 0.864 4.22515028808e-39
-0.0271827741753 -0.175888538782 0.864 4.86728129637e-39
-0.0254653439987 -0.175074239991 0.86 4.95911679253e-39
-0.0238737599988 -0.175074239991 0.86 5.23462328101e-39
-0.0222821759988 -0.175074239991 0.86 5.32645877716e-39
-0.0205943566873 -0.1742599412 0.856 7.25500419648e-39
-0.018965759106 -0.173852791805 0.854 8.26519465422e-39
-0.0173852791805 -0.173852791805 0.854 8.44886564654e-39
-0.0157492788829 -0.173242067712 0.851 8.54070114269e-39
-0.0141743509946 -0.173242067712 0.851 8.81620763117e-39
-0.0125698122412 -0.172834918317 0.849 9.73456259275e-39
-0.0109726762041 -0.172427768921 0.847 9.91823358506e-39
-0.00940515103207 -0.172427768921 0.847 9.91823358506e-39
-0.00783762586006 -0.172427768921 0.847 9.73456259275e-39
-0.00625529525549 -0.172020619526 0.845 9.64272709659e-39
-0.00469147144162 -0.172020619526 0.845 9.73456259275e-39
-0.00312764762774 -0.172020619526 0.845 1.00100690812e-38
-0.00156382381387 -0.172020619526 0.845 1.01937400735e-38
0.0 -0.171613470131 0.843 1.06529175543e-38
0.00156012245573 -0.171613470131 0.843 1.06529175543e-38
0.00312024491147 -0.171613470131 0.843 1.09284240428e-38
0.0046803673672 -0.171613470131 0.843 1.09284268454e-38
0.00624048982293 -0.171613470131 0.843 1.06529175543e-38
0.00780061227866 -0.171613470131 0.843 1.01019045774e-38
0.0093607347344 -0.171613470131 0.843 1.02855755697e-38
0.0109208571901 -0.171613470131 0.843 1.06529175543e-38
0.012510590511 -0.172020619526 0.845 8.81620763117e-39
0.0140744143248 -0.172020619526 0.845 2.0431744363e-38
0.0156382381387 -0.172020619526 0.845 1.27074298965e-38
0.0172020619526 -0.172020619526 0.845 1.48315068983e-38
0.0187658857665 -0.172020619526 0.845 1.57523421582e-38
0.0203297095803 -0.172020619526 0.845 1.51985223804e-38
0.0219971714221 -0.172834918317 0.849 1.21578000011e-38
0.0236239183244 -0.173242067712 0.851 1.72238596886e-38
0.025287678808 -0.173852791805 0.854 1.08559600966e-38
0.0269310818219 -0.1742599412 0.856 1.73139071279e-38
0.0285152631055 -0.1742599412 0.856 1.68536198187e-38
0.0301697701938 -0.174667090596 0.858 1.38090915128e-38
0.0319057071611 -0.175481389386 0.862 1.45448054364e-38
0.0335009925192 -0.175481389386 0.862 1.87847464298e-38
0.0351777077563 -0.175888538782 0.864 1.61139444243e-38
0.0369043913283 -0.176499262875 0.867 1.62014737303e-38
0.0385977626771 -0.17690641227 0.869 1.64831151034e-38
0.0402060027886 -0.17690641227 0.869 1.6022169184e-38
0.0418142429001 -0.17690641227 0.869 1.62058471828e-38
-0.0288816975613 -0.174894724121 0.867 4.13259732711e-39
-0.0271827741753 -0.174289552065 0.864 3.85709083864e-39
-0.0254653439987 -0.173482655991 0.86 2.75506488474e-39
-0.0238737599988 -0.173482655991 0.86 2.8469003809e-39
-0.0222303569849 -0.173079207954 0.858 2.75506488474e-39
-0.0205943566873 -0.172675759917 0.856 6.24481373874e-39
-0.018965759106 -0.172272311879 0.854 7.89785266959e-39
-0.0173852791805 -0.172272311879 0.854 8.54070114269e-39
-0.0157492788829 -0.171667139824 0.851 8.99987862348e-39
-0.0141743509946 -0.171667139824 0.851 9.36722060812e-39
-0.0125994231063 -0.171667139824 0.851 9.82639808891e-39
-0.0109985857111 -0.171263691786 0.849 1.00100690812e-38
-0.0094273591809 -0.171263691786 0.849 9.73456259275e-39
-0.00783762586006 -0.170860243749 0.847 9.64272709659e-39
-0.00627010068805 -0.170860243749 0.847 9.64272709659e-39
-0.00469147144162 -0.170456795712 0.845 9.91823358506e-39
-0.00312764762774 -0.170456795712 0.845 1.01019045774e-38
-0.00156382381387 -0.170456795712 0.845 1.01937400735e-38
0.0 -0.170456795712 0.845 9.82639808891e-39
0.00156382381387 -0.170456795712 0.845 1.01937400735e-38
0.00312764762774 -0.170456795712 0.845 1.07447530505e-38
0.00469147144162 -0.170456795712 0.845 1.09284240428e-38
0.00625529525549 -0.170456795712 0.845 1.07447530505e-38
0.00781911906936 -0.170456795712 0.845 1.05610820582e-38
0.00938294288323 -0.170456795712 0.845 1.06529175543e-38
0.0109467666971 -0.170456795712 0.845 1.0469246562e-38
0.012510590511 -0.170456795712 0.845 8.63253663885e-39
0.0140744143248 -0.170456795712 0.845 2.00658541235e-38
0.0156382381387 -0.170456795712 0.845 1.55622055748e-38
0.0172834918317 -0.171263691786 0.849 9.47806892184e-39
0.0188547183618 -0.171263691786 0.849 1.38105348502e-38
0.0204740625478 -0.171667139824 0.851 1.26105202986e-38
0.0220489904361 -0.171667139824 0.851 1.45535089012e-38
0.0236239183244 -0.171667139824 0.851 1.65821084322e-38
0.025287678808 -0.172272311879 0.854 1.55639950329e-38
0.0269940049102 -0.173079207954 0.858 1.17811800194e-38
0.028581887552 -0.173079207954 0.858 1.74975374825e-38
0.0302400959984 -0.173482655991 0.86 1.43643980682e-38
0.0319057071611 -0.173886104028 0.862 1.73150617978e-38
0.0335787210401 -0.174289552065 0.864 1.37150783988e-38
0.0351777077563 -0.174289552065 0.864 1.78638256907e-38
0.0369043913283 -0.174894724121 0.867 1.64780353965e-38
0.0385089300817 -0.174894724121 0.867 1.72170675949e-38
0.0402060027886 -0.175298172158 0.869 1.63923838305e-38
0.0418142429001 -0.175298172158 0.869 1.74965579749e-38
-0.0289483220078 -0.173689932047 0.869 2.11221641163e-39
-0.0272771588079 -0.173290185368 0.867 1.01019045774e-39
-0.0255245657289 -0.17229081867 0.862 3.12240686937e-39
-0.0238737599988 -0.171891071991 0.86 4.49993931174e-39
-0.0222303569849 -0.171491325312 0.858 4.13259732711e-39
-0.0205943566873 -0.171091578633 0.856 4.68361030406e-39
-0.0190101754037 -0.171091578633 0.856 7.25500419648e-39
-0.0173852791805 -0.170691831954 0.854 8.35703015038e-39
-0.0157492788829 -0.170092211935 0.851 9.27538511196e-39
-0.0141743509946 -0.170092211935 0.851 9.45905610427e-39
-0.0125994231063 -0.170092211935 0.851 9.73456259275e-39
-0.011024495218 -0.170092211935 0.851 9.91823358506e-39
-0.0094273591809 -0.169692465256 0.849 9.45905610427e-39
-0.00785613265075 -0.169692465256 0.849 9.45905610427e-39
-0.00627010068805 -0.169292718577 0.847 9.45905610427e-39
-0.00470257551603 -0.169292718577 0.847 9.82639808891e-39
-0.00312764762774 -0.168892971898 0.845 1.06529175543e-38
-0.00156382381387 -0.168892971898 0.845 1.01937400735e-38
0.0 -0.168892971898 0.845 1.02855755697e-38
0.00156382381387 -0.168892971898 0.845 1.07447530505e-38
0.00312764762774 -0.168892971898 0.845 1.08365885466e-38
0.00469147144162 -0.168892971898 0.845 1.08365885466e-38
0.00625529525549 -0.168892971898 0.845 1.0469246562e-38
0.00781911906936 -0.168892971898 0.845 1.0469246562e-38
0.00938294288323 -0.168892971898 0.845 1.07447530505e-38
0.0109467666971 -0.168892971898 0.845 1.11120950351e-38
0.0125402013761 -0.169292718577 0.847 8.63253663885e-39
0.0141410387714 -0.169692465256 0.849 2.08058980594e-38
0.0157122653015 -0.169692465256 0.849 1.21506435699e-38
0.0173242067712 -0.170092211935 0.851 1.06748002311e-38
0.0188991346595 -0.170092211935 0.851 1.39044905109e-38
0.0204740625478 -0.170092211935 0.851 1.70365943657e-38
0.022126718957 -0.170691831954 0.854 1.02195688068e-38
0.0237071988825 -0.170691831954 0.854 1.30696977794e-38
0.0253469005382 -0.171091578633 0.856 1.58398686616e-38
0.0269940049102 -0.171491325312 0.858 1.76870729089e-38
0.028581887552 -0.171491325312 0.858 1.58388176877e-38
0.0302400959984 -0.171891071991 0.86 1.41774858726e-38
0.0319057071611 -0.17229081867 0.862 1.41764068728e-38
0.0335787210401 -0.172690565349 0.864 1.86957849968e-38
0.0351777077563 -0.172690565349 0.864 1.29803734101e-38
0.0369043913283 -0.173290185368 0.867 1.28817248008e-38
0.0385089300817 -0.173290185368 0.867 1.73082542899e-38
0.0401134688351 -0.173290185368 0.867 1.54686324685e-38
0.0417180075885 -0.173290185368 0.867 1.74025883012e-38
-0.0289483220078 -0.172081691935 0.869 9.39453331648e-39
-0.0272771588079 -0.171685646614 0.867 3.21424236553e-39
-0.0255245657289 -0.170695533312 0.862 1.65303893084e-39
-0.0238737599988 -0.170299487991 0.86 2.66322938858e-39
-0.0222303569849 -0.16990344267 0.858 3.76525534248e-39
-0.0205943566873 -0.169507397349 0.856 2.75506488474e-39
-0.0190101754037 -0.169507397349 0.856 4.22443282327e-39
-0.0173852791805 -0.169111352028 0.854 7.89785266959e-39
-0.0157492788829 -0.168517284047 0.851 9.27538511196e-39
-0.0141743509946 -0.168517284047 0.851 9.45905610427e-39
-0.0125994231063 -0.168517284047 0.851 9.45905610427e-39
-0.011024495218 -0.168517284047 0.851 9.82639808891e-39
-0.00944956732974 -0.168517284047 0.851 9.36722060812e-39
-0.00785613265075 -0.168121238726 0.849 9.27538511196e-39
-0.0062849061206 -0.168121238726 0.849 9.45905610427e-39
-0.00470257551603 -0.167725193405 0.847 9.91823358506e-39
-0.00313505034402 -0.167725193405 0.847 1.0469246562e-38
-0.00156382381387 -0.167329148084 0.845 1.0469246562e-38
0.0 -0.167329148084 0.845 1.01937400735e-38
0.00156382381387 -0.167329148084 0.845 1.06529175543e-38
0.00312764762774 -0.167329148084 0.845 1.08365885466e-38
0.00469147144162 -0.167329148084 0.845 1.07447530505e-38
0.00625529525549 -0.167329148084 0.845 1.0469246562e-38
0.00781911906936 -0.167329148084 0.845 1.0469246562e-38
0.00938294288323 -0.167329148084 0.845 1.07447530505e-38
0.0109726762041 -0.167725193405 0.847 1.1020259539e-38
0.0125698122412 -0.168121238726 0.849 8.0815236619e-39
0.0141410387714 -0.168121238726 0.849 1.95198255652e-38
0.0157122653015 -0.168121238726 0.849 1.32565973634e-38
0.0173242067712 -0.168517284047 0.851 1.48260922811e-38
0.0188991346595 -0.168517284047 0.851 1.36286855459e-38
0.0204740625478 -0.168517284047 0.851 1.57477150707e-38
0.022126718957 -0.169111352028 0.854 1.57516835479e-38
0.0237071988825 -0.169111352028 0.854 1.61186289651e-38
0.0253469005382 -0.169507397349 0.856 1.38094236205e-38
0.0269940049102 -0.16990344267 0.858 1.23296622513e-38
0.028581887552 -0.16990344267 0.858 1.62961874935e-38
0.0302400959984 -0.170299487991 0.86 1.66693210447e-38
0.0319057071611 -0.170695533312 0.862 1.48264426057e-38
0.0335009925192 -0.170695533312 0.862 1.56494111808e-38
0.0350962778772 -0.170695533312 0.862 8.64619089109e-39
0.0367766944725 -0.171091578633 0.864 1.4825373415e-38
0.0385089300817 -0.171685646614 0.867 1.72221599135e-38
0.0401134688351 -0.171685646614 0.867 1.63923642123e-38
0.0417180075885 -0.171685646614 0.867 1.58377849308e-38
-0.0341228206866 -0.172238999656 0.878 1.66693392616e-38
-0.0324979244634 -0.172238999656 0.878 1.35372059796e-38
-0.0308730282403 -0.172238999656 0.878 1.02160151139e-38
-0.0291481953473 -0.171650483712 0.875 1.04057663403e-38
-0.027465928073 -0.171258139749 0.873 1.24308626251e-38
-0.0255245657289 -0.169100247954 0.862 1.10507980364e-38
-0.0238737599988 -0.168707903991 0.86 4.04183802817e-39
-0.0222303569849 -0.168315560028 0.858 9.1835496158e-40
-0.0206424743431 -0.168315560028 0.858 8.26519465422e-40
-0.0190101754037 -0.167923216066 0.856 2.38772290011e-39
-0.0173852791805 -0.167530872103 0.854 4.86728129637e-39
-0.0157492788829 -0.166942356159 0.851 7.80601717343e-39
-0.0141743509946 -0.166942356159 0.851 9.27538511196e-39
-0.0125994231063 -0.166942356159 0.851 9.09171411964e-39
-0.011024495218 -0.166942356159 0.851 9.45905610427e-39
-0.00944956732974 -0.166942356159 0.851 9.36722060812e-39
-0.00787463944145 -0.166942356159 0.851 8.99987862348e-39
-0.00629971155316 -0.166942356159 0.851 9.45905610427e-39
-0.00471367959045 -0.166550012196 0.849 1.00100690812e-38
-0.0031424530603 -0.166550012196 0.849 1.01937400735e-38
-0.00157122653015 -0.166550012196 0.849 1.03774110659e-38
0.0 -0.166157668233 0.847 1.0469246562e-38
0.00156752517201 -0.166157668233 0.847 1.07447530505e-38
0.00313505034402 -0.166157668233 0.847 1.08365885466e-38
0.00470257551603 -0.166157668233 0.847 1.08365885466e-38
0.00627010068805 -0.166157668233 0.847 1.06529175543e-38
0.00783762586006 -0.166157668233 0.847 1.05610820582e-38
0.00940515103207 -0.166157668233 0.847 1.06529175543e-38
0.0109985857111 -0.166550012196 0.849 1.08365885466e-38
0.0125994231063 -0.166942356159 0.851 7.71418167727e-39
0.0141743509946 -0.166942356159 0.851 1.88759050988e-38
0.0157492788829 -0.166942356159 0.851 1.23382424018e-38
0.0173242067712 -0.166942356159 0.851 1.23382564148e-38
0.0188991346595 -0.166942356159 0.851 1.2797778615e-38
0.0205462390315 -0.167530872103 0.854 1.29767916912e-38
0.022126718957 -0.167530872103 0.854 1.14116365949e-38
0.0237071988825 -0.167530872103 0.854 1.50087431281e-38
0.0253469005382 -0.167923216066 0.856 1.91567309162e-38
0.0269940049102 -0.168315560028 0.858 1.58395449616e-38
0.028581887552 -0.168315560028 0.858 1.74046412035e-38
0.0302400959984 -0.168707903991 0.86 1.57422542106e-38
0.0319057071611 -0.169100247954 0.862 1.49236997256e-38
0.0335009925192 -0.169100247954 0.862 6.43781177364e-39
0.0350962778772 -0.169100247954 0.862 1.08606236179e-38
0.0367766944725 -0.169492591917 0.864 1.49211970065e-38
0.0385089300817 -0.170081107861 0.867 1.63906111879e-38
0.0401134688351 -0.170081107861 0.867 1.64838577916e-38
0.0417180075885 -0.170081107861 0.867 1.61158165591e-38
-0.0341228206866 -0.170614103433 0.878 1.69448513552e-38
-0.0324979244634 -0.170614103433 0.878 1.51949350564e-38
-0.0308730282403 -0.170614103433 0.878 7.45087209063e-39
-0.0291481953473 -0.170031139526 0.875 1.04918887426e-38
-0.027465928073 -0.169642496921 0.873 1.10511665779e-38
-0.0256726200545 -0.168476569108 0.867 1.19698676602e-38
-0.0239292803708 -0.167504962596 0.862 1.48261469317e-38
-0.0222821759988 -0.167116319991 0.86 1.16926095486e-38
-0.0206905919989 -0.167116319991 0.86 4.13259732711e-39
-0.0190101754037 -0.166339034782 0.856 1.28569694621e-39
-0.01742599412 -0.166339034782 0.856 2.57139389242e-39
-0.015804799255 -0.165950392177 0.854 5.6938007618e-39
-0.0142243193295 -0.165950392177 0.854 6.42848473106e-39
-0.012643839404 -0.165950392177 0.854 8.35703015038e-39
-0.0110633594785 -0.165950392177 0.854 9.55089160043e-39
-0.00944956732974 -0.16536742827 0.851 9.45905610427e-39
-0.00787463944145 -0.16536742827 0.851 9.64272709659e-39
-0.00629971155316 -0.16536742827 0.851 9.64272709659e-39
-0.00472478366487 -0.16536742827 0.851 1.01019045774e-38
-0.0031424530603 -0.164978785666 0.849 1.01937400735e-38
-0.00157122653015 -0.164978785666 0.849 1.06529175543e-38
0.0 -0.164978785666 0.849 1.06529175543e-38
0.00157122653015 -0.164978785666 0.849 1.08365885466e-38
0.0031424530603 -0.164978785666 0.849 1.08365885466e-38
0.00471367959045 -0.164978785666 0.849 1.08365885466e-38
0.0062849061206 -0.164978785666 0.849 1.08365885466e-38
0.00785613265075 -0.164978785666 0.849 1.07447530505e-38
0.0094273591809 -0.164978785666 0.849 1.07447530505e-38
0.011024495218 -0.16536742827 0.851 1.09284240428e-38
0.0125994231063 -0.16536742827 0.851 7.71418167727e-39
0.0141743509946 -0.16536742827 0.851 1.89699154102e-38
0.0157492788829 -0.16536742827 0.851 1.32598553823e-38
0.0173242067712 -0.16536742827 0.851 1.39117085993e-38
0.018965759106 -0.165950392177 0.854 1.45549130023e-38
0.0205462390315 -0.165950392177 0.854 1.64862764328e-38
0.022126718957 -0.165950392177 0.854 1.38122934798e-38
0.0237071988825 -0.165950392177 0.854 1.34388768663e-38
0.0253469005382 -0.166339034782 0.856 1.83244465089e-38
0.0269940049102 -0.166727677387 0.858 1.27956444374e-38
0.028581887552 -0.166727677387 0.858 1.59353741584e-38
0.0302400959984 -0.167116319991 0.86 8.00762478609e-39
0.0319797343239 -0.167893605201 0.864 3.85709083864e-39
0.0335009925192 -0.167504962596 0.862 1.51095189085e-38
0.0350962778772 -0.167504962596 0.862 1.06830510765e-38
0.0367766944725 -0.167893605201 0.864 1.83238201285e-38
0.0383756811887 -0.167893605201 0.864 1.75869991791e-38
0.0402060027886 -0.168865211712 0.869 1.67597216112e-38
0.0418142429001 -0.168865211712 0.869 1.69455520045e-38
-0.0341228206866 -0.16898920721 0.878 1.78660649657e-38
-0.0324979244634 -0.16898920721 0.878 1.62080149915e-38
-0.0308730282403 -0.16898920721 0.878 9.20331493064e-39
-0.0290815709008 -0.168026854094 0.873 5.33112229845e-39
-0.027465928073 -0.168026854094 0.873 1.05015647085e-38
-0.0257318417847 -0.167256971601 0.869 1.15074798046e-38
-0.0241236016732 -0.167256971601 0.869 1.22436029074e-38
-0.0223339950128 -0.165909677238 0.862 1.47335841616e-38
-0.0207387096547 -0.165909677238 0.862 1.64867472691e-38
-0.019099007999 -0.165524735991 0.86 9.48024794095e-39
-0.01742599412 -0.164754853498 0.856 2.8469003809e-39
-0.0158418128364 -0.164754853498 0.856 4.86835749359e-39
-0.0142243193295 -0.164369912252 0.854 3.85709083864e-39
-0.012643839404 -0.164369912252 0.854 7.62234618111e-39
-0.0110633594785 -0.164369912252 0.854 9.45905610427e-39
-0.00948287955299 -0.164369912252 0.854 9.45905610427e-39
-0.00787463944145 -0.163792500382 0.851 9.64272709659e-39
-0.00629971155316 -0.163792500382 0.851 9.45905610427e-39
-0.00472478366487 -0.163792500382 0.851 1.00100690812e-38
-0.0031424530603 -0.163407559136 0.849 1.03774110659e-38
-0.00157122653015 -0.163407559136 0.849 1.0469246562e-38
