# .PCD v0.7 - Point Cloud Data file format
VERSION 0.7
FIELDS x y z rgb
SIZE 4 4 4 4
TYPE F F F F
COUNT 1 1 1 1
WIDTH 843
HEIGHT 1
VIEWPOINT 0 0 0 1 0 0 0
POINTS 843
DATA ascii
-0.0150404687992 -0.108625607994 0.903 1.27960101763e-38
-0.0133396947342 -0.108385019715 0.901 9.66030498453e-39
-0.0116722328924 -0.108385019715 0.901 1.14094912069e-38
-0.00997145882739 -0.108024137297 0.898 1.72242520521e-38
-0.00830954902282 -0.108024137297 0.898 6.34633500989e-39
-0.00664763921826 -0.108024137297 0.898 8.72437213501e-39
-0.00498572941369 -0.108024137297 0.898 1.15712725159e-38
-0.00332381960913 -0.108024137297 0.898 1.15737836428e-38
-0.00166190980456 -0.108024137297 0.898 1.31378625419e-38
0.0 -0.108024137297 0.898 1.36996318858e-38
0.00166190980456 -0.108024137297 0.898 1.49024630474e-38
0.00332381960913 -0.108024137297 0.898 1.03010010632e-38
0.00497462533928 -0.107783549018 0.896 1.46936793853e-39
0.0066328337857 -0.107783549018 0.896 1.85107729618e-38
0.00830954902282 -0.108024137297 0.898 1.87843134286e-38
0.00997145882739 -0.108024137297 0.898 2.29588740395e-39
0.011633368632 -0.108024137297 0.898 2.20548823872e-39
0.0132952784365 -0.108024137297 0.898 1.13072496683e-38
0.015007156576 -0.108385019715 0.901 5.32645877716e-39
0.0166746184177 -0.108385019715 0.901 6.24481373874e-39
0.018382795199 -0.108625607994 0.903 5.6938007618e-39
0.0201205828455 -0.108986490413 0.906 1.05718440304e-38
0.0218935333942 -0.109467666971 0.91 1.4701218371e-38
0.0235776513476 -0.109467666971 0.91 1.37789117478e-38
0.0253450498591 -0.10982854939 0.913 1.55270161677e-38
0.02709394158 -0.110069137669 0.915 2.19097485039e-38
0.0287873129287 -0.110069137669 0.915 1.35149001106e-38
0.0304806842775 -0.110069137669 0.915 1.83134112835e-38
0.0321740556262 -0.110069137669 0.915 1.15712725159e-38
0.033867426975 -0.110069137669 0.915 9.1835496158e-39
0.0355607983237 -0.110069137669 0.915 2.3474498625e-38
-0.0393731972073 -0.109560200925 0.925 1.90522823326e-38
-0.0376613190678 -0.109560200925 0.925 2.13567877221e-38
-0.0358717124074 -0.109323314004 0.923 1.11303931905e-38
-0.0339784677192 -0.108731096701 0.918 1.13237471552e-38
-0.0322795443332 -0.108731096701 0.918 1.19705683094e-38
-0.0304806842775 -0.10837576632 0.915 7.81390928638e-39
-0.0287243898404 -0.108138879399 0.913 1.09546913825e-38
-0.0269458872544 -0.107783549018 0.91 9.94047499429e-39
-0.0252062489289 -0.107546662097 0.908 1.4818593933e-38
-0.0235258323337 -0.107546662097 0.908 1.26169774819e-38
-0.0218454157384 -0.107546662097 0.908 9.47484033018e-39
-0.0201205828455 -0.107309775176 0.906 1.65695499953e-38
-0.0184438676083 -0.107309775176 0.906 1.45484319969e-38
-0.0167116319991 -0.106954444794 0.903 1.55640076446e-38
-0.0150404687992 -0.106954444794 0.903 1.08609823503e-38
-0.0133396947342 -0.106717557874 0.901 1.27956262205e-38
-0.0116722328924 -0.106717557874 0.901 1.50094171527e-38
-0.0100047710506 -0.106717557874 0.901 1.52848970165e-38
-0.00830954902282 -0.106362227492 0.898 4.86979242322e-39
-0.00664763921826 -0.106362227492 0.898 9.73744226109e-39
-0.00498572941369 -0.106362227492 0.898 1.09284240428e-38
-0.00332381960913 -0.106362227492 0.898 1.13876015236e-38
-0.00166190980456 -0.106362227492 0.898 1.42413416423e-38
0.0 -0.106362227492 0.898 1.33322899012e-38
0.00166190980456 -0.106362227492 0.898 1.49939454163e-38
0.00332381960913 -0.106362227492 0.898 8.73298171277e-39
0.00498572941369 -0.106362227492 0.898 1.65303893084e-39
0.00664763921826 -0.106362227492 0.898 1.7776311799e-38
0.00830954902282 -0.106362227492 0.898 1.89661879563e-38
0.00997145882739 -0.106362227492 0.898 3.489748854e-39
0.011633368632 -0.106362227492 0.898 7.90721894852e-39
0.0133396947342 -0.106717557874 0.901 1.30546324196e-38
0.0150404687992 -0.106954444794 0.903 7.4386751888e-39
0.0167116319991 -0.106954444794 0.903 4.22443282327e-39
0.0184438676083 -0.107309775176 0.906 1.11200446013e-38
0.0201649991431 -0.107546662097 0.908 1.34198206085e-38
0.0218454157384 -0.107546662097 0.908 1.38718234411e-38
0.0235776513476 -0.107783549018 0.91 1.44214014885e-38
0.0253450498591 -0.108138879399 0.913 1.4604355016e-38
0.02709394158 -0.10837576632 0.915 2.24607516718e-38
0.0287873129287 -0.10837576632 0.915 1.87836912521e-38
0.0304806842775 -0.10837576632 0.915 1.37993819157e-38
0.0321740556262 -0.10837576632 0.915 1.50678372856e-38
0.033867426975 -0.10837576632 0.915 1.07447530505e-38
-0.03928806597 -0.107615137222 0.923 2.02530185529e-38
-0.0375798891887 -0.107615137222 0.923 2.17299114642e-38
-0.0358717124074 -0.107615137222 0.923 8.54966945286e-39
-0.0339784677192 -0.107032173315 0.918 1.2151737984e-38
-0.0322795443332 -0.107032173315 0.918 1.27974380995e-38
-0.0304806842775 -0.106682394971 0.915 1.42725653747e-38
-0.0287243898404 -0.106449209408 0.913 1.00348216173e-38
-0.0269458872544 -0.106099431064 0.91 9.75572780475e-39
-0.0252062489289 -0.105866245501 0.908 1.49104364356e-38
-0.0235258323337 -0.105866245501 0.908 1.39059128289e-38
-0.0218454157384 -0.105866245501 0.908 6.34418261545e-39
-0.0201649991431 -0.105866245501 0.908 1.41804300006e-38
-0.0184438676083 -0.105633059939 0.906 1.49208060443e-38
-0.0167671523712 -0.105633059939 0.906 1.55626035435e-38
-0.0150404687992 -0.105283281595 0.903 1.15092118095e-38
-0.0133693055993 -0.105283281595 0.903 1.30736718618e-38
-0.0116722328924 -0.105050096032 0.901 1.63909194736e-38
-0.0100047710506 -0.105050096032 0.901 1.78660061111e-38
-0.00833730920887 -0.105050096032 0.901 3.58158435016e-39
-0.00664763921826 -0.104700317688 0.898 9.73744226109e-39
-0.00498572941369 -0.104700317688 0.898 1.14794370197e-38
-0.00332381960913 -0.104700317688 0.898 1.15712725159e-38
-0.00166190980456 -0.104700317688 0.898 1.34108621074e-38
0.0 -0.104700317688 0.898 1.38811504837e-38
0.00166190980456 -0.104700317688 0.898 1.44393647335e-38
0.00332381960913 -0.104700317688 0.898 6.88909714148e-39
0.00498572941369 -0.104700317688 0.898 1.56120343469e-39
0.00664763921826 -0.104700317688 0.898 1.72238891158e-38
0.00830954902282 -0.104700317688 0.898 1.90569570643e-38
0.0100047710506 -0.105050096032 0.901 4.22443282327e-39
0.0116722328924 -0.105050096032 0.901 1.19584162491e-38
0.0133396947342 -0.105050096032 0.901 9.92146217672e-39
0.0150404687992 -0.105283281595 0.903 1.12039305313e-38
0.0167116319991 -0.105283281595 0.903 1.03774110659e-38
0.0184438676083 -0.105633059939 0.906 1.29516748175e-38
0.0201649991431 -0.105866245501 0.908 1.52583269963e-38
0.0218454157384 -0.105866245501 0.908 1.41537871129e-38
0.0235776513476 -0.106099431064 0.91 1.48834488285e-38
0.0253450498591 -0.106449209408 0.913 1.52633464474e-38
0.02709394158 -0.106682394971 0.915 1.73856213794e-38
0.0287873129287 -0.106682394971 0.915 1.5456422955e-38
0.0304806842775 -0.106682394971 0.915 2.06152948436e-38
0.0321740556262 -0.106682394971 0.915 1.61009866174e-38
0.033867426975 -0.106682394971 0.915 1.13876015236e-38
-0.03928806597 -0.105906960441 0.923 1.84076359936e-38
-0.0375798891887 -0.105906960441 0.923 2.11763453215e-38
-0.0358717124074 -0.105906960441 0.923 6.33736669972e-39
-0.0339784677192 -0.105333249929 0.918 1.28846338964e-38
-0.0322795443332 -0.105333249929 0.918 1.22464125108e-38
-0.0304806842775 -0.104989023622 0.915 1.26137825214e-38
-0.0287243898404 -0.104759539418 0.913 1.3535729011e-38
-0.0270347198498 -0.104759539418 0.913 1.32598834083e-38
-0.025261769301 -0.104415313111 0.91 1.39048268226e-38
-0.0235776513476 -0.104415313111 0.91 1.40895810186e-38
-0.0218454157384 -0.104185828906 0.908 8.83487572931e-39
-0.0201649991431 -0.104185828906 0.908 8.84170285543e-39
-0.0184845825479 -0.104185828906 0.908 1.43665392523e-38
-0.0167671523712 -0.103956344702 0.906 1.58384463436e-38
-0.0150904371341 -0.103956344702 0.906 1.09578401002e-38
-0.0133693055993 -0.103612118395 0.903 1.01303285154e-38
-0.0116981423994 -0.103612118395 0.903 1.54758169257e-38
-0.0100047710506 -0.10338263419 0.901 1.84210408147e-38
-0.00833730920887 -0.10338263419 0.901 2.66322938858e-39
-0.00664763921826 -0.103038407883 0.898 9.7381611272e-39
-0.00498572941369 -0.103038407883 0.898 1.12957660274e-38
-0.00332381960913 -0.103038407883 0.898 1.15712725159e-38
-0.00166190980456 -0.103038407883 0.898 1.23059564852e-38
0.0 -0.103038407883 0.898 1.36009916843e-38
0.00166190980456 -0.103038407883 0.898 1.42535189259e-38
0.00332381960913 -0.103038407883 0.898 4.86728129637e-39
0.00498572941369 -0.103038407883 0.898 9.1835496158e-40
0.00664763921826 -0.103038407883 0.898 1.70391433276e-38
0.00830954902282 -0.103038407883 0.898 1.76729520243e-38
0.0100047710506 -0.10338263419 0.901 4.5917748079e-39
0.0116722328924 -0.10338263419 0.901 1.16785881562e-38
0.0133396947342 -0.10338263419 0.901 1.09316526345e-38
0.0150404687992 -0.103612118395 0.903 1.2214120989e-38
0.0167116319991 -0.103612118395 0.903 1.24896274775e-38
0.0184438676083 -0.103956344702 0.906 1.50657045094e-38
0.0201649991431 -0.104185828906 0.908 1.4979947846e-38
0.0218454157384 -0.104185828906 0.908 1.39690399234e-38
0.0235776513476 -0.104415313111 0.91 1.62706712498e-38
0.0253450498591 -0.104759539418 0.913 1.48934933359e-38
0.02709394158 -0.104989023622 0.915 1.73874094362e-38
0.0287873129287 -0.104989023622 0.915 2.06210934167e-38
0.0305806209472 -0.105333249929 0.918 1.94236460438e-38
0.0322795443332 -0.105333249929 0.918 1.07476229097e-38
0.0339784677192 -0.105333249929 0.918 1.21222854929e-38
-0.0376613190678 -0.104424566506 0.925 2.15451250383e-38
-0.0358717124074 -0.10419878366 0.923 7.53696786828e-39
-0.0339784677192 -0.103634326543 0.918 4.95911679253e-39
-0.0322795443332 -0.103634326543 0.918 1.37176792088e-38
-0.0304806842775 -0.103295652274 0.915 1.32606008731e-38
-0.0287873129287 -0.103295652274 0.915 1.27985142967e-38
-0.0270347198498 -0.103069869427 0.913 1.30743781163e-38
-0.025261769301 -0.102731195157 0.91 1.35353352461e-38
-0.0235776513476 -0.102731195157 0.91 1.38126438044e-38
-0.0218935333942 -0.102731195157 0.91 1.34456493418e-38
-0.0201649991431 -0.102505412311 0.908 1.16953939287e-38
-0.0184845825479 -0.102505412311 0.908 1.05840409322e-38
-0.0167671523712 -0.102279629464 0.906 1.60239264123e-38
-0.0150904371341 -0.102279629464 0.906 1.19738277296e-38
-0.0133693055993 -0.101940955195 0.903 8.20098155339e-39
-0.0116981423994 -0.101940955195 0.903 9.57420920688e-39
-0.0100269791995 -0.101940955195 0.903 1.91517114651e-38
-0.00833730920887 -0.101715172348 0.901 3.12240686937e-39
-0.00666984736709 -0.101715172348 0.901 9.73744226109e-39
-0.00500238552532 -0.101715172348 0.901 1.12957660274e-38
-0.00333492368355 -0.101715172348 0.901 1.14794370197e-38
-0.00166190980456 -0.101376498078 0.898 1.19386145005e-38
0.0 -0.101376498078 0.898 1.24932148016e-38
0.00166190980456 -0.101376498078 0.898 1.48963744055e-38
0.00332381960913 -0.101376498078 0.898 3.94892633479e-39
0.00498572941369 -0.101376498078 0.898 5.06103322984e-39
0.00664763921826 -0.101376498078 0.898 1.7866362041e-38
0.00830954902282 -0.101376498078 0.898 1.40798882371e-38
0.00997145882739 -0.101376498078 0.898 3.12240686937e-39
0.0116722328924 -0.101715172348 0.901 1.00179724046e-38
0.0133396947342 -0.101715172348 0.901 1.44340061682e-38
0.0150404687992 -0.101940955195 0.903 1.18467790044e-38
0.0167671523712 -0.102279629464 0.906 1.28569694621e-38
0.0184438676083 -0.102279629464 0.906 1.43274135979e-38
0.0201649991431 -0.102505412311 0.908 1.37785530154e-38
0.0218454157384 -0.102505412311 0.908 1.59029663288e-38
0.0235776513476 -0.102731195157 0.91 1.60084336564e-38
0.0254005702312 -0.103295652274 0.915 1.60066399944e-38
0.02709394158 -0.103295652274 0.915 1.88690107104e-38
0.0288816975613 -0.103634326543 0.918 1.98849198671e-38
0.0305806209472 -0.103634326543 0.918 1.35220593445e-38
0.0322795443332 -0.103634326543 0.918 1.26732984698e-38
0.0340524948819 -0.10386010939 0.92 1.23059564852e-38
-0.0376613190678 -0.102712688367 0.925 2.0806130675e-38
-0.0359494409284 -0.102712688367 0.925 8.27165183754e-39
-0.0340524948819 -0.102157484646 0.92 6.15297824259e-39
-0.0322795443332 -0.101935403157 0.918 5.05095228869e-39
-0.0304806842775 -0.101602280925 0.915 1.32577198034e-38
-0.0287873129287 -0.101602280925 0.915 1.33556663622e-38
-0.0270347198498 -0.101380199437 0.913 1.34438556798e-38
-0.0253450498591 -0.101380199437 0.913 1.37211698432e-38
-0.0236553798685 -0.101380199437 0.913 1.26134321968e-38
-0.0218935333942 -0.101047077204 0.91 1.40888579486e-38
-0.0202094154408 -0.101047077204 0.91 1.48271432549e-38
-0.0184845825479 -0.100824995716 0.908 1.34449402848e-38
-0.0168041659526 -0.100824995716 0.908 1.48278873444e-38
-0.0151237493574 -0.100824995716 0.908 1.23396815353e-38
-0.013413721897 -0.100602914227 0.906 8.37532550313e-39
-0.0116981423994 -0.100269791995 0.903 1.4635605373e-38
-0.0100269791995 -0.100269791995 0.903 1.45419425837e-38
-0.00833730920887 -0.100047710506 0.901 2.29588740395e-39
-0.00666984736709 -0.100047710506 0.901 9.37045760757e-39
-0.00501348959974 -0.100269791995 0.903 1.12957660274e-38
-0.00333492368355 -0.100047710506 0.901 1.12039305313e-38
-0.00166746184177 -0.100047710506 0.901 1.21222854929e-38
0.0 -0.100047710506 0.901 1.25832566357e-38
0.00166746184177 -0.100047710506 0.901 1.41556298204e-38
0.00333492368355 -0.100047710506 0.901 4.31626831943e-39
0.00498572941369 -0.0997145882739 0.898 9.30131193614e-39
0.00664763921826 -0.0997145882739 0.898 1.25220198928e-38
0.00830954902282 -0.0997145882739 0.898 3.94892633479e-39
0.00997145882739 -0.0997145882739 0.898 5.96930725027e-39
0.0116722328924 -0.100047710506 0.901 9.82639808891e-39
0.0133693055993 -0.100269791995 0.903 1.46093982891e-38
0.0150904371341 -0.100602914227 0.906 1.16631080121e-38
0.0167671523712 -0.100602914227 0.906 1.34998179352e-38
0.0184845825479 -0.100824995716 0.908 1.34079824391e-38
0.0201649991431 -0.100824995716 0.908 1.45161068439e-38
0.0218454157384 -0.100824995716 0.908 1.66455508188e-38
0.0235776513476 -0.101047077204 0.91 1.72109158947e-38
0.0254005702312 -0.101602280925 0.915 1.75803990633e-38
0.02709394158 -0.101602280925 0.915 1.46258789604e-38
0.0288816975613 -0.101935403157 0.918 1.50796754551e-38
0.0306472453938 -0.102157484646 0.92 1.78459086886e-38
0.0323498701378 -0.102157484646 0.92 1.28662965047e-38
0.0341635356261 -0.102490606878 0.923 1.35923722975e-38
-0.0376613190678 -0.101000810227 0.925 2.08986836359e-38
-0.0359494409284 -0.101000810227 0.925 8.91844636712e-39
-0.0340524948819 -0.100454859902 0.92 6.79582671569e-39
-0.0323498701378 -0.100454859902 0.92 6.79582671569e-39
-0.0305806209472 -0.100236479772 0.918 3.76525534248e-39
-0.0287873129287 -0.0999089095762 0.915 9.74247992907e-39
-0.02709394158 -0.0999089095762 0.915 1.35361522031e-38
-0.0253450498591 -0.099690529446 0.913 1.5107704227e-38
-0.0236553798685 -0.099690529446 0.913 1.34435459928e-38
-0.0219657098779 -0.099690529446 0.913 9.3722554735e-39
-0.0202094154408 -0.0993629592506 0.91 1.31629682052e-38
-0.0184845825479 -0.0991445791204 0.908 1.43658021693e-38
-0.0168041659526 -0.0991445791204 0.908 1.50122856106e-38
-0.0151237493574 -0.0991445791204 0.908 1.4460536952e-38
-0.013413721897 -0.0989261989902 0.906 1.62118783714e-38
-0.0116981423994 -0.0985986287949 0.903 1.68525632397e-38
-0.0100269791995 -0.0985986287949 0.903 1.52899613091e-38
-0.00835581599956 -0.0985986287949 0.903 2.75506488474e-39
-0.00668465279965 -0.0985986287949 0.903 9.55484886729e-39
-0.00501348959974 -0.0985986287949 0.903 1.12957660274e-38
-0.00334232639983 -0.0985986287949 0.903 1.12957660274e-38
-0.00167116319991 -0.0985986287949 0.903 1.18467790044e-38
0.0 -0.0985986287949 0.903 1.22173495807e-38
0.00166746184177 -0.0983802486646 0.901 1.27719498817e-38
0.00333492368355 -0.0983802486646 0.901 8.17335915806e-39
0.00500238552532 -0.0983802486646 0.901 3.12240686937e-39
0.00666984736709 -0.0983802486646 0.901 3.12240686937e-39
0.00833730920887 -0.0983802486646 0.901 7.07527926064e-39
0.0100269791995 -0.0985986287949 0.903 1.19522477333e-38
0.0116981423994 -0.0985986287949 0.903 1.08387409411e-38
0.0133693055993 -0.0985986287949 0.903 1.36845679274e-38
0.0150904371341 -0.0989261989902 0.906 1.42431114823e-38
0.0167671523712 -0.0989261989902 0.906 1.26732984698e-38
0.0184845825479 -0.0991445791204 0.908 1.4700495301e-38
0.0201649991431 -0.0991445791204 0.908 1.66448319527e-38
0.0218935333942 -0.0993629592506 0.91 1.91481928047e-38
0.0235776513476 -0.0993629592506 0.91 1.82286803706e-38
0.0254005702312 -0.0999089095762 0.915 1.36121011786e-38
0.0271827741753 -0.100236479772 0.918 1.48927758711e-38
0.0288816975613 -0.100236479772 0.918 1.5910140977e-38
0.0307471820635 -0.100782430097 0.923 1.86785406179e-38
0.0324553588448 -0.100782430097 0.923 1.26801143855e-38
0.0342375627889 -0.101000810227 0.925 1.50635395033e-38
-0.0359494409284 -0.0992889320879 0.925 1.03921190945e-38
-0.0341635356261 -0.0990742533158 0.923 6.15297824259e-39
-0.0323498701378 -0.0987522351576 0.92 6.79582671569e-39
-0.0305806209472 -0.0985375563856 0.918 7.07133320417e-39
-0.0288816975613 -0.0985375563856 0.918 6.52032022722e-39
-0.02709394158 -0.0982155382274 0.915 3.12240686937e-39
-0.0253450498591 -0.0980008594554 0.913 1.02027392123e-38
-0.0236553798685 -0.0980008594554 0.913 1.31655788242e-38
-0.0220138275337 -0.0982155382274 0.915 1.23361068229e-38
-0.0202760398873 -0.0980008594554 0.913 1.67560642222e-38
-0.0185252974874 -0.0976788412972 0.91 1.51019378838e-38
-0.0168041659526 -0.0974641625252 0.908 1.65774365031e-38
-0.0151237493574 -0.0974641625252 0.908 9.11323806405e-39
-0.013413721897 -0.0972494837531 0.906 1.03996875075e-38
-0.0117370066599 -0.0972494837531 0.906 1.62058597945e-38
-0.0100602914227 -0.0972494837531 0.906 1.79611346587e-38
-0.00838357618561 -0.0972494837531 0.906 3.489748854e-39
-0.00668465279965 -0.096927465595 0.903 9.18498734802e-39
-0.00501348959974 -0.096927465595 0.903 1.14794370197e-38
-0.00334232639983 -0.096927465595 0.903 1.12039305313e-38
-0.00167116319991 -0.096927465595 0.903 1.16631080121e-38
0.0 -0.096927465595 0.903 1.26769040108e-38
0.00167116319991 -0.096927465595 0.903 1.18514425257e-38
0.00334232639983 -0.096927465595 0.903 1.23142073305e-38
0.00501348959974 -0.096927465595 0.903 9.64954301232e-39
0.00668465279965 -0.096927465595 0.903 9.10175862703e-39
0.00835581599956 -0.096927465595 0.903 1.14955799781e-38
0.0100269791995 -0.096927465595 0.903 1.23174359222e-38
0.0117370066599 -0.0972494837531 0.906 1.16663366037e-38
0.013413721897 -0.0972494837531 0.906 1.21222854929e-38
0.0150904371341 -0.0972494837531 0.906 1.47908972688e-38
0.0168041659526 -0.0974641625252 0.908 1.26747333994e-38
0.0184845825479 -0.0974641625252 0.908 1.48830928987e-38
0.0201649991431 -0.0974641625252 0.908 1.96974023105e-38
0.0218454157384 -0.0974641625252 0.908 1.97996536582e-38
0.0235776513476 -0.0976788412972 0.91 1.57412312627e-38
0.0254005702312 -0.0982155382274 0.915 1.49885574237e-38
0.0271827741753 -0.0985375563856 0.918 1.60956056313e-38
0.0288816975613 -0.0985375563856 0.918 1.62821464829e-38
0.0307471820635 -0.0990742533158 0.923 1.67438350905e-38
0.0324553588448 -0.0990742533158 0.923 1.44350333199e-38
-0.0360660337097 -0.0978935200693 0.928 1.15910027983e-38
-0.0341635356261 -0.0973660765345 0.923 5.78563625795e-39
-0.0324553588448 -0.0973660765345 0.923 6.88766221185e-39
-0.0305806209472 -0.0968386329996 0.918 7.07133320417e-39
-0.0288816975613 -0.0968386329996 0.918 6.61215572338e-39
-0.02709394158 -0.0965221668787 0.915 6.61215572338e-39
-0.0254005702312 -0.0965221668787 0.915 6.3366492349e-39
-0.0237071988825 -0.0965221668787 0.915 3.21424236553e-39
-0.0220138275337 -0.0965221668787 0.915 6.24481373874e-39
-0.0202760398873 -0.0963111894648 0.913 1.44512239224e-38
-0.0185252974874 -0.0959947233438 0.91 1.35382499469e-38
-0.0168041659526 -0.0957837459299 0.908 1.66750047113e-38
-0.0151237493574 -0.0957837459299 0.908 1.10478819343e-38
-0.013413721897 -0.095572768516 0.906 1.35379094314e-38
-0.0117370066599 -0.095572768516 0.906 1.46452785363e-38
-0.0100602914227 -0.095572768516 0.906 1.76852288002e-38
-0.00838357618561 -0.095572768516 0.906 3.76525534248e-39
-0.00670686094849 -0.095572768516 0.906 9.73672339498e-39
-0.00503014571137 -0.095572768516 0.906 1.12957660274e-38
-0.00334232639983 -0.095256302395 0.903 1.12039305313e-38
-0.00167116319991 -0.095256302395 0.903 1.14794370197e-38
0.0 -0.095256302395 0.903 1.2214120989e-38
0.00167671523712 -0.095572768516 0.906 1.22184257779e-38
0.00334232639983 -0.095256302395 0.903 1.25882788894e-38
0.00501348959974 -0.095256302395 0.903 1.15788058965e-38
0.00668465279965 -0.095256302395 0.903 1.33322899012e-38
0.00838357618561 -0.095572768516 0.906 1.3331213704e-38
0.0100602914227 -0.095572768516 0.906 1.34205408759e-38
0.0117370066599 -0.095572768516 0.906 1.21283839438e-38
0.013413721897 -0.095572768516 0.906 1.19386145005e-38
0.0150904371341 -0.095572768516 0.906 1.26732984698e-38
0.0168041659526 -0.0957837459299 0.908 1.31385744015e-38
0.0184845825479 -0.0957837459299 0.908 1.7281258275e-38
0.0201649991431 -0.0957837459299 0.908 1.93321566684e-38
0.0218454157384 -0.0957837459299 0.908 1.68476138535e-38
0.0235776513476 -0.0959947233438 0.91 1.40755834482e-38
0.0254005702312 -0.0965221668787 0.915 1.46122471289e-38
0.0271827741753 -0.0968386329996 0.918 1.46118883965e-38
0.0289446206497 -0.0970496104135 0.92 1.6553355189e-38
0.0307471820635 -0.0973660765345 0.923 1.59126521038e-38
-0.0360660337097 -0.0961760898927 0.928 1.14998847669e-38
-0.0341635356261 -0.0956578997532 0.923 6.52032022722e-39
-0.0324553588448 -0.0956578997532 0.923 7.34683969264e-39
-0.0306472453938 -0.0953469856695 0.92 6.79582671569e-39
-0.0288816975613 -0.0951397096136 0.918 6.42848473106e-39
-0.02709394158 -0.0948287955299 0.915 7.07133320417e-39
-0.0254005702312 -0.0948287955299 0.915 6.3366492349e-39
-0.0237071988825 -0.0948287955299 0.915 6.70399121953e-39
-0.0220138275337 -0.0948287955299 0.915 7.07133320417e-39
-0.020320456185 -0.0948287955299 0.915 5.60196526564e-39
-0.0185863698967 -0.0946215194741 0.913 1.92854541932e-39
-0.016841179534 -0.0943106053904 0.91 4.95911679253e-39
-0.0151570615806 -0.0943106053904 0.91 1.36179459945e-38
-0.0134433327621 -0.0941033293346 0.908 9.75970889369e-39
-0.0117370066599 -0.0938960532788 0.906 1.53868260655e-38
-0.0100602914227 -0.0938960532788 0.906 1.87930084855e-38
-0.00838357618561 -0.0938960532788 0.906 3.67341984632e-39
-0.00670686094849 -0.0938960532788 0.906 9.46013510409e-39
-0.00503014571137 -0.0938960532788 0.906 1.09284240428e-38
-0.00335343047424 -0.0938960532788 0.906 1.11120950351e-38
-0.00167671523712 -0.0938960532788 0.906 1.16631080121e-38
0.0 -0.0938960532788 0.906 1.15712725159e-38
0.00167671523712 -0.0938960532788 0.906 1.2214120989e-38
0.00335343047424 -0.0938960532788 0.906 1.25864852273e-38
0.00503014571137 -0.0938960532788 0.906 1.35134497667e-38
0.00670686094849 -0.0938960532788 0.906 1.38833028782e-38
0.00838357618561 -0.0938960532788 0.906 1.4064821476e-38
0.0100602914227 -0.0938960532788 0.906 1.38793568217e-38
0.0117370066599 -0.0938960532788 0.906 1.32357908838e-38
0.013413721897 -0.0938960532788 0.906 1.15712725159e-38
0.0150904371341 -0.0938960532788 0.906 1.2214120989e-38
0.0168041659526 -0.0941033293346 0.908 1.58154398254e-38
0.0184845825479 -0.0941033293346 0.908 1.89644335306e-38
0.0202094154408 -0.0943106053904 0.91 1.65666212815e-38
0.0218935333942 -0.0943106053904 0.91 1.34263044165e-38
0.0236553798685 -0.0946215194741 0.913 1.35970344175e-38
0.0254005702312 -0.0948287955299 0.915 1.54416364536e-38
0.0271827741753 -0.0951397096136 0.918 1.37839340015e-38
0.0289446206497 -0.0953469856695 0.92 1.6830314824e-38
0.0307471820635 -0.0956578997532 0.923 1.56360694181e-38
-0.0379870385841 -0.0949675964602 0.933 2.14504336959e-38
-0.0361437622307 -0.0946622344137 0.93 1.18679442164e-38
-0.0342375627889 -0.0941532976695 0.925 6.88766221185e-39
-0.0325256846495 -0.0941532976695 0.925 7.34683969264e-39
-0.0307471820635 -0.0939497229719 0.923 6.97949770801e-39
-0.0289446206497 -0.0936443609254 0.92 6.79582671569e-39
-0.0271827741753 -0.0934407862277 0.918 7.16316870032e-39
-0.0254005702312 -0.0931354241812 0.915 6.52032022722e-39
-0.0237071988825 -0.0931354241812 0.915 6.79582671569e-39
-0.0220138275337 -0.0931354241812 0.915 7.34683969264e-39
-0.020320456185 -0.0931354241812 0.915 7.07133320417e-39
-0.0185863698967 -0.0929318494835 0.913 6.70399121953e-39
-0.0168966999061 -0.0929318494835 0.913 6.97949770801e-39
-0.0151570615806 -0.092626487437 0.91 6.61215572338e-39
-0.0134433327621 -0.0924229127394 0.908 3.58158435016e-39
-0.0117629161668 -0.0924229127394 0.908 3.67341984632e-39
-0.0100824995716 -0.0924229127394 0.908 7.80601717343e-39
-0.00838357618561 -0.0922193380417 0.906 7.98968816575e-39
-0.00670686094849 -0.0922193380417 0.906 1.03774110659e-38
-0.00503014571137 -0.0922193380417 0.906 1.12039305313e-38
-0.00335343047424 -0.0922193380417 0.906 1.16631080121e-38
-0.00167671523712 -0.0922193380417 0.906 1.18467790044e-38
0.0 -0.0922193380417 0.906 1.14794370197e-38
0.00167671523712 -0.0922193380417 0.906 1.2214120989e-38
0.00335343047424 -0.0922193380417 0.906 1.230667395e-38
0.00503014571137 -0.0922193380417 0.906 1.33193755346e-38
0.00670686094849 -0.0922193380417 0.906 1.33279851123e-38
0.00838357618561 -0.0922193380417 0.906 1.39740621771e-38
0.0100602914227 -0.0922193380417 0.906 1.38822266809e-38
0.0117370066599 -0.0922193380417 0.906 1.39733447123e-38
0.0134433327621 -0.0924229127394 0.908 1.2214120989e-38
0.0151237493574 -0.0924229127394 0.908 1.3319734267e-38
0.016841179534 -0.092626487437 0.91 1.8684658687e-38
0.0185252974874 -0.092626487437 0.91 1.59237728084e-38
0.0202760398873 -0.0929318494835 0.913 1.63761343735e-38
0.0219657098779 -0.0929318494835 0.913 1.25832566357e-38
0.0237071988825 -0.0931354241812 0.915 1.46997778362e-38
0.0254838507894 -0.0934407862277 0.918 1.56238725163e-38
0.0272419959056 -0.0936443609254 0.92 1.52615527853e-38
0.0290390052822 -0.0939497229719 0.923 1.64629588263e-38
0.03081380651 -0.0941532976695 0.925 1.61863649303e-38
-0.0379870385841 -0.0932409128882 0.933 2.07089183966e-38
-0.0361437622307 -0.0929411028789 0.93 1.27891732411e-38
-0.0342375627889 -0.0924414195301 0.925 6.70399121953e-39
-0.0325256846495 -0.0924414195301 0.925 7.62234618111e-39
-0.0307471820635 -0.0922415461905 0.923 8.0815236619e-39
-0.0289446206497 -0.0919417361813 0.92 7.25500419648e-39
-0.0271827741753 -0.0917418628417 0.918 7.07133320417e-39
-0.0254005702312 -0.0914420528324 0.915 6.79582671569e-39
-0.0237071988825 -0.0914420528324 0.915 6.97949770801e-39
-0.0220860040175 -0.0917418628417 0.918 6.42848473106e-39
-0.020320456185 -0.0914420528324 0.915 7.07133320417e-39
-0.0186270848362 -0.0914420528324 0.915 7.34683969264e-39
-0.0168966999061 -0.0912421794929 0.913 7.98968816575e-39
-0.0152070299155 -0.0912421794929 0.913 7.71418167727e-39
-0.0134433327621 -0.0907424961441 0.908 6.79582671569e-39
-0.0117629161668 -0.0907424961441 0.908 7.25500419648e-39
-0.0100824995716 -0.0907424961441 0.908 8.35703015038e-39
-0.00840208297631 -0.0907424961441 0.908 9.45905610427e-39
-0.00672166638105 -0.0907424961441 0.908 1.08365885466e-38
-0.00504124978578 -0.0907424961441 0.908 1.12957660274e-38
-0.00335343047424 -0.0905426228046 0.906 1.16631080121e-38
-0.00167671523712 -0.0905426228046 0.906 1.15712725159e-38
0.0 -0.0905426228046 0.906 1.13876015236e-38
0.00167671523712 -0.0905426228046 0.906 1.18467790044e-38
0.00335343047424 -0.0905426228046 0.906 1.2033319856e-38
0.00503014571137 -0.0905426228046 0.906 1.24896274775e-38
0.00670686094849 -0.0905426228046 0.906 1.43410454293e-38
0.00840208297631 -0.0907424961441 0.908 1.40666151381e-38
0.0100824995716 -0.0907424961441 0.908 1.41595268315e-38
0.0117629161668 -0.0907424961441 0.908 1.40666151381e-38
0.0134433327621 -0.0907424961441 0.908 1.41638316203e-38
0.0151570615806 -0.0909423694836 0.91 1.65655492882e-38
0.0168966999061 -0.0912421794929 0.913 1.62878862014e-38
0.0185863698967 -0.0912421794929 0.913 1.62842988773e-38
0.0202760398873 -0.0912421794929 0.913 1.28702425612e-38
0.0220138275337 -0.0914420528324 0.915 1.44231951505e-38
0.0237849274034 -0.0917418628417 0.918 1.4419249094e-38
0.0254838507894 -0.0917418628417 0.918 1.60826912647e-38
0.0272419959056 -0.0919417361813 0.92 1.52633464474e-38
0.0290390052822 -0.0922415461905 0.923 1.66448487683e-38
0.03081380651 -0.0924414195301 0.925 1.66473360731e-38
-0.0379870385841 -0.0915142293162 0.933 2.32987743963e-38
-0.0360660337097 -0.0910237993627 0.928 1.16871430833e-38
-0.0342375627889 -0.0907295413906 0.925 6.79582671569e-39
-0.0325256846495 -0.0907295413906 0.925 6.88766221185e-39
-0.0307471820635 -0.0905333694092 0.923 7.89785266959e-39
-0.0290390052822 -0.0905333694092 0.923 7.89785266959e-39
-0.0272419959056 -0.0902391114372 0.92 7.62234618111e-39
-0.0254838507894 -0.0900429394558 0.918 7.16316870032e-39
-0.0237849274034 -0.0900429394558 0.918 7.07133320417e-39
-0.0220860040175 -0.0900429394558 0.918 6.97949770801e-39
-0.0203870806315 -0.0900429394558 0.918 7.4386751888e-39
-0.0186270848362 -0.0897486814837 0.915 7.34683969264e-39
-0.0169337134875 -0.0897486814837 0.915 8.72437213501e-39
-0.0152070299155 -0.0895525095023 0.913 7.98968816575e-39
-0.0134729436272 -0.0892582515302 0.91 7.89785266959e-39
-0.0117888256738 -0.0892582515302 0.91 8.0815236619e-39
-0.0100824995716 -0.0890620795488 0.908 7.89785266959e-39
-0.00840208297631 -0.0890620795488 0.908 1.00100690812e-38
-0.00672166638105 -0.0890620795488 0.908 1.1020259539e-38
-0.00504124978578 -0.0890620795488 0.908 1.12957660274e-38
-0.00336083319052 -0.0890620795488 0.908 1.11120950351e-38
-0.00168041659526 -0.0890620795488 0.908 1.14794370197e-38
0.0 -0.0890620795488 0.908 1.1020259539e-38
0.00168041659526 -0.0890620795488 0.908 1.12039305313e-38
0.00336083319052 -0.0890620795488 0.908 1.18467790044e-38
0.00504124978578 -0.0890620795488 0.908 1.230667395e-38
0.00672166638105 -0.0890620795488 0.908 1.39676049938e-38
0.00840208297631 -0.0890620795488 0.908 1.49885574237e-38
0.0100824995716 -0.0890620795488 0.908 1.44371857144e-38
0.0117629161668 -0.0890620795488 0.908 1.43457089506e-38
0.0134729436272 -0.0892582515302 0.91 1.64705370484e-38
0.0151570615806 -0.0892582515302 0.91 1.67499335414e-38
0.0168966999061 -0.0895525095023 0.913 1.33247565207e-38
0.0186270848362 -0.0897486814837 0.915 1.61773966201e-38
0.020320456185 -0.0897486814837 0.915 1.26819080476e-38
0.0220138275337 -0.0897486814837 0.915 1.50703484125e-38
0.0237849274034 -0.0900429394558 0.918 1.36845651248e-38
0.0254838507894 -0.0900429394558 0.918 1.58990258775e-38
0.0273308285009 -0.0905333694092 0.923 1.53544644787e-38
0.0291019283706 -0.0907295413906 0.925 1.61838538034e-38
0.0309137431798 -0.0910237993627 0.928 1.72040943737e-38
-0.0401393783421 -0.0907498988604 0.943 2.28406703101e-38
-0.0379870385841 -0.0897875457442 0.933 2.34943269983e-38
-0.0360660337097 -0.089306369186 0.928 9.47412286536e-39
-0.0342375627889 -0.0890176632512 0.925 6.3366492349e-39
-0.0325256846495 -0.0890176632512 0.925 6.42848473106e-39
-0.0307471820635 -0.0888251926279 0.923 7.16316870032e-39
-0.0290390052822 -0.0888251926279 0.923 7.62234618111e-39
-0.0272419959056 -0.0885364866931 0.92 8.26519465422e-39
-0.0254838507894 -0.0883440160698 0.918 7.80601717343e-39
-0.0237849274034 -0.0883440160698 0.918 7.62234618111e-39
-0.0220860040175 -0.0883440160698 0.918 8.35703015038e-39
-0.0203870806315 -0.0883440160698 0.918 8.54070114269e-39
-0.0186270848362 -0.0880553101349 0.915 7.98968816575e-39
-0.0169337134875 -0.0880553101349 0.915 8.44886564654e-39
-0.0152070299155 -0.0878628395117 0.913 8.99987862348e-39
-0.0134729436272 -0.0875741335768 0.91 8.63253663885e-39
-0.0117888256738 -0.0875741335768 0.91 8.26519465422e-39
-0.0101047077204 -0.0875741335768 0.91 7.25500419648e-39
-0.00840208297631 -0.0873816629536 0.908 1.00111452784e-38
-0.00672166638105 -0.0873816629536 0.908 1.08365885466e-38
-0.00504124978578 -0.0873816629536 0.908 1.08365885466e-38
-0.00336083319052 -0.0873816629536 0.908 1.11120950351e-38
-0.00168041659526 -0.0873816629536 0.908 1.14794370197e-38
0.0 -0.0873816629536 0.908 1.11120950351e-38
0.00168041659526 -0.0873816629536 0.908 1.14794370197e-38
0.00336083319052 -0.0873816629536 0.908 1.19386145005e-38
0.00504124978578 -0.0873816629536 0.908 1.2215914651e-38
0.00672166638105 -0.0873816629536 0.908 1.43353071121e-38
0.00840208297631 -0.0873816629536 0.908 1.45293799429e-38
0.0101047077204 -0.0875741335768 0.91 1.48999505192e-38
0.0118276899343 -0.0878628395117 0.913 1.56382582463e-38
0.0135173599249 -0.0878628395117 0.913 1.77662224501e-38
0.0152070299155 -0.0878628395117 0.913 1.25979646644e-38
0.0169337134875 -0.0880553101349 0.915 1.68285001424e-38
0.0186270848362 -0.0880553101349 0.915 1.50811103847e-38
0.020320456185 -0.0880553101349 0.915 1.54452237777e-38
0.0220138275337 -0.0880553101349 0.915 1.50699896801e-38
0.0237849274034 -0.0883440160698 0.918 1.38689535819e-38
0.0255393711615 -0.0885364866931 0.92 1.47991467129e-38
0.0273308285009 -0.0888251926279 0.923 1.5723241393e-38
0.0291019283706 -0.0890176632512 0.925 1.66451878825e-38
0.0309803676263 -0.0894988398093 0.93 1.82178665503e-38
0.0328069878681 -0.0897875457442 0.933 1.89618845687e-38
-0.0418845687048 -0.0890047084977 0.943 2.3299496065e-38
-0.0401393783421 -0.0890047084977 0.943 2.28392409857e-38
-0.0381906132817 -0.0885327853349 0.938 2.34918130689e-38
-0.0361437622307 -0.0877777082745 0.93 9.75106428346e-39
-0.0343486035331 -0.0875889390094 0.928 7.71418167727e-39
-0.0325256846495 -0.0873057851117 0.925 6.79582671569e-39
-0.03081380651 -0.0873057851117 0.925 6.88766221185e-39
-0.0290390052822 -0.0871170158466 0.923 7.16316870032e-39
-0.0272419959056 -0.086833861949 0.92 7.25500419648e-39
-0.0255393711615 -0.086833861949 0.92 7.62234618111e-39
-0.0238367464174 -0.086833861949 0.92 8.26519465422e-39
-0.0220860040175 -0.0866450926839 0.918 8.54070114269e-39
-0.0203870806315 -0.0866450926839 0.918 8.81620763117e-39
-0.0186270848362 -0.0863619387862 0.915 8.90804312733e-39
-0.0169337134875 -0.0863619387862 0.915 9.45905610427e-39
-0.0152070299155 -0.0861731695211 0.913 9.91823358506e-39
-0.0135173599249 -0.0861731695211 0.913 9.91823358506e-39
-0.0117888256738 -0.0858900156234 0.91 9.55089160043e-39
-0.0101047077204 -0.0858900156234 0.91 8.99987862348e-39
-0.008420589767 -0.0858900156234 0.91 9.73456259275e-39
-0.0067364718136 -0.0858900156234 0.91 1.06529175543e-38
-0.00504124978578 -0.0857012463583 0.908 1.07447530505e-38
-0.00336083319052 -0.0857012463583 0.908 1.1020259539e-38
-0.00168041659526 -0.0857012463583 0.908 1.12957660274e-38
0.0 -0.0857012463583 0.908 1.15712725159e-38
0.00168041659526 -0.0857012463583 0.908 1.09284240428e-38
0.00336083319052 -0.0857012463583 0.908 1.15712725159e-38
0.0050523538602 -0.0858900156234 0.91 1.18467790044e-38
0.0067364718136 -0.0858900156234 0.91 1.31360674786e-38
0.008420589767 -0.0858900156234 0.91 1.44364682496e-38
0.0101380199437 -0.0861731695211 0.913 1.41580919018e-38
0.0118276899343 -0.0861731695211 0.913 1.7945985221e-38
0.01354697079 -0.0863619387862 0.915 1.67513684711e-38
0.0152403421387 -0.0863619387862 0.915 1.59180330899e-38
0.0169337134875 -0.0863619387862 0.915 1.4993220945e-38
0.0186270848362 -0.0863619387862 0.915 1.40615928844e-38
0.0203870806315 -0.0866450926839 0.918 1.63639374717e-38
0.0220860040175 -0.0866450926839 0.918 1.34112110307e-38
0.0238367464174 -0.086833861949 0.92 1.4053342039e-38
0.0256226517196 -0.0871170158466 0.923 1.48841662933e-38
0.0273900502311 -0.0873057851117 0.925 1.58114895651e-38
0.0291963130031 -0.0875889390094 0.928 1.72912873681e-38
0.0310803042961 -0.0880608621722 0.933 1.9051932008e-38
0.0328069878681 -0.0880608621722 0.933 1.82239692052e-38
0.034718739347 -0.0885327853349 0.938 1.93264141473e-38
-0.0420178175978 -0.0875371199954 0.946 2.28392381831e-38
-0.0401393783421 -0.087259518135 0.943 2.32080403207e-38
-0.0382720431608 -0.0869819162745 0.94 2.34910928014e-38
-0.0361437622307 -0.0860565767397 0.93 9.01315172254e-39
-0.0342375627889 -0.0855939069723 0.925 7.16316870032e-39
-0.0325256846495 -0.0855939069723 0.925 7.62234618111e-39
-0.03081380651 -0.0855939069723 0.925 6.79582671569e-39
-0.0290390052822 -0.0854088390653 0.923 7.07133320417e-39
-0.0273308285009 -0.0854088390653 0.923 6.42848473106e-39
-0.0255393711615 -0.0851312372049 0.92 7.07133320417e-39
-0.0238367464174 -0.0851312372049 0.92 7.53051068496e-39
-0.0221341216733 -0.0851312372049 0.92 8.0815236619e-39
-0.0203870806315 -0.0849461692979 0.918 8.26519465422e-39
-0.0186881572455 -0.0849461692979 0.918 9.55089160043e-39
-0.0169337134875 -0.0846685674374 0.915 9.91823358506e-39
-0.0152403421387 -0.0846685674374 0.915 9.91823358506e-39
-0.0135173599249 -0.0844834995305 0.913 1.01019045774e-38
-0.0118276899343 -0.0844834995305 0.913 1.02855755697e-38
-0.0101380199437 -0.0844834995305 0.913 1.01937400735e-38
-0.008420589767 -0.08420589767 0.91 1.01019045774e-38
-0.0067364718136 -0.08420589767 0.91 1.01937400735e-38
-0.00506900997183 -0.0844834995305 0.913 1.06529175543e-38
-0.00337933998122 -0.0844834995305 0.913 1.1020259539e-38
-0.0016841179534 -0.08420589767 0.91 1.12039305313e-38
0.0 -0.0840208297631 0.908 1.12957660274e-38
0.00168041659526 -0.0840208297631 0.908 1.09284240428e-38
0.0033682359068 -0.08420589767 0.91 1.17549435082e-38
0.0050523538602 -0.08420589767 0.91 1.19386145005e-38
0.00675867996244 -0.0844834995305 0.913 1.33168644077e-38
0.00844834995305 -0.0844834995305 0.913 1.31396505987e-38
0.0101380199437 -0.0844834995305 0.913 1.70150592109e-38
0.0118535994412 -0.0846685674374 0.915 1.85956440046e-38
0.01354697079 -0.0846685674374 0.915 1.72105459519e-38
0.0152403421387 -0.0846685674374 0.915 1.49031945252e-38
0.0169892338596 -0.0849461692979 0.918 1.37929023116e-38
0.0186881572455 -0.0849461692979 0.918 1.76593314032e-38
0.0203870806315 -0.0849461692979 0.918 1.40633865464e-38
0.0221341216733 -0.0851312372049 0.92 1.38721821736e-38
0.0239144749383 -0.0854088390653 0.923 1.47944831916e-38
0.0256781720917 -0.0855939069723 0.925 1.52583241937e-38
0.0274788828265 -0.0858715088327 0.928 1.56278185728e-38
0.0292592360915 -0.0860565767397 0.93 1.75736055684e-38
0.0310803042961 -0.0863341786002 0.933 1.97941367461e-38
0.0328773136727 -0.0865192465071 0.935 1.59183918223e-38
0.034718739347 -0.0867968483676 0.938 2.34752805496e-38
-0.0437685599977 -0.0857863775955 0.946 2.34867599866e-38
-0.0420178175978 -0.0857863775955 0.946 2.27463194832e-38
-0.0402670751979 -0.0857863775955 0.946 2.32094528296e-38
-0.0383941879794 -0.0855143277723 0.943 2.34892949355e-38
-0.0361437622307 -0.0843354452049 0.93 9.935811473e-39
-0.0342375627889 -0.0838820288328 0.925 7.16316870032e-39
-0.0325256846495 -0.0838820288328 0.925 7.34683969264e-39
-0.03081380651 -0.0838820288328 0.925 6.42848473106e-39
-0.0290390052822 -0.083700662284 0.923 7.07133320417e-39
-0.0273308285009 -0.083700662284 0.923 6.88766221185e-39
-0.0255393711615 -0.0834286124608 0.92 7.07133320417e-39
-0.0238367464174 -0.0834286124608 0.92 6.79582671569e-39
-0.0221341216733 -0.0834286124608 0.92 7.25500419648e-39
-0.0204314969292 -0.0834286124608 0.92 7.62234618111e-39
-0.0186881572455 -0.0832472459119 0.918 8.63253663885e-39
-0.0169337134875 -0.0829751960887 0.915 8.81620763117e-39
-0.0152403421387 -0.0829751960887 0.915 9.36722060812e-39
-0.0135173599249 -0.0827938295399 0.913 9.36722200941e-39
-0.0118276899343 -0.0827938295399 0.913 9.73456259275e-39
-0.0101380199437 -0.0827938295399 0.913 9.91823358506e-39
-0.00844834995305 -0.0827938295399 0.913 9.91823358506e-39
-0.00675867996244 -0.0827938295399 0.913 1.01937400735e-38
-0.00506900997183 -0.0827938295399 0.913 1.06529175543e-38
-0.00337933998122 -0.0827938295399 0.913 1.09284240428e-38
-0.00168966999061 -0.0827938295399 0.913 1.11120950351e-38
0.0 -0.0827938295399 0.913 1.13876043262e-38
0.00168966999061 -0.0827938295399 0.913 1.11120950351e-38
0.00337933998122 -0.0827938295399 0.913 1.14794370197e-38
0.00508011404625 -0.0829751960887 0.915 1.18467790044e-38
0.006773485395 -0.0829751960887 0.915 1.2765133966e-38
0.00846685674374 -0.0829751960887 0.915 1.48913955921e-38
0.0101602280925 -0.0829751960887 0.915 1.71165580613e-38
0.0118535994412 -0.0829751960887 0.915 1.69350394634e-38
0.01354697079 -0.0829751960887 0.915 1.57350795624e-38
0.0152403421387 -0.0829751960887 0.915 1.50850564412e-38
0.0169892338596 -0.0832472459119 0.918 1.72051649658e-38
0.0186881572455 -0.0832472459119 0.918 1.45279450133e-38
0.0203870806315 -0.0832472459119 0.918 1.55309608229e-38
0.0221341216733 -0.0834286124608 0.92 1.41509172537e-38
0.0239662939522 -0.0838820288328 0.925 1.58111308327e-38
0.0256781720917 -0.0838820288328 0.925 1.52672925039e-38
0.0274788828265 -0.0841540786561 0.928 1.65594466334e-38
0.0292592360915 -0.0843354452049 0.93 1.75743062176e-38
0.0311469287426 -0.084788861577 0.935 1.96079854555e-38
0.0328773136727 -0.084788861577 0.935 1.41616792259e-38
0.034718739347 -0.0850609114002 0.938 2.34882425604e-38
0.0366489976167 -0.0855143277723 0.943 2.34896578718e-38
-0.0437685599977 -0.0840356351956 0.946 2.28396137311e-38
-0.0420178175978 -0.0840356351956 0.946 2.25633631531e-38
-0.0402670751979 -0.0840356351956 0.946 2.31179410334e-38
-0.0383941879794 -0.0837691374096 0.943 2.34914557377e-38
-0.0365324048353 -0.0835026396236 0.94 8.36779212258e-39
-0.0343486035331 -0.0824366484794 0.928 7.62234618111e-39
-0.0326311733564 -0.0824366484794 0.928 7.16316870032e-39
-0.03081380651 -0.0821701506934 0.925 7.16316870032e-39
-0.0290390052822 -0.0819924855027 0.923 7.62234618111e-39
-0.0273308285009 -0.0819924855027 0.923 7.16316870032e-39
-0.0256226517196 -0.0819924855027 0.923 7.80601717343e-39
-0.0239144749383 -0.0819924855027 0.923 7.25500419648e-39
-0.0221341216733 -0.0817259877167 0.92 7.16316870032e-39
-0.0204314969292 -0.0817259877167 0.92 8.0815236619e-39
-0.0186881572455 -0.081548322526 0.918 7.98968816575e-39
-0.0169892338596 -0.081548322526 0.918 7.89785266959e-39
-0.0152403421387 -0.08128182474 0.915 8.44886564654e-39
-0.01354697079 -0.08128182474 0.915 8.44886564654e-39
-0.0118535994412 -0.08128182474 0.915 7.98968816575e-39
-0.0101602280925 -0.08128182474 0.915 7.71418167727e-39
-0.00846685674374 -0.08128182474 0.915 9.82675682131e-39
-0.006773485395 -0.08128182474 0.915 1.01019045774e-38
-0.00508011404625 -0.08128182474 0.915 1.02855755697e-38
-0.0033867426975 -0.08128182474 0.915 1.06529175543e-38
-0.00169337134875 -0.08128182474 0.915 1.12039305313e-38
0.0 -0.08128182474 0.915 1.13876015236e-38
0.00169337134875 -0.08128182474 0.915 1.12957660274e-38
0.0033867426975 -0.08128182474 0.915 1.11120950351e-38
0.00508011404625 -0.08128182474 0.915 1.19386145005e-38
0.006773485395 -0.08128182474 0.915 1.29563383388e-38
0.00846685674374 -0.08128182474 0.915 1.54456077334e-38
0.0101602280925 -0.08128182474 0.915 1.80385017482e-38
0.0118535994412 -0.08128182474 0.915 1.58261975938e-38
0.01354697079 -0.08128182474 0.915 1.62839401449e-38
0.0152403421387 -0.08128182474 0.915 1.71129707372e-38
0.0169892338596 -0.081548322526 0.918 1.69282235477e-38
0.0186881572455 -0.081548322526 0.918 1.45257926189e-38
0.0204314969292 -0.0817259877167 0.92 1.42370130313e-38
0.0221341216733 -0.0817259877167 0.92 1.47048000899e-38
0.0239662939522 -0.0821701506934 0.925 1.51675648948e-38
0.0257614526498 -0.0824366484794 0.928 1.56346344885e-38
0.0274788828265 -0.0824366484794 0.928 1.6651640862e-38
0.0293536207241 -0.0828808114561 0.933 1.73902708877e-38
0.0311469287426 -0.0830584766468 0.935 2.03462287229e-38
0.0329828023797 -0.0833249744329 0.938 1.46194217771e-38
0.034718739347 -0.0833249744329 0.938 2.34875026748e-38
0.0366489976167 -0.0837691374096 0.943 2.34878572033e-38
-0.0437685599977 -0.0822848927957 0.946 2.302398257e-38
-0.0420178175978 -0.0822848927957 0.946 2.20109068388e-38
-0.0402670751979 -0.0822848927957 0.946 2.21949477739e-38
-0.0383941879794 -0.0820239470469 0.943 2.34900362224e-38
-0.0365324048353 -0.0817630012981 0.94 8.55218057971e-39
-0.034718739347 -0.0815890374655 0.938 6.97949770801e-39
-0.0327014991611 -0.0808931821353 0.93 7.62234618111e-39
-0.03081380651 -0.0804582725539 0.925 8.44886564654e-39
-0.0291019283706 -0.0804582725539 0.925 7.98968816575e-39
-0.0273900502311 -0.0804582725539 0.925 7.62234618111e-39
-0.0256226517196 -0.0802843087214 0.923 7.16316870032e-39
-0.0239144749383 -0.0802843087214 0.923 7.25500419648e-39
-0.022206298157 -0.0802843087214 0.923 7.80601717343e-39
-0.0204314969292 -0.0800233629726 0.92 8.44886564654e-39
-0.0186881572455 -0.07984939914 0.918 7.71418167727e-39
-0.0169892338596 -0.07984939914 0.918 7.98968816575e-39
-0.0152403421387 -0.0795884533912 0.915 8.17335915806e-39
-0.01354697079 -0.0795884533912 0.915 8.17335915806e-39
-0.0118535994412 -0.0795884533912 0.915 8.35703015038e-39
-0.0101602280925 -0.0795884533912 0.915 7.34683969264e-39
-0.00846685674374 -0.0795884533912 0.915 8.99987862348e-39
-0.006773485395 -0.0795884533912 0.915 1.02855755697e-38
-0.00508011404625 -0.0795884533912 0.915 1.03774110659e-38
-0.0033867426975 -0.0795884533912 0.915 1.07447530505e-38
-0.00169337134875 -0.0795884533912 0.915 1.09284240428e-38
0.0 -0.0795884533912 0.915 1.12039305313e-38
0.00169337134875 -0.0795884533912 0.915 1.11120950351e-38
0.0033867426975 -0.0795884533912 0.915 1.11120950351e-38
0.00508011404625 -0.0795884533912 0.915 1.17549435082e-38
0.006773485395 -0.0795884533912 0.915 1.12957660274e-38
0.00846685674374 -0.0795884533912 0.915 1.60863234303e-38
0.0101602280925 -0.0795884533912 0.915 1.72995115888e-38
0.0118924637017 -0.07984939914 0.918 1.6560881563e-38
0.0135913870877 -0.07984939914 0.918 1.68345943895e-38
0.0152903104736 -0.07984939914 0.918 1.73859660988e-38
0.0169892338596 -0.07984939914 0.918 1.80331193608e-38
0.0187288721851 -0.0800233629726 0.92 1.48913409415e-38
0.0204314969292 -0.0800233629726 0.92 1.53498009574e-38
0.022206298157 -0.0802843087214 0.923 1.54423539184e-38
0.0240440224732 -0.0807192183028 0.928 1.4336381908e-38
0.0258169730219 -0.0808931821353 0.93 1.66444788255e-38
0.0275381045567 -0.0808931821353 0.93 1.65601640982e-38
0.0294165438124 -0.0813280917167 0.935 1.96933791826e-38
0.0311469287426 -0.0813280917167 0.935 1.79480997804e-38
0.0329828023797 -0.0815890374655 0.938 1.75635512519e-38
0.034903807254 -0.0820239470469 0.943 2.34900278146e-38
0.0367655903981 -0.0822848927957 0.946 2.34860677451e-38
-0.0459042436441 -0.0812152002934 0.954 2.22878524608e-38
-0.0437685599977 -0.0805341503958 0.946 2.28392381831e-38
-0.0420178175978 -0.0805341503958 0.946 2.20094873234e-38
-0.0402670751979 -0.0805341503958 0.946 2.20102061895e-38
-0.0383941879794 -0.0802787566842 0.943 2.34900166042e-38
-0.0365324048353 -0.0800233629726 0.94 9.28937567582e-39
-0.034718739347 -0.0798531004982 0.938 9.09637764093e-39
-0.0327014991611 -0.0791720506005 0.93 6.88766221185e-39
-0.03081380651 -0.0787463944145 0.925 8.44886564654e-39
-0.0291019283706 -0.0787463944145 0.925 8.35703015038e-39
-0.0273900502311 -0.0787463944145 0.925 8.26519465422e-39
-0.0256226517196 -0.0785761319401 0.923 7.53051068496e-39
-0.0239144749383 -0.0785761319401 0.923 7.62234618111e-39
-0.0222544158128 -0.0787463944145 0.925 7.25500419648e-39
-0.0204981213757 -0.0785761319401 0.923 7.98968816575e-39
-0.0187288721851 -0.0783207382285 0.92 8.54070114269e-39
-0.017026247441 -0.0783207382285 0.92 8.26519465422e-39
-0.0152903104736 -0.0781504757541 0.918 7.71418167727e-39
-0.01354697079 -0.0778950820425 0.915 7.07133320417e-39
-0.0118535994412 -0.0778950820425 0.915 8.81620763117e-39
-0.0101602280925 -0.0778950820425 0.915 8.54070114269e-39
-0.00846685674374 -0.0778950820425 0.915 9.1835496158e-39
-0.006773485395 -0.0778950820425 0.915 9.73456259275e-39
-0.00508011404625 -0.0778950820425 0.915 1.05610820582e-38
-0.0033867426975 -0.0778950820425 0.915 1.1020259539e-38
-0.00169337134875 -0.0778950820425 0.915 1.09284240428e-38
0.0 -0.0778950820425 0.915 1.07447530505e-38
0.00169337134875 -0.0778950820425 0.915 1.08365885466e-38
0.0033867426975 -0.0778950820425 0.915 1.11120950351e-38
0.00508011404625 -0.0778950820425 0.915 1.21222854929e-38
0.00679569354383 -0.0781504757541 0.918 1.15712725159e-38
0.00849461692979 -0.0781504757541 0.918 1.67338256156e-38
0.0101935403157 -0.0781504757541 0.918 1.69271473504e-38
