# .PCD v0.7 - Point Cloud Data file format
VERSION 0.7
FIELDS x y z rgb
SIZE 4 4 4 4
TYPE F F F F
COUNT 1 1 1 1
WIDTH 844
HEIGHT 1
VIEWPOINT 0 0 0 1 0 0 0
POINTS 844
DATA ascii
0.0 -0.0720025198846 0.794 1.74944181922e-38
0.00146573782318 -0.0718211533358 0.792 1.59248784329e-38
0.00292407293008 -0.071639786787 0.79 1.37121875201e-38
0.00438610939512 -0.071639786787 0.79 1.77605934342e-38
0.00584814586016 -0.071639786787 0.79 1.83201879629e-38
0.0073101823252 -0.071639786787 0.79 1.91517114651e-38
0.00876111471582 -0.0715491035126 0.789 1.85946322671e-38
0.0102213005018 -0.0715491035126 0.789 2.16331391936e-38
0.0116814862878 -0.0715491035126 0.789 2.32921504585e-38
0.0131416720737 -0.0715491035126 0.789 2.34794087748e-38
0.0145648442783 -0.0713677369637 0.787 2.34808829408e-38
0.0160213287061 -0.0713677369637 0.787 2.34794788398e-38
0.0174333968363 -0.0711863704149 0.785 2.34844730675e-38
0.018886179906 -0.0711863704149 0.785 2.34894939199e-38
0.0203389629757 -0.0711863704149 0.785 2.34884093149e-38
0.0217917460454 -0.0711863704149 0.785 2.34845291194e-38
0.0232445291151 -0.0711863704149 0.785 2.34844604558e-38
0.0246973121848 -0.0711863704149 0.785 2.34812725018e-38
0.026216719701 -0.0713677369637 0.787 2.34830521509e-38
0.0276732041288 -0.0713677369637 0.787 2.34874045839e-38
0.0291296885566 -0.0713677369637 0.787 2.34834052781e-38
0.0305861729845 -0.0713677369637 0.787 2.34902436146e-38
0.0320426574123 -0.0713677369637 0.787 2.34841801961e-38
0.0335842730773 -0.0715491035126 0.789 2.34819703484e-38
0.0350444588633 -0.0715491035126 0.789 2.34765669416e-38
0.0365046446493 -0.0715491035126 0.789 2.34733719811e-38
0.0379648304352 -0.0715491035126 0.789 2.3476883635e-38
0.0393250795514 -0.0713677369637 0.787 2.34852676037e-38
0.0407815639793 -0.0713677369637 0.787 2.34827887067e-38
0.0422380484071 -0.0713677369637 0.787 2.34798810124e-38
0.0436945328349 -0.0713677369637 0.787 2.18254015468e-38
0.0451510172628 -0.0713677369637 0.787 1.71223664434e-38
0.0467259451511 -0.0715491035126 0.789 2.07065151697e-38
0.048186130937 -0.0715491035126 0.789 1.71205811892e-38
0.0497092398114 -0.071639786787 0.79 1.71036577076e-38
0.0511712762764 -0.071639786787 0.79 1.66462991122e-38
0.0527665616345 -0.0718211533358 0.792 1.70176221858e-38
0.0543692497088 -0.0720025198846 0.794 1.8950861955e-38
-0.00147314053946 -0.070710745894 0.796 1.62040044753e-38
0.0 -0.0705330807033 0.794 1.75886863425e-38
0.00146943918132 -0.0705330807033 0.794 1.93325476307e-38
0.00293147564636 -0.0703554155126 0.792 1.39012394985e-38
0.00438610939512 -0.0701777503219 0.79 1.43550990516e-38
0.00584814586016 -0.0701777503219 0.79 1.51830380324e-38
0.0073101823252 -0.0701777503219 0.79 1.81329674816e-38
0.00876111471582 -0.0700889177266 0.789 1.92421638797e-38
0.0102213005018 -0.0700889177266 0.789 1.96123785262e-38
0.0116814862878 -0.0700889177266 0.789 1.9427632738e-38
0.0131416720737 -0.0700889177266 0.789 2.21895177423e-38
0.0145648442783 -0.0699112525359 0.787 2.32028919502e-38
0.0160213287061 -0.0699112525359 0.787 2.32939875607e-38
0.0174333968363 -0.0697335873452 0.785 2.3480902559e-38
0.018886179906 -0.0697335873452 0.785 2.3479803941e-38
0.0203389629757 -0.0697335873452 0.785 2.34765515273e-38
0.0217917460454 -0.0697335873452 0.785 2.34740922485e-38
0.0232445291151 -0.0697335873452 0.785 2.3478677297e-38
0.0246973121848 -0.0697335873452 0.785 2.34747634704e-38
0.0261500952545 -0.0697335873452 0.785 2.3475089973e-38
0.0276028783241 -0.0697335873452 0.785 2.3480475163e-38
0.0290556613938 -0.0697335873452 0.785 2.34725914578e-38
0.0305084444635 -0.0697335873452 0.785 2.34793947619e-38
0.0320426574123 -0.0699112525359 0.787 2.34744061393e-38
0.0334991418401 -0.0699112525359 0.787 2.34834683365e-38
0.0350444588633 -0.0700889177266 0.789 2.34845263168e-38
0.0364121106958 -0.0699112525359 0.787 2.34817181147e-38
0.0378685951236 -0.0699112525359 0.787 2.3480634911e-38
0.0394250162212 -0.0700889177266 0.789 2.25593974785e-38
0.0408852020072 -0.0700889177266 0.789 2.11760916864e-38
0.0423453877931 -0.0700889177266 0.789 1.83151909326e-38
0.0438055735791 -0.0700889177266 0.789 1.55510974818e-38
0.0452657593651 -0.0700889177266 0.789 1.93320894061e-38
0.0467259451511 -0.0700889177266 0.789 2.34920989337e-38
0.048186130937 -0.0700889177266 0.789 1.56504257209e-38
0.0497092398114 -0.0701777503219 0.79 1.56220788543e-38
0.0513008238113 -0.0703554155126 0.792 1.82990213496e-38
0.0528998105275 -0.0705330807033 0.794 1.76593944617e-38
0.05450619996 -0.070710745894 0.796 1.90416100435e-38
0.0559793404994 -0.070710745894 0.796 2.03294902127e-38
-0.00299439873473 -0.0703683702661 0.809 1.70352196919e-38
-0.00148054325574 -0.0695855330196 0.8 1.79539263794e-38
0.0 -0.0692376053545 0.796 1.83258982542e-38
0.00147314053946 -0.0692376053545 0.796 1.3527489376e-38
0.00293887836264 -0.069063641522 0.794 1.39960611617e-38
0.00438610939512 -0.0687157138569 0.79 1.15992872748e-38
0.00584814586016 -0.0687157138569 0.79 1.6668932885e-38
0.0073101823252 -0.0687157138569 0.79 1.10339460211e-38
0.00876111471582 -0.0686287319406 0.789 1.46265964252e-38
0.0102213005018 -0.0686287319406 0.789 1.69336381649e-38
0.0116518754226 -0.0684547681081 0.787 1.80425094618e-38
0.0131083598505 -0.0684547681081 0.787 1.97913733855e-38
0.0145648442783 -0.0684547681081 0.787 2.12711866028e-38
0.0159806137666 -0.0682808042755 0.785 2.01695151774e-38
0.0174333968363 -0.0682808042755 0.785 2.10885805973e-38
0.018886179906 -0.0682808042755 0.785 2.31118201617e-38
0.0203389629757 -0.0682808042755 0.785 2.3482752273e-38
0.0217917460454 -0.0682808042755 0.785 2.34817097069e-38
0.0232445291151 -0.0682808042755 0.785 2.3483850891e-38
0.0246973121848 -0.0682808042755 0.785 2.34852858206e-38
0.0261500952545 -0.0682808042755 0.785 2.34842236364e-38
0.0276028783241 -0.0682808042755 0.785 2.34824131588e-38
0.0290556613938 -0.0682808042755 0.785 2.34870976995e-38
0.0305084444635 -0.0682808042755 0.785 2.32976813835e-38
0.0319612275332 -0.0682808042755 0.785 2.3483165656e-38
0.0334991418401 -0.0684547681081 0.787 2.13612186279e-38
0.0349556262679 -0.0684547681081 0.787 2.22831777291e-38
0.0364121106958 -0.0684547681081 0.787 2.14501562388e-38
0.0378685951236 -0.0684547681081 0.787 1.86810615538e-38
0.0393250795514 -0.0684547681081 0.787 1.95072124778e-38
0.0408852020072 -0.0686287319406 0.789 1.59995003787e-38
0.0423453877931 -0.0686287319406 0.789 2.08032608157e-38
0.0438055735791 -0.0686287319406 0.789 2.21041562451e-38
0.0453231304162 -0.0687157138569 0.79 2.29331798309e-38
0.0467851668813 -0.0687157138569 0.79 2.34895948134e-38
0.0484914929835 -0.069063641522 0.794 1.53738738638e-38
0.0502126245183 -0.0694115691871 0.798 1.76496456283e-38
0.0516894664159 -0.0694115691871 0.798 1.98677287376e-38
0.0532995572065 -0.0695855330196 0.8 1.86663212953e-38
0.0549170507134 -0.0697594968522 0.802 2.02354392637e-38
0.0564012953273 -0.0697594968522 0.802 2.00532340296e-38
-0.00450270217651 -0.0690414333731 0.811 1.70251331456e-38
-0.00299439873473 -0.0688711708987 0.809 1.78660691696e-38
-0.00149349800922 -0.0687009084243 0.807 1.86929039272e-38
0.0 -0.0685306459499 0.805 1.84195133994e-38
0.00148424461388 -0.0682752522383 0.802 1.67632767054e-38
0.00294628107892 -0.0677644648151 0.796 9.94052964493e-39
0.00439721346954 -0.0674239398663 0.792 1.55658853845e-38
0.00584814586016 -0.0672536773918 0.79 1.43661833225e-38
0.0073101823252 -0.0672536773918 0.79 2.01694731385e-38
0.00876111471582 -0.0671685461546 0.789 1.78684681925e-38
0.0102213005018 -0.0671685461546 0.789 1.36247773245e-38
0.0116518754226 -0.0669982836802 0.787 1.02966962743e-38
0.0130750476272 -0.0668280212058 0.785 1.39747796419e-38
0.0145278306969 -0.0668280212058 0.785 1.6282180114e-38
0.0159806137666 -0.0668280212058 0.785 1.6569590633e-38
0.0174333968363 -0.0668280212058 0.785 1.77648659932e-38
0.018886179906 -0.0668280212058 0.785 1.91431313146e-38
0.0203389629757 -0.0668280212058 0.785 2.02516550895e-38
0.0217917460454 -0.0668280212058 0.785 2.08991502683e-38
0.0232445291151 -0.0668280212058 0.785 2.11764602279e-38
0.0246973121848 -0.0668280212058 0.785 2.19129280501e-38
0.0261500952545 -0.0668280212058 0.785 2.09916934202e-38
0.0276028783241 -0.0668280212058 0.785 2.01623153059e-38
0.0290556613938 -0.0668280212058 0.785 2.00679770907e-38
0.0305084444635 -0.0668280212058 0.785 1.91449319832e-38
0.0319612275332 -0.0668280212058 0.785 1.859135463e-38
0.0334140106029 -0.0668280212058 0.785 1.7671584357e-38
0.0349556262679 -0.0669982836802 0.787 1.62940350991e-38
0.0364121106958 -0.0669982836802 0.787 1.46276726224e-38
0.0378685951236 -0.0669982836802 0.787 1.77536668159e-38
0.0393250795514 -0.0669982836802 0.787 2.28316403428e-38
0.0408852020072 -0.0671685461546 0.789 2.34862779399e-38
0.0423453877931 -0.0671685461546 0.789 2.33030133242e-38
0.0438055735791 -0.0671685461546 0.789 1.87907846249e-38
0.0454378725186 -0.0674239398663 0.792 1.63018809692e-38
0.0470220538022 -0.0675942023407 0.794 2.17284471073e-38
0.0486136378021 -0.0677644648151 0.796 1.57390452371e-38
0.0502126245183 -0.0679347272895 0.798 1.75596234123e-38
0.0516894664159 -0.0679347272895 0.798 1.8387604432e-38
0.0532995572065 -0.0681049897639 0.8 2.01428891053e-38
0.0547801004623 -0.0681049897639 0.8 1.95883126264e-38
0.0571748791784 -0.0692116958476 0.813 2.03298251231e-38
0.0586794812621 -0.0692116958476 0.813 2.1438320872e-38
0.0601840833457 -0.0692116958476 0.813 2.09777126654e-38
-0.00450270217651 -0.0675405326476 0.811 1.49947035188e-38
-0.00299439873473 -0.0673739715314 0.809 1.97992612946e-38
-0.00149719936736 -0.0673739715314 0.809 1.93371943364e-38
0.0 -0.0672074104151 0.807 1.74957998725e-38
0.00148609529295 -0.0668742881826 0.803 1.54714869135e-38
0.00295368379519 -0.0664578853919 0.798 1.74050882177e-38
0.00440831754396 -0.0661247631593 0.794 1.64823696127e-38
0.00587775672528 -0.0661247631593 0.794 1.48253341786e-38
0.0073101823252 -0.0657916409268 0.79 1.71258851038e-38
0.00876111471582 -0.0657083603687 0.789 1.54668724376e-38
0.0102213005018 -0.0657083603687 0.789 1.49193416874e-38
0.0116518754226 -0.0655417992524 0.787 1.75825528591e-38
0.0130750476272 -0.0653752381361 0.785 1.54667477221e-38
0.0145278306969 -0.0653752381361 0.785 1.70384819147e-38
0.0159806137666 -0.0653752381361 0.785 1.47306540466e-38
0.0174333968363 -0.0653752381361 0.785 1.16738699843e-38
0.018886179906 -0.0653752381361 0.785 1.34248596778e-38
0.0203389629757 -0.0653752381361 0.785 1.45189767031e-38
0.0217917460454 -0.0653752381361 0.785 1.59987590918e-38
0.0232445291151 -0.0653752381361 0.785 1.60001828111e-38
0.0246973121848 -0.0653752381361 0.785 1.71104596103e-38
0.0261500952545 -0.0653752381361 0.785 1.50807516523e-38
0.0276028783241 -0.0653752381361 0.785 1.55403397135e-38
0.0290556613938 -0.0653752381361 0.785 1.51657964561e-38
0.0305084444635 -0.0653752381361 0.785 1.56235446124e-38
0.0319612275332 -0.0653752381361 0.785 1.78491134582e-38
0.0334140106029 -0.0653752381361 0.785 1.93307875998e-38
0.0349556262679 -0.0655417992524 0.787 2.09084296668e-38
0.0364121106958 -0.0655417992524 0.787 2.2935692359e-38
0.0378685951236 -0.0655417992524 0.787 2.34928346154e-38
0.0393250795514 -0.0655417992524 0.787 2.16449745604e-38
0.0408852020072 -0.0657083603687 0.789 1.74990228589e-38
0.0423453877931 -0.0657083603687 0.789 1.427109261e-38
0.0438055735791 -0.0657083603687 0.789 1.38080377363e-38
0.0455526146209 -0.0661247631593 0.794 2.18286217306e-38
0.0471404972627 -0.0662913242756 0.796 2.34963574798e-38
0.0487357826207 -0.0664578853919 0.798 1.22377973279e-38
0.0502126245183 -0.0664578853919 0.798 1.81070322496e-38
0.0518190139508 -0.0666244465082 0.8 2.02347358119e-38
0.0532995572065 -0.0666244465082 0.8 1.91298105714e-38
0.0556702770948 -0.0677070937639 0.813 1.97723507589e-38
0.0571748791784 -0.0677070937639 0.813 1.93145969973e-38
0.0586794812621 -0.0677070937639 0.813 2.07922115773e-38
0.0601840833457 -0.0677070937639 0.813 2.2545765647e-38
-0.00600360290201 -0.0660396319221 0.811 1.75747350149e-38
-0.00450270217651 -0.0660396319221 0.811 1.53627237319e-38
-0.00300180145101 -0.0660396319221 0.811 1.64763230098e-38
-0.0015009007255 -0.0660396319221 0.811 1.92418135551e-38
0.0 -0.0657139124059 0.807 1.74968942866e-38
0.00148609529295 -0.0653881928896 0.803 1.52863291435e-38
0.00296108651147 -0.0651439032524 0.8 1.92464280309e-38
0.00441942161837 -0.0648181837362 0.796 1.66660195855e-38
0.00587775672528 -0.064655323978 0.794 1.66685405214e-38
0.0073101823252 -0.0643296044618 0.79 1.85052882797e-38
0.00876111471582 -0.0642481745827 0.789 1.35238698221e-38
0.0102213005018 -0.0642481745827 0.789 1.16821446517e-38
0.0116518754226 -0.0640853148246 0.787 1.73961058945e-38
0.0130750476272 -0.0639224550664 0.785 1.43690391687e-38
0.0145278306969 -0.0639224550664 0.785 1.60335477275e-38
0.0160213287061 -0.0640853148246 0.787 1.85074687001e-38
0.0174333968363 -0.0639224550664 0.785 1.80334780932e-38
0.018886179906 -0.0639224550664 0.785 1.70347824868e-38
0.0203389629757 -0.0639224550664 0.785 1.5471052511e-38
0.0217917460454 -0.0639224550664 0.785 1.28921490601e-38
0.0232445291151 -0.0639224550664 0.785 1.5557173512e-38
0.0246973121848 -0.0639224550664 0.785 1.66582157544e-38
0.0261500952545 -0.0639224550664 0.785 1.90461922895e-38
0.0276028783241 -0.0639224550664 0.785 1.16828382944e-38
0.0290556613938 -0.0639224550664 0.785 1.68393195679e-38
0.0305084444635 -0.0639224550664 0.785 2.34910549664e-38
0.0319612275332 -0.0639224550664 0.785 2.29338972957e-38
0.0334140106029 -0.0639224550664 0.785 2.3395598515e-38
0.0349556262679 -0.0640853148246 0.787 2.21980880837e-38
0.0364121106958 -0.0640853148246 0.787 1.83283925654e-38
0.0378685951236 -0.0640853148246 0.787 1.16836048047e-38
0.0393250795514 -0.0640853148246 0.787 1.25965689711e-38
0.0407815639793 -0.0640853148246 0.787 1.60181880951e-38
0.0423990574862 -0.0643296044618 0.79 2.12797233131e-38
0.0438610939512 -0.0643296044618 0.79 2.27509353604e-38
0.0455526146209 -0.064655323978 0.794 2.33912432794e-38
0.0471404972627 -0.0648181837362 0.796 2.34906317742e-38
0.0488579274393 -0.0651439032524 0.8 1.24232619822e-38
0.0503384706951 -0.0651439032524 0.8 1.93095228956e-38
0.0518190139508 -0.0651439032524 0.8 1.90358240821e-38
0.0544321727972 -0.0665282111965 0.817 1.90315487205e-38
0.0558072273459 -0.0663653514384 0.815 2.02275933936e-38
0.0571748791784 -0.0662024916803 0.813 2.12474850406e-38
0.0586794812621 -0.0662024916803 0.813 2.11588655244e-38
-0.00752301041821 -0.0646978895966 0.813 2.35043995317e-38
-0.00600360290201 -0.0645387311966 0.811 1.9513030669e-38
-0.00450270217651 -0.0645387311966 0.811 1.5916972307e-38
-0.00300920416729 -0.0646978895966 0.813 1.7771705731e-38
-0.0015009007255 -0.0645387311966 0.811 1.4356917937e-38
0.0 -0.0645387311966 0.811 1.84160213636e-38
0.00148979665109 -0.0640612559967 0.805 1.73153420575e-38
0.00297219058589 -0.0639020975967 0.803 1.62936665576e-38
0.00445828587884 -0.0639020975967 0.803 1.54671064545e-38
0.00594438117178 -0.0639020975967 0.803 1.96173559383e-38
0.00734719590659 -0.0631858847967 0.794 1.88772545492e-38
0.00877221879024 -0.0628675679967 0.79 2.11831766515e-38
0.0102342552553 -0.0628675679967 0.79 1.64808842363e-38
0.0116814862878 -0.0627879887967 0.789 1.53710474448e-38
0.0131416720737 -0.0627879887967 0.789 9.10929200758e-39
0.0146018578597 -0.0627879887967 0.789 9.84905007858e-39
0.0160620436457 -0.0627879887967 0.789 1.19519324411e-38
0.0175222294316 -0.0627879887967 0.789 1.58294486062e-38
0.0189824152176 -0.0627879887967 0.789 1.03136435779e-38
0.0204426010036 -0.0627879887967 0.789 1.93533639194e-38
0.0219027867896 -0.0627879887967 0.789 1.38191430267e-38
0.0233629725755 -0.0627879887967 0.789 1.42847931051e-38
0.0248231583615 -0.0627879887967 0.789 2.04489312886e-38
0.026216719701 -0.0626288303967 0.787 1.96173531358e-38
0.0276732041288 -0.0626288303967 0.787 1.4188638807e-38
0.0291296885566 -0.0626288303967 0.787 1.67643935403e-38
0.0305861729845 -0.0626288303967 0.787 1.38948033347e-38
0.0320426574123 -0.0626288303967 0.787 1.79456320938e-38
0.0334991418401 -0.0626288303967 0.787 1.6098834223e-38
0.0349556262679 -0.0626288303967 0.787 1.85909566613e-38
0.0365046446493 -0.0627879887967 0.789 1.49154040387e-38
0.0379648304352 -0.0627879887967 0.789 2.05429051662e-38
0.0393250795514 -0.0626288303967 0.787 2.23850269041e-38
0.0407815639793 -0.0626288303967 0.787 2.24707681532e-38
0.0427210756443 -0.0633450431967 0.796 2.34838340754e-38
0.0441942161837 -0.0633450431967 0.796 2.25625616104e-38
0.0456673567232 -0.0633450431967 0.796 2.30206600914e-38
0.0472589407231 -0.0635042015967 0.798 2.34884765772e-38
0.0490411446672 -0.0639020975967 0.803 1.16875018157e-38
0.0505272399602 -0.0639020975967 0.803 1.91269238966e-38
0.0525315253926 -0.0645387311966 0.811 1.94907065831e-38
0.0542989239041 -0.0648570479966 0.815 2.06885463195e-38
0.0558072273459 -0.0648570479966 0.815 2.01382466035e-38
0.0571748791784 -0.0646978895966 0.813 2.06925175994e-38
0.0586794812621 -0.0646978895966 0.813 2.20761246706e-38
-0.00752301041821 -0.063193287513 0.813 2.3506903652e-38
-0.00600360290201 -0.0630378304711 0.811 1.79452915783e-38
-0.00450270217651 -0.0630378304711 0.811 1.56400575135e-38
-0.00300920416729 -0.063193287513 0.813 1.87815570745e-38
-0.00150460208364 -0.063193287513 0.813 1.78620838767e-38
0.0 -0.0630378304711 0.811 1.35253397842e-38
0.00148979665109 -0.0625714593456 0.805 1.73968471814e-38
0.00297959330217 -0.0625714593456 0.805 1.8044308729e-38
0.00445828587884 -0.0624160023037 0.803 1.65749057581e-38
0.00594438117178 -0.0624160023037 0.803 1.83252130192e-38
0.00742122306938 -0.0623382737828 0.802 1.55590162195e-38
0.00888325953442 -0.0621828167409 0.8 1.77745419591e-38
0.0102342552553 -0.0614055315317 0.79 1.71287956007e-38
0.0116962917203 -0.0614055315317 0.79 1.75901605084e-38
0.0131583281854 -0.0614055315317 0.79 1.67581969985e-38
0.0146203646504 -0.0614055315317 0.79 1.86943080282e-38
0.0163266907526 -0.0623382737828 0.802 1.75033374569e-38
0.0175444375805 -0.0614055315317 0.79 1.71370968929e-38
0.0190064740455 -0.0614055315317 0.79 1.28943028558e-38
0.0204685105106 -0.0614055315317 0.79 2.22938275974e-38
0.0219305469756 -0.0614055315317 0.79 1.36189170943e-38
0.0233925834406 -0.0614055315317 0.79 1.43600974832e-38
0.0248546199057 -0.0614055315317 0.79 1.36164353947e-38
0.0262833441475 -0.0613278030108 0.789 1.70290539787e-38
0.0277435299334 -0.0613278030108 0.789 1.13220347684e-38
0.0292037157194 -0.0613278030108 0.789 2.12694139603e-38
0.0306639015054 -0.0613278030108 0.789 2.06256784652e-38
0.0321240872913 -0.0613278030108 0.789 2.04452738996e-38
0.0335842730773 -0.0613278030108 0.789 2.32086723063e-38
0.035088875161 -0.0614055315317 0.79 2.1548795039e-38
0.036550911626 -0.0614055315317 0.79 2.33937992478e-38
0.0385903599608 -0.0623382737828 0.802 2.21041618503e-38
0.0401245729095 -0.0624160023037 0.803 2.28398869843e-38
0.0414552111606 -0.0621828167409 0.8 2.20083284496e-38
0.0428284150303 -0.0620273596991 0.798 2.2653347534e-38
0.0443052569279 -0.0620273596991 0.798 2.29302777417e-38
0.0457820988255 -0.0620273596991 0.798 2.34827186418e-38
0.0472589407231 -0.0620273596991 0.798 2.34917317935e-38
0.0492854343044 -0.0627269163874 0.807 1.27920388965e-38
0.0507789323136 -0.0627269163874 0.807 2.05109177262e-38
0.0525315253926 -0.0630378304711 0.811 2.02311190605e-38
0.0542989239041 -0.0633487445548 0.815 2.05073724411e-38
0.0559441775971 -0.0635042015967 0.817 2.10627014173e-38
0.0571748791784 -0.063193287513 0.813 2.18006139782e-38
0.0586794812621 -0.063193287513 0.813 2.19936750716e-38
0.0601840833457 -0.063193287513 0.813 2.3487883828e-38
-0.00752301041821 -0.0616886854293 0.813 2.35073282454e-38
-0.00451380625093 -0.0616886854293 0.813 1.73914199524e-38
-0.00300920416729 -0.0616886854293 0.813 2.12686586604e-38
-0.00150460208364 -0.0616886854293 0.813 1.60185272093e-38
0.0 -0.0616886854293 0.813 1.76726955867e-38
0.00149349800922 -0.0612334183782 0.807 1.32473221688e-38
0.00297959330217 -0.0610816626945 0.805 1.54639787563e-38
0.00446938995326 -0.0610816626945 0.805 1.93454031428e-38
0.00595918660434 -0.0610816626945 0.805 1.53738360287e-38
0.00743047646473 -0.0609299070108 0.803 1.99811414275e-38
0.00891657175768 -0.0609299070108 0.803 1.63912011346e-38
0.0103897122971 -0.0608540291689 0.802 1.67593110308e-38
0.011873956911 -0.0608540291689 0.802 1.69440932528e-38
0.0133748576365 -0.0609299070108 0.803 1.79571115308e-38
0.0148609529295 -0.0609299070108 0.803 1.80460673586e-38
0.0163266907526 -0.0608540291689 0.802 1.6206172284e-38
0.0177221027712 -0.0605505178015 0.798 2.08148817839e-38
0.019150827013 -0.0603987621178 0.796 2.11832397099e-38
0.0205721485385 -0.0602470064341 0.794 2.10932497238e-38
0.0219860673477 -0.0600952507504 0.792 2.17342610946e-38
0.0233925834406 -0.0599434950666 0.79 2.21027073025e-38
0.0248546199057 -0.0599434950666 0.79 2.31171745231e-38
0.0263832808172 -0.0600952507504 0.792 2.28398645635e-38
0.0277786928358 -0.0599434950666 0.79 2.2103047818e-38
0.0292407293008 -0.0599434950666 0.79 2.24704038156e-38
0.0307027657658 -0.0599434950666 0.79 2.27477109726e-38
0.0321648022309 -0.0599434950666 0.79 2.2194164448e-38
0.0336268386959 -0.0599434950666 0.79 2.29303225833e-38
0.035355372947 -0.0603987621178 0.796 2.22863054273e-38
0.0369210474399 -0.0605505178015 0.798 2.14580021089e-38
0.0385903599608 -0.0608540291689 0.802 1.8232588592e-38
0.0401245729095 -0.0609299070108 0.803 1.92413301071e-38
0.0416106682025 -0.0609299070108 0.803 2.34831025976e-38
0.0430430938024 -0.0608540291689 0.802 2.33905216107e-38
0.0444162976721 -0.0607022734852 0.8 2.34827326548e-38
0.0458968409278 -0.0607022734852 0.8 2.34837752209e-38
0.0479103797556 -0.0613851740619 0.809 2.29349762955e-38
0.0495297239416 -0.0615369297456 0.811 1.20598660541e-38
0.0510306246671 -0.0615369297456 0.811 2.04187192937e-38
0.0526610729275 -0.0616886854293 0.813 2.0136779444e-38
0.0544321727972 -0.0619921967968 0.817 2.12431270024e-38
0.0559441775971 -0.0619921967968 0.817 2.16137045852e-38
0.0573155307877 -0.0618404411131 0.815 2.27218752328e-38
0.0588238342295 -0.0618404411131 0.815 2.02429754468e-38
0.0603321376713 -0.0618404411131 0.815 2.34929144894e-38
-0.00453601439976 -0.0604801919968 0.817 1.65598417996e-38
-0.00302400959984 -0.0604801919968 0.817 2.08040623584e-38
-0.00150830344178 -0.0603321376713 0.815 1.776987003e-38
0.0 -0.0603321376713 0.815 1.71216643929e-38
0.0015009007255 -0.0600360290201 0.811 1.63866413094e-38
0.00298699601845 -0.059739920369 0.807 1.23375683772e-38
0.00446938995326 -0.0595918660434 0.805 1.43693852895e-38
0.00595918660434 -0.0595918660434 0.805 1.65738239556e-38
0.00743047646473 -0.0594438117178 0.803 2.00761915023e-38
0.00891657175768 -0.0594438117178 0.803 1.94322584242e-38
0.0104026670506 -0.0594438117178 0.803 1.7680894584e-38
0.0118887623436 -0.0594438117178 0.803 1.82341230138e-38
0.0133748576365 -0.0594438117178 0.803 1.68511591386e-38
0.0148609529295 -0.0594438117178 0.803 1.62925875577e-38
0.0163266907526 -0.059369784555 0.802 2.12740256335e-38
0.0177665190688 -0.0592217302295 0.8 1.80525890017e-38
0.0191989446688 -0.0590736759039 0.798 1.83273177695e-38
0.0206239675524 -0.0589256215783 0.796 1.66689160694e-38
0.0220971080919 -0.0589256215783 0.796 1.76747456863e-38
0.0235702486313 -0.0589256215783 0.796 2.16416366675e-38
0.0250433891708 -0.0589256215783 0.796 2.17356623931e-38
0.0264499052637 -0.0587775672528 0.794 2.12736318686e-38
0.0279193444451 -0.0587775672528 0.794 2.08137285153e-38
0.0293147564636 -0.0586295129272 0.792 2.06282680648e-38
0.0307804942868 -0.0586295129272 0.792 2.10888762713e-38
0.032327661989 -0.0587775672528 0.794 1.93371593039e-38
0.0340524948819 -0.0592217302295 0.8 1.82261594347e-38
0.0355330381377 -0.0592217302295 0.8 1.89597251677e-38
0.0371061153469 -0.059369784555 0.802 2.08051791933e-38
0.0386384776166 -0.0594438117178 0.803 2.22866949882e-38
0.0402245095793 -0.0595918660434 0.805 2.23789480713e-38
0.0417143062304 -0.0595918660434 0.805 2.34848948583e-38
0.0432041028815 -0.0595918660434 0.805 2.274626203e-38
0.0446938995326 -0.0595918660434 0.805 2.15466300329e-38
0.0464131803883 -0.0598879746946 0.809 2.09919442526e-38
0.0479103797556 -0.0598879746946 0.809 2.13718460754e-38
0.0495297239416 -0.0600360290201 0.811 9.66568597063e-39
0.0510306246671 -0.0600360290201 0.811 2.12531813189e-38
0.0526610729275 -0.0601840833457 0.813 2.07842620111e-38
0.0545654216902 -0.0606282463224 0.819 2.14278293504e-38
0.0559441775971 -0.0604801919968 0.817 2.22583677398e-38
0.0573155307877 -0.0603321376713 0.815 2.31824946497e-38
0.0588238342295 -0.0603321376713 0.815 1.90430127433e-38
0.0603321376713 -0.0603321376713 0.815 2.34936137374e-38
-0.00302400959984 -0.0589681871969 0.817 2.2092305464e-38
-0.00151200479992 -0.0589681871969 0.817 1.77669987694e-38
0.0 -0.0588238342295 0.815 1.72163613405e-38
0.00150460208364 -0.0586794812621 0.813 1.70348217231e-38
0.00300180145101 -0.0585351282946 0.811 1.62118979896e-38
0.00449159810209 -0.0583907753272 0.809 1.35400646284e-38
0.0059739920369 -0.0582464223598 0.807 1.48153695452e-38
0.00744898325543 -0.0581020693923 0.805 1.38983906587e-38
0.00891657175768 -0.0579577164249 0.803 1.86979836341e-38
0.0104026670506 -0.0579577164249 0.803 1.72242002041e-38
0.0118887623436 -0.0579577164249 0.803 1.91571386941e-38
0.0133748576365 -0.0579577164249 0.803 1.60224900813e-38
0.0148609529295 -0.0579577164249 0.803 1.84134009355e-38
0.0163266907526 -0.0578855399412 0.802 2.01679359141e-38
0.0178109353665 -0.0578855399412 0.802 1.84234594558e-38
0.0192470623246 -0.0577411869737 0.8 1.81462307715e-38
0.0207276055803 -0.0577411869737 0.8 1.93411572084e-38
0.022152628464 -0.0575968340063 0.798 1.87850967544e-38
0.0236294703616 -0.0575968340063 0.798 1.82315502298e-38
0.0251063122592 -0.0575968340063 0.798 1.61110311248e-38
0.0265831541568 -0.0575968340063 0.798 1.86914143469e-38
0.0280599960544 -0.0575968340063 0.798 2.04435222766e-38
0.0295368379519 -0.0575968340063 0.798 2.06311225098e-38
0.0311691368914 -0.0578855399412 0.802 1.83241704531e-38
0.0326533815053 -0.0578855399412 0.802 2.21059316902e-38
0.0341376261192 -0.0578855399412 0.802 2.2748740927e-38
0.035621870733 -0.0578855399412 0.802 2.25643762919e-38
0.0371523823236 -0.0579577164249 0.803 2.3484517909e-38
0.0387347129282 -0.0581020693923 0.805 2.34888507239e-38
0.0402245095793 -0.0581020693923 0.805 2.16431612802e-38
0.0418179442583 -0.0582464223598 0.807 1.85099111633e-38
0.0433114422675 -0.0582464223598 0.807 1.96119006834e-38
0.0449159810209 -0.0583907753272 0.809 2.04402138109e-38
0.0465279224906 -0.0585351282946 0.811 2.33915361507e-38
0.0481472666766 -0.0586794812621 0.813 2.34899395328e-38
0.0496518687602 -0.0586794812621 0.813 1.01216348598e-38
0.0511564708438 -0.0586794812621 0.813 2.1630563607e-38
0.0529201679972 -0.0589681871969 0.817 2.26385638352e-38
0.0545654216902 -0.0591125401644 0.819 2.31881657046e-38
0.0560811278482 -0.0591125401644 0.819 2.346296734e-38
0.0575968340063 -0.0591125401644 0.819 2.34687364857e-38
0.0591125401644 -0.0591125401644 0.819 1.80328236868e-38
0.0606282463224 -0.0591125401644 0.819 2.34874830566e-38
-0.00304621774868 -0.0578781372249 0.823 2.09852544538e-38
-0.00151570615806 -0.0575968340063 0.819 1.81404686323e-38
0.0 -0.0575968340063 0.819 1.71263307167e-38
0.00151200479992 -0.057456182397 0.817 1.60206922154e-38
0.00301660688356 -0.0573155307877 0.815 1.59342349028e-38
0.00451380625093 -0.0571748791784 0.813 1.44576334616e-38
0.00601840833457 -0.0571748791784 0.813 1.8600744731e-38
0.00746749004612 -0.0567529243505 0.807 1.60242248888e-38
0.00893877990651 -0.0566122727412 0.805 1.21513652386e-38
0.0104285765576 -0.0566122727412 0.805 1.32537275041e-38
0.0119183732087 -0.0566122727412 0.805 1.72156733029e-38
0.0134081698598 -0.0566122727412 0.805 1.72238442743e-38
0.0148609529295 -0.0564716211319 0.803 1.86014061439e-38
0.0163470482224 -0.0564716211319 0.803 1.95226393725e-38
0.0178109353665 -0.0564012953273 0.802 1.92485734189e-38
0.0192951799804 -0.0564012953273 0.802 2.05385863644e-38
0.0207794245943 -0.0564012953273 0.802 1.6388771283e-38
0.0222636692081 -0.0564012953273 0.802 1.85052882797e-38
0.023747913822 -0.0564012953273 0.802 1.77687616029e-38
0.0252321584359 -0.0564012953273 0.802 2.08104480755e-38
0.0267164030498 -0.0564012953273 0.802 1.84155379156e-38
0.0282006476636 -0.0564012953273 0.802 1.98878289627e-38
0.0296848922775 -0.0564012953273 0.802 2.28409211426e-38
0.0311691368914 -0.0564012953273 0.802 2.06314854461e-38
0.0326533815053 -0.0564012953273 0.802 2.25666001526e-38
0.0341801917378 -0.0564716211319 0.803 2.24732722736e-38
0.0356662870307 -0.0564716211319 0.803 2.04492844158e-38
0.0371523823236 -0.0564716211319 0.803 1.83338015775e-38
0.0387347129282 -0.0566122727412 0.805 1.31572747295e-38
0.0403244462491 -0.0567529243505 0.807 1.66545107212e-38
0.0418179442583 -0.0567529243505 0.807 2.11796790105e-38
0.0434187816536 -0.0568935759598 0.809 2.32111455981e-38
0.0450270217651 -0.0570342275691 0.811 2.13679995111e-38
0.0466426645929 -0.0571748791784 0.813 2.33005344272e-38
0.0481472666766 -0.0571748791784 0.813 2.34863550113e-38
0.0496518687602 -0.0571748791784 0.813 1.06740827663e-38
0.0511564708438 -0.0571748791784 0.813 2.34805648461e-38
0.0530497155321 -0.0575968340063 0.819 2.29194176786e-38
0.0545654216902 -0.0575968340063 0.819 2.25467339443e-38
0.0560811278482 -0.0575968340063 0.819 2.32785760802e-38
0.0575968340063 -0.0575968340063 0.819 2.34662239576e-38
0.0591125401644 -0.0575968340063 0.819 1.96919961011e-38
0.061812680927 -0.0587220468807 0.835 2.09874222625e-38
0.0633579979502 -0.0587220468807 0.835 2.35098169515e-38
-0.00463595106953 -0.0571767298575 0.835 1.70229681394e-38
-0.00306842589751 -0.056765879104 0.829 2.10803395611e-38
-0.00152681023248 -0.0564919786017 0.825 1.9617410589e-38
0.0 -0.0562180780994 0.821 1.80468450793e-38
0.00151570615806 -0.0560811278482 0.819 1.79571381555e-38
0.00302400959984 -0.0559441775971 0.817 1.56540060385e-38
0.00452491032535 -0.0558072273459 0.815 1.78656557865e-38
0.00603321376713 -0.0558072273459 0.815 1.39934575491e-38
0.00746749004612 -0.0552594263413 0.807 1.75858879494e-38
0.00896098805535 -0.0552594263413 0.807 1.64848905486e-38
0.0104285765576 -0.0551224760902 0.805 1.59324622602e-38
0.0119183732087 -0.0551224760902 0.805 1.72195829257e-38
0.0134081698598 -0.0551224760902 0.805 1.11368826037e-38
0.0148979665109 -0.0551224760902 0.805 1.0854525167e-38
0.0163877631619 -0.0551224760902 0.805 1.39866472386e-38
0.0178331435154 -0.054985525839 0.803 1.85989678846e-38
0.0193192388083 -0.054985525839 0.803 1.46438155807e-38
0.0208053341012 -0.054985525839 0.803 1.67657177673e-38
0.0222914293942 -0.054985525839 0.803 1.75018731e-38
0.0237775246871 -0.054985525839 0.803 1.65788251899e-38
0.0252636199801 -0.054985525839 0.803 2.03552292629e-38
0.026749715273 -0.054985525839 0.803 1.69476609587e-38
0.028235810566 -0.054985525839 0.803 1.78699928053e-38
0.0297219058589 -0.054985525839 0.803 1.8241255623e-38
0.0312080011519 -0.054985525839 0.803 1.6763251482e-38
0.0326940964448 -0.054985525839 0.803 1.47213984702e-38
0.0341801917378 -0.054985525839 0.803 1.18589759062e-38
0.0356662870307 -0.054985525839 0.803 1.55553546266e-38
0.0372449162771 -0.0551224760902 0.805 1.89784282983e-38
0.0388309482398 -0.0552594263413 0.807 2.16496450882e-38
0.0403244462491 -0.0552594263413 0.807 2.2011593475e-38
0.0419215822862 -0.0553963765925 0.809 2.24714547895e-38
0.0435261210396 -0.0555333268436 0.811 2.24707569428e-38
0.0451380625093 -0.0556702770948 0.813 2.20115500348e-38
0.0466426645929 -0.0556702770948 0.813 2.25633056999e-38
0.048265710137 -0.0558072273459 0.815 2.34895401627e-38
0.0497740135788 -0.0558072273459 0.815 1.12297592646e-38
0.0512823170206 -0.0558072273459 0.815 2.26500404696e-38
0.0529201679972 -0.0559441775971 0.817 2.34737391213e-38
0.0546986705832 -0.0562180780994 0.821 2.28269389865e-38
0.0562180780994 -0.0562180780994 0.821 2.34765935662e-38
0.0577374856156 -0.0562180780994 0.821 2.34751726496e-38
0.0602673639038 -0.0571767298575 0.835 2.02440614531e-38
0.061812680927 -0.0571767298575 0.835 2.34796245748e-38
0.0633579979502 -0.0571767298575 0.835 2.35098015372e-38
-0.00619607352526 -0.0557646617273 0.837 2.21139050785e-38
-0.00463595106953 -0.0556314128343 0.835 1.75754384668e-38
-0.00307582861379 -0.0553649150483 0.831 1.82237015571e-38
-0.00153421294876 -0.0552316661553 0.829 2.06282806765e-38
0.0 -0.0549651683692 0.825 1.82312153195e-38
0.0015194075162 -0.0546986705832 0.821 1.52834578829e-38
0.00303141231612 -0.0545654216902 0.819 1.86982737029e-38
0.00453601439976 -0.0544321727972 0.817 1.42707338776e-38
0.00603321376713 -0.0542989239041 0.815 1.75833263758e-38
0.00748599683682 -0.0538991772251 0.809 1.85099714191e-38
0.00896098805535 -0.0537659283321 0.807 1.62993698423e-38
0.0104544860646 -0.0537659283321 0.807 1.39012394985e-38
0.0119183732087 -0.0536326794391 0.805 1.7311062492e-38
0.0134081698598 -0.0536326794391 0.805 1.5193487515e-38
0.0148979665109 -0.0536326794391 0.805 1.69433715841e-38
0.0163877631619 -0.0536326794391 0.805 1.5280213877e-38
0.017877559813 -0.0536326794391 0.805 1.64798556832e-38
0.0193673564641 -0.0536326794391 0.805 1.48289215027e-38
0.0208571531152 -0.0536326794391 0.805 1.28949950972e-38
0.0223469497663 -0.0536326794391 0.805 1.39992379053e-38
0.0238367464174 -0.0536326794391 0.805 1.39069876248e-38
0.0252636199801 -0.0534994305461 0.803 1.28943028558e-38
0.026749715273 -0.0534994305461 0.803 1.39081212753e-38
0.028235810566 -0.0534994305461 0.803 1.68576177232e-38
0.0297219058589 -0.0534994305461 0.803 1.54753572998e-38
0.0312080011519 -0.0534994305461 0.803 1.45509038873e-38
0.0326940964448 -0.0534994305461 0.803 1.83201879629e-38
0.0341801917378 -0.0534994305461 0.803 2.00732375652e-38
0.035755119626 -0.0536326794391 0.805 2.11831486255e-38
0.0372449162771 -0.0536326794391 0.805 2.26583669851e-38
0.0388309482398 -0.0537659283321 0.807 2.1550574688e-38
0.0404243829188 -0.0538991772251 0.809 2.28402204933e-38
0.0420252203141 -0.0540324261181 0.811 2.34845221129e-38
0.0436334604256 -0.0541656750111 0.813 2.28402779466e-38
0.0451380625093 -0.0541656750111 0.813 2.00769243814e-38
0.0466426645929 -0.0541656750111 0.813 1.71240914418e-38
0.0483841535975 -0.0544321727972 0.817 2.34831684586e-38
0.050018303216 -0.0545654216902 0.819 1.01252221838e-38
0.0514081631973 -0.0544321727972 0.817 2.14508414737e-38
0.0529201679972 -0.0544321727972 0.817 2.2178304552e-38
0.0546986705832 -0.0546986705832 0.821 2.34712055736e-38
0.0562180780994 -0.0546986705832 0.821 2.34744313627e-38
0.0577374856156 -0.0546986705832 0.821 2.34734014083e-38
0.0602673639038 -0.0556314128343 0.835 2.34737531342e-38
0.061812680927 -0.0556314128343 0.835 2.3487104706e-38
0.0633579979502 -0.0556314128343 0.835 2.35098085437e-38
0.0650587720152 -0.0557646617273 0.837 2.35098365697e-38
-0.00619607352526 -0.054215643346 0.837 2.34989947235e-38
-0.00463595106953 -0.0540860958111 0.835 1.69311648731e-38
-0.00309063404635 -0.0540860958111 0.835 1.85002478091e-38
-0.0015379143069 -0.0538270007414 0.831 1.91542324011e-38
0.0 -0.0536974532065 0.829 1.70348217231e-38
0.00152681023248 -0.0534383581368 0.825 1.78674564551e-38
0.00304621774868 -0.0533088106019 0.823 1.15063419503e-38
0.0045582225486 -0.053179263067 0.821 1.94325919332e-38
0.00604801919968 -0.0529201679972 0.817 2.00768515139e-38
0.00750450362752 -0.0525315253926 0.811 1.52837941946e-38
0.00900540435302 -0.0525315253926 0.811 1.65709821224e-38
0.0104803955715 -0.0524019778577 0.809 1.92510943548e-38
0.0119479840738 -0.0522724303229 0.807 1.54732189184e-38
0.013441482083 -0.0522724303229 0.807 1.83276835084e-38
0.0149349800922 -0.0522724303229 0.807 1.58330135095e-38
0.0164284781015 -0.0522724303229 0.807 1.81336260919e-38
0.0179219761107 -0.0522724303229 0.807 1.94294292026e-38
0.0194154741199 -0.0522724303229 0.807 1.68497143999e-38
0.0209089721291 -0.0522724303229 0.807 1.77735007943e-38
0.0224024701384 -0.0522724303229 0.807 1.92453896688e-38
0.0238959681476 -0.0522724303229 0.807 2.09991931696e-38
0.0253265430684 -0.052142882788 0.805 1.91578449485e-38
0.0268163397195 -0.052142882788 0.805 1.98024688668e-38
0.0283061363706 -0.052142882788 0.805 2.23806842801e-38
0.0297959330217 -0.052142882788 0.805 2.14597831592e-38
0.0312857296728 -0.052142882788 0.805 2.27530611301e-38
0.0327755263239 -0.052142882788 0.805 2.15502425803e-38
0.034265322975 -0.052142882788 0.805 2.30257397983e-38
0.035755119626 -0.052142882788 0.805 2.18293644188e-38
0.0373374502306 -0.0522724303229 0.807 2.01694184878e-38
0.0389271835515 -0.0524019778577 0.809 1.87782976543e-38
0.0405243195886 -0.0525315253926 0.811 2.17328752105e-38
0.042128858342 -0.0526610729275 0.813 1.74947432934e-38
0.0437407998117 -0.0527906204624 0.815 1.75825514578e-38
0.0452491032535 -0.0527906204624 0.815 1.8413379916e-38
0.0468721487976 -0.0529201679972 0.817 2.03521071699e-38
0.0485025970579 -0.0530497155321 0.819 2.34870934956e-38
0.0501404480346 -0.053179263067 0.821 1.07659182625e-38
0.0515340093741 -0.0530497155321 0.819 2.28308794378e-38
0.0530497155321 -0.0530497155321 0.819 2.3376494613e-38
0.0554981639413 -0.0539565482763 0.833 2.3006638699e-38
0.0570397796063 -0.0539565482763 0.833 2.34672609185e-38
0.05886269849 -0.054215643346 0.837 2.34694763713e-38
0.0604117168713 -0.054215643346 0.837 2.34730538863e-38
0.0619607352526 -0.054215643346 0.837 2.34813425667e-38
0.0635097536339 -0.054215643346 0.837 2.3509809945e-38
0.0650587720152 -0.054215643346 0.837 2.35098351684e-38
-0.00619607352526 -0.0526666249647 0.837 2.35018589775e-38
-0.00464705514394 -0.0526666249647 0.837 1.49939818501e-38
-0.00309063404635 -0.052540778788 0.835 1.73009815509e-38
-0.00154161566504 -0.0524149326112 0.833 1.75890941203e-38
0.0 -0.0522890864345 0.831 1.76801911322e-38
0.00153421294876 -0.0521632402577 0.829 1.76816134501e-38
0.00306102318124 -0.052037394081 0.827 1.71287956007e-38
0.00458043069744 -0.0519115479043 0.825 1.43582940121e-38
0.00609243549736 -0.0517857017275 0.823 1.56476259266e-38
0.00756002399961 -0.0514081631973 0.817 1.85092707699e-38
0.00904982065069 -0.0512823170206 0.815 1.79596674992e-38
0.0105322145855 -0.0511564708438 0.813 1.50050717261e-38
0.012007205804 -0.0510306246671 0.811 1.86932514492e-38
0.0135081065295 -0.0510306246671 0.811 1.5832710829e-38
0.0150460208364 -0.0511564708438 0.813 1.89673566392e-38
0.0165506229201 -0.0511564708438 0.813 1.79585548682e-38
0.0180552250037 -0.0511564708438 0.813 1.95261972693e-38
0.0195598270874 -0.0511564708438 0.813 1.83305281443e-38
0.021064429171 -0.0511564708438 0.813 1.70376901811e-38
0.0225690312546 -0.0511564708438 0.813 2.06276052506e-38
0.0240736333383 -0.0511564708438 0.813 2.05346627287e-38
0.0253894661568 -0.0507789323136 0.807 2.14580469504e-38
0.026882964166 -0.0507789323136 0.807 1.99832293622e-38
0.0284467879799 -0.0509047784904 0.809 2.10906727359e-38
0.0299439873473 -0.0509047784904 0.809 2.02623596085e-38
0.0314411867146 -0.0509047784904 0.809 2.03531231113e-38
0.0328569562029 -0.0507789323136 0.807 1.89708752996e-38
0.0343504542122 -0.0507789323136 0.807 1.55557666083e-38
0.0359327848167 -0.0509047784904 0.809 1.92453266104e-38
0.0376150520911 -0.0511564708438 0.813 1.55614923138e-38
0.0391196541747 -0.0511564708438 0.813 1.70275924244e-38
0.0407241929281 -0.0512823170206 0.815 1.90592075496e-38
0.0422324963699 -0.0512823170206 0.815 2.00758579933e-38
0.0438481391977 -0.0514081631973 0.817 1.81397469636e-38
0.0453601439976 -0.0514081631973 0.817 1.54671428882e-38
0.0469868908999 -0.0515340093741 0.819 2.01669115649e-38
0.0486210405184 -0.0516598555508 0.821 2.34899605523e-38
0.0502625928532 -0.0517857017275 0.823 1.1137565036e-38
0.052037394081 -0.052037394081 0.827 2.19081818522e-38
0.0539565482763 -0.0524149326112 0.833 2.23595148642e-38
0.0556314128343 -0.052540778788 0.835 2.34697958674e-38
0.0571767298575 -0.052540778788 0.835 2.3466892377e-38
0.05886269849 -0.0526666249647 0.837 2.34697860583e-38
0.0605560698387 -0.0527924711414 0.839 2.34705427595e-38
0.0619607352526 -0.0526666249647 0.837 2.34871131138e-38
0.0635097536339 -0.0526666249647 0.837 2.35090742633e-38
0.0650587720152 -0.0526666249647 0.837 2.35098365697e-38
-0.00465815921836 -0.051239751402 0.839 1.90520146846e-38
-0.00310543947891 -0.051239751402 0.839 1.41670756263e-38
-0.00154901838131 -0.0511176065834 0.837 1.69433841957e-38
0.0 -0.0509954617648 0.835 1.70334022078e-38
0.00154161566504 -0.0508733169462 0.833 1.69411799533e-38
0.00307582861379 -0.0507511721276 0.831 1.76808973866e-38
0.00460263884627 -0.050629027309 0.829 1.67600747384e-38
0.00612204636247 -0.0505068824904 0.827 1.75908947888e-38
0.00763405116239 -0.0503847376718 0.825 1.24247501612e-38
0.00913865324604 -0.0502625928532 0.823 1.83258590178e-38
0.0106358526134 -0.0501404480346 0.821 1.90641793566e-38
0.0121552601296 -0.0501404480346 0.821 2.03546253033e-38
0.0136413554225 -0.050018303216 0.819 1.50929779814e-38
0.0151200479992 -0.0498961583974 0.817 1.87786479789e-38
0.0165913378596 -0.0497740135788 0.815 1.43557632671e-38
0.0180996413014 -0.0497740135788 0.815 1.58355778857e-38
0.0196079447432 -0.0497740135788 0.815 1.74968564515e-38
0.0211162481849 -0.0497740135788 0.815 1.81443712485e-38
0.0226245516267 -0.0497740135788 0.815 1.75922722652e-38
0.0241328550685 -0.0497740135788 0.815 1.5838753228e-38
0.0255782354219 -0.0496518687602 0.813 1.98009610696e-38
0.0270828375056 -0.0496518687602 0.813 1.75897331124e-38
0.0285874395892 -0.0496518687602 0.813 1.78656389709e-38
0.0300920416729 -0.0496518687602 0.813 1.50979708078e-38
0.0315966437565 -0.0496518687602 0.813 1.65623164926e-38
0.0331012458401 -0.0496518687602 0.813 1.55518037363e-38
0.0346058479238 -0.0496518687602 0.813 1.80457913028e-38
0.0361992826028 -0.0497740135788 0.815 1.85092679673e-38
0.037800119998 -0.0498961583974 0.817 1.93371887312e-38
0.0394083601096 -0.050018303216 0.819 2.17342554895e-38
0.0409240662676 -0.050018303216 0.819 2.24718261336e-38
0.0424397724257 -0.050018303216 0.819 2.34877436981e-38
0.0440628179698 -0.0501404480346 0.821 1.82355187071e-38
0.045582225486 -0.0501404480346 0.821 1.65777868277e-38
0.0472163751045 -0.0502625928532 0.823 2.1826355831e-38
0.0488579274393 -0.0503847376718 0.825 2.26551075649e-38
0.050629027309 -0.050629027309 0.829 1.251832607e-38
0.0522890864345 -0.0507511721276 0.831 2.19089301456e-38
0.0540860958111 -0.0509954617648 0.835 2.17130482385e-38
0.0557646617273 -0.0511176065834 0.837 2.24516698564e-38
0.0573136801086 -0.0511176065834 0.837 2.3472315402e-38
0.0590033500993 -0.051239751402 0.839 2.34740586173e-38
0.0605560698387 -0.051239751402 0.839 2.34712868489e-38
0.0621087895782 -0.051239751402 0.839 2.34892234693e-38
0.0636615093176 -0.051239751402 0.839 2.35098155502e-38
0.0652142290571 -0.051239751402 0.839 2.3509823958e-38
-0.00622568439037 -0.049805475123 0.841 2.35062002002e-38
-0.00466926329278 -0.049805475123 0.841 1.90513294497e-38
-0.00310543947891 -0.0496870316625 0.839 1.73942169442e-38
-0.00154901838131 -0.0495685882021 0.837 1.74057916695e-38
0.0 -0.0495685882021 0.837 1.75869417259e-38
0.00154531702318 -0.0494501447416 0.835 1.61110927819e-38
0.00308323133007 -0.0493317012812 0.833 1.80518505174e-38
0.00460263884627 -0.0490948143602 0.829 1.56536473061e-38
0.00612204636247 -0.0489763708998 0.827 1.61157563032e-38
0.00765255795309 -0.0489763708998 0.827 1.94323018644e-38
0.00916086139487 -0.0488579274393 0.825 1.76769317119e-38
0.0106876716274 -0.0488579274393 0.825 1.5095511529e-38
0.0121848709947 -0.0487394839789 0.823 1.41724411981e-38
0.0136746676458 -0.0486210405184 0.821 1.79560367349e-38
0.0151570615806 -0.0485025970579 0.819 2.05346431105e-38
0.0166727677387 -0.0485025970579 0.819 1.70344335635e-38
0.0181884738967 -0.0485025970579 0.819 1.70391026899e-38
0.0197041800548 -0.0485025970579 0.819 1.63844202513e-38
0.0212717052268 -0.0486210405184 0.821 2.13693629745e-38
0.022791112743 -0.0486210405184 0.821 1.48242719944e-38
0.0243105202592 -0.0486210405184 0.821 1.63876824741e-38
0.0258299277754 -0.0486210405184 0.821 1.72137745435e-38
0.0274159597381 -0.0487394839789 0.823 1.64773501616e-38
0.0289390686124 -0.0487394839789 0.823 1.77674121525e-38
0.0303141231612 -0.0485025970579 0.819 1.91513611405e-38
0.0318298293193 -0.0485025970579 0.819 2.17327406858e-38
0.0333455354773 -0.0485025970579 0.819 2.09934702667e-38
0.035116635347 -0.0488579274393 0.825 2.22902654967e-38
0.0363769477935 -0.0485025970579 0.819 2.28420197606e-38
0.0378926539515 -0.0485025970579 0.819 2.228855311e-38
0.0394083601096 -0.0485025970579 0.819 2.2377810217e-38
0.0412238762769 -0.0488579274393 0.825 2.21005016587e-38
0.0427506865094 -0.0488579274393 0.825 2.33926880181e-38
0.0441701573558 -0.0487394839789 0.823 1.9431905297e-38
0.0456932662302 -0.0487394839789 0.823 2.28420379774e-38
0.0474458593092 -0.0489763708998 0.827 2.21938491559e-38
0.0490948143602 -0.0490948143602 0.829 2.34877773293e-38
0.0507511721276 -0.0492132578207 0.831 1.36192758267e-38
0.0522890864345 -0.0492132578207 0.831 2.15416301999e-38
0.054215643346 -0.0495685882021 0.837 2.24534677224e-38
0.0557646617273 -0.0495685882021 0.837 2.19928174769e-38
0.0574506303598 -0.0496870316625 0.839 2.30048842733e-38
0.0591440017085 -0.049805475123 0.841 2.34680260274e-38
0.0608447757736 -0.0499239185834 0.843 2.3192143991e-38
0.0624048982293 -0.0499239185834 0.843 2.34899787692e-38
0.063965020685 -0.0499239185834 0.843 2.3509434397e-38
-0.00624048982293 -0.0483637961277 0.843 2.3503687672e-38
-0.0046803673672 -0.0483637961277 0.843 1.98850151554e-38
-0.00311284219519 -0.0482490540254 0.841 1.64679936917e-38
-0.00155642109759 -0.0482490540254 0.841 2.053611027e-38
0.0 -0.0481343119231 0.839 1.67543336186e-38
0.00154901838131 -0.0480195698208 0.837 1.59277903311e-38
0.00308323133007 -0.0477900856161 0.833 1.62083106655e-38
0.00461374292069 -0.0476753435138 0.831 1.50068527765e-38
0.00613685179503 -0.0475606014115 0.829 1.64799075313e-38
0.00767106474379 -0.0475606014115 0.829 1.70355433918e-38
0.00918306954371 -0.0474458593092 0.827 1.77680581511e-38
0.0106876716274 -0.0473311172068 0.825 1.74922069432e-38
0.0122144818598 -0.0473311172068 0.825 1.85978062082e-38
0.0137079798691 -0.0472163751045 0.823 1.56526299634e-38
0.015194075162 -0.0471016330022 0.821 1.97092460851e-38
0.0167134826782 -0.0471016330022 0.821 1.62979419192e-38
0.0182328901944 -0.0471016330022 0.821 1.50961995666e-38
0.0197522977106 -0.0471016330022 0.821 1.79470950494e-38
0.0212717052268 -0.0471016330022 0.821 1.44454954143e-38
0.022791112743 -0.0471016330022 0.821 1.99825259104e-38
0.0243697419894 -0.0472163751045 0.823 1.776987003e-38
0.0259557739521 -0.0473311172068 0.825 2.06290219634e-38
0.0274825841846 -0.0473311172068 0.825 1.96169481605e-38
0.0290093944171 -0.0473311172068 0.825 2.31197136759e-38
0.0305362046496 -0.0473311172068 0.825 2.22888754086e-38
0.032140743403 -0.0474458593092 0.827 2.12765465695e-38
0.0336712549936 -0.0474458593092 0.827 2.03502364365e-38
0.0352017665842 -0.0474458593092 0.827 2.17285045606e-38
0.0366434455795 -0.0473311172068 0.825 1.85924784714e-38
0.037985187905 -0.0471016330022 0.821 2.2007640412e-38
0.0395045954212 -0.0471016330022 0.821 2.25636308011e-38
0.0413238129467 -0.0474458593092 0.827 2.08079299422e-38
0.0428543245373 -0.0474458593092 0.827 2.22856412118e-38
0.044492175514 -0.0475606014115 0.829 2.27476717363e-38
0.0460263884627 -0.0475606014115 0.829 1.74017895611e-38
0.0476753435138 -0.0476753435138 0.831 2.0255535285e-38
0.0493317012812 -0.0477900856161 0.833 2.34863059659e-38
0.0509954617648 -0.0479048277184 0.835 1.51848387009e-38
0.0527924711414 -0.0481343119231 0.839 2.10799107637e-38
0.0546042859506 -0.0483637961277 0.843 2.15308051693e-38
0.0561644084064 -0.0483637961277 0.843 2.19914526122e-38
0.0578614811133 -0.04847853823 0.845 2.34683987728e-38
0.0595659565364 -0.0485932803324 0.847 2.31921313793e-38
0.0614221876433 -0.048822764537 0.851 2.31046343032e-38
0.0629971155316 -0.048822764537 0.851 2.3493212966e-38
0.0645720434199 -0.048822764537 0.851 2.35098281619e-38
-0.00155642109759 -0.0466926329278 0.841 2.31114992643e-38
0.0 -0.0466926329278 0.841 1.78617153352e-38
