# .PCD v0.7 - Point Cloud Data file format
VERSION 0.7
FIELDS x y z rgb
SIZE 4 4 4 4
TYPE F F F F
COUNT 1 1 1 1
WIDTH 857
HEIGHT 1
VIEWPOINT 0 0 0 1 0 0 0
POINTS 857
DATA ascii
0.0109985857111 -0.174406144847 0.849 1.0469246562e-38
0.0125698122412 -0.174406144847 0.849 1.01937400735e-38
0.0141410387714 -0.174406144847 0.849 1.02855755697e-38
0.0156752517201 -0.173995294093 0.847 1.06529175543e-38
0.0172427768921 -0.173995294093 0.847 1.09284240428e-38
0.0188547183618 -0.174406144847 0.849 1.09284240428e-38
0.020425944892 -0.174406144847 0.849 1.09284240428e-38
0.0219971714221 -0.174406144847 0.849 1.08365885466e-38
0.0236239183244 -0.1748169956 0.851 1.1020259539e-38
0.025287678808 -0.17543327173 0.854 1.18467790044e-38
0.0269310818219 -0.175844122484 0.856 1.21222854929e-38
0.0285152631055 -0.175844122484 0.856 1.2214120989e-38
0.0300994443891 -0.175844122484 0.856 1.2214120989e-38
0.0317576528356 -0.176254973237 0.858 1.21222854929e-38
0.0334232639983 -0.176665823991 0.86 1.21222854929e-38
0.0350148479982 -0.176665823991 0.86 1.17549435082e-38
0.0366915632353 -0.177076674744 0.862 1.14794370197e-38
0.0383756811887 -0.177487525498 0.864 1.31324759506e-38
0.0399746679049 -0.177487525498 0.864 1.0469246562e-38
0.0418142429001 -0.178514652381 0.869 8.17335915806e-39
0.0435224196815 -0.178925503135 0.871 1.30632798324e-38
0.0456007322767 -0.180774331525 0.88 1.71324950287e-38
0.047336669244 -0.181185182279 0.882 1.5839194637e-38
-0.0241791220453 -0.177313561665 0.871 2.57140510281e-39
-0.0225153615616 -0.17690641227 0.869 2.57139389242e-39
-0.0208590037943 -0.176499262875 0.867 1.1020259539e-39
-0.0191878405943 -0.175888538782 0.864 2.75506488474e-39
-0.0175481389386 -0.175481389386 0.862 5.41829427332e-39
-0.0159528535806 -0.175481389386 0.862 8.0815236619e-39
-0.0143242559993 -0.175074239991 0.86 9.36722060812e-39
-0.0127326719993 -0.175074239991 0.86 1.31407492167e-38
-0.0111151784924 -0.174667090596 0.858 1.24153698693e-38
-0.00950508770183 -0.1742599412 0.856 1.14891227947e-38
-0.00792090641819 -0.1742599412 0.856 1.03774110659e-38
-0.006321919702 -0.173852791805 0.854 1.12039305313e-38
-0.0047414397765 -0.173852791805 0.854 1.06529175543e-38
-0.00314985577658 -0.173242067712 0.851 1.05610820582e-38
-0.00157492788829 -0.173242067712 0.851 1.05610820582e-38
0.0 -0.173242067712 0.851 1.0469246562e-38
0.00157492788829 -0.173242067712 0.851 1.06529175543e-38
0.00314985577658 -0.173242067712 0.851 1.06529175543e-38
0.00472478366487 -0.173242067712 0.851 1.08365885466e-38
0.00629971155316 -0.173242067712 0.851 1.08365885466e-38
0.00787463944145 -0.173242067712 0.851 1.07447530505e-38
0.00944956732974 -0.173242067712 0.851 1.07447530505e-38
0.0109985857111 -0.172834918317 0.849 1.06529175543e-38
0.0125698122412 -0.172834918317 0.849 1.02855755697e-38
0.0141410387714 -0.172834918317 0.849 1.05610820582e-38
0.0157122653015 -0.172834918317 0.849 1.0469246562e-38
0.0172834918317 -0.172834918317 0.849 1.03774110659e-38
0.0188547183618 -0.172834918317 0.849 1.09284240428e-38
0.0204740625478 -0.173242067712 0.851 1.09284240428e-38
0.0220489904361 -0.173242067712 0.851 1.09284240428e-38
0.0237071988825 -0.173852791805 0.854 1.1020259539e-38
0.025287678808 -0.173852791805 0.854 1.17549435082e-38
0.0269310818219 -0.1742599412 0.856 1.2214120989e-38
0.028581887552 -0.174667090596 0.858 1.17549435082e-38
0.0301697701938 -0.174667090596 0.858 1.2214120989e-38
0.0318316799983 -0.175074239991 0.86 1.21222854929e-38
0.0334232639983 -0.175074239991 0.86 1.23059564852e-38
0.0350148479982 -0.175074239991 0.86 1.21222854929e-38
0.0366915632353 -0.175481389386 0.862 1.18467790044e-38
0.0383756811887 -0.175888538782 0.864 1.21222854929e-38
0.0402060027886 -0.17690641227 0.869 8.81620763117e-39
0.0418142429001 -0.17690641227 0.869 6.79582671569e-39
0.043722293021 -0.178127860456 0.875 1.33463309118e-38
0.0458598273464 -0.180163607432 0.885 1.69484639027e-38
0.0474976783231 -0.180163607432 0.885 1.60236069162e-38
-0.0241791220453 -0.175701620195 0.871 3.67628970557e-39
-0.0225671805756 -0.175701620195 0.871 1.83670992316e-40
-0.0209071214501 -0.175298172158 0.869 7.34683969264e-40
-0.0192544650409 -0.174894724121 0.867 2.57139389242e-39
-0.0175888538782 -0.174289552065 0.864 3.21424236553e-39
-0.0159528535806 -0.173886104028 0.862 6.52032022722e-39
-0.0143242559993 -0.173482655991 0.86 8.72437213501e-39
-0.0127326719993 -0.173482655991 0.86 1.23091962872e-38
-0.0111151784924 -0.173079207954 0.858 1.33387470845e-38
-0.00952729585067 -0.173079207954 0.858 1.19543987264e-38
-0.00792090641819 -0.172675759917 0.856 1.1859693371e-38
-0.00633672513455 -0.172675759917 0.856 1.03777697983e-38
-0.0047414397765 -0.172272311879 0.854 1.08365885466e-38
-0.003160959851 -0.172272311879 0.854 1.08365885466e-38
-0.0015804799255 -0.172272311879 0.854 1.09284240428e-38
0.0 -0.171667139824 0.851 1.06529175543e-38
0.00157492788829 -0.171667139824 0.851 1.07447530505e-38
0.00314985577658 -0.171667139824 0.851 1.06529175543e-38
0.00472478366487 -0.171667139824 0.851 1.08365885466e-38
0.00629971155316 -0.171667139824 0.851 1.09284240428e-38
0.00787463944145 -0.171667139824 0.851 1.07447530505e-38
0.00944956732974 -0.171667139824 0.851 1.06529175543e-38
0.011024495218 -0.171667139824 0.851 1.06529175543e-38
0.0125994231063 -0.171667139824 0.851 1.0469246562e-38
0.0141743509946 -0.171667139824 0.851 1.02855755697e-38
0.0157492788829 -0.171667139824 0.851 1.05610820582e-38
0.0173852791805 -0.172272311879 0.854 1.02855755697e-38
0.018965759106 -0.172272311879 0.854 1.08365885466e-38
0.0205462390315 -0.172272311879 0.854 1.09284240428e-38
0.0221785379709 -0.172675759917 0.856 1.09284240428e-38
0.0237627192546 -0.172675759917 0.856 1.09284240428e-38
0.0253469005382 -0.172675759917 0.856 1.19386145005e-38
0.0269940049102 -0.173079207954 0.858 1.19386145005e-38
0.028581887552 -0.173079207954 0.858 1.20304499967e-38
0.0302400959984 -0.173482655991 0.86 1.19386145005e-38
0.0318316799983 -0.173482655991 0.86 1.05610820582e-38
0.0335009925192 -0.173886104028 0.862 1.01019045774e-38
0.0350962778772 -0.173886104028 0.862 1.00100690812e-38
0.0367766944725 -0.174289552065 0.864 1.14794370197e-38
0.0385977626771 -0.175298172158 0.869 1.05610820582e-38
0.0402060027886 -0.175298172158 0.869 6.97949770801e-39
0.0418142429001 -0.175298172158 0.869 4.04076183095e-39
0.0439721346954 -0.177517136363 0.88 1.37140638587e-38
0.0458598273464 -0.178525756456 0.885 1.63934950602e-38
0.0477123570952 -0.17933265253 0.889 1.67611467318e-38
-0.0258502852452 -0.174489425405 0.873 1.09507144975e-38
-0.0241791220453 -0.174089678726 0.871 1.25241176366e-38
-0.0225671805756 -0.174089678726 0.871 9.48455132853e-39
-0.0209071214501 -0.173689932047 0.869 2.75506488474e-39
-0.0192544650409 -0.173290185368 0.867 9.1835496158e-40
-0.0175888538782 -0.172690565349 0.864 2.47955839627e-39
-0.0159528535806 -0.17229081867 0.862 3.03057137321e-39
-0.0143575682225 -0.17229081867 0.862 8.0815236619e-39
-0.0127326719993 -0.171891071991 0.86 1.12957660274e-38
-0.0111410879994 -0.171891071991 0.86 1.49943083526e-38
-0.00952729585067 -0.171491325312 0.858 1.14023095523e-38
-0.00792090641819 -0.171091578633 0.856 1.36081551221e-38
-0.00633672513455 -0.171091578633 0.856 1.10288691167e-38
-0.0047414397765 -0.170691831954 0.854 1.11120950351e-38
-0.003160959851 -0.170691831954 0.854 1.11120950351e-38
-0.0015804799255 -0.170691831954 0.854 1.1020259539e-38
0.0 -0.170691831954 0.854 1.09284240428e-38
0.0015804799255 -0.170691831954 0.854 1.08365885466e-38
0.00314985577658 -0.170092211935 0.851 1.09284240428e-38
0.00472478366487 -0.170092211935 0.851 1.1020259539e-38
0.00629971155316 -0.170092211935 0.851 1.12957660274e-38
0.00787463944145 -0.170092211935 0.851 1.09284240428e-38
0.00944956732974 -0.170092211935 0.851 1.07447530505e-38
0.011024495218 -0.170092211935 0.851 1.05610820582e-38
0.012643839404 -0.170691831954 0.854 1.08365885466e-38
0.0142243193295 -0.170691831954 0.854 1.05610820582e-38
0.015804799255 -0.170691831954 0.854 1.09284240428e-38
0.0173852791805 -0.170691831954 0.854 1.09284240428e-38
0.018965759106 -0.170691831954 0.854 1.08365885466e-38
0.0205943566873 -0.171091578633 0.856 1.1020259539e-38
0.0221785379709 -0.171091578633 0.856 1.05610820582e-38
0.0237627192546 -0.171091578633 0.856 1.09284240428e-38
0.0253469005382 -0.171091578633 0.856 1.23977919813e-38
0.0269940049102 -0.171491325312 0.858 1.19386145005e-38
0.028581887552 -0.171491325312 0.858 1.23059564852e-38
0.0302400959984 -0.171891071991 0.86 9.1835496158e-39
0.0319057071611 -0.17229081867 0.862 7.16316870032e-39
0.0335009925192 -0.17229081867 0.862 7.71418167727e-39
0.0350962778772 -0.17229081867 0.862 7.25500419648e-39
0.0369043913283 -0.173290185368 0.867 8.54070114269e-39
0.0385977626771 -0.173689932047 0.869 5.78563625795e-39
0.0402060027886 -0.173689932047 0.869 5.32645877716e-39
0.0418142429001 -0.173689932047 0.869 1.91592490496e-38
0.0439721346954 -0.175888538782 0.88 1.57495577781e-38
0.0458598273464 -0.176887905479 0.885 1.52856887501e-38
-0.0276232357939 -0.173863895879 0.878 1.76817129423e-38
-0.0258502852452 -0.172873782577 0.873 5.32645877716e-39
-0.0241791220453 -0.172477737256 0.871 1.06806464483e-38
-0.0225671805756 -0.172477737256 0.871 1.16011033576e-38
-0.0209552391059 -0.172477737256 0.871 1.26152777069e-38
-0.0192988813385 -0.172081691935 0.869 3.94893614388e-39
-0.0175888538782 -0.171091578633 0.864 1.83670992316e-40
-0.0159528535806 -0.170695533312 0.862 2.20405190779e-39
-0.0143575682225 -0.170695533312 0.862 4.77544580022e-39
-0.0127326719993 -0.170299487991 0.86 7.62234618111e-39
-0.0111410879994 -0.170299487991 0.86 1.44419010837e-38
-0.00952729585067 -0.16990344267 0.858 1.15877812131e-38
-0.00793941320889 -0.16990344267 0.858 1.35152434287e-38
-0.00633672513455 -0.169507397349 0.856 1.27809181919e-38
-0.00475254385092 -0.169507397349 0.856 1.11120950351e-38
-0.003160959851 -0.169111352028 0.854 1.16631080121e-38
-0.0015804799255 -0.169111352028 0.854 1.1020259539e-38
0.0 -0.169111352028 0.854 1.09284240428e-38
0.0015804799255 -0.169111352028 0.854 1.1020259539e-38
0.00314985577658 -0.168517284047 0.851 1.12039305313e-38
0.00472478366487 -0.168517284047 0.851 1.11120950351e-38
0.00629971155316 -0.168517284047 0.851 1.12957660274e-38
0.00787463944145 -0.168517284047 0.851 1.09284240428e-38
0.00944956732974 -0.168517284047 0.851 1.07447530505e-38
0.0110633594785 -0.169111352028 0.854 1.05610820582e-38
0.012643839404 -0.169111352028 0.854 1.08365885466e-38
0.0142243193295 -0.169111352028 0.854 1.08365885466e-38
0.015804799255 -0.169111352028 0.854 1.09284240428e-38
0.0173852791805 -0.169111352028 0.854 1.09284240428e-38
0.018965759106 -0.169111352028 0.854 1.08365885466e-38
0.0205943566873 -0.169507397349 0.856 1.11120950351e-38
0.0221785379709 -0.169507397349 0.856 1.06529175543e-38
0.0237627192546 -0.169507397349 0.856 1.11120950351e-38
0.0253469005382 -0.169507397349 0.856 1.23977919813e-38
0.0269940049102 -0.16990344267 0.858 1.2030479424e-38
0.028581887552 -0.16990344267 0.858 9.45905610427e-39
0.0302400959984 -0.170299487991 0.86 5.05095228869e-39
0.0319057071611 -0.170695533312 0.862 5.60268273045e-39
0.0335009925192 -0.170695533312 0.862 6.70399121953e-39
0.0351777077563 -0.171091578633 0.864 7.3500682843e-39
0.0369043913283 -0.171685646614 0.867 3.03057137321e-39
0.0386865952724 -0.172477737256 0.871 8.36062868483e-39
0.0402985367421 -0.172477737256 0.871 2.07209289257e-38
0.0419104782118 -0.172477737256 0.871 1.69484484884e-38
0.0438721980256 -0.173863895879 0.878 1.5750608752e-38
0.0456007322767 -0.1742599412 0.88 1.63913146397e-38
-0.0276232357939 -0.172238999656 0.878 1.64863773263e-38
-0.0258502852452 -0.171258139749 0.873 3.94892633479e-39
-0.0241791220453 -0.170865795786 0.871 1.09572375418e-38
-0.0225671805756 -0.170865795786 0.871 1.04972739326e-38
-0.0209552391059 -0.170865795786 0.871 1.12326935836e-38
-0.0192988813385 -0.170473451824 0.869 1.46421466343e-38
-0.0176499262875 -0.170081107861 0.867 9.75935576648e-39
-0.015989867162 -0.169492591917 0.864 2.38772290011e-39
-0.0143575682225 -0.169100247954 0.862 2.93873587706e-39
-0.0127326719993 -0.168707903991 0.86 3.30607786169e-39
-0.0111410879994 -0.168707903991 0.86 1.3702599836e-38
-0.0095495039995 -0.168707903991 0.86 1.22345687362e-38
-0.00795791999959 -0.168707903991 0.86 1.29656653814e-38
-0.00635153056711 -0.168315560028 0.858 1.31515392149e-38
-0.00475254385092 -0.167923216066 0.856 1.20426468985e-38
-0.00316836256728 -0.167923216066 0.856 1.16631080121e-38
-0.00158418128364 -0.167923216066 0.856 1.12957660274e-38
0.0 -0.167530872103 0.854 1.13876015236e-38
0.0015804799255 -0.167530872103 0.854 1.15712725159e-38
0.003160959851 -0.167530872103 0.854 1.14794370197e-38
0.0047414397765 -0.167530872103 0.854 1.08365885466e-38
0.006321919702 -0.167530872103 0.854 1.12039305313e-38
0.0079023996275 -0.167530872103 0.854 1.12957660274e-38
0.00948287955299 -0.167530872103 0.854 1.07447530505e-38
0.0110633594785 -0.167530872103 0.854 1.06529175543e-38
0.012643839404 -0.167530872103 0.854 1.05610820582e-38
0.0142243193295 -0.167530872103 0.854 1.09284240428e-38
0.015804799255 -0.167530872103 0.854 1.06529175543e-38
0.01742599412 -0.167923216066 0.856 1.08365885466e-38
0.0190101754037 -0.167923216066 0.856 1.1020259539e-38
0.0205943566873 -0.167923216066 0.856 1.12957660274e-38
0.0221785379709 -0.167923216066 0.856 1.1020259539e-38
0.0237627192546 -0.167923216066 0.856 1.11120950351e-38
0.0254061222684 -0.168315560028 0.858 1.19386145005e-38
0.0270569279986 -0.168707903991 0.86 1.02855755697e-38
0.0286485119985 -0.168707903991 0.86 6.97949770801e-39
0.0302400959984 -0.168707903991 0.86 5.69595315624e-39
0.0319057071611 -0.169100247954 0.862 6.15441317221e-39
0.0335787210401 -0.169492591917 0.864 5.41829427332e-39
0.0352998525749 -0.170081107861 0.867 1.56120343469e-39
0.0369895225655 -0.170473451824 0.869 1.39016528816e-38
0.0386865952724 -0.170865795786 0.871 1.91550731802e-38
0.0402985367421 -0.170865795786 0.871 1.87848066856e-38
0.0419104782118 -0.170865795786 0.871 1.1135771374e-38
0.0438721980256 -0.172238999656 0.878 1.49244662359e-38
0.0456007322767 -0.172631343619 0.88 1.56537650151e-38
-0.0276232357939 -0.170614103433 0.878 1.75920186302e-38
-0.0258502852452 -0.169642496921 0.873 5.51299962873e-39
-0.0241791220453 -0.169253854317 0.871 1.08631697772e-38
-0.0225671805756 -0.169253854317 0.871 1.03128826729e-38
-0.0209552391059 -0.169253854317 0.871 1.16933003888e-38
-0.0192988813385 -0.168865211712 0.869 7.08783489488e-39
-0.0176499262875 -0.168476569108 0.867 1.31698710014e-38
-0.015989867162 -0.167893605201 0.864 1.29865713532e-38
-0.0143575682225 -0.167504962596 0.862 3.76525534248e-39
-0.0127622828645 -0.167504962596 0.862 2.75506488474e-39
-0.0111669975064 -0.167504962596 0.862 1.11228948424e-38
-0.0095495039995 -0.167116319991 0.86 1.20498215467e-38
-0.00795791999959 -0.167116319991 0.86 1.27827118539e-38
-0.00635153056711 -0.166727677387 0.858 1.31504125709e-38
-0.00476364792533 -0.166727677387 0.858 1.26898001605e-38
-0.00316836256728 -0.166339034782 0.856 1.13876015236e-38
-0.00158418128364 -0.166339034782 0.856 1.16631080121e-38
0.0 -0.166339034782 0.856 1.17549435082e-38
0.00158418128364 -0.166339034782 0.856 1.16631080121e-38
0.003160959851 -0.165950392177 0.854 1.17549435082e-38
0.0047414397765 -0.165950392177 0.854 1.1020259539e-38
0.006321919702 -0.165950392177 0.854 1.15712725159e-38
0.0079023996275 -0.165950392177 0.854 1.14794370197e-38
0.00948287955299 -0.165950392177 0.854 1.1020259539e-38
0.0110892689855 -0.166339034782 0.856 1.05610820582e-38
0.0126734502691 -0.166339034782 0.856 1.05610820582e-38
0.0142576315527 -0.166339034782 0.856 1.1020259539e-38
0.0158418128364 -0.166339034782 0.856 1.08365885466e-38
0.01742599412 -0.166339034782 0.856 1.12957660274e-38
0.0190101754037 -0.166339034782 0.856 1.1020259539e-38
0.0206424743431 -0.166727677387 0.858 1.08365885466e-38
0.0222303569849 -0.166727677387 0.858 1.1020259539e-38
0.0238182396267 -0.166727677387 0.858 1.1020259539e-38
0.0254061222684 -0.166727677387 0.858 8.54070114269e-39
0.0270569279986 -0.167116319991 0.86 6.88766221185e-39
0.0286485119985 -0.167116319991 0.86 6.88981460629e-39
0.0303104218031 -0.167504962596 0.862 7.26074391499e-39
0.0319057071611 -0.167504962596 0.862 4.49993931174e-39
0.0336953138215 -0.168476569108 0.867 3.489748854e-39
0.035381282454 -0.168865211712 0.869 1.78692557223e-38
0.0370746538027 -0.169253854317 0.871 1.9068247326e-38
0.0387754278677 -0.169642496921 0.873 1.81423085371e-38
0.0403910706956 -0.169642496921 0.873 1.86047286226e-38
0.0420067135234 -0.169642496921 0.873 1.23253308377e-38
0.043722293021 -0.170031139526 0.875 1.63934656329e-38
0.0454970942488 -0.170614103433 0.878 1.57459452307e-38
-0.0276232357939 -0.16898920721 0.878 1.69455772278e-38
-0.0259095069754 -0.16841179534 0.875 1.06737534612e-38
-0.0242346424173 -0.168026854094 0.873 1.07731363509e-38
-0.0226189995895 -0.168026854094 0.873 1.09557339486e-38
-0.0209552391059 -0.167641912847 0.871 1.20617227745e-38
-0.0193432976362 -0.167641912847 0.871 2.38772290011e-39
-0.017690641227 -0.167256971601 0.869 4.60726616242e-39
-0.016045387534 -0.166872030354 0.867 1.43702358776e-38
-0.0143908804458 -0.166294618484 0.864 1.37219699847e-38
-0.0127622828645 -0.165909677238 0.862 4.22443282327e-39
-0.0111669975064 -0.165909677238 0.862 5.3286153755e-39
-0.0095495039995 -0.165524735991 0.86 1.27002034003e-38
-0.00795791999959 -0.165524735991 0.86 1.16803271676e-38
-0.00635153056711 -0.165139794745 0.858 1.30592945396e-38
-0.00476364792533 -0.165139794745 0.858 1.37964896357e-38
-0.00316836256728 -0.164754853498 0.856 1.22245242288e-38
-0.00158418128364 -0.164754853498 0.856 1.12039305313e-38
0.0 -0.164754853498 0.856 1.17549435082e-38
0.00158418128364 -0.164754853498 0.856 1.17549435082e-38
0.003160959851 -0.164369912252 0.854 1.16631080121e-38
0.0047414397765 -0.164369912252 0.854 1.14794370197e-38
0.006321919702 -0.164369912252 0.854 1.13876015236e-38
0.0079023996275 -0.164369912252 0.854 1.18467790044e-38
0.00948287955299 -0.164369912252 0.854 1.06529287647e-38
0.0110892689855 -0.164754853498 0.856 1.06529175543e-38
0.0126734502691 -0.164754853498 0.856 1.07447530505e-38
0.0142576315527 -0.164754853498 0.856 1.09284240428e-38
0.0158788264178 -0.165139794745 0.858 1.1020259539e-38
0.0174667090596 -0.165139794745 0.858 1.12957660274e-38
0.0190545917013 -0.165139794745 0.858 1.08365885466e-38
0.0206424743431 -0.165139794745 0.858 1.08365885466e-38
0.0222303569849 -0.165139794745 0.858 1.12957660274e-38
0.0238182396267 -0.165139794745 0.858 9.09171411964e-39
0.0254653439987 -0.165524735991 0.86 4.95911679253e-39
0.0270569279986 -0.165524735991 0.86 5.78707118758e-39
0.028715136445 -0.165909677238 0.862 6.8901733387e-39
0.0303104218031 -0.165909677238 0.862 3.58158435016e-39
0.0319797343239 -0.166294618484 0.864 7.80745490565e-39
0.0336953138215 -0.166872030354 0.867 1.97985998817e-38
0.035381282454 -0.167256971601 0.869 1.91582709433e-38
0.0371597850399 -0.168026854094 0.873 1.75895173124e-38
0.0387754278677 -0.168026854094 0.873 1.7957558545e-38
0.0403910706956 -0.168026854094 0.873 1.87880436851e-38
0.0420067135234 -0.168026854094 0.873 1.51945286798e-38
0.043722293021 -0.16841179534 0.875 1.61157773227e-38
0.0454970942488 -0.16898920721 0.878 1.62058219594e-38
-0.0276232357939 -0.167364310987 0.878 1.73147086706e-38
-0.0259095069754 -0.166792451154 0.875 5.51264089633e-39
-0.0242346424173 -0.166411211266 0.873 7.45912293599e-39
-0.0226189995895 -0.166411211266 0.873 1.10533764256e-38
-0.0209552391059 -0.166029971377 0.871 1.17858617575e-38
-0.0193432976362 -0.166029971377 0.871 8.92889444847e-39
-0.017690641227 -0.165648731489 0.869 1.19386145005e-39
-0.016045387534 -0.165267491601 0.867 1.27114404127e-38
-0.0143908804458 -0.164695631768 0.864 1.42744080822e-38
-0.0127918937296 -0.164695631768 0.864 1.54736701365e-38
-0.0111669975064 -0.16431439188 0.862 3.76525534248e-39
-0.00957171214834 -0.16431439188 0.862 1.25062426734e-38
-0.00795791999959 -0.163933151991 0.86 1.15920789955e-38
-0.00635153056711 -0.163551912103 0.858 1.28770584769e-38
-0.00476364792533 -0.163551912103 0.858 1.33348010281e-38
-0.00316836256728 -0.163170672215 0.856 1.37035779423e-38
-0.00158418128364 -0.163170672215 0.856 1.16717175898e-38
0.0 -0.163170672215 0.856 1.17549435082e-38
0.00158418128364 -0.163170672215 0.856 1.2214120989e-38
0.003160959851 -0.162789432326 0.854 1.2214120989e-38
0.0047414397765 -0.162789432326 0.854 1.18467790044e-38
0.006321919702 -0.162789432326 0.854 1.16631080121e-38
0.00792090641819 -0.163170672215 0.856 1.17549435082e-38
0.00950508770183 -0.163170672215 0.856 1.11120950351e-38
0.0110892689855 -0.163170672215 0.856 1.05610820582e-38
0.0127030611342 -0.163551912103 0.858 1.08365885466e-38
0.014290943776 -0.163551912103 0.858 1.1020259539e-38
0.0158788264178 -0.163551912103 0.858 1.14794370197e-38
0.0174667090596 -0.163551912103 0.858 1.11120950351e-38
0.0190545917013 -0.163551912103 0.858 1.06529175543e-38
0.0206424743431 -0.163551912103 0.858 1.08365885466e-38
0.0222303569849 -0.163551912103 0.858 1.03774110659e-38
0.0238182396267 -0.163551912103 0.858 6.24481373874e-39
0.0254653439987 -0.163933151991 0.86 4.40810381558e-39
0.0270569279986 -0.163933151991 0.86 5.6941594942e-39
0.028715136445 -0.16431439188 0.862 1.92854541932e-39
0.0303104218031 -0.16431439188 0.862 1.33395360156e-38
0.0320907750681 -0.165267491601 0.867 2.0630926328e-38
0.0337730423424 -0.165648731489 0.869 1.43644709358e-38
0.035462712333 -0.166029971377 0.871 1.8331048026e-38
0.0371597850399 -0.166411211266 0.873 1.7405812689e-38
0.0388642604631 -0.166792451154 0.875 1.92457792298e-38
0.0404836046491 -0.166792451154 0.875 1.86933565466e-38
0.042102948835 -0.166792451154 0.875 6.15298945297e-39
0.0438721980256 -0.167364310987 0.878 1.81394540922e-38
0.0456007322767 -0.167745550875 0.88 1.65749772243e-38
-0.0276232357939 -0.165739414763 0.878 1.66682672682e-38
-0.0258502852452 -0.164795568438 0.873 3.21424236553e-39
-0.0242346424173 -0.164795568438 0.873 1.83670992316e-39
-0.0226189995895 -0.164795568438 0.873 1.01260125162e-38
-0.0210033567617 -0.164795568438 0.873 1.08689473308e-38
-0.0193432976362 -0.164418029908 0.871 1.3443255924e-38
-0.017690641227 -0.164040491378 0.869 1.18773118966e-38
-0.0160824011154 -0.164040491378 0.869 1.25234422107e-38
-0.0144408487806 -0.163662952847 0.867 1.25234169874e-38
-0.0127918937296 -0.163096645052 0.864 1.44591692847e-38
-0.0111929070134 -0.163096645052 0.864 1.44588343743e-38
-0.00957171214834 -0.162719106522 0.862 5.05095228869e-39
-0.00795791999959 -0.162341567992 0.86 1.28753587019e-38
-0.00636633599967 -0.162341567992 0.86 1.23249693027e-38
-0.00476364792533 -0.161964029461 0.858 1.31504125709e-38
-0.00317576528356 -0.161964029461 0.858 1.52734035665e-38
-0.00158788264178 -0.161964029461 0.858 1.19554749237e-38
0.0 -0.161586490931 0.856 1.20315261939e-38
0.00158418128364 -0.161586490931 0.856 1.23059564852e-38
0.00316836256728 -0.161586490931 0.856 1.23977919813e-38
0.00475254385092 -0.161586490931 0.856 1.20304499967e-38
0.00633672513455 -0.161586490931 0.856 1.19386145005e-38
0.00792090641819 -0.161586490931 0.856 1.15712725159e-38
0.00952729585067 -0.161964029461 0.858 1.13876015236e-38
0.0111151784924 -0.161964029461 0.858 1.06529175543e-38
0.0127030611342 -0.161964029461 0.858 1.11120950351e-38
0.014290943776 -0.161964029461 0.858 1.11120950351e-38
0.0159158399992 -0.162341567992 0.86 1.11120950351e-38
0.0174667090596 -0.161964029461 0.858 1.09284240428e-38
0.0190545917013 -0.161964029461 0.858 1.09284240428e-38
0.0206424743431 -0.161964029461 0.858 1.0469246562e-38
0.0222821759988 -0.162341567992 0.86 9.64272709659e-39
0.0238737599988 -0.162341567992 0.86 6.61215572338e-39
0.0254653439987 -0.162341567992 0.86 3.85709083864e-39
0.0270569279986 -0.162341567992 0.86 2.75506488474e-40
0.028715136445 -0.162719106522 0.862 1.37223105002e-38
0.0303104218031 -0.162719106522 0.862 1.93430699808e-38
0.0321648022309 -0.164040491378 0.869 1.66682728734e-38
0.0337730423424 -0.164040491378 0.869 5.6938007618e-39
0.035462712333 -0.164418029908 0.871 1.98861319903e-38
0.0371597850399 -0.164795568438 0.873 1.74983978798e-38
0.0388642604631 -0.165173106968 0.875 2.00794705407e-38
0.0406224055793 -0.165739414763 0.878 1.50101752551e-38
0.0422473018025 -0.165739414763 0.878 8.54070114269e-39
0.0438721980256 -0.165739414763 0.878 1.84171129751e-38
0.0456007322767 -0.166116953294 0.88 1.59310553565e-38
-0.0278434666032 -0.165422948643 0.885 1.82377439691e-38
-0.0258502852452 -0.16317992561 0.873 4.31626831943e-39
-0.0242346424173 -0.16317992561 0.873 6.52570121332e-39
-0.0226189995895 -0.16317992561 0.873 1.83670992316e-40
-0.0210033567617 -0.16317992561 0.873 1.41854340375e-38
-0.0193432976362 -0.162806088438 0.871 1.16961856623e-38
-0.0177313561665 -0.162806088438 0.871 9.85517095027e-39
-0.0160824011154 -0.162432251266 0.869 1.40928978921e-38
-0.0144408487806 -0.162058414094 0.867 1.32606415107e-38
-0.0128363100272 -0.162058414094 0.867 1.39045535694e-38
-0.0111929070134 -0.161497658336 0.864 1.35383200118e-38
-0.00957171214834 -0.161123821164 0.862 1.36337274178e-38
-0.00797642679028 -0.161123821164 0.862 3.67341984632e-39
-0.00636633599967 -0.160749983992 0.86 1.24207662697e-38
-0.00477475199975 -0.160749983992 0.86 1.30607294692e-38
-0.00317576528356 -0.16037614682 0.858 1.36135361082e-38
-0.00158788264178 -0.16037614682 0.858 1.35224250833e-38
0.0 -0.16037614682 0.858 1.24993132525e-38
0.00158788264178 -0.16037614682 0.858 1.22162733835e-38
0.00317576528356 -0.16037614682 0.858 1.26732984698e-38
0.00475254385092 -0.160002309647 0.856 1.2214120989e-38
0.00633672513455 -0.160002309647 0.856 1.2214120989e-38
0.00793941320889 -0.16037614682 0.858 1.17549435082e-38
0.0095495039995 -0.160749983992 0.86 1.12957660274e-38
0.0111410879994 -0.160749983992 0.86 1.14794370197e-38
0.0127326719993 -0.160749983992 0.86 1.11120950351e-38
0.0143242559993 -0.160749983992 0.86 1.12957660274e-38
0.0159158399992 -0.160749983992 0.86 1.12957660274e-38
0.0175074239991 -0.160749983992 0.86 1.1020259539e-38
0.019099007999 -0.160749983992 0.86 1.09284240428e-38
0.0206905919989 -0.160749983992 0.86 1.06529175543e-38
0.0222821759988 -0.160749983992 0.86 7.4386751888e-39
0.0238737599988 -0.160749983992 0.86 5.41829427332e-39
0.0255245657289 -0.161123821164 0.862 2.29588740395e-39
0.027119851087 -0.161123821164 0.862 1.50155478334e-38
0.028715136445 -0.161123821164 0.862 1.93459230245e-38
0.0303807476077 -0.161497658336 0.864 1.86972549589e-38
0.0321648022309 -0.162432251266 0.869 1.34442942862e-38
0.0338507708634 -0.162806088438 0.871 1.744874427e-39
0.035462712333 -0.162806088438 0.871 1.98032690082e-38
0.0372449162771 -0.163553762782 0.875 1.87909373664e-38
0.0388642604631 -0.163553762782 0.875 2.02674967687e-38
0.0406224055793 -0.16411451854 0.878 3.86103689511e-39
0.0422473018025 -0.16411451854 0.878 9.37802041538e-39
0.0438721980256 -0.16411451854 0.878 1.79575641502e-38
0.0454970942488 -0.16411451854 0.878 1.75895145098e-38
-0.0312598201658 -0.164525369294 0.889 1.64842291357e-38
-0.0295479420264 -0.16415523348 0.887 1.60210999933e-38
-0.0278434666032 -0.163785097666 0.885 1.61158165591e-38
-0.0259983395707 -0.162489622317 0.878 4.77544580022e-39
-0.0242901627894 -0.161934418596 0.875 4.5917748079e-39
-0.0226189995895 -0.161564282782 0.873 3.03057137321e-39
-0.0210033567617 -0.161564282782 0.873 1.24243998366e-38
-0.0193432976362 -0.161194146968 0.871 1.1020259539e-39
-0.0177313561665 -0.161194146968 0.871 0.0
-0.0160824011154 -0.160824011154 0.869 2.66322938858e-39
-0.0144741610039 -0.160824011154 0.869 1.2707826464e-38
-0.0128363100272 -0.16045387534 0.867 1.45564222007e-38
-0.0112317712738 -0.16045387534 0.867 4.41635466094e-39
-0.00959392029717 -0.15989867162 0.864 1.55670344493e-38
-0.00797642679028 -0.159528535806 0.862 6.90272897294e-39
-0.00636633599967 -0.159158399992 0.86 8.36134755095e-39
-0.00477475199975 -0.159158399992 0.86 1.17739563258e-38
-0.00318316799983 -0.159158399992 0.86 1.30628818637e-38
-0.00159158399992 -0.159158399992 0.86 1.38908362587e-38
0.0 -0.158788264178 0.858 1.31482601765e-38
0.00158788264178 -0.158788264178 0.858 1.23134898657e-38
0.00317576528356 -0.158788264178 0.858 1.23059564852e-38
0.00476364792533 -0.158788264178 0.858 1.23977919813e-38
0.00635153056711 -0.158788264178 0.858 1.26732984698e-38
0.00795791999959 -0.159158399992 0.86 1.24896274775e-38
0.0095495039995 -0.159158399992 0.86 1.18467790044e-38
0.0111410879994 -0.159158399992 0.86 1.12039305313e-38
0.0127326719993 -0.159158399992 0.86 1.12957660274e-38
0.0143242559993 -0.159158399992 0.86 1.14794370197e-38
0.0159158399992 -0.159158399992 0.86 1.12957660274e-38
0.0175074239991 -0.159158399992 0.86 1.11120950351e-38
0.019099007999 -0.159158399992 0.86 1.06529175543e-38
0.0206905919989 -0.159158399992 0.86 1.03774110659e-38
0.0222821759988 -0.159158399992 0.86 5.05095228869e-39
0.0239292803708 -0.159528535806 0.862 1.1020259539e-39
0.0255245657289 -0.159528535806 0.862 0.0
0.027119851087 -0.159528535806 0.862 1.85097612244e-38
0.0287817608915 -0.15989867162 0.864 1.74105182492e-38
0.0304862363147 -0.16045387534 0.867 1.72210781111e-38
0.0322388293937 -0.161194146968 0.871 1.78678796472e-38
0.0338507708634 -0.161194146968 0.871 6.98344376448e-39
0.0355441422121 -0.161564282782 0.873 1.64936402562e-38
0.0372449162771 -0.161934418596 0.875 3.58163479691e-39
0.0388642604631 -0.161934418596 0.875 6.1540572424e-39
0.0406224055793 -0.162489622317 0.878 1.56120903988e-39
0.0422473018025 -0.162489622317 0.878 1.18673024217e-38
0.0438721980256 -0.162489622317 0.878 1.91553842684e-38
0.0454970942488 -0.162489622317 0.878 1.71288950929e-38
-0.0312598201658 -0.162880115601 0.889 1.62983987425e-38
-0.0295479420264 -0.162513681145 0.887 1.74969517398e-38
-0.0278434666032 -0.162147246689 0.885 1.72232431172e-38
-0.0259983395707 -0.160864726094 0.878 4.22443282327e-39
-0.0243734433476 -0.160864726094 0.878 7.7213605293e-39
-0.0227485471244 -0.160864726094 0.878 3.94892633479e-39
-0.0210514744175 -0.16031507441 0.875 2.93873587706e-39
-0.0193877139339 -0.159948639954 0.873 3.67341984632e-39
-0.0177313561665 -0.159582205499 0.871 3.76525534248e-39
-0.0161194146968 -0.159582205499 0.871 6.15441317221e-39
-0.0144741610039 -0.159215771043 0.869 3.03057137321e-39
-0.0128659208924 -0.159215771043 0.869 3.39791335785e-39
-0.0112576807808 -0.159215771043 0.869 3.39791335785e-39
-0.00962723252043 -0.158849336587 0.867 9.20731563775e-39
-0.00799493358098 -0.158299684903 0.864 1.75963570503e-38
-0.00638114143223 -0.157933250448 0.862 2.57139389242e-39
-0.00478585607417 -0.157933250448 0.862 1.22360597178e-38
-0.00318316799983 -0.157566815992 0.86 1.24168047989e-38
-0.00159158399992 -0.157566815992 0.86 1.40734436655e-38
0.0 -0.157566815992 0.86 1.38908362587e-38
0.00159158399992 -0.157566815992 0.86 1.34241253974e-38
0.00318316799983 -0.157566815992 0.86 1.31371394719e-38
0.00477475199975 -0.157566815992 0.86 1.26732984698e-38
0.00636633599967 -0.157566815992 0.86 1.25814629736e-38
0.00795791999959 -0.157566815992 0.86 1.23977919813e-38
0.0095495039995 -0.157566815992 0.86 1.21222854929e-38
0.0111410879994 -0.157566815992 0.86 1.21222854929e-38
0.0127326719993 -0.157566815992 0.86 1.15712725159e-38
0.0143242559993 -0.157566815992 0.86 1.15712725159e-38
0.0159158399992 -0.157566815992 0.86 1.11120950351e-38
0.0175074239991 -0.157566815992 0.86 1.1020259539e-38
0.019099007999 -0.157566815992 0.86 1.06529175543e-38
0.0207387096547 -0.157933250448 0.862 9.91823358506e-39
0.0223339950128 -0.157933250448 0.862 2.47955839627e-39
0.0239292803708 -0.157933250448 0.862 1.43694497492e-38
0.0255245657289 -0.157933250448 0.862 8.55616026735e-39
0.0271827741753 -0.158299684903 0.864 1.45402147827e-38
0.0288816975613 -0.158849336587 0.867 1.78718481244e-38
0.0305565621193 -0.159215771043 0.869 1.72228633654e-38
0.0322388293937 -0.159582205499 0.871 1.97110607667e-38
0.0338507708634 -0.159582205499 0.871 1.44613342908e-38
0.0355441422121 -0.159948639954 0.873 4.04076183095e-39
0.0372449162771 -0.16031507441 0.875 8.35954548112e-39
0.0389975093561 -0.160864726094 0.878 6.7961854481e-39
0.0406224055793 -0.160864726094 0.878 2.38772290011e-39
0.0422473018025 -0.160864726094 0.878 9.65857017703e-39
-0.0295479420264 -0.16087212881 0.887 1.71284873151e-38
-0.0279063896916 -0.16087212881 0.887 1.58399527395e-38
-0.0262056156265 -0.160509395713 0.885 5.14278778485e-39
-0.0244289637197 -0.159602562968 0.88 6.24732486559e-39
-0.0228003661383 -0.159602562968 0.88 3.94892633479e-39
-0.0211236509012 -0.159239829871 0.878 1.37753244237e-39
-0.0194321302315 -0.158695730224 0.875 2.20405190779e-39
-0.0177720711061 -0.158332997127 0.873 4.40810381558e-39
-0.0161194146968 -0.157970264029 0.871 6.24481373874e-39
-0.0145074732272 -0.157970264029 0.871 5.51012976948e-39
-0.0128659208924 -0.157607530931 0.869 5.41829427332e-39
-0.0112576807808 -0.157607530931 0.869 4.04076183095e-39
-0.00964944066926 -0.157607530931 0.869 0.0
-0.00799493358098 -0.156700698187 0.864 1.70463880407e-38
-0.00639594686478 -0.156700698187 0.864 2.02038091548e-39
-0.00478585607417 -0.15633796509 0.862 8.18740156997e-39
-0.00319057071611 -0.15633796509 0.862 1.15874154742e-38
-0.00159528535806 -0.15633796509 0.862 1.49028442006e-38
0.0 -0.15633796509 0.862 1.39848661883e-38
0.00159528535806 -0.15633796509 0.862 1.45351196614e-38
0.00319057071611 -0.15633796509 0.862 1.30503262294e-38
0.00478585607417 -0.15633796509 0.862 1.23977919813e-38
0.00638114143223 -0.15633796509 0.862 1.28569694621e-38
0.00797642679028 -0.15633796509 0.862 1.28569694621e-38
0.00957171214834 -0.15633796509 0.862 1.24896274775e-38
0.0111669975064 -0.15633796509 0.862 1.21222854929e-38
0.0127622828645 -0.15633796509 0.862 1.19386145005e-38
0.0143575682225 -0.15633796509 0.862 1.14794370197e-38
0.0159528535806 -0.15633796509 0.862 1.11120950351e-38
0.0175481389386 -0.15633796509 0.862 1.13876015236e-38
0.0191434242967 -0.15633796509 0.862 1.11120950351e-38
0.0207387096547 -0.15633796509 0.862 5.87747175411e-39
0.0223858140267 -0.156700698187 0.864 1.16861537666e-38
0.0240680813011 -0.157244797834 0.867 1.86980565016e-38
0.0256726200545 -0.157244797834 0.867 1.81437700914e-38
0.0272771588079 -0.157244797834 0.867 1.77760623679e-38
0.0289483220078 -0.157607530931 0.869 1.83288830199e-38
0.030626887924 -0.157970264029 0.871 1.93419209161e-38
0.0323128565565 -0.158332997127 0.873 1.4091493791e-38
0.0339284993843 -0.158332997127 0.873 4.22443282327e-39
0.0355441422121 -0.158332997127 0.873 1.2231375177e-38
0.0373726131329 -0.159239829871 0.878 7.80601717343e-39
0.0389975093561 -0.159239829871 0.878 6.97949770801e-39
0.0406224055793 -0.159239829871 0.878 2.20405190779e-39
0.0423435371141 -0.159602562968 0.88 1.12248168849e-38
-0.0295479420264 -0.159230576475 0.887 1.74965635801e-38
-0.0279063896916 -0.159230576475 0.887 1.57488305042e-38
-0.0262056156265 -0.158871544736 0.885 4.13259732711e-39
-0.0244844840917 -0.158332997127 0.882 4.22443282327e-39
-0.0228003661383 -0.157973965387 0.88 3.21424236553e-39
-0.021171768557 -0.157973965387 0.88 1.1020259539e-39
-0.0194321302315 -0.157076386038 0.875 8.26519465422e-40
-0.0177720711061 -0.156717354299 0.873 5.51443455836e-39
-0.0161194146968 -0.156358322559 0.871 7.80852830028e-39
-0.0145074732272 -0.156358322559 0.871 7.53051068496e-39
-0.0128659208924 -0.15599929082 0.869 5.60196526564e-39
-0.0112576807808 -0.15599929082 0.869 4.95911679253e-39
-0.00964944066926 -0.15599929082 0.869 7.34683969264e-40
-0.00799493358098 -0.155101711471 0.864 1.52911159791e-38
-0.00639594686478 -0.155101711471 0.864 1.35408381452e-38
-0.00478585607417 -0.154742679731 0.862 3.03057137321e-39
-0.00319057071611 -0.154742679731 0.862 1.21441751762e-38
-0.00159528535806 -0.154742679731 0.862 1.29660241138e-38
0.0 -0.154742679731 0.862 1.54588710234e-38
0.00159528535806 -0.154742679731 0.862 1.38904775263e-38
0.00319057071611 -0.154742679731 0.862 1.47141271325e-38
0.00478585607417 -0.154742679731 0.862 1.28652203075e-38
0.00638114143223 -0.154742679731 0.862 1.3508427513e-38
0.00797642679028 -0.154742679731 0.862 1.25814629736e-38
0.00957171214834 -0.154742679731 0.862 1.26732984698e-38
0.0111669975064 -0.154742679731 0.862 1.21222854929e-38
0.0127622828645 -0.154742679731 0.862 1.18467790044e-38
0.0143575682225 -0.154742679731 0.862 1.15712725159e-38
0.0159528535806 -0.154742679731 0.862 1.13876015236e-38
0.0175481389386 -0.154742679731 0.862 1.20304499967e-38
0.0191434242967 -0.154742679731 0.862 7.25500419648e-39
0.0207868273105 -0.155101711471 0.864 4.77544580022e-39
0.0224635425477 -0.15564025908 0.867 1.86976851575e-38
0.0240680813011 -0.15564025908 0.867 1.67604432799e-38
0.0257318417847 -0.15599929082 0.869 1.65764373773e-38
0.0273400818963 -0.15599929082 0.869 1.71288922903e-38
0.0290149464543 -0.156358322559 0.871 1.86961983798e-38
0.030626887924 -0.156358322559 0.871 1.75012733443e-38
0.0323128565565 -0.156717354299 0.873 4.77544580022e-39
0.0339284993843 -0.156717354299 0.873 1.15806331896e-38
0.0355441422121 -0.156717354299 0.873 9.36722060812e-39
0.0373726131329 -0.157614933648 0.878 1.21362816619e-38
0.0390863419515 -0.157973965387 0.88 6.24481373874e-39
0.0407149395328 -0.157973965387 0.88 1.46936793853e-39
0.0424397724257 -0.158332997127 0.882 1.04044196925e-38
-0.0296145664729 -0.157944354522 0.889 1.75880403439e-38
-0.0279063896916 -0.157589024141 0.887 1.5931423898e-38
-0.0262648373568 -0.157589024141 0.887 4.5917748079e-39
-0.0245677646499 -0.157233693759 0.885 4.04076183095e-39
-0.0228521851523 -0.156700698187 0.882 4.22443282327e-39
-0.021171768557 -0.156345367806 0.88 1.19386145005e-39
-0.0194321302315 -0.155457041852 0.875 1.92854962321e-39
-0.0177720711061 -0.155101711471 0.873 1.56120343469e-39
-0.0161194146968 -0.15474638109 0.871 4.5917748079e-39
-0.0145074732272 -0.15474638109 0.871 8.17694648213e-39
-0.0128955317575 -0.15474638109 0.871 7.71418167727e-39
-0.0112835902878 -0.15474638109 0.871 5.41829427332e-39
-0.00964944066926 -0.154391050708 0.869 1.65303893084e-39
-0.00804120055772 -0.154391050708 0.869 1.43673393937e-38
-0.00639594686478 -0.153502724755 0.864 1.66729532103e-38
-0.00479696014859 -0.153502724755 0.864 2.38772290011e-39
-0.00319057071611 -0.153147394373 0.862 1.17804737649e-38
-0.00159528535806 -0.153147394373 0.862 1.37986420301e-38
0.0 -0.153147394373 0.862 1.37979245653e-38
0.00159528535806 -0.153147394373 0.862 1.50904374273e-38
0.00319057071611 -0.153147394373 0.862 1.41663427472e-38
0.00478585607417 -0.153147394373 0.862 1.46248027632e-38
0.00638114143223 -0.153147394373 0.862 1.2402814235e-38
0.00797642679028 -0.153147394373 0.862 1.31324759506e-38
0.00957171214834 -0.153147394373 0.862 1.28569694621e-38
0.0111669975064 -0.153147394373 0.862 1.25814629736e-38
0.0127622828645 -0.153147394373 0.862 1.20304499967e-38
0.0143575682225 -0.153147394373 0.862 1.18467790044e-38
0.0159528535806 -0.153147394373 0.862 1.16631080121e-38
0.0175481389386 -0.153147394373 0.862 9.82639808891e-39
0.0191878405943 -0.153502724755 0.864 1.56120343469e-39
0.0207868273105 -0.153502724755 0.864 1.87005592207e-38
0.0224635425477 -0.154035720327 0.867 1.47382729063e-38
0.0240680813011 -0.154035720327 0.867 1.61222429138e-38
0.0257318417847 -0.154391050708 0.869 1.7315414925e-38
0.0273400818963 -0.154391050708 0.869 1.75909494395e-38
0.0290149464543 -0.15474638109 0.871 1.92508407198e-38
0.0306972137286 -0.155101711471 0.873 3.489748854e-39
0.0323128565565 -0.155101711471 0.873 1.03853326061e-38
0.0339284993843 -0.155101711471 0.873 8.17335915806e-39
0.0356255720912 -0.155457041852 0.875 1.27798658167e-38
0.0374577443701 -0.156345367806 0.88 9.64272709659e-39
0.0390863419515 -0.156345367806 0.88 5.87747175411e-39
0.0408074734862 -0.156700698187 0.882 2.57139389242e-39
0.0425841253931 -0.157233693759 0.885 1.70299017642e-38
-0.0279063896916 -0.155947471806 0.887 1.63924062513e-38
-0.0262648373568 -0.155947471806 0.887 4.22443282327e-39
-0.024623285022 -0.155947471806 0.887 4.77544580022e-39
-0.0228521851523 -0.155068399248 0.882 3.94892633479e-39
-0.0212198862128 -0.155068399248 0.882 2.75506488474e-40
-0.0194987546781 -0.154365141201 0.878 6.81163896756e-39
-0.0178127860456 -0.153837697666 0.875 3.67341984632e-39
-0.0161564282782 -0.153486068643 0.873 2.57139389242e-39
-0.0145407854504 -0.153486068643 0.873 4.68361030406e-39
-0.0128955317575 -0.15313443962 0.871 5.87747175411e-39
-0.0112835902878 -0.15313443962 0.871 3.39791335785e-39
-0.00964944066926 -0.152782810597 0.869 0.0
-0.00804120055772 -0.152782810597 0.869 1.33553580765e-38
-0.00643296044618 -0.152782810597 0.869 1.69498960297e-38
-0.00479696014859 -0.151903738039 0.864 1.744874427e-39
-0.00319797343239 -0.151903738039 0.864 1.0402576985e-38
-0.0015989867162 -0.151903738039 0.864 1.35231355417e-38
0.0 -0.151552109015 0.862 1.43514486691e-38
0.00159528535806 -0.151552109015 0.862 1.57365327089e-38
0.00319057071611 -0.151552109015 0.862 1.4259636995e-38
0.00478585607417 -0.151552109015 0.862 1.4532967267e-38
0.00638114143223 -0.151552109015 0.862 1.46197805095e-38
0.00797642679028 -0.151552109015 0.862 1.34155158196e-38
0.00957171214834 -0.151552109015 0.862 1.25814629736e-38
0.0111669975064 -0.151552109015 0.862 1.24896274775e-38
0.0127622828645 -0.151552109015 0.862 1.24896274775e-38
0.0143908804458 -0.151903738039 0.864 1.21222854929e-38
0.015989867162 -0.151903738039 0.864 1.31342696126e-38
0.0175888538782 -0.151903738039 0.864 5.41829427332e-39
0.0191878405943 -0.151903738039 0.864 1.85017878361e-38
0.0208590037943 -0.152431181573 0.867 1.88856567348e-38
0.0224635425477 -0.152431181573 0.867 1.46942959566e-39
0.0240680813011 -0.152431181573 0.867 1.83346507644e-38
0.0257318417847 -0.152782810597 0.869 1.77767798327e-38
0.0274030049846 -0.15313443962 0.871 1.9068247326e-38
0.0290149464543 -0.15313443962 0.871 3.76525534248e-39
0.0306972137286 -0.153486068643 0.873 9.64704729975e-39
0.0323128565565 -0.153486068643 0.873 8.54285353713e-39
0.0339284993843 -0.153486068643 0.873 9.55591385413e-39
0.0357477169098 -0.154365141201 0.878 9.83393146945e-39
0.0374577443701 -0.154716770224 0.88 8.26806451347e-39
0.0391751745468 -0.155068399248 0.882 4.22443282327e-39
0.0409462744165 -0.155595842783 0.885 1.39095856322e-38
-0.024623285022 -0.154305919471 0.887 3.76525534248e-39
-0.0228521851523 -0.153436100308 0.882 1.46936793853e-39
-0.0212198862128 -0.153436100308 0.882 2.57319315965e-39
-0.0194987546781 -0.152740244978 0.878 1.19748815061e-38
-0.0178127860456 -0.15221835348 0.875 2.02038091548e-39
-0.0161564282782 -0.151870425815 0.873 3.39791335785e-39
-0.0145407854504 -0.151870425815 0.873 4.86728129637e-39
-0.0128955317575 -0.15152249815 0.871 4.77544580022e-39
-0.0112835902878 -0.15152249815 0.871 3.21424236553e-39
-0.0096716488181 -0.15152249815 0.871 1.744874427e-39
-0.00804120055772 -0.151174570485 0.869 1.41854886881e-38
-0.00643296044618 -0.151174570485 0.869 1.60286431829e-38
-0.00482472033463 -0.151174570485 0.869 1.56120343469e-39
-0.00319797343239 -0.150304751322 0.864 1.02174598526e-38
-0.0015989867162 -0.150304751322 0.864 1.31543586274e-38
0.0 -0.150304751322 0.864 1.36117424462e-38
0.0015989867162 -0.150304751322 0.864 1.5271974242e-38
0.00319797343239 -0.150304751322 0.864 1.57357970272e-38
0.00479696014859 -0.150304751322 0.864 1.43500137395e-38
0.00639594686478 -0.150304751322 0.864 1.57304160411e-38
0.00799493358098 -0.150304751322 0.864 1.16670540685e-38
0.00957171214834 -0.149956823657 0.862 1.27654926984e-38
0.0111669975064 -0.149956823657 0.862 1.25814629736e-38
0.0127918937296 -0.150304751322 0.864 1.26732984698e-38
0.0143908804458 -0.150304751322 0.864 1.29488049583e-38
0.015989867162 -0.150304751322 0.864 8.99987862348e-39
0.0175888538782 -0.150304751322 0.864 2.02038091548e-39
0.0192544650409 -0.15082664282 0.867 1.88856833595e-38
0.0208590037943 -0.15082664282 0.867 1.36297449275e-38
0.0224635425477 -0.15082664282 0.867 1.19386145005e-39
0.0241236016732 -0.151174570485 0.869 1.63073011916e-38
0.0257318417847 -0.151174570485 0.869 1.51996209984e-38
0.0274030049846 -0.15152249815 0.871 4.13259732711e-39
0.0290149464543 -0.15152249815 0.871 9.55736980323e-39
0.0306972137286 -0.151870425815 0.873 1.1033532638e-38
0.0323128565565 -0.151870425815 0.873 7.62234618111e-39
0.0340062279052 -0.15221835348 0.875 1.49860911384e-38
0.0358291467888 -0.153088172643 0.88 8.54070114269e-39
0.0375428756073 -0.153436100308 0.882 6.61215572338e-39
0.0393972560352 -0.154305919471 0.887 9.10359432802e-39
0.0411313423234 -0.154653847136 0.889 1.51999615139e-38
-0.0245677646499 -0.152320140829 0.885 1.19386145005e-39
-0.0229299136732 -0.152320140829 0.885 0.0
-0.0212920626966 -0.152320140829 0.885 1.03122184574e-38
-0.0195431709757 -0.151459575062 0.88 1.30780102819e-38
-0.0178738584549 -0.151115348755 0.878 7.36194148619e-39
-0.0161934418596 -0.150599009294 0.875 1.1020259539e-39
-0.0145740976737 -0.150599009294 0.875 9.1835496158e-41
-0.0129251426226 -0.150254782988 0.873 8.26519465422e-40
-0.0112835902878 -0.149910556681 0.871 9.1835496158e-40
-0.0096716488181 -0.149910556681 0.871 1.435693195e-38
-0.00805970734842 -0.149910556681 0.871 1.37209162082e-38
-0.00643296044618 -0.149566330374 0.869 1.5475512844e-38
-0.00482472033463 -0.149566330374 0.869 4.5917748079e-40
-0.00320907750681 -0.149222104067 0.867 1.03092897436e-38
-0.0016045387534 -0.149222104067 0.867 1.26933874846e-38
0.0 -0.149222104067 0.867 1.46248027632e-38
0.0016045387534 -0.149222104067 0.867 1.47144858649e-38
0.00319797343239 -0.148705764606 0.864 1.62886443039e-38
0.00479696014859 -0.148705764606 0.864 1.38026049022e-38
0.00639594686478 -0.148705764606 0.864 1.43453544221e-38
0.00799493358098 -0.148705764606 0.864 1.42520797924e-38
0.00959392029717 -0.148705764606 0.864 1.22169908483e-38
0.0111929070134 -0.148705764606 0.864 1.33168644077e-38
0.0127918937296 -0.148705764606 0.864 1.25814629736e-38
0.0143908804458 -0.148705764606 0.864 1.30420753841e-38
0.015989867162 -0.148705764606 0.864 4.77544580022e-39
0.0176499262875 -0.149222104067 0.867 1.65804506961e-38
0.0192544650409 -0.149222104067 0.867 1.81499007722e-38
0.0208590037943 -0.149222104067 0.867 1.28569694621e-39
0.0225153615616 -0.149566330374 0.869 2.66322938858e-39
0.0241236016732 -0.149566330374 0.869 2.38772290011e-39
0.0257910635149 -0.149910556681 0.871 2.75506488474e-39
0.0274030049846 -0.149910556681 0.871 8.17407942547e-39
0.0290815709008 -0.150254782988 0.873 1.09406209446e-38
0.0307675395333 -0.150599009294 0.875 8.72437213501e-39
0.0323868837192 -0.150599009294 0.875 1.33258495335e-38
0.0341228206866 -0.151115348755 0.878 9.55160906524e-39
0.0358291467888 -0.151459575062 0.88 8.91342411343e-39
0.0376705724632 -0.152320140829 0.885 5.05095228869e-39
0.0393972560352 -0.152664367136 0.887 1.73932766729e-38
0.0411313423234 -0.153008593443 0.889 1.55658797793e-38
-0.0245677646499 -0.150682289853 0.885 4.04076183095e-39
-0.0229299136732 -0.150682289853 0.885 7.72819746451e-39
-0.0212920626966 -0.150682289853 0.885 1.0498783131e-38
-0.0195431709757 -0.149830977481 0.88 1.2340445243e-38
-0.0179145733944 -0.149830977481 0.88 1.20610039084e-38
-0.0162489622317 -0.149490452532 0.878 9.75648590722e-39
-0.0145740976737 -0.148979665109 0.875 3.94892633479e-39
-0.0129251426226 -0.14863914016 0.873 6.43207205513e-39
-0.0113094997948 -0.14863914016 0.873 1.23404424404e-38
-0.0096716488181 -0.148298615211 0.871 1.27993354576e-38
-0.00805970734842 -0.148298615211 0.871 1.6671491656e-38
-0.00643296044618 -0.147958090262 0.869 4.23268366863e-39
-0.00482472033463 -0.147958090262 0.869 2.02038091548e-39
-0.00321648022309 -0.147958090262 0.869 1.05808123405e-38
-0.00160824011154 -0.147958090262 0.869 1.32436956084e-38
0.0 -0.147617565313 0.867 1.37968483681e-38
0.0016045387534 -0.147617565313 0.867 1.38818679485e-38
0.00320907750681 -0.147617565313 0.867 1.44418492357e-38
0.00481361626021 -0.147617565313 0.867 1.5458901852e-38
0.00641815501362 -0.147617565313 0.867 1.34309413131e-38
0.00802269376702 -0.147617565313 0.867 1.44371857144e-38
0.00959392029717 -0.14710677789 0.864 1.46194217771e-38
0.0111929070134 -0.14710677789 0.864 1.22184257779e-38
