# .PCD v0.7 - Point Cloud Data file format
VERSION 0.7
FIELDS x y z rgb
SIZE 4 4 4 4
TYPE F F F F
COUNT 1 1 1 1
WIDTH 842
HEIGHT 1
VIEWPOINT 0 0 0 1 0 0 0
POINTS 842
DATA ascii
0.0094273591809 -0.0691339673266 0.849 9.83034414538e-39
0.0109985857111 -0.0691339673266 0.849 9.27682004158e-39
0.0125698122412 -0.0691339673266 0.849 1.00132976729e-38
0.0141410387714 -0.0691339673266 0.849 9.83070287779e-39
0.0157122653015 -0.0691339673266 0.849 1.04703227592e-38
0.0172834918317 -0.0691339673266 0.849 9.64272709659e-39
0.0188547183618 -0.0691339673266 0.849 1.28612756523e-38
0.020425944892 -0.0691339673266 0.849 1.26779619911e-38
0.0219971714221 -0.0691339673266 0.849 1.30442277785e-38
0.0235683979523 -0.0691339673266 0.849 1.31371394719e-38
0.0251988462126 -0.0692968270848 0.851 1.33200929994e-38
0.0267737741009 -0.0692968270848 0.851 1.32246701792e-38
0.0283487019892 -0.0692968270848 0.851 1.414340209e-38
0.0299236298775 -0.0692968270848 0.851 1.43288485275e-38
0.03160959851 -0.069541116722 0.854 1.4240241623e-38
0.0331900784355 -0.069541116722 0.854 1.5621406231e-38
0.03485198824 -0.0697039764801 0.856 1.58993790048e-38
0.0365213007609 -0.0698668362382 0.858 2.24492035711e-38
0.0381091834027 -0.0698668362382 0.858 2.34740894459e-38
0.0398821339514 -0.0701925557545 0.862 2.15397720782e-38
0.0413811839978 -0.0700296959964 0.86 2.17266870764e-38
0.042872831328 -0.0698668362382 0.858 2.25543275806e-38
0.044253437914 -0.069541116722 0.854 2.13586458439e-38
0.0458339178395 -0.069541116722 0.854 2.22810099204e-38
0.047414397765 -0.069541116722 0.854 2.34835173819e-38
-0.0211236509012 -0.0698705375964 0.878 2.348895442e-38
-0.0193877139339 -0.0694726415964 0.873 1.10407591342e-38
-0.0177720711061 -0.0694726415964 0.873 1.19530086384e-38
-0.0161194146968 -0.0693134831964 0.871 1.13072636813e-38
-0.0144741610039 -0.0691543247964 0.869 1.00179752072e-38
-0.0127918937296 -0.0687564287964 0.864 9.92290831674e-39
-0.0111669975064 -0.0685972703964 0.862 9.55412719859e-39
-0.0095495039995 -0.0684381119964 0.86 1.09320197747e-38
-0.00795791999959 -0.0684381119964 0.86 1.21273077466e-38
-0.00635153056711 -0.0682789535964 0.858 1.05636057967e-38
-0.00476364792533 -0.0682789535964 0.858 1.13901126504e-38
-0.00317576528356 -0.0682789535964 0.858 1.15712725159e-38
-0.00158418128364 -0.0681197951965 0.856 1.06529175543e-38
0.0 -0.0679606367965 0.854 1.12039305313e-38
0.0015804799255 -0.0679606367965 0.854 1.1020259539e-38
0.00316836256728 -0.0681197951965 0.856 1.06529175543e-38
0.00475254385092 -0.0681197951965 0.856 1.07447530505e-38
0.006321919702 -0.0679606367965 0.854 1.18525187229e-38
0.0079023996275 -0.0679606367965 0.854 1.01019045774e-38
0.00944956732974 -0.0677218991965 0.851 8.72652452945e-39
0.011024495218 -0.0677218991965 0.851 9.36973313626e-39
0.0125994231063 -0.0677218991965 0.851 9.55304819877e-39
0.0141743509946 -0.0677218991965 0.851 1.06532874971e-38
0.0157492788829 -0.0677218991965 0.851 1.17574546351e-38
0.0173242067712 -0.0677218991965 0.851 1.12039305313e-38
0.0188991346595 -0.0677218991965 0.851 1.2495367196e-38
0.0204740625478 -0.0677218991965 0.851 1.23102612741e-38
0.0220489904361 -0.0677218991965 0.851 1.28584043917e-38
0.0236239183244 -0.0677218991965 0.851 1.25825405722e-38
0.0251988462126 -0.0677218991965 0.851 1.28601980538e-38
0.0268681587335 -0.0679606367965 0.854 1.34108522983e-38
0.028448638659 -0.0679606367965 0.854 1.40551357011e-38
0.0300291185845 -0.0679606367965 0.854 1.40544182362e-38
0.03160959851 -0.0679606367965 0.854 1.40522756509e-38
0.0332678069564 -0.0681197951965 0.856 1.45161334686e-38
0.03485198824 -0.0681197951965 0.856 1.63614529695e-38
0.0365213007609 -0.0682789535964 0.858 1.83911343029e-38
0.038198015998 -0.0684381119964 0.86 2.17116441374e-38
0.0399746679049 -0.0687564287964 0.864 2.34772886103e-38
0.0415736546211 -0.0687564287964 0.864 2.04370202517e-38
0.0430727046675 -0.0685972703964 0.862 2.27397824259e-38
0.0446679900256 -0.0685972703964 0.862 2.18214316682e-38
0.0462632753836 -0.0685972703964 0.862 2.30210538563e-38
-0.0211236509012 -0.0682456413732 0.878 2.34950654826e-38
-0.0193877139339 -0.0678569987686 0.873 1.20556369353e-38
-0.0177720711061 -0.0678569987686 0.873 1.195406802e-38
-0.0161194146968 -0.0677015417267 0.871 1.17650020286e-38
-0.0145074732272 -0.0677015417267 0.871 1.12136289179e-38
-0.0128659208924 -0.0675460846849 0.869 9.55519919191e-39
-0.0111929070134 -0.0671574420802 0.864 9.73599752237e-39
-0.00957171214834 -0.0670019850384 0.862 1.00132976729e-38
-0.00797642679028 -0.0670019850384 0.862 9.82855048335e-39
-0.00636633599967 -0.0668465279965 0.86 1.11135299647e-38
-0.00477475199975 -0.0668465279965 0.86 1.19386145005e-38
-0.00317576528356 -0.0666910709547 0.858 1.16631080121e-38
-0.00158788264178 -0.0666910709547 0.858 1.17549435082e-38
0.0 -0.0666910709547 0.858 1.16631080121e-38
0.00158418128364 -0.0665356139128 0.856 1.12957660274e-38
0.00316836256728 -0.0665356139128 0.856 1.15719899807e-38
0.00475254385092 -0.0665356139128 0.856 1.02855755697e-38
0.00633672513455 -0.0665356139128 0.856 1.13890364532e-38
0.00792090641819 -0.0665356139128 0.856 1.08365885466e-38
0.00948287955299 -0.066380156871 0.854 9.55089160043e-39
0.0110633594785 -0.066380156871 0.854 9.73635625478e-39
0.0125994231063 -0.0661469713082 0.851 1.01937400735e-38
0.0141743509946 -0.0661469713082 0.851 1.08365885466e-38
0.015804799255 -0.066380156871 0.854 1.18503663284e-38
0.0173852791805 -0.066380156871 0.854 1.17553022406e-38
0.018965759106 -0.066380156871 0.854 1.21262315493e-38
0.0205462390315 -0.066380156871 0.854 1.24028184389e-38
0.022126718957 -0.066380156871 0.854 1.24021149871e-38
0.0237071988825 -0.066380156871 0.854 1.31357143513e-38
0.025287678808 -0.066380156871 0.854 1.34133732343e-38
0.0268681587335 -0.066380156871 0.854 1.34115753683e-38
0.028448638659 -0.066380156871 0.854 1.35044898643e-38
0.0300291185845 -0.066380156871 0.854 1.31371618927e-38
0.0316836256728 -0.0665356139128 0.856 1.42377417065e-38
0.0332678069564 -0.0665356139128 0.856 1.53440724493e-38
0.0349334181191 -0.0666910709547 0.858 1.62678308178e-38
0.0366064319981 -0.0668465279965 0.86 1.49788814578e-38
0.0382868485934 -0.0670019850384 0.862 2.19892876061e-38
0.0399746679049 -0.0671574420802 0.864 2.3107093582e-38
0.0415736546211 -0.0671574420802 0.864 2.22802840478e-38
0.0431726413373 -0.0671574420802 0.864 2.27411823231e-38
0.0450307231232 -0.0675460846849 0.869 2.3484531922e-38
0.0466389632348 -0.0675460846849 0.869 2.34845403298e-38
-0.021171768557 -0.0667725008337 0.88 2.34914599416e-38
-0.0195431709757 -0.0667725008337 0.88 1.14098961822e-38
-0.0178127860456 -0.0663931116244 0.875 1.24121412776e-38
-0.0161564282782 -0.0662413559407 0.873 1.11203921233e-38
-0.0145407854504 -0.0662413559407 0.873 1.09356197104e-38
-0.0128955317575 -0.066089600257 0.871 1.13947803756e-38
-0.0112576807808 -0.0659378445733 0.869 1.14819537518e-38
-0.00959392029717 -0.065558455364 0.864 1.01019059787e-38
-0.00797642679028 -0.0654066996803 0.862 8.26519465422e-39
-0.00638114143223 -0.0654066996803 0.862 1.08387409411e-38
-0.00477475199975 -0.0652549439966 0.86 1.06529175543e-38
-0.00318316799983 -0.0652549439966 0.86 1.1020259539e-38
-0.00159158399992 -0.0652549439966 0.86 1.23099151533e-38
0.0 -0.0651031883129 0.858 1.17570987053e-38
0.00158788264178 -0.0651031883129 0.858 1.2215914651e-38
0.00317576528356 -0.0651031883129 0.858 1.15712725159e-38
0.00476364792533 -0.0651031883129 0.858 1.09284240428e-38
0.00635153056711 -0.0651031883129 0.858 1.11138886972e-38
0.00793941320889 -0.0651031883129 0.858 1.2401020573e-38
0.00950508770183 -0.0649514326292 0.856 1.12039305313e-38
0.0110892689855 -0.0649514326292 0.856 1.11120950351e-38
0.012643839404 -0.0647996769455 0.854 1.12050067285e-38
0.0142243193295 -0.0647996769455 0.854 1.12957660274e-38
0.0158418128364 -0.0649514326292 0.856 1.16631080121e-38
0.0173852791805 -0.0647996769455 0.854 1.12039305313e-38
0.018965759106 -0.0647996769455 0.854 1.24917798719e-38
0.0205462390315 -0.0647996769455 0.854 1.24924973367e-38
0.022126718957 -0.0647996769455 0.854 1.21244701172e-38
0.0237071988825 -0.0647996769455 0.854 1.27683751693e-38
0.025287678808 -0.0647996769455 0.854 1.3227181306e-38
0.0268681587335 -0.0647996769455 0.854 1.33186594711e-38
0.0285152631055 -0.0649514326292 0.856 1.35009053428e-38
0.0300994443891 -0.0649514326292 0.856 1.33208104642e-38
0.0317576528356 -0.0651031883129 0.858 1.40551357011e-38
0.0333455354773 -0.0651031883129 0.858 1.44235580868e-38
0.0350148479982 -0.0652549439966 0.86 1.45121804056e-38
0.0366064319981 -0.0652549439966 0.86 1.68217178579e-38
0.0382868485934 -0.0654066996803 0.862 1.61820601414e-38
0.0401134688351 -0.0657860888896 0.867 2.00592554091e-38
0.0417180075885 -0.0657860888896 0.867 2.07107008483e-38
0.0433225463419 -0.0657860888896 0.867 2.34812276603e-38
0.0450307231232 -0.0659378445733 0.869 2.34823725211e-38
0.0466389632348 -0.0659378445733 0.869 2.34881276539e-38
-0.0212920626966 -0.0655140390664 0.885 2.34939962919e-38
-0.0195431709757 -0.0651439032524 0.88 1.27935494962e-38
-0.0178127860456 -0.0647737674385 0.875 1.22302975785e-38
-0.0161934418596 -0.0647737674385 0.875 1.01083729711e-38
-0.0145407854504 -0.0646257131129 0.873 1.07512102338e-38
-0.0128955317575 -0.0644776587873 0.871 1.15773723681e-38
-0.0112576807808 -0.0643296044618 0.869 1.16663604258e-38
-0.00962723252043 -0.0641815501362 0.867 1.06529189556e-38
-0.00802269376702 -0.0641815501362 0.867 1.08383850113e-38
-0.00639594686478 -0.0639594686478 0.864 1.07461893814e-38
-0.00478585607417 -0.0638114143223 0.862 9.09171411964e-39
-0.00319057071611 -0.0638114143223 0.862 9.643085829e-39
-0.00159158399992 -0.0636633599967 0.86 1.1020259539e-38
0.0 -0.0636633599967 0.86 1.07447530505e-38
0.00159158399992 -0.0636633599967 0.86 1.11120950351e-38
0.00318316799983 -0.0636633599967 0.86 1.05610820582e-38
0.00477475199975 -0.0636633599967 0.86 1.12064416581e-38
0.00636633599967 -0.0636633599967 0.86 1.1481236287e-38
0.00793941320889 -0.0635153056711 0.858 1.18478552016e-38
0.00952729585067 -0.0635153056711 0.858 1.2031550016e-38
0.0111151784924 -0.0635153056711 0.858 1.16641842093e-38
0.0126734502691 -0.0633672513455 0.856 1.17549435082e-38
0.0142576315527 -0.0633672513455 0.856 1.23985094461e-38
0.0158418128364 -0.0633672513455 0.856 1.25832566357e-38
0.01742599412 -0.0633672513455 0.856 1.17563924508e-38
0.0190101754037 -0.0633672513455 0.856 1.2215914651e-38
0.0205943566873 -0.0633672513455 0.856 1.23091850768e-38
0.0221785379709 -0.0633672513455 0.856 1.24932148016e-38
0.0237627192546 -0.0633672513455 0.856 1.28591260605e-38
0.0253469005382 -0.0633672513455 0.856 1.29509573527e-38
0.0269310818219 -0.0633672513455 0.856 1.32282603058e-38
0.028581887552 -0.0635153056711 0.858 1.30431515813e-38
0.0301697701938 -0.0635153056711 0.858 1.33193797385e-38
0.0318316799983 -0.0636633599967 0.86 1.43317366036e-38
0.0334232639983 -0.0636633599967 0.86 1.38728996384e-38
0.0350148479982 -0.0636633599967 0.86 1.70983145566e-38
0.0366915632353 -0.0638114143223 0.862 1.58104203743e-38
0.0383756811887 -0.0639594686478 0.864 1.62749774399e-38
0.0401134688351 -0.0641815501362 0.867 1.67363437489e-38
0.0418142429001 -0.0643296044618 0.869 1.55367047453e-38
0.0434224830117 -0.0643296044618 0.869 1.93145997999e-38
0.0451343611511 -0.0644776587873 0.871 2.06089259421e-38
0.0467463026208 -0.0644776587873 0.871 1.77544193131e-38
-0.024623285022 -0.0640205410571 0.887 2.29336268451e-38
-0.0229817326872 -0.0640205410571 0.887 2.27503440124e-38
-0.0212920626966 -0.0638761880897 0.885 2.34922124389e-38
-0.0195875872734 -0.0636596586385 0.882 1.2978997335e-38
-0.0178738584549 -0.0633709527037 0.878 1.10328502057e-38
-0.0162489622317 -0.0633709527037 0.878 1.00197548562e-38
-0.0145740976737 -0.0631544232525 0.875 1.05668273819e-38
-0.0129251426226 -0.0630100702851 0.873 1.13919091151e-38
-0.0112835902878 -0.0628657173177 0.871 1.0103339507e-38
-0.00962723252043 -0.0625770113828 0.867 1.13915531853e-38
-0.00802269376702 -0.0625770113828 0.867 1.20322534678e-38
-0.00641815501362 -0.0625770113828 0.867 1.17610643799e-38
-0.00479696014859 -0.0623604819316 0.864 1.06547112164e-38
-0.00319057071611 -0.0622161289642 0.862 1.09302177048e-38
-0.00159528535806 -0.0622161289642 0.862 1.1389753918e-38
0.0 -0.0620717759968 0.86 9.82639808891e-39
0.00159158399992 -0.0620717759968 0.86 9.55196779765e-39
0.00318316799983 -0.0620717759968 0.86 9.91930978228e-39
0.00477475199975 -0.0620717759968 0.86 1.04703227592e-38
0.00636633599967 -0.0620717759968 0.86 1.03774152697e-38
0.00795791999959 -0.0620717759968 0.86 1.07447530505e-38
0.0095495039995 -0.0620717759968 0.86 1.12957660274e-38
0.0111410879994 -0.0620717759968 0.86 1.22180670455e-38
0.0127030611342 -0.0619274230293 0.858 1.21233616901e-38
0.014290943776 -0.0619274230293 0.858 1.21233616901e-38
0.0158788264178 -0.0619274230293 0.858 1.2308467612e-38
0.01742599412 -0.0617830700619 0.856 1.2033319856e-38
0.0190101754037 -0.0617830700619 0.856 1.18471377368e-38
0.0205943566873 -0.0617830700619 0.856 1.26736572022e-38
0.0222303569849 -0.0619274230293 0.858 1.25818217061e-38
0.0238182396267 -0.0619274230293 0.858 1.26732984698e-38
0.0254061222684 -0.0619274230293 0.858 1.27651423738e-38
0.0269940049102 -0.0619274230293 0.858 1.25832594383e-38
0.028581887552 -0.0619274230293 0.858 1.34108747191e-38
0.0301697701938 -0.0619274230293 0.858 1.35055576537e-38
0.0318316799983 -0.0620717759968 0.86 1.37814396902e-38
0.0334232639983 -0.0620717759968 0.86 1.38689661936e-38
0.0350962778772 -0.0622161289642 0.862 1.38703885115e-38
0.0367766944725 -0.0623604819316 0.864 1.58983210244e-38
0.0385089300817 -0.0625770113828 0.867 1.57207652986e-38
0.0402060027886 -0.0627213643502 0.869 1.6179222512e-38
0.0419104782118 -0.0628657173177 0.871 1.50754085012e-38
0.0436223563512 -0.0630100702851 0.873 1.59091292395e-38
0.045237999179 -0.0630100702851 0.873 1.74692550756e-38
-0.024623285022 -0.0623789887223 0.887 2.25662862617e-38
-0.0229299136732 -0.062238337113 0.885 2.27496041268e-38
-0.0212920626966 -0.062238337113 0.885 2.34907662989e-38
-0.0195875872734 -0.0620273596991 0.882 1.35325424583e-38
-0.0179145733944 -0.0618867080898 0.88 1.12179449172e-38
-0.0162859758131 -0.0618867080898 0.88 1.11253737394e-38
-0.0146240660085 -0.0617460564805 0.878 1.06633474188e-38
-0.0129547534877 -0.0615350790666 0.875 1.05657455795e-38
-0.0113094997948 -0.0613944274573 0.873 9.27538511196e-39
-0.00964944066926 -0.0611131242387 0.869 1.12093255304e-38
-0.00804120055772 -0.0611131242387 0.869 1.06539937515e-38
-0.00643296044618 -0.0611131242387 0.869 1.19429304998e-38
-0.00481361626021 -0.0609724726294 0.867 1.18478552016e-38
-0.00319797343239 -0.0607614952154 0.864 1.16645513495e-38
-0.0015989867162 -0.0607614952154 0.864 1.16631080121e-38
0.0 -0.0606208436061 0.862 1.13876015236e-38
0.00159528535806 -0.0606208436061 0.862 1.09302177048e-38
0.00319057071611 -0.0606208436061 0.862 1.13876015236e-38
0.00477475199975 -0.0604801919968 0.86 1.12039333339e-38
0.00636633599967 -0.0604801919968 0.86 1.00100802916e-38
0.00795791999959 -0.0604801919968 0.86 1.02877475823e-38
0.0095495039995 -0.0604801919968 0.86 1.05632372552e-38
0.0111410879994 -0.0604801919968 0.86 1.2126953218e-38
0.0127326719993 -0.0604801919968 0.86 1.15716494652e-38
0.0143242559993 -0.0604801919968 0.86 1.16631080121e-38
0.0159158399992 -0.0604801919968 0.86 1.230667395e-38
0.0175074239991 -0.0604801919968 0.86 1.2215914651e-38
0.019099007999 -0.0604801919968 0.86 1.22166321159e-38
0.0206905919989 -0.0604801919968 0.86 1.26732984698e-38
0.0222821759988 -0.0604801919968 0.86 1.28584170034e-38
0.0238737599988 -0.0604801919968 0.86 1.27662115645e-38
0.0254653439987 -0.0604801919968 0.86 1.29516748175e-38
0.0270569279986 -0.0604801919968 0.86 1.32282603058e-38
0.0286485119985 -0.0604801919968 0.86 1.35034234762e-38
0.0303104218031 -0.0606208436061 0.862 1.30445907148e-38
0.0319057071611 -0.0606208436061 0.862 1.23059564852e-38
0.0335009925192 -0.0606208436061 0.862 1.91359286405e-38
0.0350962778772 -0.0606208436061 0.862 1.13886777208e-38
0.0369043913283 -0.0609724726294 0.867 1.89494270253e-38
0.0385977626771 -0.0611131242387 0.869 1.46233678335e-38
0.0402985367421 -0.061253775848 0.871 1.64568827962e-38
0.0420067135234 -0.0613944274573 0.873 1.52547648956e-38
0.043722293021 -0.0615350790666 0.875 1.53545065177e-38
0.0453416372069 -0.0615350790666 0.875 1.82096969803e-38
-0.0229299136732 -0.0606004861364 0.885 2.21982156019e-38
-0.0212920626966 -0.0606004861364 0.885 2.3492917292e-38
-0.0195875872734 -0.0603950607596 0.882 1.33503232112e-38
-0.0179145733944 -0.0602581105085 0.88 1.23253644689e-38
-0.0162859758131 -0.0602581105085 0.88 1.1028884531e-38
-0.0146240660085 -0.0601211602573 0.878 1.02027209954e-38
-0.0129547534877 -0.0599157348806 0.875 1.1394430051e-38
-0.0113354093017 -0.0599157348806 0.875 1.08387409411e-38
-0.0096716488181 -0.0596418343783 0.871 1.15780898329e-38
-0.00805970734842 -0.0596418343783 0.871 8.44886564654e-39
-0.00643296044618 -0.0595048841271 0.869 9.64774935029e-39
-0.00482472033463 -0.0595048841271 0.869 1.02862930345e-38
-0.00320907750681 -0.059367933876 0.867 1.02859343021e-38
-0.0016045387534 -0.059367933876 0.867 1.17567427755e-38
0.0 -0.0591625084992 0.864 1.17549435082e-38
0.00159528535806 -0.0590255582481 0.862 1.17549435082e-38
0.00319057071611 -0.0590255582481 0.862 1.14808719494e-38
0.00478585607417 -0.0590255582481 0.862 1.1480513217e-38
0.00638114143223 -0.0590255582481 0.862 1.06539937515e-38
0.00795791999959 -0.0588886079969 0.86 1.11135299647e-38
0.0095495039995 -0.0588886079969 0.86 1.12039305313e-38
0.0111410879994 -0.0588886079969 0.86 1.1572352917e-38
0.0127326719993 -0.0588886079969 0.86 1.16634667445e-38
0.0143242559993 -0.0588886079969 0.86 1.20322436587e-38
0.0159158399992 -0.0588886079969 0.86 1.23077543511e-38
0.0175074239991 -0.0588886079969 0.86 1.18467790044e-38
0.019099007999 -0.0588886079969 0.86 1.21226442253e-38
0.0207387096547 -0.0590255582481 0.862 1.2399226911e-38
0.0223339950128 -0.0590255582481 0.862 1.20311674615e-38
0.0239292803708 -0.0590255582481 0.862 1.26732984698e-38
0.0255245657289 -0.0590255582481 0.862 1.28584043917e-38
0.027119851087 -0.0590255582481 0.862 1.29516748175e-38
0.0287817608915 -0.0591625084992 0.864 1.3136064676e-38
0.0303807476077 -0.0591625084992 0.864 1.30438690461e-38
0.0319797343239 -0.0591625084992 0.864 1.35073639275e-38
0.0335787210401 -0.0591625084992 0.864 1.33218992731e-38
0.0352998525749 -0.059367933876 0.867 1.3781086563e-38
0.0369895225655 -0.0595048841271 0.869 1.42459855454e-38
0.0385977626771 -0.0595048841271 0.869 1.52558396915e-38
0.0402985367421 -0.0596418343783 0.871 1.77472684871e-38
0.0420067135234 -0.0597787846294 0.873 1.57203967571e-38
0.043722293021 -0.0599157348806 0.875 1.53548722566e-38
0.0453416372069 -0.0599157348806 0.875 1.68317819834e-38
0.0469609813929 -0.0599157348806 0.875 1.98746259286e-38
-0.0213401803524 -0.0590958840527 0.887 2.34900180055e-38
-0.0196542117199 -0.0589626351597 0.885 1.43637296489e-38
-0.0179552883339 -0.0587627618202 0.882 1.17689733084e-38
-0.0163229893945 -0.0587627618202 0.882 1.15824114374e-38
-0.0146573782318 -0.0586295129272 0.88 1.1120376709e-38
-0.0129991697854 -0.0584962640342 0.878 1.02888041614e-38
-0.0113354093017 -0.0582963906946 0.875 1.10245657291e-38
-0.00969385696694 -0.0581631418016 0.873 1.09312939021e-38
-0.00805970734842 -0.0580298929086 0.871 9.55232653006e-39
-0.00644776587873 -0.0580298929086 0.871 1.0198047665e-38
-0.00482472033463 -0.0578966440156 0.869 9.55232653006e-39
-0.00321648022309 -0.0578966440156 0.869 8.54213607232e-39
-0.0016045387534 -0.0577633951226 0.867 1.06536350191e-38
0.0 -0.057563521783 0.864 1.10213357362e-38
0.0015989867162 -0.057563521783 0.864 1.06550881656e-38
0.00319797343239 -0.057563521783 0.864 1.08398171383e-38
0.00478585607417 -0.05743027289 0.862 1.14826656114e-38
0.00638114143223 -0.05743027289 0.862 1.20322562704e-38
0.00797642679028 -0.05743027289 0.862 1.21233616901e-38
0.00957171214834 -0.05743027289 0.862 1.22151971862e-38
0.0111669975064 -0.05743027289 0.862 1.20308101304e-38
0.0127622828645 -0.05743027289 0.862 1.24914211395e-38
0.0143575682225 -0.05743027289 0.862 1.23988709811e-38
0.0159528535806 -0.05743027289 0.862 1.21244701172e-38
0.0175481389386 -0.05743027289 0.862 1.22152027914e-38
0.0191434242967 -0.05743027289 0.862 1.2125521091e-38
0.0207387096547 -0.05743027289 0.862 1.2033319856e-38
0.0223339950128 -0.05743027289 0.862 1.19386145005e-38
0.0239292803708 -0.05743027289 0.862 1.230667395e-38
0.0255245657289 -0.05743027289 0.862 1.32286162356e-38
0.0271827741753 -0.057563521783 0.864 1.25850601068e-38
0.0287817608915 -0.057563521783 0.864 1.33222495977e-38
0.0304862363147 -0.0577633951226 0.867 1.24049694321e-38
0.0320907750681 -0.0577633951226 0.867 1.26811961879e-38
0.0336953138215 -0.0577633951226 0.867 1.2035113518e-38
0.035381282454 -0.0578966440156 0.869 1.41487774709e-38
0.0369895225655 -0.0578966440156 0.869 1.43385343025e-38
0.0386865952724 -0.0580298929086 0.871 1.55345817781e-38
0.0403910706956 -0.0581631418016 0.873 1.48910018272e-38
0.0420067135234 -0.0581631418016 0.873 1.57204121714e-38
0.043722293021 -0.0582963906946 0.875 1.55399865863e-38
0.0454970942488 -0.0584962640342 0.878 1.58230054359e-38
0.047121990472 -0.0584962640342 0.878 2.13497433947e-38
-0.0229817326872 -0.0574543317179 0.887 2.30272447929e-38
-0.0213401803524 -0.0574543317179 0.887 2.34925445467e-38
-0.0196542117199 -0.0573247841831 0.885 1.59310679682e-38
-0.0180163607432 -0.0573247841831 0.885 1.14055381439e-38
-0.0163785097666 -0.0573247841831 0.885 1.19543987264e-38
-0.014690690455 -0.0571304628807 0.882 1.1487720095e-38
-0.0130287806505 -0.0570009153459 0.88 1.05664630443e-38
-0.0114001830692 -0.0570009153459 0.88 1.05610820582e-38
-0.00969385696694 -0.0565474989738 0.873 1.10227706658e-38
-0.00807821413911 -0.0565474989738 0.873 1.05639519174e-38
-0.00644776587873 -0.0564179514389 0.871 1.08376815594e-38
-0.00483582440905 -0.0564179514389 0.871 1.08365885466e-38
-0.00321648022309 -0.056288403904 0.869 1.04703227592e-38
-0.00160824011154 -0.056288403904 0.869 1.02859343021e-38
0.0 -0.056288403904 0.869 9.46013230149e-39
0.0016045387534 -0.0561588563692 0.867 7.71418167727e-39
0.00320907750681 -0.0561588563692 0.867 9.27646130918e-39
0.00479696014859 -0.0559645350669 0.864 1.17578133675e-38
0.00638114143223 -0.055834987532 0.862 1.17549435082e-38
0.00797642679028 -0.055834987532 0.862 1.17553022406e-38
0.00957171214834 -0.055834987532 0.862 1.19386145005e-38
0.0111669975064 -0.055834987532 0.862 1.21222854929e-38
0.0127622828645 -0.055834987532 0.862 1.18467790044e-38
0.0143575682225 -0.055834987532 0.862 1.23059564852e-38
0.0159528535806 -0.055834987532 0.862 1.23059564852e-38
0.0175888538782 -0.0559645350669 0.864 1.23981507137e-38
0.0191878405943 -0.0559645350669 0.864 1.20322436587e-38
0.0207868273105 -0.0559645350669 0.864 1.16641842093e-38
0.0223858140267 -0.0559645350669 0.864 1.30420753841e-38
0.0239848007429 -0.0559645350669 0.864 1.25814629736e-38
0.0255837874591 -0.0559645350669 0.864 1.26750949344e-38
0.0271827741753 -0.0559645350669 0.864 1.26740159346e-38
0.0288816975613 -0.0561588563692 0.867 1.30435103137e-38
0.0304862363147 -0.0561588563692 0.867 1.30474563702e-38
0.0320907750681 -0.0561588563692 0.867 1.30456627081e-38
0.0337730423424 -0.056288403904 0.869 1.27730456971e-38
0.035381282454 -0.056288403904 0.869 1.31367863447e-38
0.0370746538027 -0.0564179514389 0.871 1.42477750035e-38
0.0386865952724 -0.0564179514389 0.871 1.47984754909e-38
0.0403910706956 -0.0565474989738 0.873 1.48935157567e-38
0.042102948835 -0.0566770465087 0.875 1.53523527219e-38
0.043722293021 -0.0566770465087 0.875 1.6461243637e-38
0.0454970942488 -0.056871367811 0.878 1.71080157458e-38
0.047229329858 -0.0570009153459 0.88 2.17145504304e-38
0.0488579274393 -0.0570009153459 0.88 2.34860747516e-38
-0.0213882980082 -0.0559386255599 0.889 2.34896592731e-38
-0.0197430443153 -0.0559386255599 0.889 1.64835256839e-38
-0.0180570756828 -0.0558127793831 0.887 1.09427733391e-38
-0.016415523348 -0.0558127793831 0.887 1.22277808464e-38
-0.0147406587899 -0.0556869332064 0.885 1.14880732222e-38
-0.0131028078133 -0.0556869332064 0.885 1.15770192409e-38
-0.0114260925761 -0.0554981639413 0.882 1.12986414919e-38
-0.00974937733903 -0.0552464715878 0.878 1.11120950351e-38
-0.00809672092981 -0.0550577023227 0.875 1.08365885466e-38
-0.00646257131129 -0.054931856146 0.873 1.11131768375e-38
-0.00484692848347 -0.054931856146 0.873 1.04696052944e-38
-0.00323128565565 -0.054931856146 0.873 1.12990226451e-38
-0.00161194146968 -0.0548060099692 0.871 1.02870104993e-38
0.0 -0.0548060099692 0.871 1.01058520352e-38
0.00160824011154 -0.0546801637925 0.869 1.05646890004e-38
0.00321648022309 -0.0546801637925 0.869 1.08383822087e-38
0.00481361626021 -0.0545543176158 0.867 1.13876015236e-38
0.00639594686478 -0.0543655483507 0.864 1.1020259539e-38
0.00799493358098 -0.0543655483507 0.864 1.16649409105e-38
0.00959392029717 -0.0543655483507 0.864 1.20329611235e-38
0.0111929070134 -0.0543655483507 0.864 1.18482377561e-38
0.0127918937296 -0.0543655483507 0.864 1.19386145005e-38
0.0143908804458 -0.0543655483507 0.864 1.28569694621e-38
0.015989867162 -0.0543655483507 0.864 1.23977919813e-38
0.0176499262875 -0.0545543176158 0.867 1.2214120989e-38
0.0192544650409 -0.0545543176158 0.867 1.22144797214e-38
0.0208590037943 -0.0545543176158 0.867 1.24918107005e-38
0.0224635425477 -0.0545543176158 0.867 1.29516748175e-38
0.0240680813011 -0.0545543176158 0.867 1.27680220421e-38
0.0256726200545 -0.0545543176158 0.867 1.2861997321e-38
0.0273400818963 -0.0546801637925 0.869 1.26761683291e-38
0.0289483220078 -0.0546801637925 0.869 1.2859480589e-38
0.0305565621193 -0.0546801637925 0.869 1.31371394719e-38
0.0321648022309 -0.0546801637925 0.869 1.3595243558e-38
0.0337730423424 -0.0546801637925 0.869 1.35988813289e-38
0.035462712333 -0.0548060099692 0.871 1.31414442608e-38
0.0370746538027 -0.0548060099692 0.871 1.36024154036e-38
0.0387754278677 -0.054931856146 0.873 1.45243717022e-38
0.0404836046491 -0.0550577023227 0.875 1.43421468499e-38
0.042102948835 -0.0550577023227 0.875 1.56282165415e-38
0.0438721980256 -0.0552464715878 0.878 1.42435220627e-38
0.0456007322767 -0.0553723177646 0.88 2.02361833532e-38
0.047229329858 -0.0553723177646 0.88 2.09737511947e-38
0.0488579274393 -0.0553723177646 0.88 2.3480315415e-38
-0.0197874606129 -0.0544155166855 0.891 1.70363463359e-38
-0.0181385055618 -0.0544155166855 0.891 1.20480362924e-38
-0.0164525369294 -0.0542933718669 0.889 1.22263557259e-38
-0.0147739710132 -0.0541712270483 0.887 1.12129254661e-38
-0.0131324186784 -0.0541712270483 0.887 1.19418557039e-38
-0.0114649568366 -0.0540490822297 0.885 1.18503663284e-38
-0.0097937936367 -0.0538658650018 0.882 1.16656191389e-38
-0.00812448111586 -0.0536215753646 0.878 1.1480513217e-38
-0.00649958489268 -0.0536215753646 0.878 1.08365885466e-38
-0.00487468866951 -0.0536215753646 0.878 1.05610820582e-38
-0.00323868837192 -0.0534383581368 0.875 1.12071591229e-38
-0.00161934418596 -0.0534383581368 0.875 8.99987862348e-39
0.0 -0.0534383581368 0.875 1.12997134852e-38
0.00161564282782 -0.0533162133182 0.873 1.13876015236e-38
0.00323128565565 -0.0533162133182 0.873 1.18467790044e-38
0.00483582440905 -0.0531940684996 0.871 1.12039305313e-38
0.00644776587873 -0.0531940684996 0.871 1.01937400735e-38
0.00804120055772 -0.053071923681 0.869 1.06529175543e-38
0.00964944066926 -0.053071923681 0.869 1.12050067285e-38
0.0112576807808 -0.053071923681 0.869 1.2033319856e-38
0.0128363100272 -0.0529497788624 0.867 1.1755660973e-38
0.0144408487806 -0.0529497788624 0.867 1.2214120989e-38
0.016045387534 -0.0529497788624 0.867 1.21240791549e-38
0.0176499262875 -0.0529497788624 0.867 1.24903477449e-38
0.0192544650409 -0.0529497788624 0.867 1.20311674615e-38
0.0208590037943 -0.0529497788624 0.867 1.25814685788e-38
0.0224635425477 -0.0529497788624 0.867 1.34094173687e-38
0.0240680813011 -0.0529497788624 0.867 1.23988681785e-38
0.0257318417847 -0.053071923681 0.869 1.22162733835e-38
0.0273400818963 -0.053071923681 0.869 1.28591260605e-38
0.0289483220078 -0.053071923681 0.869 1.2859480589e-38
0.030626887924 -0.0531940684996 0.871 1.3321527929e-38
0.0322388293937 -0.0531940684996 0.871 1.3504126928e-38
0.0338507708634 -0.0531940684996 0.871 1.29549216261e-38
0.035462712333 -0.0531940684996 0.871 1.30514206435e-38
0.0371597850399 -0.0533162133182 0.873 1.3696411702e-38
0.0388642604631 -0.0534383581368 0.875 1.42506546719e-38
0.0404836046491 -0.0534383581368 0.875 1.45272471667e-38
0.0422473018025 -0.0536215753646 0.878 1.54467049501e-38
0.0439721346954 -0.0537437201832 0.88 1.71916242187e-38
0.0456007322767 -0.0537437201832 0.88 2.09669282725e-38
0.047229329858 -0.0537437201832 0.88 2.26318446091e-38
-0.0234740133197 -0.0536548875879 0.906 2.21974841241e-38
-0.0217251215989 -0.0534772223972 0.903 2.34900095977e-38
-0.0198985013571 -0.0530626702856 0.896 1.74054861864e-38
-0.0182402929107 -0.0530626702856 0.896 1.34306344287e-38
-0.0164895505108 -0.0527665616345 0.891 1.13065279996e-38
-0.0147739710132 -0.0525296747135 0.887 1.09385021814e-38
-0.0131324186784 -0.0525296747135 0.887 1.15773863811e-38
-0.0114649568366 -0.0524112312531 0.885 1.18525187229e-38
-0.0097937936367 -0.0522335660624 0.882 1.1850007596e-38
-0.00812448111586 -0.0519966791415 0.878 1.18492915325e-38
-0.00649958489268 -0.0519966791415 0.878 1.16649016741e-38
-0.00487468866951 -0.0519966791415 0.878 1.12957660274e-38
-0.00324979244634 -0.0519966791415 0.878 1.12968422247e-38
-0.00161934418596 -0.0518190139508 0.875 1.02855755697e-38
0.0 -0.0518190139508 0.875 1.22155559186e-38
0.00161564282782 -0.0517005704903 0.873 1.17549435082e-38
0.00323128565565 -0.0517005704903 0.873 1.15712725159e-38
0.00484692848347 -0.0517005704903 0.873 1.12965017091e-38
0.00644776587873 -0.0515821270299 0.871 9.09350778168e-39
0.00805970734842 -0.0515821270299 0.871 1.00132976729e-38
0.0096716488181 -0.0515821270299 0.871 1.1112099239e-38
0.0112576807808 -0.0514636835694 0.869 1.17549435082e-38
0.0128659208924 -0.0514636835694 0.869 1.18474964692e-38
0.0144741610039 -0.0514636835694 0.869 1.23063152176e-38
0.0160824011154 -0.0514636835694 0.869 1.26732984698e-38
0.017690641227 -0.0514636835694 0.869 1.22166321159e-38
0.0192988813385 -0.0514636835694 0.869 1.2401020573e-38
0.0209071214501 -0.0514636835694 0.869 1.22141237916e-38
0.0225153615616 -0.0514636835694 0.869 1.82954088022e-38
0.0241236016732 -0.0514636835694 0.869 1.25958795322e-38
0.0257910635149 -0.0515821270299 0.871 1.26733264958e-38
0.0274030049846 -0.0515821270299 0.871 1.20326093976e-38
0.0290815709008 -0.0517005704903 0.873 1.27694387548e-38
0.0306972137286 -0.0517005704903 0.873 1.22187845103e-38
0.0323128565565 -0.0517005704903 0.873 1.36892370538e-38
0.0339284993843 -0.0517005704903 0.873 1.30463857781e-38
0.0356255720912 -0.0518190139508 0.875 1.32322287831e-38
0.0372449162771 -0.0518190139508 0.875 1.36953327022e-38
0.0389975093561 -0.0519966791415 0.878 1.34191031437e-38
0.0407149395328 -0.0521151226019 0.88 1.50746770234e-38
0.0423435371141 -0.0521151226019 0.88 1.59040593416e-38
0.0440720713651 -0.0522335660624 0.882 1.92094884021e-38
0.0457043703046 -0.0522335660624 0.882 2.22536846003e-38
0.047336669244 -0.0522335660624 0.882 2.18017111949e-38
-0.0251507285568 -0.0519781723508 0.906 2.1920904241e-38
-0.0234740133197 -0.0519781723508 0.906 2.12766040227e-38
-0.0217251215989 -0.0518060591973 0.903 2.30283195888e-38
-0.020053958399 -0.0518060591973 0.903 1.80508513916e-38
-0.0182810078502 -0.0515192039415 0.898 1.18632919055e-38
-0.0165820844643 -0.0514044618392 0.896 1.10295907854e-38
-0.0148905637946 -0.0512897197369 0.894 1.11236038994e-38
-0.0131620295435 -0.0510028644811 0.889 1.13947901847e-38
-0.0114908663436 -0.0508881223787 0.887 1.12068003905e-38
-0.00982710585995 -0.0507733802764 0.885 1.17560197054e-38
-0.00816149469725 -0.0506012671229 0.882 1.21248022249e-38
-0.00651439032524 -0.0504865250206 0.88 1.20322436587e-38
-0.00488579274393 -0.0504865250206 0.88 1.23059564852e-38
-0.00325719516262 -0.0504865250206 0.88 1.23070480967e-38
-0.00162489622317 -0.0503717829183 0.878 1.18478552016e-38
0.0 -0.0503717829183 0.878 1.22151971862e-38
0.00161934418596 -0.0501996697648 0.875 1.20304499967e-38
0.00323868837192 -0.0501996697648 0.875 1.18478552016e-38
0.00485803255789 -0.0501996697648 0.875 1.12046479961e-38
0.00646257131129 -0.0500849276625 0.873 1.09305764372e-38
0.00807821413911 -0.0500849276625 0.873 1.11120950351e-38
0.0096716488181 -0.0499701855602 0.871 1.16631094134e-38
0.0112835902878 -0.0499701855602 0.871 1.23977919813e-38
0.0128659208924 -0.0498554434579 0.869 1.24896274775e-38
0.0144741610039 -0.0498554434579 0.869 1.26733264958e-38
0.0160824011154 -0.0498554434579 0.869 1.26732984698e-38
0.017690641227 -0.0498554434579 0.869 1.26740159346e-38
0.0192988813385 -0.0498554434579 0.869 1.24003031082e-38
0.0209071214501 -0.0498554434579 0.869 1.22169908483e-38
0.0225671805756 -0.0499701855602 0.871 1.34087041078e-38
0.0241791220453 -0.0499701855602 0.871 1.23059733008e-38
0.0257910635149 -0.0499701855602 0.871 1.23981507137e-38
0.027465928073 -0.0500849276625 0.873 1.25861335014e-38
0.0291481953473 -0.0501996697648 0.875 1.26776074626e-38
0.0307675395333 -0.0501996697648 0.875 1.2403912853e-38
0.0323868837192 -0.0501996697648 0.875 1.3506633851e-38
0.0340062279052 -0.0501996697648 0.875 1.31396505987e-38
0.0357477169098 -0.0503717829183 0.878 1.32336384893e-38
0.0373726131329 -0.0503717829183 0.878 1.36928159701e-38
0.0390863419515 -0.0504865250206 0.88 1.26786794559e-38
0.0408074734862 -0.0506012671229 0.882 1.63654130389e-38
0.0425841253931 -0.0507733802764 0.885 1.61716639081e-38
0.0442219763698 -0.0507733802764 0.885 2.17887884205e-38
0.0457043703046 -0.0506012671229 0.882 2.16076117394e-38
0.047336669244 -0.0506012671229 0.882 2.05091590966e-38
-0.0251507285568 -0.0503014571137 0.906 2.16446606695e-38
-0.0234740133197 -0.0503014571137 0.906 2.15521175177e-38
-0.0217251215989 -0.0501348959974 0.903 2.23826236772e-38
-0.020053958399 -0.0501348959974 0.903 1.86965879408e-38
-0.0183420802595 -0.0500238552532 0.901 1.16789356782e-38
-0.0166746184177 -0.0500238552532 0.901 1.03835095168e-38
-0.0149238760178 -0.0497462533928 0.896 1.19497884545e-38
-0.0132360567063 -0.0496352126486 0.894 1.07487047122e-38
-0.0115167758506 -0.0493576107881 0.889 1.18521782074e-38
-0.00984931400879 -0.0492465700439 0.887 1.1390505014e-38
-0.00818925488329 -0.0491355292998 0.885 1.16631108147e-38
-0.0065291957578 -0.0489689681835 0.882 1.19386145005e-38
-0.00488579274393 -0.0488579274393 0.88 1.21222854929e-38
-0.00325719516262 -0.0488579274393 0.88 1.23977919813e-38
-0.00162489622317 -0.0487468866951 0.878 1.26732984698e-38
0.0 -0.0487468866951 0.878 1.23977919813e-38
0.00162489622317 -0.0487468866951 0.878 1.20315402069e-38
0.00324979244634 -0.0487468866951 0.878 1.22162733835e-38
0.00487468866951 -0.0487468866951 0.878 1.18471377368e-38
0.00647737674385 -0.0485803255789 0.875 1.20304499967e-38
0.00809672092981 -0.0485803255789 0.875 1.23977919813e-38
0.00969385696694 -0.0484692848347 0.873 1.22151971862e-38
0.0113094997948 -0.0484692848347 0.873 1.25814629736e-38
0.0128955317575 -0.0483582440905 0.871 1.2765133966e-38
0.0145074732272 -0.0483582440905 0.871 1.2765133966e-38
0.0161194146968 -0.0483582440905 0.871 1.25814629736e-38
0.0177313561665 -0.0483582440905 0.871 1.2215914651e-38
0.0193432976362 -0.0483582440905 0.871 1.19404109652e-38
0.0209552391059 -0.0483582440905 0.871 1.24910624071e-38
0.0225671805756 -0.0483582440905 0.871 1.21233616901e-38
0.0241791220453 -0.0483582440905 0.871 1.27654926984e-38
0.0258502852452 -0.0484692848347 0.873 1.24910624071e-38
0.0275288511614 -0.0485803255789 0.875 1.21273357725e-38
0.0292481320171 -0.0487468866951 0.878 1.29541929509e-38
0.0308730282403 -0.0487468866951 0.878 1.24035401076e-38
0.0324979244634 -0.0487468866951 0.878 1.27690800224e-38
0.0341228206866 -0.0487468866951 0.878 1.33236845273e-38
0.0357477169098 -0.0487468866951 0.878 1.33247565207e-38
0.0374577443701 -0.0488579274393 0.88 1.31374982043e-38
0.0390863419515 -0.0488579274393 0.88 1.52540642464e-38
0.04103880837 -0.0492465700439 0.887 1.61745351686e-38
0.0425841253931 -0.0491355292998 0.885 2.07782252174e-38
0.0442219763698 -0.0491355292998 0.885 2.04108453977e-38
0.0457043703046 -0.0489689681835 0.882 2.14246666197e-38
0.047336669244 -0.0489689681835 0.882 1.9864899516e-38
-0.0251507285568 -0.0486247418765 0.906 2.11819028712e-38
-0.0234740133197 -0.0486247418765 0.906 2.18287058085e-38
-0.0217251215989 -0.0484637327975 0.903 2.15535496447e-38
-0.020053958399 -0.0484637327975 0.903 2.0080584573e-38
-0.0183420802595 -0.0483563934114 0.901 9.93007735968e-39
-0.0166746184177 -0.0483563934114 0.901 1.23235343731e-38
-0.0149571882411 -0.0481953843324 0.898 1.05679288025e-38
-0.0132360567063 -0.0479807055603 0.894 1.08437730039e-38
-0.0115167758506 -0.0477123570952 0.889 1.09330875641e-38
-0.00984931400879 -0.0476050177091 0.887 1.2033319856e-38
-0.00820776167399 -0.0476050177091 0.887 1.19404081626e-38
-0.00655140390664 -0.0474976783231 0.885 1.2215914651e-38
-0.00489689681835 -0.047336669244 0.882 1.21230057603e-38
-0.0032645978789 -0.047336669244 0.882 1.26732984698e-38
-0.00162859758131 -0.047229329858 0.88 1.26733068776e-38
0.0 -0.047229329858 0.88 1.2765133966e-38
0.00162489622317 -0.047121990472 0.878 1.18467790044e-38
0.00324979244634 -0.047121990472 0.878 1.23988681785e-38
0.00487468866951 -0.047121990472 0.878 1.16631080121e-38
0.00647737674385 -0.0469609813929 0.875 1.25814629736e-38
0.00809672092981 -0.0469609813929 0.875 1.25814629736e-38
0.00971606511577 -0.0469609813929 0.875 1.27658514308e-38
0.0113094997948 -0.0468536420069 0.873 1.30427928489e-38
0.0129251426226 -0.0468536420069 0.873 1.25814629736e-38
0.0145074732272 -0.0467463026208 0.871 1.25821804385e-38
0.0161194146968 -0.0467463026208 0.871 1.29495224231e-38
0.0177313561665 -0.0467463026208 0.871 1.23995940512e-38
0.0193877139339 -0.0468536420069 0.873 1.22184622117e-38
0.0210033567617 -0.0468536420069 0.873 1.23995940512e-38
0.0226189995895 -0.0468536420069 0.873 1.23081172874e-38
0.0242901627894 -0.0469609813929 0.875 1.28587631242e-38
0.0259983395707 -0.047121990472 0.878 1.27687226913e-38
0.0276232357939 -0.047121990472 0.878 1.21273091478e-38
0.0292481320171 -0.047121990472 0.878 1.27712436273e-38
0.0308730282403 -0.047121990472 0.878 1.2497160858e-38
0.0324979244634 -0.047121990472 0.878 1.29552691481e-38
0.0342005492075 -0.047229329858 0.88 1.34133732343e-38
0.0358291467888 -0.047229329858 0.88 1.41505935537e-38
0.0374577443701 -0.047229329858 0.88 1.53473136527e-38
0.0391751745468 -0.047336669244 0.882 1.55302433581e-38
0.04103880837 -0.0476050177091 0.887 1.90204083977e-38
0.0426803607048 -0.0476050177091 0.887 2.04061790738e-38
0.0443219130396 -0.0476050177091 0.887 2.14206995438e-38
0.0459634653743 -0.0476050177091 0.887 2.11484552781e-38
0.0477123570952 -0.0477123570952 0.889 1.99592223169e-38
-0.0234740133197 -0.0469480266394 0.906 2.12766040227e-38
-0.0217251215989 -0.0467925695976 0.903 2.12773228888e-38
-0.020053958399 -0.0467925695976 0.903 1.97128880599e-38
-0.0183420802595 -0.0466889315697 0.901 9.74679592834e-39
-0.0166746184177 -0.0466889315697 0.901 1.23231994628e-38
-0.0149571882411 -0.0465334745278 0.898 1.08455848828e-38
-0.0132656675714 -0.0464298364999 0.896 1.06608096673e-38
-0.0115426853575 -0.0461707414302 0.891 1.04710416253e-38
-0.00987152215763 -0.0460671034023 0.889 1.12071591229e-38
-0.00820776167399 -0.0459634653743 0.887 1.17585308323e-38
-0.00655140390664 -0.0458598273464 0.885 1.23995856434e-38
-0.00491355292998 -0.0458598273464 0.885 1.23977919813e-38
-0.0032645978789 -0.0457043703046 0.882 1.2765133966e-38
-0.00162859758131 -0.0456007322767 0.88 1.23977919813e-38
0.0 -0.0456007322767 0.88 1.28569694621e-38
0.00162859758131 -0.0456007322767 0.88 1.25814629736e-38
0.00325719516262 -0.0456007322767 0.88 1.25814629736e-38
0.00487468866951 -0.0454970942488 0.878 1.26732984698e-38
0.00649958489268 -0.0454970942488 0.878 1.28569694621e-38
0.00812448111586 -0.0454970942488 0.878 1.30413635244e-38
0.00971606511577 -0.0453416372069 0.875 1.2765133966e-38
0.0113354093017 -0.0453416372069 0.875 1.28569694621e-38
0.0129547534877 -0.0453416372069 0.875 1.29495224231e-38
0.0145407854504 -0.045237999179 0.873 1.22162733835e-38
0.0161564282782 -0.045237999179 0.873 1.26736572022e-38
0.0177720711061 -0.045237999179 0.873 1.26740159346e-38
0.0193877139339 -0.045237999179 0.873 1.29506000216e-38
0.0210033567617 -0.045237999179 0.873 1.24942909988e-38
0.0226708186035 -0.0453416372069 0.875 1.23106214078e-38
0.0243734433476 -0.0454970942488 0.878 1.24013793054e-38
0.0259983395707 -0.0454970942488 0.878 1.24003031082e-38
0.0276232357939 -0.0454970942488 0.878 1.25861335014e-38
0.0292481320171 -0.0454970942488 0.878 1.26790381883e-38
0.0308730282403 -0.0454970942488 0.878 1.24960846608e-38
0.0325719516262 -0.0456007322767 0.88 1.34133732343e-38
0.0342005492075 -0.0456007322767 0.88 1.28602022577e-38
0.0359105766679 -0.0457043703046 0.882 1.45161068439e-38
0.0375428756073 -0.0457043703046 0.882 1.58882681092e-38
0.0393084234398 -0.0458598273464 0.885 1.75466880262e-38
0.04103880837 -0.0459634653743 0.887 2.1232011903e-38
0.0426803607048 -0.0459634653743 0.887 1.97600683779e-38
0.0444218497093 -0.0460671034023 0.889 2.04973055129e-38
0.0461707414302 -0.0461707414302 0.891 2.13317647354e-38
0.0478196964812 -0.0461707414302 0.891 1.87606847339e-38
-0.0234740133197 -0.0452713114023 0.906 1.95252555968e-38
-0.0217972980826 -0.0452713114023 0.906 2.01709809356e-38
-0.020053958399 -0.0451214063976 0.903 2.0265338769e-38
-0.0183420802595 -0.0450214697279 0.901 9.56132987269e-39
-0.0166190980456 -0.0448715647232 0.898 1.19533225292e-38
-0.0149571882411 -0.0448715647232 0.898 1.19486982443e-38
-0.0132656675714 -0.0447716280535 0.896 9.92397330357e-39
-0.011581549618 -0.0446716913837 0.894 9.92253977524e-39
-0.00989373030646 -0.0445217863791 0.891 1.05643106498e-38
-0.00820776167399 -0.0443219130396 0.887 1.10216944686e-38
-0.00656620933919 -0.0443219130396 0.887 1.18467790044e-38
-0.00492465700439 -0.0443219130396 0.887 1.20308087291e-38
-0.00327570195332 -0.0442219763698 0.885 1.25814629736e-38
-0.00163229893945 -0.0440720713651 0.882 1.24896274775e-38
0.0 -0.0440720713651 0.882 1.26736572022e-38
0.00163229893945 -0.0440720713651 0.882 1.25814629736e-38
0.00325719516262 -0.0439721346954 0.88 1.25818217061e-38
0.00488579274393 -0.0439721346954 0.88 1.28569694621e-38
0.00649958489268 -0.0438721980256 0.878 1.30410005881e-38
0.00812448111586 -0.0438721980256 0.878 1.29498811555e-38
0.00974937733903 -0.0438721980256 0.878 1.24910624071e-38
0.0113742735622 -0.0438721980256 0.878 1.22166321159e-38
0.0129991697854 -0.0438721980256 0.878 1.23088263444e-38
0.0145740976737 -0.043722293021 0.875 1.23099025416e-38
0.0161934418596 -0.043722293021 0.875 1.28587631242e-38
0.0178738584549 -0.0438721980256 0.878 1.24006618406e-38
0.0194987546781 -0.0438721980256 0.878 1.21240791549e-38
0.0211236509012 -0.0438721980256 0.878 1.23088263444e-38
0.0227485471244 -0.0438721980256 0.878 1.24003129173e-38
0.0243734433476 -0.0438721980256 0.878 1.23102612741e-38
0.0259983395707 -0.0438721980256 0.878 1.25854104314e-38
0.0276232357939 -0.0438721980256 0.878 1.26790381883e-38
0.0293147564636 -0.0439721346954 0.88 1.25861335014e-38
0.0309433540449 -0.0439721346954 0.88 1.36899601238e-38
0.0325719516262 -0.0439721346954 0.88 1.36910223081e-38
0.0342782777284 -0.0440720713651 0.882 1.3960789078e-38
0.0360327214865 -0.0442219763698 0.885 1.68195402401e-38
0.0376705724632 -0.0442219763698 0.885 1.69924394511e-38
0.0393972560352 -0.0443219130396 0.887 1.91150843259e-38
0.04103880837 -0.0443219130396 0.887 1.95731743991e-38
0.0427765960164 -0.0444218497093 0.889 2.03096674446e-38
0.0444218497093 -0.0444218497093 0.889 2.08635628925e-38
0.046326198472 -0.0446716913837 0.894 2.04133621297e-38
0.0478196964812 -0.0445217863791 0.891 1.87603442183e-38
0.0494686515323 -0.0445217863791 0.891 2.34871873826e-38
-0.0183420802595 -0.0433540078861 0.901 1.01170245878e-38
-0.0166190980456 -0.0432096549187 0.898 1.16735112519e-38
-0.0149571882411 -0.0432096549187 0.898 1.19490429637e-38
-0.0132656675714 -0.0431134196071 0.896 1.18582724544e-38
-0.011581549618 -0.0430171842954 0.894 1.05646693822e-38
-0.00989373030646 -0.042872831328 0.891 1.01937400735e-38
-0.00822626846469 -0.0427765960164 0.889 1.12975596895e-38
-0.00658101477175 -0.0427765960164 0.889 1.16631080121e-38
-0.00492465700439 -0.0426803607048 0.887 1.24896274775e-38
-0.0032831046696 -0.0426803607048 0.887 1.2765133966e-38
-0.00163785097666 -0.0425841253931 0.885 1.26732984698e-38
0.0 -0.0425841253931 0.885 1.29488049583e-38
0.00163785097666 -0.0425841253931 0.885 1.30406404544e-38
0.0032645978789 -0.0424397724257 0.882 1.29488049583e-38
0.00489689681835 -0.0424397724257 0.882 1.35923751001e-38
0.00651439032524 -0.0423435371141 0.88 1.25814811905e-38
0.00814298790655 -0.0423435371141 0.88 1.29488049583e-38
0.00977158548786 -0.0423435371141 0.88 1.25814629736e-38
0.0114001830692 -0.0423435371141 0.88 1.22151999888e-38
0.0129991697854 -0.0422473018025 0.878 1.19393599913e-38
0.0146240660085 -0.0422473018025 0.878 1.26740159346e-38
0.0162489622317 -0.0422473018025 0.878 1.22152027914e-38
0.0178738584549 -0.0422473018025 0.878 1.24924973367e-38
0.0194987546781 -0.0422473018025 0.878 1.24946637442e-38
0.0211236509012 -0.0422473018025 0.878 1.17588895647e-38
0.0227485471244 -0.0422473018025 0.878 1.26776074626e-38
0.0244289637197 -0.0423435371141 0.88 1.22180670455e-38
0.026057561301 -0.0423435371141 0.88 1.31357143513e-38
0.0276861588823 -0.0423435371141 0.88 1.22148384538e-38
0.0293147564636 -0.0423435371141 0.88 1.36860140674e-38
0.0309433540449 -0.0423435371141 0.88 1.35051989213e-38
0.032645978789 -0.0424397724257 0.882 1.47912545999e-38
0.0342782777284 -0.0424397724257 0.882 1.56192146002e-38
0.0360327214865 -0.0425841253931 0.885 1.5432309411e-38
0.0376705724632 -0.0425841253931 0.885 1.80119541488e-38
0.0394860886305 -0.0427765960164 0.889 1.90225033389e-38
0.0411313423234 -0.0427765960164 0.889 1.92969448406e-38
0.042872831328 -0.042872831328 0.891 1.98483585889e-38
0.0446716913837 -0.0430171842954 0.894 2.08685865475e-38
0.046326198472 -0.0430171842954 0.894 1.93077796803e-38
0.0478196964812 -0.042872831328 0.891 1.73817103554e-38
0.0494686515323 -0.042872831328 0.891 2.34897041147e-38
-0.0166190980456 -0.0415477451141 0.898 1.30589456163e-38
-0.0149571882411 -0.0415477451141 0.898 1.12139946568e-38
-0.0132656675714 -0.0414552111606 0.896 1.14873389418e-38
-0.011581549618 -0.0413626772071 0.894 1.1762120959e-38
-0.00989373030646 -0.0412238762769 0.891 1.07461893814e-38
-0.00822626846469 -0.0411313423234 0.889 1.15741493817e-38
-0.00658101477175 -0.0411313423234 0.889 1.19404081626e-38
-0.00493576107881 -0.0411313423234 0.889 1.28569694621e-38
-0.0032831046696 -0.04103880837 0.887 1.31324759506e-38
-0.0016415523348 -0.04103880837 0.887 1.30406404544e-38
0.0 -0.04103880837 0.887 1.32243114468e-38
0.00163785097666 -0.0409462744165 0.885 1.34079824391e-38
0.00327570195332 -0.0409462744165 0.885 1.31324759506e-38
0.00489689681835 -0.0408074734862 0.882 1.29488049583e-38
0.00651439032524 -0.0407149395328 0.88 1.25814629736e-38
0.00814298790655 -0.0407149395328 0.88 1.29488049583e-38
0.00977158548786 -0.0407149395328 0.88 1.26733068776e-38
0.0114001830692 -0.0407149395328 0.88 1.28569694621e-38
0.0130287806505 -0.0407149395328 0.88 1.26732984698e-38
0.0146240660085 -0.0406224055793 0.878 1.25818217061e-38
0.0162489622317 -0.0406224055793 0.878 1.22151971862e-38
0.0178738584549 -0.0406224055793 0.878 1.21233616901e-38
0.0195431709757 -0.0407149395328 0.88 1.22162747848e-38
0.021171768557 -0.0407149395328 0.88 1.24942909988e-38
0.0228003661383 -0.0407149395328 0.88 1.19411256274e-38
0.0244289637197 -0.0407149395328 0.88 1.26754508642e-38
0.026057561301 -0.0407149395328 0.88 1.30417194543e-38
0.0276861588823 -0.0407149395328 0.88 1.32253946505e-38
0.0293147564636 -0.0407149395328 0.88 1.38671711302e-38
