# .PCD v0.7 - Point Cloud Data file format
VERSION 0.7
FIELDS x y z rgb
SIZE 4 4 4 4
TYPE F F F F
COUNT 1 1 1 1
WIDTH 844
HEIGHT 1
VIEWPOINT 0 0 0 1 0 0 0
POINTS 844
DATA ascii
0.0147739710132 -0.113267111101 0.887 1.43669316159e-38
0.0164525369294 -0.113522504813 0.889 1.37122267564e-38
0.0180977906223 -0.113522504813 0.889 1.64808842363e-38
0.0197430443153 -0.113522504813 0.889 1.39974050069e-38
0.021436415664 -0.113777898524 0.891 1.3905307468e-38
0.023163099236 -0.114160989092 0.894 1.50086828723e-38
0.0248731266964 -0.114416382803 0.896 1.40013342478e-38
0.026590556873 -0.114671776515 0.898 1.298257485e-38
0.0283468513102 -0.115054867082 0.901 1.44573097616e-38
0.0300143131519 -0.115054867082 0.901 1.47371434597e-38
0.0317521007983 -0.115310260794 0.903 2.03526985179e-38
0.0335343047424 -0.115693351361 0.906 8.27667409124e-39
-0.0370505949748 -0.114520020831 0.91 1.88671722068e-38
-0.0352887485005 -0.114268328478 0.908 2.02530045399e-38
-0.0335343047424 -0.114016636124 0.906 1.06690605126e-38
-0.0318575895053 -0.114016636124 0.906 6.79583512348e-39
-0.0300143131519 -0.113387405241 0.901 7.53051068496e-39
-0.0282524666776 -0.11300986671 0.898 8.81620763117e-39
-0.0265313351428 -0.112758174357 0.896 1.08513133909e-38
-0.0248176063243 -0.112506482003 0.894 8.17335915806e-39
-0.023163099236 -0.112506482003 0.894 8.99987862348e-39
-0.0215085921477 -0.112506482003 0.894 8.90804312733e-39
-0.0197874606129 -0.112128943473 0.891 9.27538511196e-39
-0.0181385055618 -0.112128943473 0.891 9.36722060812e-39
-0.0164525369294 -0.11187725112 0.889 9.45905610427e-39
-0.0148072832364 -0.11187725112 0.889 1.00100690812e-38
-0.0131620295435 -0.11187725112 0.889 9.73456259275e-39
-0.0115167758506 -0.11187725112 0.889 1.01937400735e-38
-0.00984931400879 -0.111625558766 0.887 5.14278778485e-39
-0.00820776167399 -0.111625558766 0.887 1.69502211309e-38
-0.00655140390664 -0.111373866413 0.885 9.56525771229e-39
-0.00491355292998 -0.111373866413 0.885 1.26065952616e-38
-0.00327570195332 -0.111373866413 0.885 1.29753511564e-38
-0.00163785097666 -0.111373866413 0.885 1.53756296907e-38
0.0 -0.111373866413 0.885 1.22410259195e-38
0.00163785097666 -0.111373866413 0.885 1.41749649366e-38
0.00327570195332 -0.111373866413 0.885 1.37146986469e-38
0.00492465700439 -0.111625558766 0.887 1.36196345591e-38
0.00656620933919 -0.111625558766 0.887 1.2880645801e-38
0.00820776167399 -0.111625558766 0.887 1.39894876706e-38
0.00984931400879 -0.111625558766 0.887 1.43586275212e-38
0.0114908663436 -0.111625558766 0.887 1.1690399701e-38
0.0131324186784 -0.111625558766 0.887 1.25298685655e-38
0.0147739710132 -0.111625558766 0.887 1.42790912216e-38
0.0164525369294 -0.11187725112 0.889 1.27981821889e-38
0.0180977906223 -0.11187725112 0.889 1.44519021508e-38
0.0197430443153 -0.11187725112 0.889 1.4089953764e-38
0.0215085921477 -0.112506482003 0.894 1.33579196501e-38
0.023163099236 -0.112506482003 0.894 1.17854665914e-38
0.0248731266964 -0.112758174357 0.896 1.42743212017e-38
0.026590556873 -0.11300986671 0.898 1.27059837565e-38
0.0283468513102 -0.113387405241 0.901 1.68536324304e-38
0.0300143131519 -0.113387405241 0.901 1.85164580297e-38
0.0317521007983 -0.113639097594 0.903 1.75915954381e-38
0.0335343047424 -0.114016636124 0.906 1.35303101898e-38
-0.0371727397934 -0.113207889371 0.913 1.96990838687e-38
-0.0352887485005 -0.112587911883 0.908 2.03452169854e-38
-0.0335343047424 -0.112339920887 0.906 8.17730521454e-39
-0.0318575895053 -0.112339920887 0.906 1.03060877766e-38
-0.0300809375984 -0.111967934394 0.903 1.19662368959e-38
-0.0283468513102 -0.111719943399 0.901 8.82230608208e-39
-0.026590556873 -0.111347956906 0.898 7.62234618111e-39
-0.0248731266964 -0.11109996591 0.896 1.36135851536e-38
-0.02321491825 -0.11109996591 0.896 9.92253837395e-39
-0.0215567098035 -0.11109996591 0.896 8.72437213501e-39
-0.0198540850594 -0.110851974915 0.894 9.27538511196e-39
-0.0181385055618 -0.110479988422 0.891 9.36722060812e-39
-0.0164895505108 -0.110479988422 0.891 9.55089160043e-39
-0.0148405954597 -0.110479988422 0.891 9.91823358506e-39
-0.0131916404086 -0.110479988422 0.891 9.82639808891e-39
-0.0115167758506 -0.110231997427 0.889 1.06529175543e-38
-0.00987152215763 -0.110231997427 0.889 5.14278778485e-39
-0.00820776167399 -0.109984006431 0.887 1.5844190266e-38
-0.00656620933919 -0.109984006431 0.887 1.13180074367e-38
-0.00492465700439 -0.109984006431 0.887 1.43571883876e-38
-0.0032831046696 -0.109984006431 0.887 1.21427528582e-38
-0.0016415523348 -0.109984006431 0.887 1.40827819185e-38
0.0 -0.109984006431 0.887 1.38112172826e-38
0.0016415523348 -0.109984006431 0.887 1.32577324151e-38
0.0032831046696 -0.109984006431 0.887 1.38998424039e-38
0.00492465700439 -0.109984006431 0.887 1.4174281103e-38
0.00656620933919 -0.109984006431 0.887 1.34377572288e-38
0.00820776167399 -0.109984006431 0.887 1.32491004166e-38
0.00984931400879 -0.109984006431 0.887 1.4635206003e-38
0.0114908663436 -0.109984006431 0.887 1.27913438524e-38
0.0131324186784 -0.109984006431 0.887 1.4543789495e-38
0.0147739710132 -0.109984006431 0.887 1.27085243106e-38
0.0164525369294 -0.110231997427 0.889 1.13323819563e-38
0.0180977906223 -0.110231997427 0.889 1.60203418908e-38
0.0197874606129 -0.110479988422 0.891 1.43640043034e-38
0.0215085921477 -0.110851974915 0.894 1.37269501994e-38
0.02321491825 -0.11109996591 0.896 1.24311891276e-38
0.0249286470685 -0.111347956906 0.898 1.52827179974e-38
0.0266793894684 -0.111719943399 0.901 1.83284318018e-38
0.0283468513102 -0.111719943399 0.901 1.85152837416e-38
0.0300809375984 -0.111967934394 0.903 1.25165548288e-38
0.0318575895053 -0.112339920887 0.906 1.63912543839e-38
0.0335343047424 -0.112339920887 0.906 1.35324625842e-38
0.0352110199796 -0.112339920887 0.906 1.82254139439e-38
-0.0371727397934 -0.11151821938 0.913 1.9422848705e-38
-0.0352887485005 -0.110907495287 0.908 2.09001858279e-38
-0.0335343047424 -0.11066320565 0.906 9.83716006111e-39
-0.0318575895053 -0.11066320565 0.906 8.83127439226e-39
-0.0300809375984 -0.110296771194 0.903 1.15978201153e-38
-0.0283468513102 -0.110052481557 0.901 1.23239968016e-38
-0.026590556873 -0.109686047101 0.898 7.07133320417e-39
-0.0249286470685 -0.109686047101 0.898 9.82642611487e-39
-0.02321491825 -0.109441757464 0.896 7.53051068496e-39
-0.0215567098035 -0.109441757464 0.896 1.20372939384e-38
-0.0198985013571 -0.109441757464 0.896 1.01019045774e-38
-0.0182402929107 -0.109441757464 0.896 9.45905610427e-39
-0.0165450708829 -0.109197467827 0.894 9.45905610427e-39
-0.0148905637946 -0.109197467827 0.894 9.45905610427e-39
-0.0132360567063 -0.109197467827 0.894 9.45905610427e-39
-0.0115426853575 -0.108831033371 0.891 1.03774110659e-38
-0.00989373030646 -0.108831033371 0.891 5.14278778485e-39
-0.00822626846469 -0.108586743734 0.889 1.5750219191e-38
-0.00658101477175 -0.108586743734 0.889 1.20534214824e-38
-0.00493576107881 -0.108586743734 0.889 1.85102502775e-38
-0.00329050738588 -0.108586743734 0.889 1.35296151458e-38
-0.0016415523348 -0.108342454097 0.887 1.38112593215e-38
0.0 -0.108342454097 0.887 1.36311490286e-38
0.0016415523348 -0.108342454097 0.887 1.27106500804e-38
0.0032831046696 -0.108342454097 0.887 1.25255245402e-38
0.00492465700439 -0.108342454097 0.887 1.67636872859e-38
0.00656620933919 -0.108342454097 0.887 1.46413044539e-38
0.00820776167399 -0.108342454097 0.887 1.38112999592e-38
0.00984931400879 -0.108342454097 0.887 1.32515751097e-38
0.0114908663436 -0.108342454097 0.887 1.32515751097e-38
0.0131620295435 -0.108586743734 0.889 1.78638018687e-38
0.0148072832364 -0.108586743734 0.889 1.18805054558e-38
0.0164525369294 -0.108586743734 0.889 1.05981940467e-38
0.0181385055618 -0.108831033371 0.891 1.50112444459e-38
0.0197874606129 -0.108831033371 0.891 1.5651853644e-38
0.0215085921477 -0.109197467827 0.894 1.63937164653e-38
0.02321491825 -0.109441757464 0.896 1.91606559532e-38
0.0249286470685 -0.109686047101 0.898 1.73153392549e-38
0.0266793894684 -0.110052481557 0.901 1.93415103356e-38
0.0284097743985 -0.110296771194 0.903 1.32583910254e-38
0.0300809375984 -0.110296771194 0.903 1.81408441802e-38
0.0318575895053 -0.11066320565 0.906 1.8234476141e-38
0.0335343047424 -0.11066320565 0.906 1.13183661691e-38
0.0352110199796 -0.11066320565 0.906 1.95183233733e-38
-0.0372541696725 -0.110069137669 0.915 1.96983551935e-38
-0.0353664770214 -0.109467666971 0.91 2.12671368503e-38
-0.0336083319052 -0.109227078692 0.908 5.96930725027e-39
-0.0318575895053 -0.108986490413 0.906 9.83895652574e-39
-0.0301808742682 -0.108986490413 0.906 1.23231812459e-38
-0.0284097743985 -0.108625607994 0.903 1.46288076742e-38
-0.0266793894684 -0.108385019715 0.901 1.49161018853e-38
-0.0249286470685 -0.108024137297 0.898 5.51012976948e-39
-0.02321491825 -0.107783549018 0.896 7.53051068496e-39
-0.0215567098035 -0.107783549018 0.896 1.2594427787e-38
-0.0198985013571 -0.107783549018 0.896 1.76810122931e-38
-0.0182402929107 -0.107783549018 0.896 8.54070114269e-39
-0.0165820844643 -0.107783549018 0.896 8.99987862348e-39
-0.0149238760178 -0.107783549018 0.896 9.64272709659e-39
-0.0132360567063 -0.107542960739 0.894 9.82639808891e-39
-0.011581549618 -0.107542960739 0.894 1.02855755697e-38
-0.00989373030646 -0.10718207832 0.891 5.23462328101e-39
-0.00824477525538 -0.10718207832 0.891 1.75012116871e-38
-0.00659582020431 -0.10718207832 0.891 1.15924377279e-38
-0.00493576107881 -0.106941490041 0.889 1.44534043428e-38
-0.00329050738588 -0.106941490041 0.889 1.32599030264e-38
-0.00164525369294 -0.106941490041 0.889 1.55708866188e-38
0.0 -0.106941490041 0.889 1.30826766058e-38
0.00164525369294 -0.106941490041 0.889 1.40986516236e-38
0.00329050738588 -0.106941490041 0.889 1.19792185248e-38
0.00493576107881 -0.106941490041 0.889 1.45578066836e-38
0.00658101477175 -0.106941490041 0.889 1.42754940885e-38
0.00822626846469 -0.106941490041 0.889 1.16060695594e-38
0.00987152215763 -0.106941490041 0.889 1.38973340797e-38
0.0115167758506 -0.106941490041 0.889 1.36210694887e-38
0.0131620295435 -0.106941490041 0.889 1.37154161118e-38
0.0148072832364 -0.106941490041 0.889 1.27988800356e-38
0.0164895505108 -0.10718207832 0.891 1.50158757373e-38
0.0181995779711 -0.107542960739 0.894 1.82405073296e-38
0.0198540850594 -0.107542960739 0.894 1.98014543267e-38
0.0215567098035 -0.107783549018 0.896 1.92496328005e-38
0.0232667372639 -0.108024137297 0.898 1.41821269731e-38
0.0250674479987 -0.108625607994 0.903 1.26076504393e-38
0.0267386111986 -0.108625607994 0.903 1.86911158703e-38
0.0285041590311 -0.108986490413 0.906 1.22406671871e-38
0.0301808742682 -0.108986490413 0.906 1.98896268287e-38
0.03192791531 -0.109227078692 0.908 1.82337026243e-38
0.0336083319052 -0.109227078692 0.908 7.91076703623e-39
0.0352887485005 -0.109227078692 0.908 2.09905990061e-38
-0.0372541696725 -0.10837576632 0.915 1.90508431991e-38
-0.0353664770214 -0.107783549018 0.91 2.06207094609e-38
-0.0336083319052 -0.107546662097 0.908 6.61215572338e-39
-0.0318575895053 -0.107309775176 0.906 1.18719295092e-38
-0.0301808742682 -0.107309775176 0.906 1.06776700904e-38
-0.0284097743985 -0.106954444794 0.903 1.38097739451e-38
-0.0267386111986 -0.106954444794 0.903 1.19512542127e-38
-0.0250119276266 -0.106717557874 0.901 9.5702631504e-39
-0.0232667372639 -0.106362227492 0.898 1.46334389656e-38
-0.0216048274593 -0.106362227492 0.898 1.00165711061e-38
-0.0199429176548 -0.106362227492 0.898 1.45499327875e-38
-0.0182402929107 -0.106125340571 0.896 7.62234618111e-39
-0.0165820844643 -0.106125340571 0.896 9.36722060812e-39
-0.0149238760178 -0.106125340571 0.896 9.91823358506e-39
-0.0132360567063 -0.10588845365 0.894 1.00100690812e-38
-0.011581549618 -0.10588845365 0.894 9.82639808891e-39
-0.00989373030646 -0.105533123269 0.891 5.78563625795e-39
-0.00824477525538 -0.105533123269 0.891 1.6212979792e-38
-0.00659582020431 -0.105533123269 0.891 1.3442143293e-38
-0.00493576107881 -0.105296236348 0.889 1.17011925017e-38
-0.00329050738588 -0.105296236348 0.889 1.10562280679e-38
-0.00164525369294 -0.105296236348 0.889 1.29908915564e-38
0.0 -0.105296236348 0.889 1.28068310031e-38
0.00164525369294 -0.105296236348 0.889 1.35472518882e-38
0.00329050738588 -0.105296236348 0.889 1.20713959378e-38
0.00493576107881 -0.105296236348 0.889 1.17980684685e-38
0.00658101477175 -0.105296236348 0.889 1.12474156252e-38
0.00822626846469 -0.105296236348 0.889 1.48336522863e-38
0.00987152215763 -0.105296236348 0.889 1.27953473622e-38
0.0115167758506 -0.105296236348 0.889 1.26076784653e-38
0.0131620295435 -0.105296236348 0.889 1.07594610792e-38
0.0148405954597 -0.105533123269 0.891 1.81443586368e-38
0.0165450708829 -0.10588845365 0.894 1.63026741041e-38
0.0181995779711 -0.10588845365 0.894 1.52906101103e-38
0.0198985013571 -0.106125340571 0.896 1.21459618317e-38
0.0216048274593 -0.106362227492 0.898 1.25140212812e-38
0.0233444657848 -0.106717557874 0.901 1.39023535308e-38
0.0250674479987 -0.106954444794 0.903 1.47350331043e-38
0.026827443794 -0.107309775176 0.906 1.90659996433e-38
0.0285041590311 -0.107309775176 0.906 1.27963436854e-38
0.0302474987147 -0.107546662097 0.908 1.81432628214e-38
0.03192791531 -0.107546662097 0.908 1.77749105006e-38
0.0336083319052 -0.107546662097 0.908 1.21441681697e-38
0.0352887485005 -0.107546662097 0.908 2.10759605034e-38
-0.0373763144911 -0.107032173315 0.918 2.1080263891e-38
-0.0354830698028 -0.106449209408 0.913 2.00693531658e-38
-0.0336083319052 -0.105866245501 0.908 7.16316870032e-39
-0.03192791531 -0.105866245501 0.908 1.27913438524e-38
-0.0301808742682 -0.105633059939 0.906 3.489748854e-39
-0.0285041590311 -0.105633059939 0.906 1.11218592828e-38
-0.0267386111986 -0.105283281595 0.903 1.60049248051e-38
-0.0250119276266 -0.105050096032 0.901 1.36279820941e-38
-0.0232667372639 -0.104700317688 0.898 1.27013118274e-38
-0.0216048274593 -0.104700317688 0.898 1.03035290056e-38
-0.0199429176548 -0.104700317688 0.898 1.26163468976e-38
-0.0182402929107 -0.104467132125 0.896 7.25500419648e-39
-0.0165820844643 -0.104467132125 0.896 9.55089160043e-39
-0.0149238760178 -0.104467132125 0.896 1.01019045774e-38
-0.0132656675714 -0.104467132125 0.896 1.01937400735e-38
-0.011581549618 -0.104233946562 0.894 1.01937400735e-38
-0.00989373030646 -0.103884168218 0.891 5.51012976948e-39
-0.00824477525538 -0.103884168218 0.891 1.74111796621e-38
-0.00659582020431 -0.103884168218 0.891 1.51058881441e-38
-0.00494686515323 -0.103884168218 0.891 1.45563451293e-38
-0.00329791010215 -0.103884168218 0.891 1.39073757845e-38
-0.00164895505108 -0.103884168218 0.891 1.42750736989e-38
0.0 -0.103884168218 0.891 1.35396372324e-38
0.00164895505108 -0.103884168218 0.891 1.16936507134e-38
0.00329791010215 -0.103884168218 0.891 1.53789535707e-38
0.00494686515323 -0.103884168218 0.891 1.28024995895e-38
0.00659582020431 -0.103884168218 0.891 1.38183989372e-38
0.00824477525538 -0.103884168218 0.891 1.69490678623e-38
0.00989373030646 -0.103884168218 0.891 1.66706732977e-38
0.0115426853575 -0.103884168218 0.891 1.7593702991e-38
0.0131916404086 -0.103884168218 0.891 1.78688815756e-38
0.0148905637946 -0.104233946562 0.894 1.60253221055e-38
0.0165450708829 -0.104233946562 0.894 1.04911292388e-38
0.0182402929107 -0.104467132125 0.896 1.50087403255e-38
0.0198985013571 -0.104467132125 0.896 1.57495157392e-38
0.0216048274593 -0.104700317688 0.898 1.03996622842e-38
0.0233444657848 -0.105050096032 0.901 1.40809644343e-38
0.0250674479987 -0.105283281595 0.903 1.62069009592e-38
0.026827443794 -0.105633059939 0.906 1.86982709003e-38
0.0285041590311 -0.105633059939 0.906 1.42732450044e-38
0.0302474987147 -0.105866245501 0.908 1.23378836694e-38
0.03192791531 -0.105866245501 0.908 1.89716782436e-38
0.0336083319052 -0.105866245501 0.908 1.51890888392e-38
0.0352887485005 -0.105866245501 0.908 2.1446894016e-38
-0.0354830698028 -0.104759539418 0.913 1.97927494606e-38
-0.0336083319052 -0.104185828906 0.908 9.28255976009e-39
-0.03192791531 -0.104185828906 0.908 7.71418167727e-39
-0.0301808742682 -0.103956344702 0.906 7.34683969264e-39
-0.0285041590311 -0.103956344702 0.906 6.97949770801e-39
-0.0267386111986 -0.103612118395 0.903 8.0815264645e-39
-0.0250674479987 -0.103612118395 0.903 9.7353319056e-39
-0.0233444657848 -0.10338263419 0.901 1.40753466288e-38
-0.0216770039431 -0.10338263419 0.901 1.50087711541e-38
-0.0199429176548 -0.103038407883 0.898 1.01256201526e-38
-0.0182810078502 -0.103038407883 0.898 7.53051068496e-39
-0.0165820844643 -0.102808923678 0.896 9.73456259275e-39
-0.0149238760178 -0.102808923678 0.896 1.02855755697e-38
-0.0132656675714 -0.102808923678 0.896 1.00100690812e-38
-0.011607459125 -0.102808923678 0.896 1.09284240428e-38
-0.00992704252972 -0.102579439474 0.894 6.3366492349e-39
-0.00827253544143 -0.102579439474 0.894 1.3909941562e-38
-0.00661802835314 -0.102579439474 0.894 1.51044784379e-38
-0.00494686515323 -0.102235213167 0.891 1.56583738858e-38
-0.00329791010215 -0.102235213167 0.891 1.66693238473e-38
-0.00164895505108 -0.102235213167 0.891 1.74997655471e-38
0.0 -0.102235213167 0.891 1.63023391938e-38
0.00164895505108 -0.102235213167 0.891 1.6763279508e-38
0.00330901417657 -0.102579439474 0.894 1.78688759704e-38
0.00496352126486 -0.102579439474 0.894 1.66693238473e-38
0.00661802835314 -0.102579439474 0.894 1.68550841756e-38
0.00824477525538 -0.102235213167 0.891 1.63919704474e-38
0.00989373030646 -0.102235213167 0.891 1.55596888427e-38
0.011581549618 -0.102579439474 0.894 1.43600918781e-38
0.0132360567063 -0.102579439474 0.894 1.61132437751e-38
0.0148905637946 -0.102579439474 0.894 1.55629412565e-38
0.0165820844643 -0.102808923678 0.896 1.1962321668e-38
0.0182402929107 -0.102808923678 0.896 1.72166696261e-38
0.0199429176548 -0.103038407883 0.898 1.39984643886e-38
0.0216048274593 -0.103038407883 0.898 1.16958353377e-38
0.0233444657848 -0.10338263419 0.901 1.37114700553e-38
0.0250674479987 -0.103612118395 0.903 1.6388691409e-38
0.026827443794 -0.103956344702 0.906 1.99844008477e-38
0.0285670821194 -0.104185828906 0.908 1.29843292756e-38
0.0302474987147 -0.104185828906 0.908 1.48224643193e-38
0.03192791531 -0.104185828906 0.908 1.91531309805e-38
0.033682359068 -0.104415313111 0.91 1.3069339047e-38
-0.0354830698028 -0.103069869427 0.913 1.97934781358e-38
-0.033682359068 -0.102731195157 0.91 1.18636422301e-38
-0.03192791531 -0.102505412311 0.908 7.4386751888e-39
-0.0302474987147 -0.102505412311 0.908 7.71418167727e-39
-0.0285041590311 -0.102279629464 0.906 8.0815236619e-39
-0.026827443794 -0.102279629464 0.906 8.26519465422e-39
-0.0250674479987 -0.101940955195 0.903 7.71418167727e-39
-0.0233444657848 -0.101715172348 0.901 5.78563625795e-39
-0.0216770039431 -0.101715172348 0.901 1.91395986412e-38
-0.0199429176548 -0.101376498078 0.898 1.04900880741e-38
-0.0182810078502 -0.101376498078 0.898 8.90804312733e-39
-0.0165820844643 -0.101150715232 0.896 9.73456259275e-39
-0.0149238760178 -0.101150715232 0.896 1.01019045774e-38
-0.0132656675714 -0.101150715232 0.896 1.03774110659e-38
-0.011607459125 -0.101150715232 0.896 1.0469246562e-38
-0.00992704252972 -0.100924932385 0.894 7.62234618111e-39
-0.00827253544143 -0.100924932385 0.894 1.44616635959e-38
-0.00661802835314 -0.100924932385 0.894 9.47735145702e-39
-0.00494686515323 -0.100586258116 0.891 1.45469578309e-38
-0.00329791010215 -0.100586258116 0.891 1.15971012492e-38
-0.00165450708829 -0.100924932385 0.894 1.03060233169e-38
0.0 -0.100924932385 0.894 1.35296557834e-38
0.00165450708829 -0.100924932385 0.894 1.35357262084e-38
0.00330901417657 -0.100924932385 0.894 1.15981886568e-38
0.00496352126486 -0.100924932385 0.894 1.11336189795e-38
0.00661802835314 -0.100924932385 0.894 1.84177589737e-38
0.00827253544143 -0.100924932385 0.894 1.72220842434e-38
0.00992704252972 -0.100924932385 0.894 1.77752580226e-38
0.011581549618 -0.100924932385 0.894 1.70376929837e-38
0.0132360567063 -0.100924932385 0.894 1.82358858473e-38
0.0149238760178 -0.101150715232 0.896 1.60260423729e-38
0.0165820844643 -0.101150715232 0.896 1.33532126886e-38
0.0182402929107 -0.101150715232 0.896 1.66696167187e-38
0.0199429176548 -0.101376498078 0.898 1.28871029843e-38
0.0216048274593 -0.101376498078 0.898 1.33549685156e-38
0.0233444657848 -0.101715172348 0.901 1.40874706631e-38
0.0251507285568 -0.102279629464 0.906 1.50086464385e-38
0.026827443794 -0.102279629464 0.906 1.95223759284e-38
0.0285670821194 -0.102505412311 0.908 1.48253341786e-38
0.0302474987147 -0.102505412311 0.908 2.04456718684e-38
0.03192791531 -0.102505412311 0.908 1.786452634e-38
0.033682359068 -0.102731195157 0.91 1.38037189345e-38
-0.0354830698028 -0.101380199437 0.913 1.91470269244e-38
-0.033682359068 -0.101047077204 0.91 1.16785335056e-38
-0.0319982411146 -0.101047077204 0.91 7.53122814977e-39
-0.0302474987147 -0.100824995716 0.908 8.26519465422e-39
-0.0285670821194 -0.100824995716 0.908 8.35703015038e-39
-0.026827443794 -0.100602914227 0.906 8.35703015038e-39
-0.0250674479987 -0.100269791995 0.903 8.54070114269e-39
-0.0233962847988 -0.100269791995 0.903 7.89785266959e-39
-0.0217251215989 -0.100269791995 0.903 8.17335915806e-39
-0.0200095421013 -0.100047710506 0.901 1.59195114598e-38
-0.0182810078502 -0.0997145882739 0.898 8.99987862348e-39
-0.0166190980456 -0.0997145882739 0.898 1.00100690812e-38
-0.0149238760178 -0.0994925067855 0.896 1.01019045774e-38
-0.0132656675714 -0.0994925067855 0.896 1.03774110659e-38
-0.011607459125 -0.0994925067855 0.896 1.02855755697e-38
-0.00992704252972 -0.0992704252972 0.894 7.07133320417e-39
-0.00827253544143 -0.0992704252972 0.894 1.80561987465e-38
-0.00661802835314 -0.0992704252972 0.894 1.24254143767e-38
-0.00496352126486 -0.0992704252972 0.894 1.56490160146e-38
-0.00330901417657 -0.0992704252972 0.894 1.34445871576e-38
-0.00165450708829 -0.0992704252972 0.894 1.18787608392e-38
0.0 -0.0992704252972 0.894 1.41836740066e-38
0.00165450708829 -0.0992704252972 0.894 1.24395352613e-38
0.00330901417657 -0.0992704252972 0.894 1.33635472648e-38
0.00496352126486 -0.0992704252972 0.894 1.39117366253e-38
0.0066328337857 -0.0994925067855 0.896 1.28928931496e-38
0.00829104223213 -0.0994925067855 0.896 1.21520939138e-38
0.00994925067855 -0.0994925067855 0.896 1.75004535847e-38
0.011607459125 -0.0994925067855 0.896 1.74053993059e-38
0.0132656675714 -0.0994925067855 0.896 1.75887536048e-38
0.0149238760178 -0.0994925067855 0.896 1.5472512664e-38
0.0165820844643 -0.0994925067855 0.896 1.3451481546e-38
0.0182402929107 -0.0994925067855 0.896 1.53818220286e-38
0.0199429176548 -0.0997145882739 0.898 1.38962172448e-38
0.0216048274593 -0.0997145882739 0.898 1.38148116131e-38
0.0233444657848 -0.100047710506 0.901 1.27118481906e-38
0.0251507285568 -0.100602914227 0.906 1.39937924595e-38
0.026827443794 -0.100602914227 0.906 1.93357874327e-38
0.0285670821194 -0.100824995716 0.908 1.65781245406e-38
0.0303141231612 -0.101047077204 0.91 1.98017247773e-38
0.0319982411146 -0.101047077204 0.91 1.8878028066e-38
-0.0355607983237 -0.0999089095762 0.915 1.94246886099e-38
-0.0337933998122 -0.099690529446 0.913 1.00190373914e-38
-0.0321037298216 -0.099690529446 0.913 7.99471041944e-39
-0.0303141231612 -0.0993629592506 0.91 8.35703015038e-39
-0.0285670821194 -0.0991445791204 0.908 8.35703015038e-39
-0.0268866655242 -0.0991445791204 0.908 8.26519465422e-39
-0.0251507285568 -0.0989261989902 0.906 8.81620763117e-39
-0.0233962847988 -0.0985986287949 0.903 8.54070114269e-39
-0.0217251215989 -0.0985986287949 0.903 8.54070114269e-39
-0.0200095421013 -0.0983802486646 0.901 8.0815236619e-39
-0.0183420802595 -0.0983802486646 0.901 9.1835496158e-39
-0.0166190980456 -0.0980526784693 0.898 9.82639808891e-39
-0.0149571882411 -0.0980526784693 0.898 1.02855755697e-38
-0.0132656675714 -0.0978342983391 0.896 1.0469246562e-38
-0.011607459125 -0.0978342983391 0.896 1.03774110659e-38
-0.00994925067855 -0.0978342983391 0.896 9.73996319703e-39
-0.00827253544143 -0.0976159182089 0.894 1.1420604905e-38
-0.00661802835314 -0.0976159182089 0.894 1.46417360538e-38
-0.00496352126486 -0.0976159182089 0.894 1.40928824778e-38
-0.00330901417657 -0.0976159182089 0.894 1.23479814261e-38
-0.00165820844643 -0.0978342983391 0.896 1.36391154104e-38
0.0 -0.0978342983391 0.896 1.21639657144e-38
0.00165820844643 -0.0978342983391 0.896 1.24456042849e-38
0.00331641689285 -0.0978342983391 0.896 1.26302954225e-38
0.00497462533928 -0.0978342983391 0.896 1.1615166789e-38
0.0066328337857 -0.0978342983391 0.896 1.27207492384e-38
0.00829104223213 -0.0978342983391 0.896 1.54790973654e-38
0.00994925067855 -0.0978342983391 0.896 1.71316864795e-38
0.011607459125 -0.0978342983391 0.896 1.71284662956e-38
0.0132656675714 -0.0978342983391 0.896 1.77727553035e-38
0.0149238760178 -0.0978342983391 0.896 1.4730675066e-38
0.0166190980456 -0.0980526784693 0.898 1.23414709935e-38
0.0182810078502 -0.0980526784693 0.898 1.50148990323e-38
0.0199429176548 -0.0980526784693 0.898 1.316368567e-38
0.0216770039431 -0.0983802486646 0.901 1.21527777474e-38
0.0233962847988 -0.0985986287949 0.903 1.75923563431e-38
0.0251507285568 -0.0989261989902 0.906 1.89727348227e-38
0.026827443794 -0.0989261989902 0.906 1.91534869103e-38
0.0285670821194 -0.0991445791204 0.908 1.14127127921e-38
0.0303141231612 -0.0993629592506 0.91 2.18268645024e-38
0.0319982411146 -0.0993629592506 0.91 1.28882086088e-38
0.033867426975 -0.0999089095762 0.915 6.06114274643e-39
-0.0355607983237 -0.0982155382274 0.915 2.03448064049e-38
-0.033867426975 -0.0982155382274 0.915 1.07562605135e-38
-0.0321037298216 -0.0980008594554 0.913 1.03917603621e-38
-0.030414059831 -0.0980008594554 0.913 7.62234618111e-39
-0.0286300052078 -0.0976788412972 0.91 8.54070114269e-39
-0.0268866655242 -0.0974641625252 0.908 8.17335915806e-39
-0.0251507285568 -0.0972494837531 0.906 8.63253663885e-39
-0.0234740133197 -0.0972494837531 0.906 8.99987862348e-39
-0.0217972980826 -0.0972494837531 0.906 9.36722060812e-39
-0.020053958399 -0.096927465595 0.903 9.45905610427e-39
-0.0183420802595 -0.0967127868229 0.901 9.73456259275e-39
-0.0166746184177 -0.0967127868229 0.901 9.82639808891e-39
-0.0149571882411 -0.0963907686647 0.898 1.03774110659e-38
-0.0132952784365 -0.0963907686647 0.898 1.03774110659e-38
-0.011607459125 -0.0961760898927 0.896 9.91823358506e-39
-0.00994925067855 -0.0961760898927 0.896 1.08473897552e-38
-0.00829104223213 -0.0961760898927 0.896 1.22540229628e-38
-0.0066328337857 -0.0961760898927 0.896 1.27143242849e-38
-0.00497462533928 -0.0961760898927 0.896 1.2714282246e-38
-0.00331641689285 -0.0961760898927 0.896 1.1789432266e-38
-0.00165820844643 -0.0961760898927 0.896 1.27110634634e-38
0.0 -0.0961760898927 0.896 1.15171333497e-38
0.00165820844643 -0.0961760898927 0.896 1.20649275441e-38
0.00331641689285 -0.0961760898927 0.896 1.34438556798e-38
0.00497462533928 -0.0961760898927 0.896 1.18794642911e-38
0.0066328337857 -0.0961760898927 0.896 1.42769037947e-38
0.00829104223213 -0.0961760898927 0.896 1.75919639796e-38
0.00994925067855 -0.0961760898927 0.896 1.73128351346e-38
0.011607459125 -0.0961760898927 0.896 1.76816134501e-38
0.0132656675714 -0.0961760898927 0.896 1.74057552357e-38
0.0149571882411 -0.0963907686647 0.898 1.42693031519e-38
0.0166190980456 -0.0963907686647 0.898 1.23332201481e-38
0.0182810078502 -0.0963907686647 0.898 1.73146904537e-38
0.0200095421013 -0.0967127868229 0.901 1.84224028768e-38
0.0216770039431 -0.0967127868229 0.901 1.80525861991e-38
0.0233962847988 -0.096927465595 0.903 1.79574884801e-38
0.0251507285568 -0.0972494837531 0.906 1.82315502298e-38
0.0268866655242 -0.0974641625252 0.908 1.99836147193e-38
0.0285670821194 -0.0974641625252 0.908 1.54653884626e-38
0.0303141231612 -0.0976788412972 0.91 1.4816852119e-38
0.0321037298216 -0.0980008594554 0.913 7.25500419648e-39
0.033867426975 -0.0982155382274 0.915 8.54070114269e-39
-0.0355607983237 -0.0965221668787 0.915 1.98820612183e-38
-0.033867426975 -0.0965221668787 0.915 1.0016884997e-38
-0.0321037298216 -0.0963111894648 0.913 1.20476691522e-38
-0.030414059831 -0.0963111894648 0.913 7.53051068496e-39
-0.0286300052078 -0.0959947233438 0.91 8.54070114269e-39
-0.0268866655242 -0.0957837459299 0.908 8.35703015038e-39
-0.0251507285568 -0.095572768516 0.906 8.54070114269e-39
-0.0234740133197 -0.095572768516 0.906 9.27538511196e-39
-0.0217972980826 -0.095572768516 0.906 9.09171411964e-39
-0.0201205828455 -0.095572768516 0.906 9.36722060812e-39
-0.018382795199 -0.095256302395 0.903 9.73456259275e-39
-0.0167116319991 -0.095256302395 0.903 1.00100690812e-38
-0.015007156576 -0.0950453249811 0.901 1.02855755697e-38
-0.0132952784365 -0.0947288588602 0.898 1.01019045774e-38
-0.011633368632 -0.0947288588602 0.898 1.00100690812e-38
-0.00997145882739 -0.0947288588602 0.898 1.1677150424e-38
-0.00829104223213 -0.0945178814462 0.896 1.27167863663e-38
-0.0066328337857 -0.0945178814462 0.896 1.05040562172e-38
-0.00497462533928 -0.0945178814462 0.896 1.24315296432e-38
-0.00331641689285 -0.0945178814462 0.896 1.35296277575e-38
-0.00165820844643 -0.0945178814462 0.896 1.24247319443e-38
0.0 -0.0945178814462 0.896 1.15070594151e-38
0.00165820844643 -0.0945178814462 0.896 1.65748805347e-38
0.00332381960913 -0.0947288588602 0.898 1.84210408147e-38
0.00498572941369 -0.0947288588602 0.898 1.74997683497e-38
0.00664763921826 -0.0947288588602 0.898 1.8422074973e-38
0.00830954902282 -0.0947288588602 0.898 1.74054413449e-38
0.00997145882739 -0.0947288588602 0.898 1.74968788723e-38
0.011633368632 -0.0947288588602 0.898 1.74961754204e-38
0.0132952784365 -0.0947288588602 0.898 1.73132485176e-38
0.0149571882411 -0.0947288588602 0.898 1.73142854785e-38
0.0166190980456 -0.0947288588602 0.898 1.78678488186e-38
0.0183420802595 -0.0950453249811 0.901 1.8605021494e-38
0.0200095421013 -0.0950453249811 0.901 1.75894626618e-38
0.0216770039431 -0.0950453249811 0.901 1.82355159045e-38
0.0233962847988 -0.095256302395 0.903 1.81426168228e-38
0.0251507285568 -0.095572768516 0.906 1.9615227366e-38
0.0268866655242 -0.0957837459299 0.908 1.86994031494e-38
0.0285670821194 -0.0957837459299 0.908 7.44333871009e-39
0.0303141231612 -0.0959947233438 0.91 9.55089160043e-39
0.0321037298216 -0.0963111894648 0.913 1.06529175543e-38
-0.0356773911051 -0.0951397096136 0.918 1.96983958311e-38
-0.033867426975 -0.0948287955299 0.915 1.28745501527e-38
-0.0321740556262 -0.0948287955299 0.915 1.19529637968e-38
-0.030414059831 -0.0946215194741 0.913 7.80601717343e-39
-0.0287243898404 -0.0946215194741 0.913 8.90804312733e-39
-0.0269458872544 -0.0943106053904 0.91 8.72437213501e-39
-0.0252062489289 -0.0941033293346 0.908 8.72437213501e-39
-0.0234740133197 -0.0938960532788 0.906 9.27538511196e-39
-0.0217972980826 -0.0938960532788 0.906 9.27538511196e-39
-0.0201205828455 -0.0938960532788 0.906 9.36722060812e-39
-0.018382795199 -0.0935851391951 0.903 9.55089160043e-39
-0.0167116319991 -0.0935851391951 0.903 9.82639808891e-39
-0.015007156576 -0.0933778631393 0.901 1.02855755697e-38
-0.0132952784365 -0.0930669490556 0.898 1.05610820582e-38
-0.011633368632 -0.0930669490556 0.898 1.02855755697e-38
-0.00997145882739 -0.0930669490556 0.898 1.25040300231e-38
-0.00830954902282 -0.0930669490556 0.898 1.35440429148e-38
-0.00664763921826 -0.0930669490556 0.898 9.48238632241e-39
-0.00498572941369 -0.0930669490556 0.898 1.66702977497e-38
-0.00332381960913 -0.0930669490556 0.898 1.2329632824e-38
-0.00166190980456 -0.0930669490556 0.898 1.36189170943e-38
0.0 -0.0930669490556 0.898 1.31550845e-38
0.00166190980456 -0.0930669490556 0.898 1.37096904062e-38
0.00332381960913 -0.0930669490556 0.898 1.26008345236e-38
0.00498572941369 -0.0930669490556 0.898 1.25983233968e-38
0.00664763921826 -0.0930669490556 0.898 1.89723522682e-38
0.00830954902282 -0.0930669490556 0.898 1.73124820073e-38
0.00997145882739 -0.0930669490556 0.898 1.7773461558e-38
0.011633368632 -0.0930669490556 0.898 1.80507533007e-38
0.0133396947342 -0.0933778631393 0.901 1.6944779889e-38
0.015007156576 -0.0933778631393 0.901 1.71295256772e-38
0.0166746184177 -0.0933778631393 0.901 1.76816162527e-38
0.018382795199 -0.0935851391951 0.903 1.81429545357e-38
0.020053958399 -0.0935851391951 0.903 1.76823463292e-38
0.0217251215989 -0.0935851391951 0.903 1.89727474344e-38
0.0234740133197 -0.0938960532788 0.906 1.84224449157e-38
0.0251507285568 -0.0938960532788 0.906 1.38122962824e-38
0.0268866655242 -0.0941033293346 0.908 5.41829427332e-39
0.0286300052078 -0.0943106053904 0.91 8.35703015038e-39
0.0303141231612 -0.0943106053904 0.91 1.03774110659e-38
0.0321037298216 -0.0946215194741 0.913 1.40637845152e-38
-0.0356773911051 -0.0934407862277 0.918 1.97913551687e-38
-0.033867426975 -0.0931354241812 0.915 1.3060042833e-38
-0.0321740556262 -0.0931354241812 0.915 1.0760178544e-38
-0.0304806842775 -0.0931354241812 0.915 8.0815236619e-39
-0.0287243898404 -0.0929318494835 0.913 9.45905610427e-39
-0.0270347198498 -0.0929318494835 0.913 9.27538511196e-39
-0.025261769301 -0.092626487437 0.91 8.54070114269e-39
-0.0235258323337 -0.0924229127394 0.908 8.63253663885e-39
-0.0218454157384 -0.0924229127394 0.908 9.36722060812e-39
-0.0201649991431 -0.0924229127394 0.908 9.45905610427e-39
-0.018382795199 -0.0919139759952 0.903 9.55089160043e-39
-0.0167116319991 -0.0919139759952 0.903 1.01937400735e-38
-0.0150404687992 -0.0919139759952 0.903 1.0469246562e-38
-0.0133396947342 -0.0917104012975 0.901 1.08365885466e-38
-0.011633368632 -0.0914050392511 0.898 1.0469246562e-38
-0.00997145882739 -0.0914050392511 0.898 1.28731726763e-38
-0.00830954902282 -0.0914050392511 0.898 1.38141558054e-38
-0.00664763921826 -0.0914050392511 0.898 1.25154562108e-38
-0.00498572941369 -0.0914050392511 0.898 1.32515751097e-38
-0.00332381960913 -0.0914050392511 0.898 1.39884114734e-38
-0.00166190980456 -0.0914050392511 0.898 1.44508679926e-38
0.0 -0.0914050392511 0.898 1.37143567301e-38
0.00166190980456 -0.0914050392511 0.898 1.65724562883e-38
0.00332381960913 -0.0914050392511 0.898 1.3529592725e-38
0.00498572941369 -0.0914050392511 0.898 1.232676857e-38
0.00666984736709 -0.0917104012975 0.901 1.38948033347e-38
0.00833730920887 -0.0917104012975 0.901 1.89720411799e-38
0.0100047710506 -0.0917104012975 0.901 1.71302837797e-38
0.0116722328924 -0.0917104012975 0.901 1.74097209104e-38
0.0133396947342 -0.0917104012975 0.901 1.69476609587e-38
0.015007156576 -0.0917104012975 0.901 1.76819665773e-38
0.0167116319991 -0.0919139759952 0.903 1.8971999141e-38
0.018382795199 -0.0919139759952 0.903 1.915821349e-38
0.0201205828455 -0.0922193380417 0.906 1.76866777428e-38
0.0217972980826 -0.0922193380417 0.906 1.24293604331e-38
0.0235258323337 -0.0924229127394 0.908 6.79582671569e-39
0.0252062489289 -0.0924229127394 0.908 5.41829427332e-39
0.0269458872544 -0.092626487437 0.91 8.90804312733e-39
0.0287243898404 -0.0929318494835 0.913 9.73456259275e-39
0.030414059831 -0.0929318494835 0.913 9.55089160043e-39
0.0321037298216 -0.0929318494835 0.913 1.31410869297e-38
-0.0356773911051 -0.0917418628417 0.918 2.00682153115e-38
-0.033867426975 -0.0914420528324 0.915 1.41696119765e-38
-0.0321740556262 -0.0914420528324 0.915 1.05768662841e-38
-0.0304806842775 -0.0914420528324 0.915 8.26519465422e-39
-0.0287243898404 -0.0912421794929 0.913 9.55089160043e-39
-0.0270347198498 -0.0912421794929 0.913 9.36722060812e-39
-0.025261769301 -0.0909423694836 0.91 8.44886564654e-39
-0.0235258323337 -0.0907424961441 0.908 8.54070114269e-39
-0.0218454157384 -0.0907424961441 0.908 8.81620763117e-39
-0.0201649991431 -0.0907424961441 0.908 9.36722060812e-39
-0.0184845825479 -0.0907424961441 0.908 9.36722060812e-39
-0.0167671523712 -0.0905426228046 0.906 9.91823358506e-39
-0.0150404687992 -0.0902428127953 0.903 1.03774110659e-38
-0.0133693055993 -0.0902428127953 0.903 1.06529175543e-38
-0.0116722328924 -0.0900429394558 0.901 1.05610820582e-38
-0.0100047710506 -0.0900429394558 0.901 1.52677381168e-38
-0.00833730920887 -0.0900429394558 0.901 1.57477178733e-38
-0.00664763921826 -0.0897431294465 0.898 1.34334790646e-38
-0.00498572941369 -0.0897431294465 0.898 1.31586998501e-38
-0.00332381960913 -0.0897431294465 0.898 1.58388148851e-38
-0.00166190980456 -0.0897431294465 0.898 1.18780475783e-38
0.0 -0.0900429394558 0.901 1.40910860132e-38
0.00166746184177 -0.0900429394558 0.901 1.40925153376e-38
0.00333492368355 -0.0900429394558 0.901 1.21546064419e-38
0.00500238552532 -0.0900429394558 0.901 1.58395631785e-38
0.00666984736709 -0.0900429394558 0.901 1.27052620878e-38
0.00833730920887 -0.0900429394558 0.901 1.32526555108e-38
0.0100269791995 -0.0902428127953 0.903 1.26065742421e-38
0.0116981423994 -0.0902428127953 0.903 1.17796960443e-38
0.0133693055993 -0.0902428127953 0.903 1.87018063763e-38
0.0150404687992 -0.0902428127953 0.903 1.68597659138e-38
0.0167671523712 -0.0905426228046 0.906 1.3350585254e-38
0.0184438676083 -0.0905426228046 0.906 8.99987862348e-39
0.0201205828455 -0.0905426228046 0.906 6.24481373874e-39
0.0218454157384 -0.0907424961441 0.908 6.52032022722e-39
0.0235258323337 -0.0907424961441 0.908 8.81620763117e-39
0.025261769301 -0.0909423694836 0.91 8.90804312733e-39
0.0269458872544 -0.0909423694836 0.91 9.73456259275e-39
0.0287243898404 -0.0912421794929 0.913 8.44886564654e-39
0.030414059831 -0.0912421794929 0.913 1.29560076324e-38
0.0321037298216 -0.0912421794929 0.913 1.41469754011e-38
-0.0356773911051 -0.0900429394558 0.918 1.98798807978e-38
-0.033867426975 -0.0897486814837 0.915 1.4815725475e-38
-0.0321740556262 -0.0897486814837 0.915 9.56452343189e-39
-0.0304806842775 -0.0897486814837 0.915 9.18390834821e-39
-0.0287243898404 -0.0895525095023 0.913 1.05621582554e-38
-0.0270347198498 -0.0895525095023 0.913 9.27538511196e-39
-0.025261769301 -0.0892582515302 0.91 8.72437213501e-39
-0.0235258323337 -0.0890620795488 0.908 8.81620763117e-39
-0.0218454157384 -0.0890620795488 0.908 8.81620763117e-39
-0.0201649991431 -0.0890620795488 0.908 9.36722060812e-39
-0.0184845825479 -0.0890620795488 0.908 9.55089160043e-39
-0.0167671523712 -0.0888659075675 0.906 9.82639808891e-39
-0.0150904371341 -0.0888659075675 0.906 1.0469246562e-38
-0.013413721897 -0.0888659075675 0.906 1.06529175543e-38
-0.0116981423994 -0.0885716495954 0.903 1.1020259539e-38
-0.0100269791995 -0.0885716495954 0.903 8.17335915806e-39
-0.00835581599956 -0.0885716495954 0.903 1.25908026279e-38
-0.00666984736709 -0.088375477614 0.901 1.43482831359e-38
-0.00500238552532 -0.088375477614 0.901 1.46359851249e-38
-0.00333492368355 -0.088375477614 0.901 1.35332403049e-38
-0.00166746184177 -0.088375477614 0.901 1.50137625792e-38
0.0 -0.0885716495954 0.903 1.42783457308e-38
0.00167116319991 -0.0885716495954 0.903 1.44638159904e-38
0.00334232639983 -0.0885716495954 0.903 1.43716189592e-38
0.00501348959974 -0.0885716495954 0.903 1.3539358374e-38
0.00668465279965 -0.0885716495954 0.903 1.381482983e-38
0.00835581599956 -0.0885716495954 0.903 1.35307067573e-38
0.0100269791995 -0.0885716495954 0.903 1.09420586769e-38
0.0117370066599 -0.0888659075675 0.906 9.36722060812e-39
0.013413721897 -0.0888659075675 0.906 6.70399121953e-39
0.0150904371341 -0.0888659075675 0.906 4.86728129637e-39
0.0167671523712 -0.0888659075675 0.906 6.79582671569e-39
0.0184438676083 -0.0888659075675 0.906 1.07447530505e-38
0.0201205828455 -0.0888659075675 0.906 9.55089160043e-39
0.0218454157384 -0.0890620795488 0.908 1.05610820582e-38
0.0235258323337 -0.0890620795488 0.908 1.0469246562e-38
0.0253450498591 -0.0895525095023 0.913 9.82639808891e-39
0.0270347198498 -0.0895525095023 0.913 9.82639808891e-39
0.0287873129287 -0.0897486814837 0.915 1.00100690812e-38
0.0304806842775 -0.0897486814837 0.915 1.48913773752e-38
0.0321740556262 -0.0897486814837 0.915 1.59966080987e-38
-0.035755119626 -0.0885364866931 0.92 2.20097984117e-38
-0.0339784677192 -0.0883440160698 0.918 1.37104485087e-38
-0.0321740556262 -0.0880553101349 0.915 9.84146484999e-39
-0.0304806842775 -0.0880553101349 0.915 9.91930978228e-39
-0.0287243898404 -0.0878628395117 0.913 8.81620763117e-39
-0.0270347198498 -0.0878628395117 0.913 9.36722060812e-39
-0.025261769301 -0.0875741335768 0.91 9.09171411964e-39
-0.0235258323337 -0.0873816629536 0.908 8.99987862348e-39
-0.0218454157384 -0.0873816629536 0.908 9.36722060812e-39
-0.0201649991431 -0.0873816629536 0.908 9.55089160043e-39
-0.0184845825479 -0.0873816629536 0.908 9.73456259275e-39
-0.0168041659526 -0.0873816629536 0.908 1.02855755697e-38
-0.0150904371341 -0.0871891923303 0.906 1.06529175543e-38
-0.013413721897 -0.0871891923303 0.906 1.07447530505e-38
-0.0117370066599 -0.0871891923303 0.906 1.09284240428e-38
-0.0100269791995 -0.0869004863955 0.903 9.27538511196e-39
-0.00835581599956 -0.0869004863955 0.903 8.26519465422e-39
-0.00668465279965 -0.0869004863955 0.903 7.89785266959e-39
-0.00501348959974 -0.0869004863955 0.903 7.25500419648e-39
-0.00334232639983 -0.0869004863955 0.903 6.61215572338e-39
-0.00167116319991 -0.0869004863955 0.903 5.6938007618e-39
0.0 -0.0869004863955 0.903 5.78563625795e-39
0.00167116319991 -0.0869004863955 0.903 6.3366492349e-39
0.00334232639983 -0.0869004863955 0.903 6.42848473106e-39
0.00501348959974 -0.0869004863955 0.903 6.70399121953e-39
0.00668465279965 -0.0869004863955 0.903 7.71418167727e-39
0.00838357618561 -0.0871891923303 0.906 9.45905610427e-39
0.0100602914227 -0.0871891923303 0.906 9.91823358506e-39
0.0117370066599 -0.0871891923303 0.906 1.02855755697e-38
0.013413721897 -0.0871891923303 0.906 1.02855755697e-38
0.0150904371341 -0.0871891923303 0.906 9.45905610427e-39
0.0167671523712 -0.0871891923303 0.906 7.80601717343e-39
0.0184438676083 -0.0871891923303 0.906 1.1479438421e-38
0.0201649991431 -0.0873816629536 0.908 1.06529175543e-38
0.0218454157384 -0.0873816629536 0.908 1.01937400735e-38
0.0235776513476 -0.0875741335768 0.91 1.01937400735e-38
0.0253450498591 -0.0878628395117 0.913 1.01019045774e-38
0.0270347198498 -0.0878628395117 0.913 9.27538511196e-39
0.0287873129287 -0.0880553101349 0.915 1.09284240428e-38
0.0304806842775 -0.0880553101349 0.915 1.47955663953e-38
-0.035755119626 -0.086833861949 0.92 2.28442828576e-38
-0.0340524948819 -0.086833861949 0.92 1.24225669382e-38
-0.0321740556262 -0.0863619387862 0.915 9.56452343189e-39
-0.0304806842775 -0.0863619387862 0.915 9.82855048335e-39
-0.0287243898404 -0.0861731695211 0.913 1.00125802081e-38
-0.0270347198498 -0.0861731695211 0.913 9.36722060812e-39
-0.0253450498591 -0.0861731695211 0.913 9.36722060812e-39
-0.0235258323337 -0.0857012463583 0.908 9.36722060812e-39
-0.0218454157384 -0.0857012463583 0.908 9.27538511196e-39
-0.0201649991431 -0.0857012463583 0.908 9.64272709659e-39
-0.0184845825479 -0.0857012463583 0.908 9.91823358506e-39
-0.0168041659526 -0.0857012463583 0.908 1.03774110659e-38
-0.0150904371341 -0.0855124770932 0.906 1.07447530505e-38
-0.013413721897 -0.0855124770932 0.906 1.07447530505e-38
-0.0117370066599 -0.0855124770932 0.906 1.07447530505e-38
-0.0100602914227 -0.0855124770932 0.906 9.36722060812e-39
-0.00835581599956 -0.0852293231956 0.903 8.81620763117e-39
-0.00668465279965 -0.0852293231956 0.903 8.17335915806e-39
-0.00501348959974 -0.0852293231956 0.903 8.99987862348e-39
-0.00334232639983 -0.0852293231956 0.903 8.17335915806e-39
-0.00167116319991 -0.0852293231956 0.903 9.09243158445e-39
0.0 -0.0855124770932 0.906 8.63253663885e-39
0.00167671523712 -0.0855124770932 0.906 8.99987862348e-39
0.00335343047424 -0.0855124770932 0.906 8.26519465422e-39
0.00503014571137 -0.0855124770932 0.906 8.17335915806e-39
0.00670686094849 -0.0855124770932 0.906 8.99987862348e-39
0.00838357618561 -0.0855124770932 0.906 9.82639808891e-39
0.0100602914227 -0.0855124770932 0.906 9.91823358506e-39
0.0117370066599 -0.0855124770932 0.906 1.00100690812e-38
0.013413721897 -0.0855124770932 0.906 1.08365885466e-38
0.0150904371341 -0.0855124770932 0.906 1.02855755697e-38
0.0168041659526 -0.0857012463583 0.908 9.09171411964e-39
0.0184845825479 -0.0857012463583 0.908 1.18467790044e-38
0.0201649991431 -0.0857012463583 0.908 1.09284240428e-38
0.0218454157384 -0.0857012463583 0.908 9.55089160043e-39
0.0236553798685 -0.0861731695211 0.913 9.55089160043e-39
0.0254005702312 -0.0863619387862 0.915 1.03774110659e-38
0.02709394158 -0.0863619387862 0.915 1.03774110659e-38
0.0287873129287 -0.0863619387862 0.915 1.17549435082e-38
0.0304806842775 -0.0863619387862 0.915 1.36888867292e-38
-0.035755119626 -0.0851312372049 0.92 2.24747772681e-38
-0.0340524948819 -0.0851312372049 0.92 1.26995265732e-38
-0.0322795443332 -0.0849461692979 0.918 8.27129310514e-39
-0.0304806842775 -0.0846685674374 0.915 9.91930978228e-39
-0.0287873129287 -0.0846685674374 0.915 9.45905610427e-39
-0.0270347198498 -0.0844834995305 0.913 9.45905610427e-39
-0.0253450498591 -0.0844834995305 0.913 9.36722060812e-39
-0.0235776513476 -0.08420589767 0.91 9.36722060812e-39
-0.0218935333942 -0.08420589767 0.91 9.55089160043e-39
-0.0202094154408 -0.08420589767 0.91 9.73456259275e-39
-0.0185252974874 -0.08420589767 0.91 1.03774110659e-38
-0.0168041659526 -0.0840208297631 0.908 1.07447530505e-38
-0.0151237493574 -0.0840208297631 0.908 1.09284240428e-38
-0.0134433327621 -0.0840208297631 0.908 1.1020259539e-38
-0.0117629161668 -0.0840208297631 0.908 1.08365885466e-38
-0.0100824995716 -0.0840208297631 0.908 9.27538511196e-39
-0.00838357618561 -0.0838357618561 0.906 8.72437213501e-39
-0.00670686094849 -0.0838357618561 0.906 9.64272709659e-39
-0.00503014571137 -0.0838357618561 0.906 1.03774110659e-38
-0.00335343047424 -0.0838357618561 0.906 9.27538511196e-39
-0.00167671523712 -0.0838357618561 0.906 1.0469246562e-38
0.0 -0.0838357618561 0.906 9.91823358506e-39
0.00167671523712 -0.0838357618561 0.906 1.08365885466e-38
0.00335343047424 -0.0838357618561 0.906 1.00100690812e-38
0.00503014571137 -0.0838357618561 0.906 8.63253663885e-39
0.00670686094849 -0.0838357618561 0.906 8.99987862348e-39
0.00838357618561 -0.0838357618561 0.906 9.36722060812e-39
0.0100602914227 -0.0838357618561 0.906 8.54070114269e-39
0.0117370066599 -0.0838357618561 0.906 8.99987862348e-39
0.0134433327621 -0.0840208297631 0.908 1.01019045774e-38
0.0151237493574 -0.0840208297631 0.908 1.01019045774e-38
0.016841179534 -0.08420589767 0.91 1.05610820582e-38
0.0185252974874 -0.08420589767 0.91 1.34115781709e-38
0.0202760398873 -0.0844834995305 0.913 1.01019045774e-38
0.0219657098779 -0.0844834995305 0.913 1.07447530505e-38
0.0237071988825 -0.0846685674374 0.915 1.1020259539e-38
0.0254005702312 -0.0846685674374 0.915 1.11120950351e-38
0.0271827741753 -0.0849461692979 0.918 1.11120950351e-38
0.0288816975613 -0.0849461692979 0.918 1.12039305313e-38
0.0306472453938 -0.0851312372049 0.92 1.48888914717e-38
0.0326311733564 -0.0858715088327 0.928 1.06593747377e-38
0.0344226306959 -0.0860565767397 0.93 2.29260318074e-38
-0.0374577443701 -0.0834286124608 0.92 2.27484718777e-38
-0.035755119626 -0.0834286124608 0.92 2.30265259268e-38
-0.0340524948819 -0.0834286124608 0.92 1.17761381475e-38
-0.0323498701378 -0.0834286124608 0.92 8.82374101171e-39
-0.0304806842775 -0.0829751960887 0.915 9.37009046737e-39
-0.0287873129287 -0.0829751960887 0.915 9.55196779765e-39
-0.02709394158 -0.0829751960887 0.915 9.36722060812e-39
-0.0253450498591 -0.0827938295399 0.913 9.36722060812e-39
-0.0236553798685 -0.0827938295399 0.913 9.55089160043e-39
-0.0219657098779 -0.0827938295399 0.913 9.55089160043e-39
-0.0202760398873 -0.0827938295399 0.913 1.00100690812e-38
-0.0185252974874 -0.0825217797166 0.91 1.01019045774e-38
-0.016841179534 -0.0825217797166 0.91 1.06529175543e-38
-0.0151237493574 -0.0823404131678 0.908 1.08365885466e-38
-0.0134433327621 -0.0823404131678 0.908 1.06529175543e-38
-0.0117629161668 -0.0823404131678 0.908 1.11120950351e-38
-0.0100824995716 -0.0823404131678 0.908 8.72437213501e-39
-0.00838357618561 -0.082159046619 0.906 8.63253663885e-39
-0.00670686094849 -0.082159046619 0.906 1.05610820582e-38
-0.00503014571137 -0.082159046619 0.906 1.03774110659e-38
-0.00335343047424 -0.082159046619 0.906 1.0469246562e-38
-0.00167671523712 -0.082159046619 0.906 1.05610862621e-38
0.0 -0.082159046619 0.906 1.0469246562e-38
0.00167671523712 -0.082159046619 0.906 1.15712725159e-38
0.00335343047424 -0.082159046619 0.906 1.07447530505e-38
0.00504124978578 -0.0823404131678 0.908 9.91823358506e-39
0.00672166638105 -0.0823404131678 0.908 1.05610820582e-38
0.00840208297631 -0.0823404131678 0.908 1.09284240428e-38
0.0100824995716 -0.0823404131678 0.908 9.36722060812e-39
0.0117629161668 -0.0823404131678 0.908 9.09171411964e-39
0.0134433327621 -0.0823404131678 0.908 9.55089160043e-39
0.0151237493574 -0.0823404131678 0.908 9.82639808891e-39
0.016841179534 -0.0825217797166 0.91 1.08365885466e-38
