# .PCD v0.7 - Point Cloud Data file format
VERSION 0.7
FIELDS x y z rgb
SIZE 4 4 4 4
TYPE F F F F
COUNT 1 1 1 1
WIDTH 841
HEIGHT 1
VIEWPOINT 0 0 0 1 0 0 0
POINTS 841
DATA ascii
0.0 -0.0484692848347 0.873 1.24096539728e-38
0.00161564282782 -0.0484692848347 0.873 1.62003947305e-38
0.00323128565565 -0.0484692848347 0.873 1.49153760127e-38
0.00483582440905 -0.0483582440905 0.871 7.34719842505e-39
0.00644776587873 -0.0483582440905 0.871 1.01054989079e-38
0.00805970734842 -0.0483582440905 0.871 9.92110344432e-39
0.0096716488181 -0.0483582440905 0.871 9.82855048335e-39
0.0112835902878 -0.0483582440905 0.871 1.01054919014e-38
0.0128659208924 -0.0482472033463 0.869 9.82855048335e-39
0.0144741610039 -0.0482472033463 0.869 9.5544789245e-39
0.0161194146968 -0.0483582440905 0.871 9.92074471191e-39
0.0177313561665 -0.0483582440905 0.871 1.02866517669e-38
0.0193432976362 -0.0483582440905 0.871 1.1204290665e-38
0.0209552391059 -0.0483582440905 0.871 1.17588993738e-38
0.0225671805756 -0.0483582440905 0.871 1.20336785884e-38
0.0242346424173 -0.0484692848347 0.873 1.34105061776e-38
0.0259095069754 -0.0485803255789 0.875 1.35037864125e-38
0.0276232357939 -0.0487468866951 0.878 1.44231951505e-38
0.0292481320171 -0.0487468866951 0.878 1.46994191038e-38
0.0308730282403 -0.0487468866951 0.878 1.47905371351e-38
0.0325719516262 -0.0488579274393 0.88 1.51600315142e-38
0.0342005492075 -0.0488579274393 0.88 1.59865509796e-38
0.0358291467888 -0.0488579274393 0.88 1.64468242758e-38
0.0375428756073 -0.0489689681835 0.882 1.62613610228e-38
0.0391751745468 -0.0489689681835 0.882 1.74595314656e-38
0.0409462744165 -0.0491355292998 0.885 1.83832828276e-38
0.0425841253931 -0.0491355292998 0.885 1.72841309368e-38
0.0440720713651 -0.0489689681835 0.882 1.88660988121e-38
0.0456007322767 -0.0488579274393 0.88 1.78506226566e-38
0.047229329858 -0.0488579274393 0.88 2.34957843487e-38
-0.0266793894684 -0.0483563934114 0.901 2.19198238399e-38
-0.0248731266964 -0.0480880449463 0.896 2.08152755488e-38
-0.02321491825 -0.0480880449463 0.896 2.22007309326e-38
-0.0215085921477 -0.0479807055603 0.894 7.99795022149e-39
-0.0198540850594 -0.0479807055603 0.894 1.2411429418e-38
-0.0181385055618 -0.0478196964812 0.891 1.18532726215e-38
-0.0164895505108 -0.0478196964812 0.891 1.16663604258e-38
-0.0148072832364 -0.0477123570952 0.889 1.10217000738e-38
-0.0131324186784 -0.0476050177091 0.887 1.1023499341e-38
-0.0114649568366 -0.0474976783231 0.885 1.1025644729e-38
-0.0097937936367 -0.047336669244 0.882 1.00154500673e-38
-0.00814298790655 -0.047229329858 0.88 9.46264342834e-39
-0.00651439032524 -0.047229329858 0.88 8.90983678936e-39
-0.00487468866951 -0.047121990472 0.878 9.27789623881e-39
-0.00324979244634 -0.047121990472 0.878 9.55268526247e-39
-0.00162489622317 -0.047121990472 0.878 1.00143850805e-38
0.0 -0.0469609813929 0.875 1.12157967267e-38
0.00161564282782 -0.0468536420069 0.873 1.22388735251e-38
0.00323128565565 -0.0468536420069 0.873 1.43579142602e-38
0.00484692848347 -0.0468536420069 0.873 6.70793727601e-39
0.00646257131129 -0.0468536420069 0.873 9.55413280378e-39
0.00807821413911 -0.0468536420069 0.873 9.55376145969e-39
0.0096716488181 -0.0467463026208 0.871 8.91019552177e-39
0.0112835902878 -0.0467463026208 0.871 9.18677820746e-39
0.0128955317575 -0.0467463026208 0.871 9.73924713351e-39
0.0145074732272 -0.0467463026208 0.871 9.8314203426e-39
0.0161194146968 -0.0467463026208 0.871 1.02906034286e-38
0.0177313561665 -0.0467463026208 0.871 1.02881007095e-38
0.0193432976362 -0.0467463026208 0.871 1.1389753918e-38
0.0210033567617 -0.0468536420069 0.873 1.19425619583e-38
0.0226708186035 -0.0469609813929 0.875 1.26761795394e-38
0.0242901627894 -0.0469609813929 0.875 1.26754508642e-38
0.0259983395707 -0.047121990472 0.878 1.4236316586e-38
0.0276232357939 -0.047121990472 0.878 1.40547769686e-38
0.0292481320171 -0.047121990472 0.878 1.43295659923e-38
0.0309433540449 -0.047229329858 0.88 1.46047137484e-38
0.0325719516262 -0.047229329858 0.88 1.56184929315e-38
0.0342782777284 -0.047336669244 0.882 1.56199264598e-38
0.0359105766679 -0.047336669244 0.882 1.6079115151e-38
0.0375428756073 -0.047336669244 0.882 1.70911244941e-38
0.0393084234398 -0.0474976783231 0.885 1.72740682125e-38
0.04103880837 -0.0476050177091 0.887 1.83818661148e-38
0.0425841253931 -0.0474976783231 0.885 2.15308906485e-38
0.0440720713651 -0.047336669244 0.882 1.53638013304e-38
0.0456007322767 -0.047229329858 0.88 1.9319271729e-38
0.047229329858 -0.047229329858 0.88 2.34965144252e-38
-0.0266793894684 -0.0466889315697 0.901 2.09067481086e-38
-0.0249286470685 -0.0465334745278 0.898 2.00787825032e-38
-0.02321491825 -0.0464298364999 0.896 2.20159865457e-38
-0.0215567098035 -0.0464298364999 0.896 9.56491019027e-39
-0.0198985013571 -0.0464298364999 0.896 1.07508515014e-38
-0.0181995779711 -0.046326198472 0.894 1.13930175422e-38
-0.0164895505108 -0.0461707414302 0.891 1.19450828943e-38
-0.0148072832364 -0.0460671034023 0.889 1.22159216575e-38
-0.0131324186784 -0.0459634653743 0.887 1.18467790044e-38
-0.0114649568366 -0.0458598273464 0.885 1.17549463108e-38
-0.00982710585995 -0.0458598273464 0.885 1.12039305313e-38
-0.00816149469725 -0.0457043703046 0.882 1.16649016741e-38
-0.00651439032524 -0.0456007322767 0.88 1.16670540685e-38
-0.00488579274393 -0.0456007322767 0.88 1.04724751537e-38
-0.00324979244634 -0.0454970942488 0.878 9.92182090913e-39
-0.00162489622317 -0.0454970942488 0.878 1.06593761389e-38
0.0 -0.0454970942488 0.878 1.09381210282e-38
0.00161934418596 -0.0453416372069 0.875 8.0815236619e-39
0.00323868837192 -0.0453416372069 0.875 1.2692351925e-38
0.00484692848347 -0.045237999179 0.873 1.10360437649e-38
0.00646257131129 -0.045237999179 0.873 8.72437493761e-39
0.00807821413911 -0.045237999179 0.873 9.09386651408e-39
0.0096716488181 -0.0451343611511 0.871 8.35846508e-39
0.0112835902878 -0.0451343611511 0.871 8.82051242005e-39
0.0128955317575 -0.0451343611511 0.871 9.55376145969e-39
0.0145074732272 -0.0451343611511 0.871 1.00143738701e-38
0.0161194146968 -0.0451343611511 0.871 1.02862930345e-38
0.0177313561665 -0.0451343611511 0.871 1.08383850113e-38
0.0193877139339 -0.045237999179 0.873 1.11149648944e-38
0.0210033567617 -0.045237999179 0.873 1.18507250609e-38
0.0226708186035 -0.0453416372069 0.875 1.23116962037e-38
0.0242901627894 -0.0453416372069 0.875 1.35051989213e-38
0.0259983395707 -0.0454970942488 0.878 1.37771180857e-38
0.0276232357939 -0.0454970942488 0.878 1.4606148678e-38
0.0293147564636 -0.0456007322767 0.88 1.47880260083e-38
0.0309433540449 -0.0456007322767 0.88 1.51553679929e-38
0.032645978789 -0.0457043703046 0.882 1.56149042061e-38
0.0342782777284 -0.0457043703046 0.882 1.62602652074e-38
0.0360327214865 -0.0458598273464 0.885 1.66294022553e-38
0.0376705724632 -0.0458598273464 0.885 1.80108933659e-38
0.0393972560352 -0.0459634653743 0.887 1.72754779188e-38
0.04103880837 -0.0459634653743 0.887 1.95786044306e-38
0.0426803607048 -0.0459634653743 0.887 2.07929542655e-38
0.0440720713651 -0.0457043703046 0.882 1.68317763783e-38
0.0457043703046 -0.0457043703046 0.882 1.97787953305e-38
0.0480880449463 -0.0464298364999 0.896 2.34957871513e-38
-0.0266793894684 -0.0450214697279 0.901 2.00773629878e-38
-0.0249286470685 -0.0448715647232 0.898 2.03553763993e-38
-0.0232667372639 -0.0448715647232 0.898 2.08185125482e-38
-0.0216048274593 -0.0448715647232 0.898 1.03039171653e-38
-0.0198985013571 -0.0447716280535 0.896 1.13076041969e-38
-0.0181995779711 -0.0446716913837 0.894 9.92435445676e-39
-0.0165450708829 -0.0446716913837 0.894 1.23149360057e-38
-0.0148405954597 -0.0445217863791 0.891 1.40580055603e-38
-0.0131620295435 -0.0444218497093 0.889 1.3594186979e-38
-0.0114908663436 -0.0443219130396 0.887 1.32243114468e-38
-0.00984931400879 -0.0443219130396 0.887 1.34130046928e-38
-0.00818925488329 -0.0442219763698 0.885 1.34108522983e-38
-0.0065291957578 -0.0440720713651 0.882 1.29509573527e-38
-0.00489689681835 -0.0440720713651 0.882 1.08373060115e-38
-0.00325719516262 -0.0439721346954 0.88 1.1116761359e-38
-0.00162859758131 -0.0439721346954 0.88 1.11167641616e-38
0.0 -0.0439721346954 0.88 1.08469917864e-38
0.00162489622317 -0.0438721980256 0.878 8.91521777546e-39
0.00324979244634 -0.0438721980256 0.878 8.4524529706e-39
0.00485803255789 -0.043722293021 0.875 1.20487551585e-38
0.00647737674385 -0.043722293021 0.875 8.63684142773e-39
0.00809672092981 -0.043722293021 0.875 9.18821453839e-39
0.00969385696694 -0.0436223563512 0.873 8.63612396292e-39
0.0113094997948 -0.0436223563512 0.873 9.09601890852e-39
0.0128955317575 -0.0435224196815 0.871 9.55376145969e-39
0.0145074732272 -0.0435224196815 0.871 9.82890921575e-39
0.0161564282782 -0.0436223563512 0.873 1.10216972712e-38
0.0177720711061 -0.0436223563512 0.873 1.09305834437e-38
0.0194321302315 -0.043722293021 0.875 1.15723501144e-38
0.0210514744175 -0.043722293021 0.875 1.1020259539e-38
0.0227485471244 -0.0438721980256 0.878 1.36867203218e-38
0.0243734433476 -0.0438721980256 0.878 1.37756831561e-38
0.026057561301 -0.0439721346954 0.88 1.43281310627e-38
0.0276861588823 -0.0439721346954 0.88 1.55262973016e-38
0.0293147564636 -0.0439721346954 0.88 1.46940381177e-38
0.0309433540449 -0.0439721346954 0.88 1.62609924813e-38
0.032645978789 -0.0440720713651 0.882 1.60751578841e-38
0.0343948705098 -0.0442219763698 0.885 1.69974771191e-38
0.0360327214865 -0.0442219763698 0.885 1.69971141828e-38
0.0376705724632 -0.0442219763698 0.885 1.75466852236e-38
0.0393972560352 -0.0443219130396 0.887 1.81005848754e-38
0.0413626772071 -0.0446716913837 0.894 1.81027554867e-38
0.0431134196071 -0.0447716280535 0.896 1.82918130703e-38
0.0447716280535 -0.0447716280535 0.896 1.94010473035e-38
0.0464298364999 -0.0447716280535 0.896 2.01472499461e-38
0.0480880449463 -0.0447716280535 0.896 2.34918452987e-38
-0.0266793894684 -0.0433540078861 0.901 1.86047440369e-38
-0.0250119276266 -0.0433540078861 0.901 1.94344962978e-38
-0.0232667372639 -0.0432096549187 0.898 2.01727774003e-38
-0.0216048274593 -0.0432096549187 0.898 1.2241450513e-38
-0.0198985013571 -0.0431134196071 0.896 1.14916339216e-38
-0.0182402929107 -0.0431134196071 0.896 9.00312683332e-39
-0.0165450708829 -0.0430171842954 0.894 1.22198901348e-38
-0.0148405954597 -0.042872831328 0.891 1.32293337004e-38
-0.0131620295435 -0.0427765960164 0.889 1.43306421895e-38
-0.0114908663436 -0.0426803607048 0.887 1.43292072599e-38
-0.00984931400879 -0.0426803607048 0.887 1.46039962836e-38
-0.00818925488329 -0.0425841253931 0.885 1.46947583851e-38
-0.00655140390664 -0.0425841253931 0.885 1.3958995416e-38
-0.00489689681835 -0.0424397724257 0.882 1.25814657762e-38
-0.00325719516262 -0.0423435371141 0.88 1.22155559186e-38
-0.00162859758131 -0.0423435371141 0.88 1.25864866286e-38
0.0 -0.0423435371141 0.88 1.10288719193e-38
0.00162859758131 -0.0423435371141 0.88 9.37583018588e-39
0.00324979244634 -0.0422473018025 0.878 9.19216199616e-39
0.00487468866951 -0.0422473018025 0.878 8.45532282986e-39
0.00649958489268 -0.0422473018025 0.878 9.65493520881e-39
0.00809672092981 -0.042102948835 0.875 9.46623075241e-39
0.00971606511577 -0.042102948835 0.875 9.18677820746e-39
0.0113354093017 -0.042102948835 0.875 9.36973173496e-39
0.0129547534877 -0.042102948835 0.875 1.12990044282e-38
0.0145740976737 -0.042102948835 0.875 1.20329611235e-38
0.0162489622317 -0.0422473018025 0.878 1.18492915325e-38
0.0178738584549 -0.0422473018025 0.878 1.2032606595e-38
0.0194987546781 -0.0422473018025 0.878 1.20308101304e-38
0.0211236509012 -0.0422473018025 0.878 1.38718332502e-38
0.0227485471244 -0.0422473018025 0.878 1.48841662933e-38
0.0243734433476 -0.0422473018025 0.878 1.45103671254e-38
0.026057561301 -0.0423435371141 0.88 1.60744488271e-38
0.0276861588823 -0.0423435371141 0.88 1.56163391357e-38
0.0293147564636 -0.0423435371141 0.88 1.6256676482e-38
0.0310136798495 -0.0424397724257 0.882 1.65321871744e-38
0.032645978789 -0.0424397724257 0.882 1.772928142e-38
0.0343948705098 -0.0425841253931 0.885 1.72711745312e-38
0.0361141513656 -0.0426803607048 0.887 1.6996382705e-38
0.0377557037004 -0.0426803607048 0.887 1.78236448586e-38
0.0397970027142 -0.0431134196071 0.896 1.78279482462e-38
0.0414552111606 -0.0431134196071 0.896 1.88417694682e-38
0.0431134196071 -0.0431134196071 0.896 1.80159450468e-38
0.0447716280535 -0.0431134196071 0.896 1.88510628796e-38
0.0464298364999 -0.0431134196071 0.896 2.14379859616e-38
-0.0266793894684 -0.0416865460443 0.901 1.89735307602e-38
-0.0249286470685 -0.0415477451141 0.898 1.85121952798e-38
-0.0232667372639 -0.0415477451141 0.898 1.97118146652e-38
-0.0216048274593 -0.0415477451141 0.898 1.1965937018e-38
-0.0199429176548 -0.0415477451141 0.898 1.01072855635e-38
-0.0182402929107 -0.0414552111606 0.896 1.05697238658e-38
-0.0165820844643 -0.0414552111606 0.896 9.8314203426e-39
-0.0148905637946 -0.0413626772071 0.894 1.19429192894e-38
-0.0131916404086 -0.0412238762769 0.891 1.45146859272e-38
-0.0115167758506 -0.0411313423234 0.889 1.36852825896e-38
-0.00984931400879 -0.04103880837 0.887 1.42362955665e-38
-0.00820776167399 -0.04103880837 0.887 1.52457685594e-38
-0.00656620933919 -0.04103880837 0.887 1.46036375512e-38
-0.00489689681835 -0.0408074734862 0.882 1.35916548327e-38
-0.0032645978789 -0.0408074734862 0.882 1.31324759506e-38
-0.00163229893945 -0.0408074734862 0.882 1.35955994879e-38
0.0 -0.0408074734862 0.882 1.14866200757e-38
0.00162859758131 -0.0407149395328 0.88 1.03881996627e-38
0.00325719516262 -0.0407149395328 0.88 9.65313454028e-39
0.00488579274393 -0.0407149395328 0.88 8.73118805074e-39
0.00649958489268 -0.0406224055793 0.878 8.54536466398e-39
0.00812448111586 -0.0406224055793 0.878 1.23235918263e-38
0.00974937733903 -0.0406224055793 0.878 1.01987623272e-38
0.0113742735622 -0.0406224055793 0.878 1.17574546351e-38
0.0129991697854 -0.0406224055793 0.878 1.29516748175e-38
0.0146240660085 -0.0406224055793 0.878 1.29488049583e-38
0.0162859758131 -0.0407149395328 0.88 1.38693165182e-38
0.0179145733944 -0.0407149395328 0.88 1.25814629736e-38
0.0195431709757 -0.0407149395328 0.88 1.51589567183e-38
0.021171768557 -0.0407149395328 0.88 1.57070984347e-38
0.0228003661383 -0.0407149395328 0.88 1.68084069238e-38
0.0244289637197 -0.0407149395328 0.88 1.69009598847e-38
0.026057561301 -0.0407149395328 0.88 1.75405797662e-38
0.0276861588823 -0.0407149395328 0.88 1.80994848561e-38
0.0293813809101 -0.0408074734862 0.882 1.79136614693e-38
0.0310136798495 -0.0408074734862 0.882 1.72665082073e-38
0.0327570195332 -0.0409462744165 0.885 1.92897743963e-38
0.0344725990308 -0.04103880837 0.887 1.65350528297e-38
0.0361141513656 -0.04103880837 0.887 1.72711717286e-38
0.0377557037004 -0.04103880837 0.887 1.66287016061e-38
0.0397970027142 -0.0414552111606 0.896 1.83789948543e-38
0.0415477451141 -0.0415477451141 0.898 1.88449896521e-38
0.0432096549187 -0.0415477451141 0.898 1.8202141179e-38
0.0448715647232 -0.0415477451141 0.898 1.82057537264e-38
-0.0249286470685 -0.0398858353096 0.898 1.823668739e-38
-0.0232667372639 -0.0398858353096 0.898 1.91593639561e-38
-0.0216770039431 -0.0400190842026 0.901 1.30740824423e-38
-0.0199429176548 -0.0398858353096 0.898 9.83249653982e-39
-0.0182810078502 -0.0398858353096 0.898 9.92507332287e-39
-0.0166190980456 -0.0398858353096 0.898 9.18785440468e-39
-0.0149238760178 -0.0397970027142 0.896 1.08412534692e-38
-0.0132360567063 -0.0397081701189 0.894 1.25832622409e-38
-0.0115426853575 -0.0395749212258 0.891 1.30417474802e-38
-0.00987152215763 -0.0394860886305 0.889 1.38700297791e-38
-0.00822626846469 -0.0394860886305 0.889 1.51546505281e-38
-0.00656620933919 -0.0393972560352 0.887 1.52450510946e-38
-0.00491355292998 -0.0393084234398 0.885 1.38671599199e-38
-0.00327570195332 -0.0393084234398 0.885 1.34079824391e-38
-0.00163785097666 -0.0393084234398 0.885 1.37764006209e-38
0.0 -0.0393084234398 0.885 1.28670391929e-38
0.00163229893945 -0.0391751745468 0.882 1.22259633623e-38
0.0032645978789 -0.0391751745468 0.882 1.02016321865e-38
0.00488579274393 -0.0390863419515 0.88 1.08451981244e-38
0.00651439032524 -0.0390863419515 0.88 9.4655132876e-39
0.00814298790655 -0.0390863419515 0.88 1.07472641773e-38
0.00977158548786 -0.0390863419515 0.88 1.20376288487e-38
0.0114001830692 -0.0390863419515 0.88 1.17553022406e-38
0.0130287806505 -0.0390863419515 0.88 1.32243212558e-38
0.0146573782318 -0.0390863419515 0.88 1.34108522983e-38
0.0162859758131 -0.0390863419515 0.88 1.37756831561e-38
0.0179145733944 -0.0390863419515 0.88 1.46936793853e-38
0.0195431709757 -0.0390863419515 0.88 1.69906443877e-38
0.021171768557 -0.0390863419515 0.88 1.7541297231e-38
0.0228003661383 -0.0390863419515 0.88 1.8458940333e-38
0.0244289637197 -0.0390863419515 0.88 1.71732377815e-38
0.0261167830312 -0.0391751745468 0.882 1.82752637354e-38
0.0277490819706 -0.0391751745468 0.882 1.91057292573e-38
0.0294813175799 -0.0393084234398 0.885 1.90142524936e-38
0.0311191685565 -0.0393084234398 0.885 1.89249281243e-38
0.032831046696 -0.0393972560352 0.887 1.92011520776e-38
0.0345503275517 -0.0394860886305 0.889 1.61669933803e-38
0.0361955812446 -0.0394860886305 0.889 1.67191119817e-38
0.0381387942678 -0.0397970027142 0.896 1.57107053769e-38
0.0398858353096 -0.0398858353096 0.898 1.94871388773e-38
0.0415477451141 -0.0398858353096 0.898 1.78315215572e-38
0.0433540078861 -0.0400190842026 0.901 1.91226681532e-38
0.0450214697279 -0.0400190842026 0.901 1.89407754086e-38
-0.0216770039431 -0.0383516223608 0.901 1.29815336852e-38
-0.0200095421013 -0.0383516223608 0.901 1.04814434638e-38
-0.0183420802595 -0.0383516223608 0.901 1.05715385473e-38
-0.0166190980456 -0.038223925505 0.898 9.46516856817e-39
-0.0149238760178 -0.0381387942678 0.896 9.00274848274e-39
-0.0132656675714 -0.0381387942678 0.896 1.06550699488e-38
-0.011581549618 -0.0380536630306 0.894 1.21258728169e-38
-0.00989373030646 -0.0379259661748 0.891 1.3134628345e-38
-0.00822626846469 -0.0378408349376 0.889 1.54359135507e-38
-0.00658101477175 -0.0378408349376 0.889 1.46936793853e-38
-0.00492465700439 -0.0377557037004 0.887 1.46936793853e-38
-0.0032831046696 -0.0377557037004 0.887 1.44181728968e-38
-0.0016415523348 -0.0377557037004 0.887 1.5247231515e-38
0.0 -0.0376705724632 0.885 1.35981946926e-38
0.00163785097666 -0.0376705724632 0.885 1.46140702182e-38
0.0032645978789 -0.0375428756073 0.882 1.14898458647e-38
0.00489689681835 -0.0375428756073 0.882 1.08419723353e-38
0.0065291957578 -0.0375428756073 0.882 1.14887710688e-38
0.00816149469725 -0.0375428756073 0.882 8.63253663885e-39
0.0097937936367 -0.0375428756073 0.882 1.30604099732e-38
0.0114260925761 -0.0375428756073 0.882 1.01987623272e-38
0.0130583915156 -0.0375428756073 0.882 1.30456697146e-38
0.014690690455 -0.0375428756073 0.882 1.30406502635e-38
0.0162859758131 -0.0374577443701 0.88 1.34079824391e-38
0.0179145733944 -0.0374577443701 0.88 1.58900533635e-38
0.0195875872734 -0.0375428756073 0.882 1.68977312931e-38
0.0212198862128 -0.0375428756073 0.882 1.90124672393e-38
0.0228003661383 -0.0374577443701 0.88 1.78160862547e-38
0.0244289637197 -0.0374577443701 0.88 1.80916123613e-38
0.0262056156265 -0.0376705724632 0.885 1.85532813508e-38
0.0278434666032 -0.0376705724632 0.885 1.85514876887e-38
0.0295479420264 -0.0377557037004 0.887 1.86433231849e-38
0.0311894943612 -0.0377557037004 0.887 1.94748691079e-38
0.0329050738588 -0.0378408349376 0.889 2.01242252111e-38
0.0345503275517 -0.0378408349376 0.889 1.44181728968e-38
0.0362770111237 -0.0379259661748 0.891 1.57110613067e-38
0.0381387942678 -0.0381387942678 0.896 1.63532035254e-38
0.0398858353096 -0.038223925505 0.898 1.93034650823e-38
0.0416865460443 -0.0383516223608 0.901 1.76464464639e-38
-0.0166190980456 -0.0365620157004 0.898 9.4658748226e-39
-0.0149571882411 -0.0365620157004 0.898 9.28076609806e-39
-0.0132656675714 -0.0364805858214 0.896 8.36061747445e-39
-0.011581549618 -0.0363991559423 0.894 9.92146217672e-39
-0.00992704252972 -0.0363991559423 0.894 1.24903477449e-38
-0.00824477525538 -0.0362770111237 0.891 1.38671599199e-38
-0.00658101477175 -0.0361955812446 0.889 1.48773503776e-38
-0.00493576107881 -0.0361955812446 0.889 1.53386802528e-38
-0.00329050738588 -0.0361955812446 0.889 1.52461272919e-38
-0.0016415523348 -0.0361141513656 0.887 1.46018438891e-38
0.0 -0.0361141513656 0.887 1.41426818226e-38
0.00163785097666 -0.0360327214865 0.885 1.35945246919e-38
0.00327570195332 -0.0360327214865 0.885 1.24982370553e-38
0.00491355292998 -0.0360327214865 0.885 1.1582761762e-38
0.0065291957578 -0.0359105766679 0.882 1.011018485e-38
0.00816149469725 -0.0359105766679 0.882 8.81979495524e-39
0.0097937936367 -0.0359105766679 0.882 1.14012445654e-38
0.0114260925761 -0.0359105766679 0.882 1.1118193486e-38
0.0130583915156 -0.0359105766679 0.882 1.27665688956e-38
0.0147406587899 -0.0360327214865 0.885 1.29488049583e-38
0.0163785097666 -0.0360327214865 0.885 1.40508309122e-38
0.0180163607432 -0.0360327214865 0.885 1.47855148814e-38
0.0196542117199 -0.0360327214865 0.885 1.67140603008e-38
0.0212920626966 -0.0360327214865 0.885 1.76324152623e-38
0.0229299136732 -0.0360327214865 0.885 1.83681754288e-38
0.0245677646499 -0.0360327214865 0.885 1.81834282393e-38
0.0262056156265 -0.0360327214865 0.885 1.78168037195e-38
0.0279063896916 -0.0361141513656 0.887 1.90142524936e-38
0.0295479420264 -0.0361141513656 0.887 1.94762998336e-38
0.0311894943612 -0.0361141513656 0.887 1.97539587165e-38
0.0329050738588 -0.0361955812446 0.889 1.68069719941e-38
0.0346280560726 -0.0362770111237 0.891 1.41451775352e-38
0.0362770111237 -0.0362770111237 0.891 1.39643820073e-38
0.0381387942678 -0.0364805858214 0.896 1.89332350216e-38
0.0398858353096 -0.0365620157004 0.898 1.76457023744e-38
0.0416865460443 -0.036684160519 0.901 1.86602452651e-38
-0.0166746184177 -0.0350166986772 0.901 9.65026608233e-39
-0.015007156576 -0.0350166986772 0.901 9.28220102769e-39
-0.0132952784365 -0.0349001058959 0.898 8.45281170301e-39
-0.011607459125 -0.0348223773749 0.896 8.4524529706e-39
-0.00992704252972 -0.034744648854 0.894 1.05639519174e-38
-0.00824477525538 -0.0346280560726 0.891 1.20329611235e-38
-0.00659582020431 -0.0346280560726 0.891 1.35927296286e-38
-0.00493576107881 -0.0345503275517 0.889 1.47855148814e-38
-0.00329050738588 -0.0345503275517 0.889 1.50610213699e-38
-0.00164525369294 -0.0345503275517 0.889 1.47862323463e-38
0.0 -0.0344725990308 0.887 1.35005354e-38
0.0016415523348 -0.0344725990308 0.887 1.31324759506e-38
0.0032831046696 -0.0344725990308 0.887 1.27751784734e-38
0.00492465700439 -0.0344725990308 0.887 1.09381098178e-38
0.00655140390664 -0.0343948705098 0.885 1.01097966903e-38
0.00818925488329 -0.0343948705098 0.885 9.55878371338e-39
0.00982710585995 -0.0343948705098 0.885 9.92289710635e-39
0.0114649568366 -0.0343948705098 0.885 1.1022053201e-38
0.0131028078133 -0.0343948705098 0.885 1.17549449095e-38
0.0147406587899 -0.0343948705098 0.885 1.31324759506e-38
0.0163785097666 -0.0343948705098 0.885 1.42345019045e-38
0.0180570756828 -0.0344725990308 0.887 1.63495937806e-38
0.0196986280176 -0.0344725990308 0.887 1.625488282e-38
0.0213401803524 -0.0344725990308 0.887 1.79997656548e-38
0.0229817326872 -0.0344725990308 0.887 1.7082489693e-38
0.024623285022 -0.0344725990308 0.887 1.75405797662e-38
0.0262648373568 -0.0344725990308 0.887 1.78193148463e-38
0.0279063896916 -0.0344725990308 0.887 1.82774161299e-38
0.0296145664729 -0.0345503275517 0.889 1.92912345493e-38
0.0312598201658 -0.0345503275517 0.889 1.7267943137e-38
0.0329791010215 -0.0346280560726 0.891 1.41426664083e-38
0.0346280560726 -0.0346280560726 0.891 1.39636757529e-38
0.0363991559423 -0.034744648854 0.894 1.58954553691e-38
0.038223925505 -0.0349001058959 0.898 1.93927754387e-38
0.0400190842026 -0.0350166986772 0.901 1.77364658772e-38
0.0416865460443 -0.0350166986772 0.901 1.77379162211e-38
0.0434502431977 -0.0350944271982 0.903 1.72812610776e-38
0.0452713114023 -0.0352110199796 0.906 1.94010290866e-38
-0.016841179534 -0.033682359068 0.91 9.37153380479e-39
-0.015007156576 -0.0333492368355 0.901 9.1885718695e-39
-0.0133396947342 -0.0333492368355 0.901 8.91091298658e-39
-0.011633368632 -0.0332381960913 0.898 9.0005960883e-39
-0.00994925067855 -0.0331641689285 0.896 9.82819315224e-39
-0.00827253544143 -0.0330901417657 0.894 8.99987862348e-39
-0.00661802835314 -0.0330901417657 0.894 1.09284324506e-38
-0.00494686515323 -0.0329791010215 0.891 1.40540637077e-38
-0.00329791010215 -0.0329791010215 0.891 1.36838476599e-38
-0.00164895505108 -0.0329791010215 0.891 1.39597128808e-38
0.0 -0.0329050738588 0.889 1.33161469429e-38
0.00164525369294 -0.0329050738588 0.889 1.15712725159e-38
0.0032831046696 -0.032831046696 0.887 1.15730661779e-38
0.00492465700439 -0.032831046696 0.887 9.91823358506e-39
0.00656620933919 -0.032831046696 0.887 9.36901427015e-39
0.00818925488329 -0.0327570195332 0.885 8.72473226871e-39
0.00982710585995 -0.0327570195332 0.885 9.64524943382e-39
0.0114649568366 -0.0327570195332 0.885 1.01058520352e-38
0.0131028078133 -0.0327570195332 0.885 1.10227706658e-38
0.0147406587899 -0.0327570195332 0.885 1.3595243558e-38
0.0163785097666 -0.0327570195332 0.885 1.44185316292e-38
0.0180570756828 -0.032831046696 0.887 1.52446923622e-38
0.0196986280176 -0.032831046696 0.887 1.58875408353e-38
0.0213401803524 -0.032831046696 0.887 1.64385538123e-38
0.0229817326872 -0.032831046696 0.887 1.74516141293e-38
0.024623285022 -0.032831046696 0.887 1.68984487579e-38
0.026324059087 -0.0329050738588 0.889 1.73587024359e-38
0.0279693127799 -0.0329050738588 0.889 1.80994848561e-38
0.0296145664729 -0.0329050738588 0.889 1.60712118276e-38
0.0312598201658 -0.0329050738588 0.889 1.3958995416e-38
0.0329791010215 -0.0329791010215 0.891 1.34115697631e-38
0.0346280560726 -0.0329791010215 0.891 1.58047184909e-38
0.0363991559423 -0.0330901417657 0.894 1.72805155868e-38
0.038223925505 -0.0332381960913 0.898 1.69996295135e-38
0.0400190842026 -0.0333492368355 0.901 1.76457177887e-38
0.0417790799978 -0.0334232639983 0.903 1.78304817938e-38
0.0434502431977 -0.0334232639983 0.903 1.83004436675e-38
0.0452713114023 -0.0335343047424 0.906 1.90376569805e-38
-0.0185863698967 -0.0321037298216 0.913 1.06691123607e-38
-0.016841179534 -0.0319982411146 0.91 9.09674478113e-39
-0.0150904371341 -0.0318575895053 0.906 9.37045200237e-39
-0.013413721897 -0.0318575895053 0.906 9.00525960959e-39
-0.0116722328924 -0.0316817749937 0.901 9.46300636464e-39
-0.00997145882739 -0.0315762862867 0.898 9.36973173496e-39
-0.00829104223213 -0.0315059604821 0.896 9.18642087635e-39
-0.0066328337857 -0.0315059604821 0.896 9.46264342834e-39
-0.00497462533928 -0.0315059604821 0.896 1.10216944686e-38
-0.00331641689285 -0.0315059604821 0.896 1.1020259539e-38
-0.00165450708829 -0.0314356346774 0.894 1.1389753918e-38
0.0 -0.0313301459705 0.891 1.15727074455e-38
0.00164525369294 -0.0312598201658 0.889 1.14808719494e-38
0.00329050738588 -0.0312598201658 0.889 1.10224119334e-38
0.00493576107881 -0.0312598201658 0.889 1.09309351696e-38
0.00656620933919 -0.0311894943612 0.887 8.99987862348e-39
0.00820776167399 -0.0311894943612 0.887 8.91019552177e-39
0.00984931400879 -0.0311894943612 0.887 8.35703015038e-39
0.0114908663436 -0.0311894943612 0.887 9.64559975844e-39
0.0131324186784 -0.0311894943612 0.887 1.02884454289e-38
0.0147406587899 -0.0311191685565 0.885 1.23102612741e-38
0.0163785097666 -0.0311191685565 0.885 1.3593088361e-38
0.0180570756828 -0.0311894943612 0.887 1.39604303456e-38
0.0196986280176 -0.0311894943612 0.887 1.52446923622e-38
0.0213401803524 -0.0311894943612 0.887 1.5703869843e-38
0.0229817326872 -0.0311894943612 0.887 1.59793763315e-38
0.024623285022 -0.0311894943612 0.887 1.68980900255e-38
0.026324059087 -0.0312598201658 0.889 1.58900519622e-38
0.0279693127799 -0.0312598201658 0.889 1.42345019045e-38
0.0296145664729 -0.0312598201658 0.889 1.32243114468e-38
0.0313301459705 -0.0313301459705 0.891 1.34079908469e-38
0.0330901417657 -0.0314356346774 0.894 1.43299247247e-38
0.034744648854 -0.0314356346774 0.894 1.71822383216e-38
0.0364805858214 -0.0315059604821 0.896 1.64496773195e-38
0.0383516223608 -0.0316817749937 0.901 1.68174018586e-38
0.0400190842026 -0.0316817749937 0.901 1.70017973222e-38
0.0417790799978 -0.0317521007983 0.903 1.77397337052e-38
0.0434502431977 -0.0317521007983 0.903 1.82968675539e-38
0.0452713114023 -0.0318575895053 0.906 1.79320184792e-38
-0.0185863698967 -0.030414059831 0.913 1.02063069182e-38
-0.016841179534 -0.0303141231612 0.91 9.83323082022e-39
-0.0151237493574 -0.0302474987147 0.908 9.46443709038e-39
-0.013413721897 -0.0301808742682 0.906 9.00454214477e-39
-0.0117370066599 -0.0301808742682 0.906 9.46336089316e-39
-0.0100047710506 -0.0300143131519 0.901 9.737432452e-39
-0.00830954902282 -0.0299143764822 0.898 9.36973173496e-39
-0.00664763921826 -0.0299143764822 0.898 1.0198047665e-38
-0.00497462533928 -0.0298477520357 0.896 1.06550699488e-38
-0.00331641689285 -0.0298477520357 0.896 9.64595568825e-39
-0.00165820844643 -0.0298477520357 0.896 9.00382467996e-39
0.0 -0.0297811275891 0.894 9.18749567227e-39
0.00164895505108 -0.0296811909194 0.891 9.18534327783e-39
0.00329050738588 -0.0296145664729 0.889 9.55376145969e-39
0.00493576107881 -0.0296145664729 0.889 1.11149648944e-38
0.00658101477175 -0.0296145664729 0.889 1.10216944686e-38
0.00820776167399 -0.0295479420264 0.887 1.04721164213e-38
0.00984931400879 -0.0295479420264 0.887 9.55412019209e-39
0.0114908663436 -0.0295479420264 0.887 9.73959325423e-39
0.0131324186784 -0.0295479420264 0.887 9.83214341261e-39
0.0147739710132 -0.0295479420264 0.887 1.05646693822e-38
0.016415523348 -0.0295479420264 0.887 1.12039375378e-38
0.0180570756828 -0.0295479420264 0.887 1.28605567862e-38
0.0196986280176 -0.0295479420264 0.887 1.3685641322e-38
0.0213401803524 -0.0295479420264 0.887 1.41451775352e-38
0.0229817326872 -0.0295479420264 0.887 1.40537007714e-38
0.0246788053941 -0.0296145664729 0.889 1.39597128808e-38
0.026324059087 -0.0296145664729 0.889 1.27654926984e-38
0.0280322358683 -0.0296811909194 0.891 1.20336785884e-38
0.0296811909194 -0.0296811909194 0.891 1.32286288473e-38
0.0314356346774 -0.0297811275891 0.894 1.38736171032e-38
0.0330901417657 -0.0297811275891 0.894 1.5617415333e-38
0.0348223773749 -0.0298477520357 0.896 1.54366141999e-38
0.0365620157004 -0.0299143764822 0.898 1.53451374361e-38
0.0383516223608 -0.0300143131519 0.901 1.64518437269e-38
0.0401079167979 -0.0300809375984 0.903 1.6542960357e-38
0.0417790799978 -0.0300809375984 0.903 1.67284502347e-38
0.0435945961652 -0.0301808742682 0.906 1.92180881708e-38
0.0452713114023 -0.0301808742682 0.906 1.80253225361e-38
-0.0185863698967 -0.0287243898404 0.913 9.83827969858e-39
-0.016841179534 -0.0286300052078 0.91 1.00179724046e-38
-0.0151570615806 -0.0286300052078 0.91 9.73814991682e-39
-0.0134433327621 -0.0285670821194 0.908 8.91019552177e-39
-0.0117370066599 -0.0285041590311 0.906 9.37116666459e-39
-0.0100602914227 -0.0285041590311 0.906 9.64380329381e-39
-0.00835581599956 -0.0284097743985 0.903 1.04706814916e-38
-0.00668465279965 -0.0284097743985 0.903 1.13901126504e-38
-0.00500238552532 -0.0283468513102 0.901 1.11153236268e-38
-0.00333492368355 -0.0283468513102 0.901 1.0469246562e-38
-0.00166190980456 -0.0282524666776 0.898 1.01058520352e-38
0.0 -0.0282524666776 0.898 9.55376145969e-39
0.00165820844643 -0.0281895435892 0.896 8.72724199426e-39
0.00330901417657 -0.0281266205009 0.894 9.18534327783e-39
0.00496352126486 -0.0281266205009 0.894 1.01984035948e-38
0.00661802835314 -0.0281266205009 0.894 9.46265043483e-39
0.00822626846469 -0.0279693127799 0.889 9.83034414538e-39
0.00987152215763 -0.0279693127799 0.889 9.46336089316e-39
0.0115167758506 -0.0279693127799 0.889 9.46371962556e-39
0.0131620295435 -0.0279693127799 0.889 8.91485904306e-39
0.0148072832364 -0.0279693127799 0.889 8.7290356563e-39
0.0164525369294 -0.0279693127799 0.889 9.46336089316e-39
0.0180570756828 -0.0279063896916 0.887 9.83070287779e-39
0.0196986280176 -0.0279063896916 0.887 1.12986442945e-38
0.0213401803524 -0.0279063896916 0.887 1.04696052944e-38
0.0230335517011 -0.0279693127799 0.889 1.14841173566e-38
0.0246788053941 -0.0279693127799 0.889 1.15788213107e-38
0.0263832808172 -0.0280322358683 0.891 1.08416108003e-38
0.0280322358683 -0.0280322358683 0.891 1.23113416752e-38
0.0297811275891 -0.0281266205009 0.894 1.32268323827e-38
0.0314356346774 -0.0281266205009 0.894 1.41530696481e-38
0.0331641689285 -0.0281895435892 0.896 1.43381783727e-38
0.0349001058959 -0.0282524666776 0.898 1.17628356212e-38
0.036684160519 -0.0283468513102 0.901 1.4708800797e-38
0.038436753598 -0.0284097743985 0.903 1.5074679826e-38
0.0402411656909 -0.0285041590311 0.906 1.60877275313e-38
0.041917880928 -0.0285041590311 0.906 1.70068377928e-38
0.0436908314768 -0.0285670821194 0.908 1.7469242464e-38
0.0453712480721 -0.0285670821194 0.908 1.85755830158e-38
-0.0186270848362 -0.02709394158 0.915 1.00244464035e-38
-0.0168966999061 -0.0270347198498 0.913 9.65241707547e-39
-0.0152070299155 -0.0270347198498 0.913 9.83034414538e-39
-0.0134729436272 -0.0269458872544 0.91 9.55412019209e-39
-0.0117629161668 -0.0268866655242 0.908 9.73850864922e-39
-0.0100602914227 -0.026827443794 0.906 9.64559695584e-39
-0.00838357618561 -0.026827443794 0.906 1.11128124999e-38
-0.00668465279965 -0.0267386111986 0.903 1.16649016741e-38
-0.00501348959974 -0.0267386111986 0.903 1.16649016741e-38
-0.00334232639983 -0.0267386111986 0.903 1.18474964692e-38
-0.00166746184177 -0.0266793894684 0.901 1.11120950351e-38
0.0 -0.0266793894684 0.901 1.05610820582e-38
0.00165820844643 -0.0265313351428 0.896 1.00132976729e-38
0.00331641689285 -0.0265313351428 0.896 9.55376145969e-39
0.00497462533928 -0.0265313351428 0.896 9.18785440468e-39
0.00661802835314 -0.0264721134126 0.894 8.63684142773e-39
0.00827253544143 -0.0264721134126 0.894 8.91091298658e-39
0.00989373030646 -0.0263832808172 0.891 9.00274848274e-39
0.0115426853575 -0.0263832808172 0.891 8.54392973435e-39
0.0131916404086 -0.0263832808172 0.891 7.80852830028e-39
0.0148405954597 -0.0263832808172 0.891 7.5330218118e-39
0.0164895505108 -0.0263832808172 0.891 7.80888703268e-39
0.0181385055618 -0.0263832808172 0.891 7.90323365569e-39
0.0197874606129 -0.0263832808172 0.891 8.17766394694e-39
0.021436415664 -0.0263832808172 0.891 8.45496409745e-39
0.0230853707151 -0.0263832808172 0.891 8.45173550579e-39
0.0248176063243 -0.0264721134126 0.894 1.0386379376e-38
0.0264721134126 -0.0264721134126 0.894 1.06590160052e-38
0.0281266205009 -0.0264721134126 0.894 1.16720889339e-38
0.0298477520357 -0.0265313351428 0.896 1.19432808244e-38
0.0315059604821 -0.0265313351428 0.896 1.15766689163e-38
0.0333492368355 -0.0266793894684 0.901 1.25004202783e-38
0.0350944271982 -0.0267386111986 0.903 1.14898626803e-38
0.0368877352167 -0.026827443794 0.906 1.35120554747e-38
0.0385644504538 -0.026827443794 0.906 1.43371119845e-38
0.0402411656909 -0.026827443794 0.906 1.5810446999e-38
0.0420104148815 -0.0268866655242 0.908 1.65480246496e-38
0.0437870667884 -0.0269458872544 0.91 1.67338284182e-38
0.0454711847418 -0.0269458872544 0.91 1.99560063369e-38
0.0471553026952 -0.0269458872544 0.91 2.00597206402e-38
-0.0186270848362 -0.0254005702312 0.915 9.83827269209e-39
-0.0169337134875 -0.0254005702312 0.915 9.37512112886e-39
-0.0152070299155 -0.0253450498591 0.913 9.55735158635e-39
-0.0134729436272 -0.025261769301 0.91 9.64631442066e-39
-0.0117629161668 -0.0252062489289 0.908 1.02859343021e-38
-0.0100824995716 -0.0252062489289 0.908 1.12039305313e-38
-0.00838357618561 -0.0251507285568 0.906 1.13876015236e-38
-0.00670686094849 -0.0251507285568 0.906 1.27680094304e-38
-0.00501348959974 -0.0250674479987 0.903 1.17560197054e-38
-0.00334232639983 -0.0250674479987 0.903 1.07447530505e-38
-0.00167116319991 -0.0250674479987 0.903 1.10216972712e-38
0.0 -0.0250119276266 0.901 1.09298771893e-38
0.00166190980456 -0.0249286470685 0.898 1.1022053201e-38
0.00331641689285 -0.0248731266964 0.896 1.0654352484e-38
0.00497462533928 -0.0248731266964 0.896 1.09309351696e-38
0.0066328337857 -0.0248731266964 0.896 9.0005960883e-39
0.00829104223213 -0.0248731266964 0.896 7.89892886681e-39
0.00994925067855 -0.0248731266964 0.896 9.00561834199e-39
0.011581549618 -0.0248176063243 0.894 8.54392973435e-39
0.0132360567063 -0.0248176063243 0.894 8.17838561565e-39
0.0148905637946 -0.0248176063243 0.894 7.80924576509e-39
0.0165450708829 -0.0248176063243 0.894 7.26074391499e-39
0.0181995779711 -0.0248176063243 0.894 7.81319322287e-39
0.0198540850594 -0.0248176063243 0.894 8.08833957763e-39
0.0215085921477 -0.0248176063243 0.894 8.36384606611e-39
0.023163099236 -0.0248176063243 0.894 8.63755889255e-39
0.0248731266964 -0.0248731266964 0.896 9.92756062764e-39
0.0265313351428 -0.0248731266964 0.896 9.19000679912e-39
0.0281895435892 -0.0248731266964 0.896 9.37224286181e-39
0.0299143764822 -0.0249286470685 0.898 1.05696916359e-38
0.0315762862867 -0.0249286470685 0.898 1.07562408953e-38
0.0334232639983 -0.0250674479987 0.903 1.09366889011e-38
0.0350944271982 -0.0250674479987 0.903 1.2500067151e-38
0.0368877352167 -0.0251507285568 0.906 1.31457560561e-38
0.0385644504538 -0.0251507285568 0.906 1.42474302841e-38
0.0403299982863 -0.0252062489289 0.908 1.61792645509e-38
0.042102948835 -0.025261769301 0.91 1.65505259674e-38
0.0439314197559 -0.0253450498591 0.913 1.69150121057e-38
0.0456210897465 -0.0253450498591 0.913 2.08811968324e-38
-0.0203870806315 -0.0237849274034 0.918 1.03038919419e-38
-0.0186881572455 -0.0237849274034 0.918 1.01148441674e-38
-0.0169337134875 -0.0237071988825 0.915 9.92757604192e-39
-0.0152070299155 -0.0236553798685 0.913 9.6484668151e-39
-0.0134729436272 -0.0235776513476 0.91 9.37116666459e-39
-0.0117888256738 -0.0235776513476 0.91 1.10224119334e-38
-0.0100824995716 -0.0235258323337 0.908 1.1755660973e-38
-0.00840208297631 -0.0235258323337 0.908 1.20315261939e-38
-0.00670686094849 -0.0234740133197 0.906 1.20304499967e-38
-0.00503014571137 -0.0234740133197 0.906 1.28609155186e-38
-0.00335343047424 -0.0234740133197 0.906 1.01019045774e-38
-0.00167116319991 -0.0233962847988 0.903 1.04710416253e-38
0.0 -0.0233962847988 0.903 1.1020259539e-38
0.00166746184177 -0.0233444657848 0.901 1.12979184219e-38
0.00332381960913 -0.0232667372639 0.898 1.16649016741e-38
0.00498572941369 -0.0232667372639 0.898 1.27680038252e-38
0.00664763921826 -0.0232667372639 0.898 1.01937400735e-38
0.00830954902282 -0.0232667372639 0.898 9.00454214477e-39
0.00997145882739 -0.0232667372639 0.898 9.46336089316e-39
0.011633368632 -0.0232667372639 0.898 9.371525397e-39
0.0132656675714 -0.02321491825 0.896 9.00525960959e-39
0.0149238760178 -0.02321491825 0.896 8.36133493926e-39
0.0165820844643 -0.02321491825 0.896 7.99291675741e-39
0.0182402929107 -0.02321491825 0.896 8.36169787556e-39
0.0198985013571 -0.02321491825 0.896 7.90251899347e-39
0.0215567098035 -0.02321491825 0.896 8.36384606611e-39
0.02321491825 -0.02321491825 0.896 9.00526241218e-39
0.0249286470685 -0.0232667372639 0.898 9.09924750019e-39
0.026590556873 -0.0232667372639 0.898 9.0999663663e-39
0.0282524666776 -0.0232667372639 0.898 1.00215723403e-38
0.0300143131519 -0.0233444657848 0.901 9.74539042598e-39
0.0317521007983 -0.0233962847988 0.903 1.06629942916e-38
0.0335343047424 -0.0234740133197 0.906 1.00179724046e-38
0.0352110199796 -0.0234740133197 0.906 1.2317458343e-38
0.0368877352167 -0.0234740133197 0.906 1.36946096322e-38
0.038649581691 -0.0235258323337 0.908 1.44300292831e-38
0.0404188308816 -0.0235776513476 0.91 1.54409792446e-38
0.0422417497652 -0.0236553798685 0.913 1.61788693848e-38
0.0439314197559 -0.0236553798685 0.913 1.90376569805e-38
0.0456210897465 -0.0236553798685 0.913 2.04223892944e-38
-0.0203870806315 -0.0220860040175 0.918 1.04829162285e-38
-0.0186881572455 -0.0220860040175 0.918 1.08513232e-38
-0.0169892338596 -0.0220860040175 0.918 9.09888876778e-39
-0.0152403421387 -0.0220138275337 0.915 9.18498454543e-39
-0.0135173599249 -0.0219657098779 0.913 9.00238975033e-39
-0.0117888256738 -0.0218935333942 0.91 1.15727074455e-38
-0.0101047077204 -0.0218935333942 0.91 1.21222854929e-38
-0.00840208297631 -0.0218454157384 0.908 1.20304499967e-38
-0.00672166638105 -0.0218454157384 0.908 1.26732984698e-38
-0.00504124978578 -0.0218454157384 0.908 1.25814629736e-38
-0.00335343047424 -0.0217972980826 0.906 1.1020259539e-38
-0.00167671523712 -0.0217972980826 0.906 1.18478636094e-38
0.0 -0.0217972980826 0.906 1.09284240428e-38
0.00167116319991 -0.0217251215989 0.903 1.07447530505e-38
0.00333492368355 -0.0216770039431 0.901 1.092950024e-38
0.00500238552532 -0.0216770039431 0.901 1.28609155186e-38
0.00666984736709 -0.0216770039431 0.901 1.15712781211e-38
0.00833730920887 -0.0216770039431 0.901 1.18503663284e-38
0.00997145882739 -0.0216048274593 0.898 1.02862930345e-38
0.011633368632 -0.0216048274593 0.898 1.08394584059e-38
0.0132952784365 -0.0216048274593 0.898 9.92074471191e-39
0.0149571882411 -0.0216048274593 0.898 9.46480423057e-39
0.0166190980456 -0.0216048274593 0.898 8.72975452241e-39
0.0182810078502 -0.0216048274593 0.898 9.00526241218e-39
0.0199429176548 -0.0216048274593 0.898 7.90215745847e-39
0.0216048274593 -0.0216048274593 0.898 9.65063182123e-39
0.0232667372639 -0.0216048274593 0.898 9.74066384626e-39
0.0250119276266 -0.0216770039431 0.901 8.63791762495e-39
0.0266793894684 -0.0216770039431 0.901 9.65061920954e-39
0.0283468513102 -0.0216770039431 0.901 9.47017821018e-39
0.0300809375984 -0.0217251215989 0.903 9.10068523241e-39
0.0318575895053 -0.0217972980826 0.906 1.05704273176e-38
0.0335343047424 -0.0217972980826 0.906 1.10292348556e-38
0.0352110199796 -0.0217972980826 0.906 1.2868481129e-38
0.0369691650957 -0.0218454157384 0.908 1.32336384893e-38
0.038649581691 -0.0218454157384 0.908 1.49821044443e-38
0.0405520797746 -0.0219657098779 0.913 1.6912844297e-38
0.0422417497652 -0.0219657098779 0.913 1.66369734709e-38
0.0439314197559 -0.0219657098779 0.913 1.88525272365e-38
0.0456210897465 -0.0219657098779 0.913 1.95901104923e-38
-0.0186881572455 -0.0203870806315 0.918 1.09449859894e-38
-0.0169892338596 -0.0203870806315 0.918 1.01115945563e-38
-0.0152403421387 -0.020320456185 0.915 9.92111045081e-39
-0.01354697079 -0.020320456185 0.915 9.46084976631e-39
-0.0118276899343 -0.0202760398873 0.913 1.08365885466e-38
-0.0101380199437 -0.0202760398873 0.913 1.1480513217e-38
-0.008420589767 -0.0202094154408 0.91 1.24932176042e-38
-0.0067364718136 -0.0202094154408 0.91 1.25814629736e-38
-0.00504124978578 -0.0201649991431 0.908 1.28569694621e-38
-0.00336083319052 -0.0201649991431 0.908 1.23077669628e-38
-0.00168041659526 -0.0201649991431 0.908 1.16631094134e-38
0.0 -0.0201649991431 0.908 1.13883316001e-38
0.00167116319991 -0.020053958399 0.903 1.01019045774e-38
0.00334232639983 -0.020053958399 0.903 1.06536350191e-38
0.00500238552532 -0.0200095421013 0.901 1.02855755697e-38
0.00666984736709 -0.0200095421013 0.901 1.12961387728e-38
0.00833730920887 -0.0200095421013 0.901 1.17570987053e-38
0.0100047710506 -0.0200095421013 0.901 1.00104278136e-38
0.0116722328924 -0.0200095421013 0.901 9.92253977524e-39
0.0133396947342 -0.0200095421013 0.901 1.01058520352e-38
0.015007156576 -0.0200095421013 0.901 9.37045200237e-39
0.0166746184177 -0.0200095421013 0.901 9.92541383839e-39
0.0182810078502 -0.0199429176548 0.898 9.18964806672e-39
0.0199429176548 -0.0199429176548 0.898 8.27057564032e-39
0.0216770039431 -0.0200095421013 0.901 9.28327722491e-39
0.0233444657848 -0.0200095421013 0.901 9.8325119541e-39
0.0250119276266 -0.0200095421013 0.901 8.63612396292e-39
0.0266793894684 -0.0200095421013 0.901 1.02045370782e-38
0.0284097743985 -0.020053958399 0.903 9.28436042862e-39
0.0301808742682 -0.0201205828455 0.906 9.83536639908e-39
0.0318575895053 -0.0201205828455 0.906 1.15820456985e-38
0.0336083319052 -0.0201649991431 0.908 1.24982510682e-38
0.0352887485005 -0.0201649991431 0.908 1.33233454131e-38
0.0370505949748 -0.0202094154408 0.91 1.46133387404e-38
0.0387347129282 -0.0202094154408 0.91 1.56260305159e-38
0.04064091237 -0.020320456185 0.915 1.70039665322e-38
0.0423342837187 -0.020320456185 0.915 1.77436783604e-38
0.0440276550675 -0.020320456185 0.915 1.83858289869e-38
-0.0152903104736 -0.0186881572455 0.918 1.14819663635e-38
-0.01354697079 -0.0186270848362 0.915 1.092950024e-38
-0.0118535994412 -0.0186270848362 0.915 1.07447530505e-38
-0.0101380199437 -0.0185863698967 0.913 9.73456259275e-39
-0.00844834995305 -0.0185863698967 0.913 1.11120950351e-38
-0.00675867996244 -0.0185863698967 0.913 1.29488049583e-38
-0.0050523538602 -0.0185252974874 0.91 1.13876015236e-38
-0.00336083319052 -0.0184845825479 0.908 1.11120950351e-38
-0.00168041659526 -0.0184845825479 0.908 1.17549435082e-38
0.0 -0.0184845825479 0.908 1.17549435082e-38
0.00167671523712 -0.0184438676083 0.906 1.18471377368e-38
0.00334232639983 -0.018382795199 0.903 1.12039305313e-38
0.00501348959974 -0.018382795199 0.903 1.01937400735e-38
0.00668465279965 -0.018382795199 0.903 1.08383850113e-38
0.00835581599956 -0.018382795199 0.903 1.10209812077e-38
0.0100269791995 -0.018382795199 0.903 9.91823358506e-39
0.0116722328924 -0.0183420802595 0.901 9.46228749853e-39
0.0133396947342 -0.0183420802595 0.901 1.00133060807e-38
0.015007156576 -0.0183420802595 0.901 1.01976973404e-38
0.0166746184177 -0.0183420802595 0.901 1.03831507844e-38
0.0183420802595 -0.0183420802595 0.901 9.00203101792e-39
0.0200095421013 -0.0183420802595 0.901 7.90287492328e-39
0.0216770039431 -0.0183420802595 0.901 8.82123128616e-39
0.0233962847988 -0.018382795199 0.903 1.01083757737e-38
0.0250674479987 -0.018382795199 0.903 1.0568978375e-38
0.0267386111986 -0.018382795199 0.903 1.07537423801e-38
0.0285041590311 -0.0184438676083 0.906 1.12121967909e-38
0.0301808742682 -0.0184438676083 0.906 1.16713700678e-38
0.03192791531 -0.0184845825479 0.908 1.20401427782e-38
0.0336083319052 -0.0184845825479 0.908 1.10270852638e-38
0.0352887485005 -0.0184845825479 0.908 1.49821464832e-38
0.0371727397934 -0.0185863698967 0.913 1.44282174042e-38
0.038862409784 -0.0185863698967 0.913 1.65429631596e-38
0.040774161263 -0.0186881572455 0.918 1.82932550064e-38
-0.0135913870877 -0.0169892338596 0.918 1.14815894142e-38
-0.0118535994412 -0.0169337134875 0.915 1.15712725159e-38
-0.0101602280925 -0.0169337134875 0.915 1.03774110659e-38
-0.00846685674374 -0.0169337134875 0.915 1.12039305313e-38
-0.006773485395 -0.0169337134875 0.915 1.31324759506e-38
-0.0050523538602 -0.016841179534 0.91 1.06529175543e-38
-0.0033682359068 -0.016841179534 0.91 1.01937400735e-38
-0.0016841179534 -0.016841179534 0.91 1.18467790044e-38
0.0 -0.0168041659526 0.908 1.07447530505e-38
0.00168041659526 -0.0168041659526 0.908 1.12068003905e-38
0.00335343047424 -0.0167671523712 0.906 1.12039305313e-38
0.00503014571137 -0.0167671523712 0.906 1.18478552016e-38
0.00668465279965 -0.0167116319991 0.903 1.17549435082e-38
0.00835581599956 -0.0167116319991 0.903 1.18478874315e-38
0.0100269791995 -0.0167116319991 0.903 1.18485726664e-38
0.0116981423994 -0.0167116319991 0.903 1.17574546351e-38
0.0133693055993 -0.0167116319991 0.903 1.13897595232e-38
0.0150404687992 -0.0167116319991 0.903 1.18474964692e-38
0.0167116319991 -0.0167116319991 0.903 1.21258742182e-38
0.018382795199 -0.0167116319991 0.903 1.04739100833e-38
0.020053958399 -0.0167116319991 0.903 9.74173724088e-39
0.0217251215989 -0.0167116319991 0.903 1.03845871153e-38
0.0233962847988 -0.0167116319991 0.903 1.11196382248e-38
0.0251507285568 -0.0167671523712 0.906 1.12111430145e-38
0.026827443794 -0.0167671523712 0.906 1.13947803756e-38
0.0285041590311 -0.0167671523712 0.906 1.18539760733e-38
0.0302474987147 -0.0168041659526 0.908 1.24989559214e-38
0.03192791531 -0.0168041659526 0.908 1.22209411086e-38
0.033682359068 -0.016841179534 0.91 1.14848264136e-38
0.0354830698028 -0.0168966999061 0.913 1.51640364252e-38
0.0372541696725 -0.0169337134875 0.915 1.58968931013e-38
-0.006773485395 -0.0152403421387 0.915 1.25828979033e-38
-0.00508011404625 -0.0152403421387 0.915 1.15712725159e-38
-0.00337933998122 -0.0152070299155 0.913 1.11120950351e-38
-0.00168966999061 -0.0152070299155 0.913 1.20304499967e-38
0.0 -0.0151570615806 0.91 1.00100690812e-38
0.0016841179534 -0.0151570615806 0.91 9.27538511196e-39
0.00336083319052 -0.0151237493574 0.908 1.2588281692e-38
0.00504124978578 -0.0151237493574 0.908 1.15727074455e-38
0.00670686094849 -0.0150904371341 0.906 1.20347547856e-38
0.00838357618561 -0.0150904371341 0.906 1.20336785884e-38
0.0100602914227 -0.0150904371341 0.906 1.28569694621e-38
