# .PCD v0.7 - Point Cloud Data file format
VERSION 0.7
FIELDS x y z rgb
SIZE 4 4 4 4
TYPE F F F F
COUNT 1 1 1 1
WIDTH 841
HEIGHT 1
VIEWPOINT 0 0 0 1 0 0 0
POINTS 841
DATA ascii
-0.01742599412 -0.0839616080328 0.856 1.27866971467e-38
-0.0157492788829 -0.0834711780794 0.851 1.23249693027e-38
-0.0141410387714 -0.083275006098 0.849 1.21359173243e-38
-0.0125402013761 -0.0830788341166 0.847 1.38854917064e-38
-0.0109467666971 -0.0828826621352 0.845 1.69371932591e-38
-0.0093607347344 -0.0826864901538 0.843 1.03792047279e-38
-0.00780061227866 -0.0826864901538 0.843 1.3133196218e-38
-0.00622568439037 -0.0824903181724 0.841 1.24896274775e-38
-0.00465815921836 -0.0822941461911 0.839 1.20304499967e-38
-0.00309803676263 -0.0820979742097 0.837 1.17549435082e-38
-0.00154901838131 -0.0820979742097 0.837 1.2214120989e-38
0.0 -0.0820979742097 0.837 1.29488049583e-38
0.00154901838131 -0.0820979742097 0.837 1.28573281945e-38
0.00309803676263 -0.0820979742097 0.837 1.26732984698e-38
0.00464705514394 -0.0820979742097 0.837 1.28569694621e-38
0.0061812680927 -0.0819018022283 0.835 1.28569694621e-38
0.00772658511588 -0.0819018022283 0.835 1.33161469429e-38
0.00927190213905 -0.0819018022283 0.835 1.33161469429e-38
0.0108431286692 -0.0820979742097 0.837 1.33161469429e-38
0.0123921470505 -0.0820979742097 0.837 1.38675186523e-38
0.0139411654318 -0.0820979742097 0.837 1.37771180857e-38
0.0154901838131 -0.0820979742097 0.837 1.20304499967e-38
0.0170392021945 -0.0820979742097 0.837 1.86750135497e-38
0.0185882205758 -0.0820979742097 0.837 1.65857377952e-38
0.0201372389571 -0.0820979742097 0.837 1.55679915361e-38
0.0216862573384 -0.0820979742097 0.837 1.53886841872e-38
0.0232352757197 -0.0820979742097 0.837 1.78790900349e-38
0.024784294101 -0.0820979742097 0.837 1.78711712973e-38
0.0263333124823 -0.0820979742097 0.837 1.61175597744e-38
0.0279489553102 -0.0822941461911 0.839 1.91640358851e-38
0.0295720008543 -0.0824903181724 0.841 1.11379237684e-38
0.0312024491147 -0.0826864901538 0.843 8.81620763117e-39
0.0328403000913 -0.0828826621352 0.845 1.304531939e-38
0.0344041239052 -0.0828826621352 0.845 1.24049694321e-38
0.0360530789563 -0.0830788341166 0.847 1.31472232156e-38
0.0377094367236 -0.083275006098 0.849 1.48917487193e-38
0.0392806632538 -0.083275006098 0.849 1.58144098711e-38
0.0409481250955 -0.0834711780794 0.851 1.72920734965e-38
0.0425230529838 -0.0834711780794 0.851 1.76622615183e-38
-0.0255245657289 -0.0829548386189 0.862 2.34882397578e-38
-0.0239292803708 -0.0829548386189 0.862 2.34939962919e-38
-0.0223339950128 -0.0829548386189 0.862 1.71295957422e-38
-0.0206905919989 -0.0827623679957 0.86 1.43579689109e-38
-0.0190545917013 -0.0825698973724 0.858 1.38040664565e-38
-0.0174667090596 -0.0825698973724 0.858 1.43543717777e-38
-0.0157492788829 -0.0818962501911 0.851 1.43564821332e-38
-0.0141743509946 -0.0818962501911 0.851 1.13101153237e-38
-0.0125698122412 -0.0817037795678 0.849 1.33308815963e-38
-0.0109726762041 -0.0815113089446 0.847 1.77626981845e-38
-0.00938294288323 -0.0813188383213 0.845 1.31550760922e-38
-0.00780061227866 -0.0811263676981 0.843 1.23059564852e-38
-0.00624048982293 -0.0811263676981 0.843 1.2765133966e-38
-0.00466926329278 -0.0809338970749 0.841 1.24896274775e-38
-0.00310543947891 -0.0807414264516 0.839 1.24896274775e-38
-0.00154901838131 -0.0805489558284 0.837 1.23977919813e-38
0.0 -0.0805489558284 0.837 1.26732984698e-38
0.00154901838131 -0.0805489558284 0.837 1.2765133966e-38
0.00309803676263 -0.0805489558284 0.837 1.28569694621e-38
0.00464705514394 -0.0805489558284 0.837 1.30406670791e-38
0.00619607352526 -0.0805489558284 0.837 1.33165112805e-38
0.00774509190657 -0.0805489558284 0.837 1.29488049583e-38
0.00929411028789 -0.0805489558284 0.837 1.29488049583e-38
0.0108431286692 -0.0805489558284 0.837 1.3683495934e-38
0.0123921470505 -0.0805489558284 0.837 1.36849238572e-38
0.0139411654318 -0.0805489558284 0.837 1.38675186523e-38
0.0154901838131 -0.0805489558284 0.837 1.24896274775e-38
0.0170392021945 -0.0805489558284 0.837 2.1252172384e-38
0.0185882205758 -0.0805489558284 0.837 1.93477012723e-38
0.0201372389571 -0.0805489558284 0.837 1.71324698053e-38
0.0216862573384 -0.0805489558284 0.837 1.61255205509e-38
0.0232352757197 -0.0805489558284 0.837 1.63995963137e-38
0.024784294101 -0.0805489558284 0.837 1.2057377348e-38
0.0263962355707 -0.0807414264516 0.839 8.26519465422e-39
0.0279489553102 -0.0807414264516 0.839 8.26519465422e-39
0.0296423266589 -0.0811263676981 0.843 1.24006688471e-38
0.0312764762774 -0.0813188383213 0.845 1.13926279812e-38
0.0329180286122 -0.0815113089446 0.847 1.40608754196e-38
0.0344855537843 -0.0815113089446 0.847 1.28637923843e-38
0.0361382101935 -0.0817037795678 0.849 1.34212849654e-38
0.037798269319 -0.0818962501911 0.851 1.47948783578e-38
0.0393731972073 -0.0818962501911 0.851 1.48927996932e-38
0.0409481250955 -0.0818962501911 0.851 1.68332407351e-38
0.0425230529838 -0.0818962501911 0.851 1.64665867881e-38
-0.0239848007429 -0.081548322526 0.864 2.34965200304e-38
-0.0223858140267 -0.081548322526 0.864 1.70384819147e-38
-0.0207387096547 -0.0813595532609 0.862 1.40795771489e-38
-0.019099007999 -0.0811707839958 0.86 1.45408860046e-38
-0.0174667090596 -0.0809820147307 0.858 1.43547221023e-38
-0.015804799255 -0.0806044762005 0.854 1.43572108084e-38
-0.0141743509946 -0.0803213223028 0.851 1.33409008803e-38
-0.0125994231063 -0.0803213223028 0.851 1.41677790781e-38
-0.0109985857111 -0.0801325530377 0.849 1.70262121454e-38
-0.00940515103207 -0.0799437837726 0.847 1.36167646999e-38
-0.00781911906936 -0.0797550145075 0.845 1.35091617934e-38
-0.00625529525549 -0.0797550145075 0.845 1.25814629736e-38
-0.0046803673672 -0.0795662452424 0.843 1.24896274775e-38
-0.00311284219519 -0.0793774759773 0.841 1.2765133966e-38
-0.00155271973945 -0.0791887067122 0.839 1.26732984698e-38
0.0 -0.0791887067122 0.839 1.28569694621e-38
0.00155271973945 -0.0791887067122 0.839 1.2765133966e-38
0.00310543947891 -0.0791887067122 0.839 1.2765133966e-38
0.00465815921836 -0.0791887067122 0.839 1.32243114468e-38
0.00621087895782 -0.0791887067122 0.839 1.33161469429e-38
0.00776359869727 -0.0791887067122 0.839 1.31324759506e-38
0.00931631843672 -0.0791887067122 0.839 1.30420950022e-38
0.0108690381762 -0.0791887067122 0.839 1.34079824391e-38
0.0124217579156 -0.0791887067122 0.839 1.35916534314e-38
0.0139411654318 -0.078999937447 0.837 1.36838476599e-38
0.0154901838131 -0.078999937447 0.837 1.42352193693e-38
0.0170392021945 -0.078999937447 0.837 1.23059592878e-38
0.0185882205758 -0.078999937447 0.837 1.2133103517e-38
0.0201853566129 -0.0791887067122 0.839 8.90804312733e-39
0.0216862573384 -0.078999937447 0.837 6.88766221185e-39
0.0232352757197 -0.078999937447 0.837 8.0815236619e-39
0.0249027375615 -0.0793774759773 0.841 1.23059564852e-38
0.0264591586591 -0.0793774759773 0.841 1.11138886972e-38
0.0280822042032 -0.0795662452424 0.843 1.13936999745e-38
0.0296423266589 -0.0795662452424 0.843 1.27733988243e-38
0.0313505034402 -0.0799437837726 0.847 1.23127864139e-38
0.0329957571332 -0.0801325530377 0.849 1.38757989249e-38
0.0345669836633 -0.0801325530377 0.849 1.43356756536e-38
0.0362233414307 -0.0803213223028 0.851 1.4702664511e-38
0.037798269319 -0.0803213223028 0.851 1.48881333693e-38
0.0393731972073 -0.0803213223028 0.851 1.53555757084e-38
0.041092478063 -0.0806044762005 0.854 1.6097120435e-38
0.0426729579885 -0.0806044762005 0.854 1.52691422178e-38
-0.0241791220453 -0.0805970734842 0.871 2.3494353623e-38
-0.0224635425477 -0.0802269376702 0.867 1.85125329927e-38
-0.0207868273105 -0.0799493358098 0.864 1.48182253915e-38
-0.0191434242967 -0.0797642679028 0.862 1.46356025704e-38
-0.0175481389386 -0.0797642679028 0.862 1.41724790332e-38
-0.0158418128364 -0.0792090641819 0.856 1.4265012376e-38
-0.0142243193295 -0.079023996275 0.854 1.5004700382e-38
-0.012643839404 -0.079023996275 0.854 1.5095459681e-38
-0.011024495218 -0.0787463944145 0.851 1.55542784294e-38
-0.0094273591809 -0.0785613265075 0.849 1.33365946901e-38
-0.00783762586006 -0.0783762586006 0.847 1.46161931854e-38
-0.00625529525549 -0.0781911906936 0.845 1.29491636907e-38
-0.00469147144162 -0.0781911906936 0.845 1.34079824391e-38
-0.00311284219519 -0.0778210548797 0.841 1.23977919813e-38
-0.00155642109759 -0.0778210548797 0.841 1.2765133966e-38
0.0 -0.0778210548797 0.841 1.25814629736e-38
0.00155642109759 -0.0778210548797 0.841 1.30406404544e-38
0.00310543947891 -0.0776359869727 0.839 1.25814629736e-38
0.00465815921836 -0.0776359869727 0.839 1.29488049583e-38
0.00621087895782 -0.0776359869727 0.839 1.29488049583e-38
0.00778210548797 -0.0778210548797 0.841 1.32243114468e-38
0.00933852658556 -0.0778210548797 0.841 1.31324759506e-38
0.0108949476832 -0.0778210548797 0.841 1.42352193693e-38
0.0124513687807 -0.0778210548797 0.841 1.37753244237e-38
0.0140077898783 -0.0778210548797 0.841 1.35009221584e-38
0.0155642109759 -0.0778210548797 0.841 1.40508309122e-38
0.0171206320735 -0.0778210548797 0.841 1.26732984698e-38
0.0186770531711 -0.0778210548797 0.841 1.18467944187e-38
0.0202334742687 -0.0778210548797 0.841 9.45905610427e-39
0.0217898953663 -0.0778210548797 0.841 1.25854104314e-38
0.0233463164639 -0.0778210548797 0.841 1.08365885466e-38
0.0249027375615 -0.0778210548797 0.841 1.47026701162e-38
0.0265220817475 -0.0780061227866 0.843 1.2859480589e-38
0.0280822042032 -0.0780061227866 0.843 1.21301930201e-38
0.0296423266589 -0.0780061227866 0.843 1.26797794752e-38
0.031424530603 -0.0785613265075 0.849 1.31357297656e-38
0.0330734856541 -0.0787463944145 0.851 1.3783603295e-38
0.0346484135424 -0.0787463944145 0.851 1.38775631597e-38
0.0362233414307 -0.0787463944145 0.851 1.41509438784e-38
0.037798269319 -0.0787463944145 0.851 1.56311130255e-38
0.0393731972073 -0.0787463944145 0.851 1.42535483532e-38
0.041092478063 -0.079023996275 0.854 1.6742489844e-38
0.0426729579885 -0.079023996275 0.854 1.59127151622e-38
-0.0241791220453 -0.0789851320145 0.871 2.34918354896e-38
-0.0225153615616 -0.0788037654657 0.869 1.98947611862e-38
-0.0208590037943 -0.0786223989168 0.867 1.50948361032e-38
-0.0191878405943 -0.0783503490936 0.864 1.39898828368e-38
-0.0175481389386 -0.0781689825448 0.862 1.34356426695e-38
-0.0158788264178 -0.0778062494471 0.858 1.5001873963e-38
-0.0142576315527 -0.0776248828983 0.856 1.49117886887e-38
-0.012643839404 -0.0774435163495 0.854 1.52805656029e-38
-0.0110633594785 -0.0774435163495 0.854 1.50936660189e-38
-0.00944956732974 -0.0771714665262 0.851 1.33348010281e-38
-0.00787463944145 -0.0771714665262 0.851 1.45236402244e-38
-0.00627010068805 -0.0768087334286 0.847 1.25836153681e-38
-0.00470257551603 -0.0768087334286 0.847 1.63625193576e-38
-0.00312764762774 -0.0766273668797 0.845 1.28569708634e-38
-0.00156012245573 -0.0764460003309 0.843 1.2765133966e-38
0.0 -0.0764460003309 0.843 1.2765133966e-38
0.00156012245573 -0.0764460003309 0.843 1.26732984698e-38
0.00312024491147 -0.0764460003309 0.843 1.29488049583e-38
0.0046803673672 -0.0764460003309 0.843 1.26732984698e-38
0.00624048982293 -0.0764460003309 0.843 1.30406404544e-38
0.00780061227866 -0.0764460003309 0.843 1.33161469429e-38
0.00938294288323 -0.0766273668797 0.845 1.30406404544e-38
0.0109208571901 -0.0764460003309 0.843 1.34998179352e-38
0.0124809796459 -0.0764460003309 0.843 1.36834889275e-38
0.0140411021016 -0.0764460003309 0.843 1.37753244237e-38
0.0156012245573 -0.0764460003309 0.843 1.46036375512e-38
0.0171613470131 -0.0764460003309 0.843 1.19386145005e-38
0.0187214694688 -0.0764460003309 0.843 1.29488049583e-38
0.0202815919245 -0.0764460003309 0.843 1.26750949344e-38
0.0218417143803 -0.0764460003309 0.843 1.27662101632e-38
0.0234573572081 -0.0766273668797 0.845 1.1020259539e-38
0.025021181022 -0.0766273668797 0.845 1.31375150199e-38
0.0265850048358 -0.0766273668797 0.845 1.31335521478e-38
0.0281488286497 -0.0766273668797 0.845 1.24950140688e-38
0.0297126524636 -0.0766273668797 0.845 1.19447269644e-38
0.031424530603 -0.0769900999774 0.849 1.37814494993e-38
0.0330734856541 -0.0771714665262 0.851 1.30453165874e-38
0.0346484135424 -0.0771714665262 0.851 1.42463737051e-38
0.0362233414307 -0.0771714665262 0.851 1.37836004924e-38
0.037931518212 -0.0774435163495 0.854 1.480314742e-38
0.0395119981375 -0.0774435163495 0.854 1.39719378086e-38
0.041092478063 -0.0774435163495 0.854 1.63729688403e-38
0.0426729579885 -0.0774435163495 0.854 1.78459339119e-38
-0.0241791220453 -0.0773731905448 0.871 2.34929088843e-38
-0.0225153615616 -0.0771955253541 0.869 2.06327017731e-38
-0.0208590037943 -0.0770178601634 0.867 1.39902808055e-38
-0.0192544650409 -0.0770178601634 0.867 1.52788083746e-38
-0.0175888538782 -0.0767513623774 0.864 1.44526280234e-38
-0.0159158399992 -0.076396031996 0.86 1.67571460246e-38
-0.014290943776 -0.0762183668053 0.858 1.46366591495e-38
-0.0126734502691 -0.0760407016146 0.856 1.58337379808e-38
-0.0110633594785 -0.075863036424 0.854 1.55567895562e-38
-0.00948287955299 -0.075863036424 0.854 1.33358772253e-38
-0.00787463944145 -0.0755965386379 0.851 1.42484924684e-38
-0.00629971155316 -0.0755965386379 0.851 1.45240241802e-38
-0.00471367959045 -0.0754188734472 0.849 1.28576869269e-38
-0.00312764762774 -0.0750635430659 0.845 1.34998207378e-38
-0.00156382381387 -0.0750635430659 0.845 1.33161469429e-38
0.0 -0.0750635430659 0.845 1.28569694621e-38
0.00156382381387 -0.0750635430659 0.845 1.29488049583e-38
0.00312024491147 -0.0748858778752 0.843 1.25814629736e-38
0.0046803673672 -0.0748858778752 0.843 1.2765133966e-38
0.00624048982293 -0.0748858778752 0.843 1.30406404544e-38
0.00780061227866 -0.0748858778752 0.843 1.36834903288e-38
0.00938294288323 -0.0750635430659 0.845 1.31324913649e-38
0.0109467666971 -0.0750635430659 0.845 1.39590010212e-38
0.012510590511 -0.0750635430659 0.845 1.3499826343e-38
0.0140744143248 -0.0750635430659 0.845 1.38675186523e-38
0.0156382381387 -0.0750635430659 0.845 1.41426818226e-38
0.0171613470131 -0.0748858778752 0.843 1.26732984698e-38
0.0187214694688 -0.0748858778752 0.843 1.22144797214e-38
0.0202815919245 -0.0748858778752 0.843 1.45139796728e-38
0.0218417143803 -0.0748858778752 0.843 1.13876099314e-38
0.0234573572081 -0.0750635430659 0.845 1.08394584059e-38
0.0250804027522 -0.0752412082565 0.847 1.26769068133e-38
0.0267108510126 -0.0754188734472 0.849 1.30431669956e-38
0.0282820775427 -0.0754188734472 0.849 1.20333254611e-38
0.0299236298775 -0.0755965386379 0.851 1.15766563046e-38
0.0314985577658 -0.0755965386379 0.851 1.49813981899e-38
0.0330734856541 -0.0755965386379 0.851 1.30435173202e-38
0.034770558361 -0.075863036424 0.854 1.47066456e-38
0.0363510382865 -0.075863036424 0.854 1.37843221611e-38
0.037931518212 -0.075863036424 0.854 1.43400210802e-38
0.0395119981375 -0.075863036424 0.854 1.62750334919e-38
0.041092478063 -0.075863036424 0.854 1.48020530059e-38
0.0426729579885 -0.075863036424 0.854 1.78452318614e-38
-0.0241791220453 -0.0757612490751 0.871 2.34889474135e-38
-0.0225153615616 -0.0755872852426 0.869 2.10007556174e-38
-0.0209071214501 -0.0755872852426 0.869 1.46370571182e-38
-0.0192988813385 -0.0755872852426 0.869 1.51869910954e-38
-0.0176499262875 -0.07541332141 0.867 1.48185757161e-38
-0.0159158399992 -0.0748044479961 0.86 1.50040137458e-38
-0.014290943776 -0.0746304841636 0.858 1.5005451478e-38
-0.0127030611342 -0.0746304841636 0.858 1.61125094947e-38
-0.0110892689855 -0.074456520331 0.856 1.57458415346e-38
-0.00948287955299 -0.0742825564985 0.854 1.3246914391e-38
-0.0079023996275 -0.0742825564985 0.854 1.39733447123e-38
-0.00629971155316 -0.0740216107496 0.851 1.44318047283e-38
-0.00472478366487 -0.0740216107496 0.851 1.38746933004e-38
-0.0031424530603 -0.0738476469171 0.849 1.35001766676e-38
-0.00156382381387 -0.073499719252 0.845 1.32246701792e-38
0.0 -0.073499719252 0.845 1.30406404544e-38
0.00156382381387 -0.073499719252 0.845 1.30406404544e-38
0.00312764762774 -0.073499719252 0.845 1.25814629736e-38
0.00469147144162 -0.073499719252 0.845 1.26732984698e-38
0.00625529525549 -0.073499719252 0.845 1.33161483442e-38
0.00781911906936 -0.073499719252 0.845 1.29488049583e-38
0.00938294288323 -0.073499719252 0.845 1.34079824391e-38
0.0109726762041 -0.0736736830845 0.847 1.37753244237e-38
0.0125402013761 -0.0736736830845 0.847 1.34998179352e-38
0.0140744143248 -0.073499719252 0.845 1.37753244237e-38
0.0156382381387 -0.073499719252 0.845 1.47858806203e-38
0.0172020619526 -0.073499719252 0.845 1.19386173031e-38
0.0187658857665 -0.073499719252 0.845 1.14819537518e-38
0.0203297095803 -0.073499719252 0.845 1.26751103487e-38
0.0218935333942 -0.073499719252 0.845 1.23070480967e-38
0.0235128775802 -0.0736736830845 0.847 1.08380346867e-38
0.0251396244824 -0.0738476469171 0.849 1.20347575882e-38
0.0267108510126 -0.0738476469171 0.849 1.14794370197e-38
0.0282820775427 -0.0738476469171 0.849 1.38754107652e-38
0.0299236298775 -0.0740216107496 0.851 1.32282631084e-38
0.0314985577658 -0.0740216107496 0.851 1.4150918655e-38
0.0331900784355 -0.0742825564985 0.854 1.3968681191e-38
0.034770558361 -0.0742825564985 0.854 1.38772086311e-38
0.0364361695237 -0.074456520331 0.856 1.36002882325e-38
0.0380203508073 -0.074456520331 0.856 1.47984754909e-38
0.039604532091 -0.074456520331 0.856 1.71047983645e-38
0.0411887133746 -0.074456520331 0.856 1.60931421486e-38
0.0427728946582 -0.074456520331 0.856 1.62771830837e-38
-0.0241791220453 -0.0741493076054 0.871 2.34885886811e-38
-0.0225153615616 -0.073979045131 0.869 2.2106733233e-38
-0.0209071214501 -0.073979045131 0.869 1.42679382871e-38
-0.0192988813385 -0.073979045131 0.869 1.5649764308e-38
-0.0176499262875 -0.0738087826566 0.867 1.41739307784e-38
-0.0159528535806 -0.0733831264706 0.862 1.62025821574e-38
-0.0143242559993 -0.0732128639962 0.86 1.67579041271e-38
-0.0127030611342 -0.0730426015218 0.858 1.23303502888e-38
-0.0110892689855 -0.0728723390474 0.856 1.33394659507e-38
-0.00948287955299 -0.072702076573 0.854 1.33322899012e-38
-0.0079023996275 -0.072702076573 0.854 1.43421216265e-38
-0.00629971155316 -0.0724466828613 0.851 1.34216142705e-38
-0.00472478366487 -0.0724466828613 0.851 1.41516347185e-38
-0.00314985577658 -0.0724466828613 0.851 1.35981106147e-38
-0.00157122653015 -0.0722764203869 0.849 1.3960789078e-38
0.0 -0.0722764203869 0.849 1.30406404544e-38
0.00156752517201 -0.0721061579125 0.847 1.30406404544e-38
0.00312764762774 -0.0719358954381 0.845 1.34090586363e-38
0.00469147144162 -0.0719358954381 0.845 1.30406404544e-38
0.00625529525549 -0.0719358954381 0.845 1.33161469429e-38
0.00781911906936 -0.0719358954381 0.845 1.32243114468e-38
0.00938294288323 -0.0719358954381 0.845 1.34998179352e-38
0.0109726762041 -0.0721061579125 0.847 1.36834889275e-38
0.0125402013761 -0.0721061579125 0.847 1.40526315807e-38
0.0141077265481 -0.0721061579125 0.847 1.3316156752e-38
0.0156752517201 -0.0721061579125 0.847 1.4972792816e-38
0.0172427768921 -0.0721061579125 0.847 1.15712725159e-38
0.0188103020641 -0.0721061579125 0.847 1.14830243438e-38
0.0203778272361 -0.0721061579125 0.847 1.22169908483e-38
0.0219971714221 -0.0722764203869 0.849 1.36867203218e-38
0.0235683979523 -0.0722764203869 0.849 1.24910638084e-38
0.0251988462126 -0.0724466828613 0.851 1.21248022249e-38
0.0267737741009 -0.0724466828613 0.851 1.24028366558e-38
0.0283487019892 -0.0724466828613 0.851 1.28612756523e-38
0.0299236298775 -0.0724466828613 0.851 1.42377417065e-38
0.0314985577658 -0.0724466828613 0.851 1.26758095967e-38
0.0331900784355 -0.072702076573 0.854 1.40630390244e-38
0.034770558361 -0.072702076573 0.854 1.41523521833e-38
0.0364361695237 -0.0728723390474 0.856 1.3781086563e-38
0.0381091834027 -0.0730426015218 0.858 1.53509037793e-38
0.0397895999979 -0.0732128639962 0.86 1.50757882531e-38
0.0413811839978 -0.0732128639962 0.86 1.5359893109e-38
0.0429727679978 -0.0732128639962 0.86 1.66488354624e-38
-0.0241791220453 -0.0725373661358 0.871 2.34882299487e-38
-0.0225671805756 -0.0725373661358 0.871 2.28446710173e-38
-0.0209071214501 -0.0723708050195 0.869 1.34378258925e-38
-0.0192988813385 -0.0723708050195 0.869 1.55550449396e-38
-0.0176499262875 -0.0722042439032 0.867 1.49143474596e-38
-0.0159528535806 -0.0717878411125 0.862 1.70344587868e-38
-0.0143242559993 -0.0716212799963 0.86 1.35278004643e-38
-0.0127326719993 -0.0716212799963 0.86 1.10342501028e-38
-0.0111151784924 -0.07145471888 0.858 1.29624367897e-38
-0.00950508770183 -0.0712881577637 0.856 1.25021831117e-38
-0.0079023996275 -0.0711215966475 0.854 1.24978811254e-38
-0.006321919702 -0.0711215966475 0.854 1.3054282095e-38
-0.0047414397765 -0.0711215966475 0.854 1.34151570872e-38
-0.00314985577658 -0.0708717549731 0.851 1.35973931499e-38
-0.00157492788829 -0.0708717549731 0.851 1.3594882023e-38
0.0 -0.0708717549731 0.851 1.30424341165e-38
0.00157492788829 -0.0708717549731 0.851 1.30406404544e-38
0.0031424530603 -0.0707051938568 0.849 1.34079824391e-38
0.00471367959045 -0.0707051938568 0.849 1.32243114468e-38
0.0062849061206 -0.0707051938568 0.849 1.35916534314e-38
0.00785613265075 -0.0707051938568 0.849 1.30406404544e-38
0.0094273591809 -0.0707051938568 0.849 1.38671655251e-38
0.0109985857111 -0.0707051938568 0.849 1.32243394727e-38
0.0125698122412 -0.0707051938568 0.849 1.40508309122e-38
0.0141410387714 -0.0707051938568 0.849 1.35916534314e-38
0.0157122653015 -0.0707051938568 0.849 1.44206840237e-38
0.0172834918317 -0.0707051938568 0.849 1.23977919813e-38
0.0188547183618 -0.0707051938568 0.849 1.16649016741e-38
0.020425944892 -0.0707051938568 0.849 1.12064444607e-38
0.0220489904361 -0.0708717549731 0.851 1.20322436587e-38
0.0236239183244 -0.0708717549731 0.851 1.27651367686e-38
0.0251988462126 -0.0708717549731 0.851 1.28569694621e-38
0.0267737741009 -0.0708717549731 0.851 1.3778565627e-38
0.0283487019892 -0.0708717549731 0.851 1.24006618406e-38
0.0299236298775 -0.0708717549731 0.851 1.31339150841e-38
0.03160959851 -0.0711215966475 0.854 1.41484243437e-38
0.0331900784355 -0.0711215966475 0.854 1.45204116328e-38
0.03485198824 -0.0712881577637 0.856 1.30470976378e-38
0.0365213007609 -0.07145471888 0.858 1.46112157733e-38
0.0381091834027 -0.07145471888 0.858 1.59959494884e-38
0.0397895999979 -0.0716212799963 0.86 1.48045571263e-38
0.0413811839978 -0.0716212799963 0.86 1.38851413818e-38
0.0429727679978 -0.0716212799963 0.86 1.81246816038e-38
-0.0241791220453 -0.0709254246661 0.871 2.34903837444e-38
-0.0225671805756 -0.0709254246661 0.871 2.31216138367e-38
-0.0209552391059 -0.0709254246661 0.871 1.41753755171e-38
-0.0192988813385 -0.0707625649079 0.869 1.47274548822e-38
-0.017690641227 -0.0707625649079 0.869 1.56497797223e-38
-0.015989867162 -0.0703554155126 0.864 1.2144554928e-38
-0.0143575682225 -0.0701925557545 0.862 1.01955337356e-38
-0.0127326719993 -0.0700296959964 0.86 1.19457989578e-38
-0.0111410879994 -0.0700296959964 0.86 1.1856106047e-38
-0.00952729585067 -0.0698668362382 0.858 1.19493764727e-38
-0.00792090641819 -0.0697039764801 0.856 1.22252472988e-38
-0.006321919702 -0.069541116722 0.854 1.12100289822e-38
-0.0047414397765 -0.069541116722 0.854 1.18510837933e-38
-0.003160959851 -0.069541116722 0.854 1.24013793054e-38
-0.0015804799255 -0.069541116722 0.854 1.29516748175e-38
0.0 -0.0692968270848 0.851 1.25832566357e-38
0.00157492788829 -0.0692968270848 0.851 1.26740159346e-38
0.00314985577658 -0.0692968270848 0.851 1.25814867957e-38
0.00472478366487 -0.0692968270848 0.851 1.29488049583e-38
0.00629971155316 -0.0692968270848 0.851 1.34079824391e-38
0.00787463944145 -0.0692968270848 0.851 1.29488133661e-38
0.00944956732974 -0.0692968270848 0.851 1.33161469429e-38
0.0109985857111 -0.0691339673266 0.849 1.36834889275e-38
0.0125698122412 -0.0691339673266 0.849 1.37760418885e-38
0.0141410387714 -0.0691339673266 0.849 1.38671599199e-38
0.0157122653015 -0.0691339673266 0.849 1.42352193693e-38
0.0173242067712 -0.0692968270848 0.851 1.23977919813e-38
0.0188991346595 -0.0692968270848 0.851 1.28587701306e-38
0.0204740625478 -0.0692968270848 0.851 1.00100690812e-38
0.0220489904361 -0.0692968270848 0.851 1.01987623272e-38
0.0236239183244 -0.0692968270848 0.851 1.2126953218e-38
0.0251988462126 -0.0692968270848 0.851 1.29491678946e-38
0.0267737741009 -0.0692968270848 0.851 1.41441055419e-38
0.0283487019892 -0.0692968270848 0.851 1.30410033907e-38
0.0300291185845 -0.069541116722 0.854 1.35037920177e-38
0.03160959851 -0.069541116722 0.854 1.46090507671e-38
0.0331900784355 -0.069541116722 0.854 1.43335120488e-38
0.03485198824 -0.0697039764801 0.856 1.32296924329e-38
0.0365213007609 -0.0698668362382 0.858 1.52551348384e-38
0.038198015998 -0.0700296959964 0.86 1.59970396986e-38
0.0397895999979 -0.0700296959964 0.86 1.48049200626e-38
0.0413811839978 -0.0700296959964 0.86 1.5912362035e-38
0.0429727679978 -0.0700296959964 0.86 1.82144025405e-38
-0.0242346424173 -0.0694726415964 0.873 2.27503075787e-38
-0.0226189995895 -0.0694726415964 0.873 2.33042044279e-38
-0.0209552391059 -0.0693134831964 0.871 1.51891687132e-38
-0.0192988813385 -0.0691543247964 0.869 1.52809747821e-38
-0.017690641227 -0.0691543247964 0.869 1.37147827248e-38
-0.0160824011154 -0.0691543247964 0.869 9.46658948482e-39
-0.0143908804458 -0.0687564287964 0.864 1.11182089003e-38
-0.0127622828645 -0.0685972703964 0.862 1.13025833445e-38
-0.0111410879994 -0.0684381119964 0.86 1.19486590079e-38
-0.0095495039995 -0.0684381119964 0.86 1.13962111014e-38
-0.00793941320889 -0.0682789535964 0.858 1.13972872986e-38
-0.00633672513455 -0.0681197951965 0.856 1.13951349041e-38
-0.00475254385092 -0.0681197951965 0.856 1.10245643278e-38
-0.003160959851 -0.0679606367965 0.854 1.17585308323e-38
-0.0015804799255 -0.0679606367965 0.854 1.17596070295e-38
0.0 -0.0679606367965 0.854 1.16674128009e-38
0.00157492788829 -0.0677218991965 0.851 1.16659778713e-38
0.00314985577658 -0.0677218991965 0.851 1.21226442253e-38
0.00472478366487 -0.0677218991965 0.851 1.2765133966e-38
0.00629971155316 -0.0677218991965 0.851 1.31324759506e-38
0.00787463944145 -0.0677218991965 0.851 1.31324759506e-38
0.00944956732974 -0.0677218991965 0.851 1.37753286276e-38
0.011024495218 -0.0677218991965 0.851 1.36835015392e-38
0.0125994231063 -0.0677218991965 0.851 1.37756831561e-38
0.0141743509946 -0.0677218991965 0.851 1.39597128808e-38
0.0157492788829 -0.0677218991965 0.851 1.41441237587e-38
0.0173242067712 -0.0677218991965 0.851 1.24896274775e-38
0.0188991346595 -0.0677218991965 0.851 1.4883108313e-38
0.0204740625478 -0.0677218991965 0.851 1.1204290665e-38
0.022126718957 -0.0679606367965 0.854 1.09320113669e-38
0.0237071988825 -0.0679606367965 0.854 1.1572352917e-38
0.025287678808 -0.0679606367965 0.854 1.24939364703e-38
0.0268681587335 -0.0679606367965 0.854 1.39615121481e-38
0.028448638659 -0.0679606367965 0.854 1.26751047435e-38
0.0300291185845 -0.0679606367965 0.854 1.2494310617e-38
0.0316836256728 -0.0681197951965 0.856 1.35945274945e-38
0.0332678069564 -0.0681197951965 0.856 1.37778397544e-38
0.0350148479982 -0.0684381119964 0.86 1.44310872635e-38
0.0366064319981 -0.0684381119964 0.86 1.44296887676e-38
0.0382868485934 -0.0685972703964 0.862 1.37868220776e-38
0.0397895999979 -0.0684381119964 0.86 1.60910163788e-38
0.0413811839978 -0.0684381119964 0.86 1.68285603983e-38
0.0429727679978 -0.0684381119964 0.86 1.68328553781e-38
-0.0225671805756 -0.0677015417267 0.871 2.34921914194e-38
-0.0209552391059 -0.0677015417267 0.871 1.4729294787e-38
-0.0192988813385 -0.0675460846849 0.869 1.58323030512e-38
-0.017690641227 -0.0675460846849 0.869 1.02113319745e-38
-0.0160824011154 -0.0675460846849 0.869 1.11221395425e-38
-0.0144741610039 -0.0675460846849 0.869 1.00161773412e-38
-0.0127622828645 -0.0670019850384 0.862 1.10263635951e-38
-0.0111669975064 -0.0670019850384 0.862 1.10267167223e-38
-0.0095495039995 -0.0668465279965 0.86 1.13007882811e-38
-0.00795791999959 -0.0668465279965 0.86 1.12100289822e-38
-0.00635153056711 -0.0666910709547 0.858 1.06590160052e-38
-0.00476364792533 -0.0666910709547 0.858 1.06593747377e-38
-0.00316836256728 -0.0665356139128 0.856 1.08398171383e-38
-0.00158418128364 -0.0665356139128 0.856 1.14837418086e-38
0.0 -0.0665356139128 0.856 1.11156823592e-38
0.0015804799255 -0.066380156871 0.854 1.12993533515e-38
0.003160959851 -0.066380156871 0.854 1.16641842093e-38
0.00475254385092 -0.0665356139128 0.856 1.22151971862e-38
0.006321919702 -0.066380156871 0.854 1.29488049583e-38
0.0079023996275 -0.066380156871 0.854 1.35001766676e-38
0.00948287955299 -0.066380156871 0.854 1.36834889275e-38
0.011024495218 -0.0661469713082 0.851 1.38671599199e-38
0.0125994231063 -0.0661469713082 0.851 1.37753244237e-38
0.0142243193295 -0.066380156871 0.854 1.39597128808e-38
0.015804799255 -0.066380156871 0.854 1.39600716132e-38
0.0173852791805 -0.066380156871 0.854 1.23059564852e-38
0.018965759106 -0.066380156871 0.854 1.31324759506e-38
0.0205462390315 -0.066380156871 0.854 1.25821804385e-38
0.022126718957 -0.066380156871 0.854 1.18485726664e-38
0.0237071988825 -0.066380156871 0.854 1.24006618406e-38
0.025287678808 -0.066380156871 0.854 1.28569694621e-38
0.0268681587335 -0.066380156871 0.854 1.37785684296e-38
0.0285152631055 -0.0665356139128 0.856 1.18496488636e-38
0.0300994443891 -0.0665356139128 0.856 1.19447269644e-38
0.0318316799983 -0.0668465279965 0.86 1.42409590878e-38
0.0334232639983 -0.0668465279965 0.86 1.30445865109e-38
0.0350148479982 -0.0668465279965 0.86 1.40623201583e-38
0.0366064319981 -0.0668465279965 0.86 1.36935698687e-38
0.0382868485934 -0.0670019850384 0.862 1.30478347208e-38
0.0398821339514 -0.0670019850384 0.862 1.78369642005e-38
0.0414774193095 -0.0670019850384 0.862 1.77519530278e-38
0.0431726413373 -0.0671574420802 0.864 1.68350231868e-38
0.0447716280535 -0.0671574420802 0.864 2.01548057475e-38
-0.0226189995895 -0.0662413559407 0.873 2.34925613622e-38
-0.0210033567617 -0.0662413559407 0.873 1.39009760544e-38
-0.0193432976362 -0.066089600257 0.871 1.57430165169e-38
-0.0177313561665 -0.066089600257 0.871 9.38123919795e-39
-0.0161194146968 -0.066089600257 0.871 1.16789104548e-38
-0.0144741610039 -0.0659378445733 0.869 9.46517137077e-39
-0.0128659208924 -0.0659378445733 0.869 1.20469853186e-38
-0.0111669975064 -0.0654066996803 0.862 1.04764324205e-38
-0.00957171214834 -0.0654066996803 0.862 1.11192696833e-38
-0.00795791999959 -0.0652549439966 0.86 1.10270754547e-38
-0.00636633599967 -0.0652549439966 0.86 9.92648443042e-39
-0.00477475199975 -0.0652549439966 0.86 1.05696916359e-38
-0.00317576528356 -0.0651031883129 0.858 1.08423282652e-38
-0.00158788264178 -0.0651031883129 0.858 1.10274341871e-38
0.0 -0.0651031883129 0.858 1.10267167223e-38
0.00158418128364 -0.0649514326292 0.856 1.14848180059e-38
0.00316836256728 -0.0649514326292 0.856 1.15759360372e-38
0.00476364792533 -0.0651031883129 0.858 1.22187845103e-38
0.00633672513455 -0.0649514326292 0.856 1.26736572022e-38
0.00792090641819 -0.0649514326292 0.856 1.32246701792e-38
0.00948287955299 -0.0647996769455 0.854 1.36834889275e-38
0.0110633594785 -0.0647996769455 0.854 1.36834889275e-38
0.012643839404 -0.0647996769455 0.854 1.43263374006e-38
0.0142243193295 -0.0647996769455 0.854 1.38682361171e-38
0.015804799255 -0.0647996769455 0.854 1.41448188028e-38
0.0173852791805 -0.0647996769455 0.854 1.30406404544e-38
0.018965759106 -0.0647996769455 0.854 1.25814629736e-38
0.0205462390315 -0.0647996769455 0.854 1.2674374667e-38
0.0221785379709 -0.0649514326292 0.856 1.21222854929e-38
0.0237627192546 -0.0649514326292 0.856 1.15712725159e-38
0.0253469005382 -0.0649514326292 0.856 1.33176056946e-38
0.0269310818219 -0.0649514326292 0.856 1.46054312132e-38
0.028581887552 -0.0651031883129 0.858 1.27662101632e-38
0.0301697701938 -0.0651031883129 0.858 1.2862720391e-38
0.0318316799983 -0.0652549439966 0.86 1.30453320017e-38
0.0334232639983 -0.0652549439966 0.86 1.39683224586e-38
0.0350962778772 -0.0654066996803 0.862 1.27676450928e-38
0.0367766944725 -0.065558455364 0.864 1.45172180736e-38
0.0383756811887 -0.065558455364 0.864 1.79244907039e-38
0.0398821339514 -0.0654066996803 0.862 1.63661164908e-38
0.0414774193095 -0.0654066996803 0.862 1.68282044685e-38
0.0431726413373 -0.065558455364 0.864 1.66488200482e-38
0.0447716280535 -0.065558455364 0.864 2.0431031102e-38
-0.0245677646499 -0.0655140390664 0.885 2.29346960358e-38
-0.0228521851523 -0.065291957578 0.882 2.34929158907e-38
-0.021171768557 -0.0651439032524 0.88 1.3072287379e-38
-0.0193877139339 -0.0646257131129 0.873 1.50062095805e-38
-0.0177720711061 -0.0646257131129 0.873 1.04857482527e-38
-0.0161194146968 -0.0644776587873 0.871 9.92864803525e-39
-0.0145074732272 -0.0644776587873 0.871 9.46767268853e-39
-0.0128659208924 -0.0643296044618 0.869 9.37367779144e-39
-0.0111929070134 -0.0639594686478 0.864 1.1677150424e-38
-0.00957171214834 -0.0638114143223 0.862 1.03842269816e-38
-0.00797642679028 -0.0638114143223 0.862 1.019768613e-38
-0.00638114143223 -0.0638114143223 0.862 9.73850864922e-39
-0.00477475199975 -0.0636633599967 0.86 9.73814991682e-39
-0.00318316799983 -0.0636633599967 0.86 1.03820745871e-38
-0.00159158399992 -0.0636633599967 0.86 1.08426869976e-38
0.0 -0.0635153056711 0.858 1.13018644783e-38
0.00158788264178 -0.0635153056711 0.858 1.13922650449e-38
0.00317576528356 -0.0635153056711 0.858 1.17581720999e-38
0.00477475199975 -0.0636633599967 0.86 1.20311674615e-38
0.00635153056711 -0.0635153056711 0.858 1.2765133966e-38
0.00793941320889 -0.0635153056711 0.858 1.33161469429e-38
0.00952729585067 -0.0635153056711 0.858 1.38671599199e-38
0.0110892689855 -0.0633672513455 0.856 1.36849238572e-38
0.0126734502691 -0.0633672513455 0.856 1.37760418885e-38
0.0142576315527 -0.0633672513455 0.856 1.34998179352e-38
0.0158418128364 -0.0633672513455 0.856 1.3868615869e-38
0.01742599412 -0.0633672513455 0.856 1.2765133966e-38
0.0190101754037 -0.0633672513455 0.856 1.25814629736e-38
0.0205943566873 -0.0633672513455 0.856 1.35952407555e-38
0.0222303569849 -0.0635153056711 0.858 1.32246701792e-38
0.0238182396267 -0.0635153056711 0.858 1.19397075133e-38
0.0254061222684 -0.0635153056711 0.858 1.22173565872e-38
0.0269940049102 -0.0635153056711 0.858 1.47908972688e-38
0.028581887552 -0.0635153056711 0.858 1.34079908469e-38
0.0302400959984 -0.0636633599967 0.86 1.32243170519e-38
0.0319057071611 -0.0638114143223 0.862 1.31332088297e-38
0.0335009925192 -0.0638114143223 0.862 1.4238447961e-38
0.0351777077563 -0.0639594686478 0.864 1.54358967351e-38
0.0369043913283 -0.0641815501362 0.867 1.69113967557e-38
0.0385089300817 -0.0641815501362 0.867 1.5809348381e-38
0.0399746679049 -0.0639594686478 0.864 1.48946143747e-38
0.0415736546211 -0.0639594686478 0.864 1.79349275748e-38
0.0431726413373 -0.0639594686478 0.864 1.68325106586e-38
0.0447716280535 -0.0639594686478 0.864 2.0614690884e-38
-0.0244844840917 -0.0636596586385 0.882 2.23811747346e-38
-0.0228521851523 -0.0636596586385 0.882 2.34918467e-38
-0.021171768557 -0.0635153056711 0.88 1.31651710464e-38
-0.0194987546781 -0.0633709527037 0.878 1.55568806406e-38
-0.0177720711061 -0.0630100702851 0.873 8.82589340615e-39
-0.0161564282782 -0.0630100702851 0.873 1.02052559443e-38
-0.0145074732272 -0.0628657173177 0.871 9.74497984553e-39
-0.0128955317575 -0.0628657173177 0.871 8.63793163794e-39
-0.0112576807808 -0.0627213643502 0.869 1.03856857333e-38
-0.00959392029717 -0.0623604819316 0.864 1.04757107518e-38
-0.00797642679028 -0.0622161289642 0.862 1.02909565558e-38
-0.00638114143223 -0.0622161289642 0.862 9.5544789245e-39
-0.00478585607417 -0.0622161289642 0.862 9.83285527223e-39
-0.00318316799983 -0.0620717759968 0.86 1.01069268311e-38
-0.00159158399992 -0.0620717759968 0.86 1.02884454289e-38
0.0 -0.0620717759968 0.86 1.11149648944e-38
0.00158788264178 -0.0619274230293 0.858 1.12082353202e-38
0.00317576528356 -0.0619274230293 0.858 1.31400093311e-38
0.00477475199975 -0.0620717759968 0.86 1.30478151026e-38
0.00636633599967 -0.0620717759968 0.86 1.34108522983e-38
0.00795791999959 -0.0620717759968 0.86 1.38678773847e-38
0.00952729585067 -0.0619274230293 0.858 1.41430251407e-38
0.0111151784924 -0.0619274230293 0.858 1.38671641238e-38
0.0127030611342 -0.0619274230293 0.858 1.38682361171e-38
0.0142576315527 -0.0617830700619 0.856 1.36834889275e-38
0.0158418128364 -0.0617830700619 0.856 1.46036375512e-38
0.01742599412 -0.0617830700619 0.856 1.23059564852e-38
0.0190101754037 -0.0617830700619 0.856 1.10224119334e-38
0.0206424743431 -0.0619274230293 0.858 1.24914211395e-38
0.0222303569849 -0.0619274230293 0.858 1.31324759506e-38
0.0238182396267 -0.0619274230293 0.858 1.4147688662e-38
0.0254653439987 -0.0620717759968 0.86 1.17549435082e-38
0.0270569279986 -0.0620717759968 0.86 1.26783207235e-38
0.0286485119985 -0.0620717759968 0.86 1.12957660274e-38
0.0302400959984 -0.0620717759968 0.86 1.32261135166e-38
0.0319057071611 -0.0622161289642 0.862 1.51589567183e-38
0.0335009925192 -0.0622161289642 0.862 1.55237931813e-38
0.035381282454 -0.0627213643502 0.869 1.64475305302e-38
0.0369895225655 -0.0627213643502 0.869 1.60823381375e-38
0.0385977626771 -0.0627213643502 0.869 1.27698213093e-38
0.0402060027886 -0.0627213643502 0.869 1.56343346106e-38
0.0417180075885 -0.0625770113828 0.867 1.72924266237e-38
0.0433225463419 -0.0625770113828 0.867 1.72009344457e-38
0.0449270850953 -0.0625770113828 0.867 2.09820524868e-38
-0.0244844840917 -0.0620273596991 0.882 2.2473724893e-38
-0.0228521851523 -0.0620273596991 0.882 2.34903893496e-38
-0.021171768557 -0.0618867080898 0.88 1.40867672113e-38
-0.0195431709757 -0.0618867080898 0.88 1.47263955005e-38
-0.0178738584549 -0.0617460564805 0.878 8.73551946429e-39
-0.0161934418596 -0.0615350790666 0.875 1.02059383767e-38
-0.0145740976737 -0.0615350790666 0.875 9.09819092114e-39
-0.0128955317575 -0.061253775848 0.871 8.08833957763e-39
-0.0112576807808 -0.0611131242387 0.869 8.73155238834e-39
-0.00962723252043 -0.0609724726294 0.867 9.6484668151e-39
-0.00802269376702 -0.0609724726294 0.867 1.00154500673e-38
-0.00639594686478 -0.0607614952154 0.864 1.08416108003e-38
-0.00479696014859 -0.0607614952154 0.864 1.08423282652e-38
-0.00319057071611 -0.0606208436061 0.862 1.14848180059e-38
-0.00159528535806 -0.0606208436061 0.862 1.08398171383e-38
0.0 -0.0604801919968 0.86 1.13926237773e-38
0.00159158399992 -0.0604801919968 0.86 1.13904713828e-38
0.00318316799983 -0.0604801919968 0.86 1.46144233454e-38
0.00477475199975 -0.0604801919968 0.86 1.28652203075e-38
0.00636633599967 -0.0604801919968 0.86 1.42380892286e-38
0.00795791999959 -0.0604801919968 0.86 1.40519253263e-38
0.0095495039995 -0.0604801919968 0.86 1.43263374006e-38
0.0111151784924 -0.0603395403876 0.858 1.40508309122e-38
0.0127030611342 -0.0603395403876 0.858 1.3958995416e-38
0.014290943776 -0.0603395403876 0.858 1.43284897951e-38
0.0158788264178 -0.0603395403876 0.858 1.4606148678e-38
0.0174667090596 -0.0603395403876 0.858 1.23977919813e-38
0.0190545917013 -0.0603395403876 0.858 1.20315261939e-38
0.0206424743431 -0.0603395403876 0.858 1.17570959027e-38
0.0222821759988 -0.0604801919968 0.86 1.28623504482e-38
0.0238737599988 -0.0604801919968 0.86 1.30427928489e-38
0.0255245657289 -0.0606208436061 0.862 1.25864852273e-38
0.027119851087 -0.0606208436061 0.862 1.2587920157e-38
0.028715136445 -0.0606208436061 0.862 1.01955337356e-38
0.0303104218031 -0.0606208436061 0.862 1.22198719179e-38
0.0320907750681 -0.0609724726294 0.867 1.6725906878e-38
0.0337730423424 -0.0611131242387 0.869 1.50667610884e-38
0.035381282454 -0.0611131242387 0.869 1.37753496471e-38
0.0369895225655 -0.0611131242387 0.869 1.33254964063e-38
0.0385977626771 -0.0611131242387 0.869 1.47134853378e-38
0.0402060027886 -0.0611131242387 0.869 1.65537657694e-38
0.0417180075885 -0.0609724726294 0.867 1.54485168291e-38
0.0433225463419 -0.0609724726294 0.867 1.86767679753e-38
0.0449270850953 -0.0609724726294 0.867 2.13501259492e-38
-0.0228521851523 -0.0603950607596 0.882 2.34896788913e-38
-0.021171768557 -0.0602581105085 0.88 1.61150682657e-38
-0.0195431709757 -0.0602581105085 0.88 1.36197158344e-38
-0.0178738584549 -0.0601211602573 0.878 9.93476190045e-39
-0.0161934418596 -0.0599157348806 0.875 9.47271035651e-39
-0.0145740976737 -0.0599157348806 0.875 8.63900643386e-39
-0.0129251426226 -0.0597787846294 0.873 7.99471041944e-39
-0.0112835902878 -0.0596418343783 0.871 7.99399295463e-39
-0.00964944066926 -0.0595048841271 0.869 9.371525397e-39
-0.00804120055772 -0.0595048841271 0.869 1.01062093663e-38
-0.00641815501362 -0.059367933876 0.867 1.07490578394e-38
-0.00479696014859 -0.0591625084992 0.864 1.12989946191e-38
-0.00319797343239 -0.0591625084992 0.864 1.24035345024e-38
-0.0015989867162 -0.0591625084992 0.864 1.19465066135e-38
0.0 -0.0590255582481 0.862 1.17614006915e-38
0.00159528535806 -0.0590255582481 0.862 1.24042491647e-38
0.00319057071611 -0.0590255582481 0.862 1.35030465269e-38
0.00478585607417 -0.0590255582481 0.862 1.44235538829e-38
0.00636633599967 -0.0588886079969 0.86 1.4606148678e-38
0.00795791999959 -0.0588886079969 0.86 1.41451775352e-38
0.0095495039995 -0.0588886079969 0.86 1.43284897951e-38
0.0111410879994 -0.0588886079969 0.86 1.39590066264e-38
0.0127326719993 -0.0588886079969 0.86 1.46954730473e-38
0.0143242559993 -0.0588886079969 0.86 1.45114433226e-38
0.0158788264178 -0.0587516577458 0.858 1.44196344511e-38
0.0174667090596 -0.0587516577458 0.858 1.26732984698e-38
0.019099007999 -0.0588886079969 0.86 1.33165084779e-38
0.0206905919989 -0.0588886079969 0.86 1.18467874122e-38
0.0222821759988 -0.0588886079969 0.86 1.19404081626e-38
0.0239292803708 -0.0590255582481 0.862 1.2401020573e-38
0.0255245657289 -0.0590255582481 0.862 1.18485726664e-38
0.0271827741753 -0.0591625084992 0.864 1.35059219913e-38
0.0287817608915 -0.0591625084992 0.864 1.30467389054e-38
0.0304862363147 -0.059367933876 0.867 1.24038904322e-38
0.0320907750681 -0.059367933876 0.867 1.30460228418e-38
0.0337730423424 -0.0595048841271 0.869 1.32279127838e-38
0.035381282454 -0.0595048841271 0.869 1.27719751051e-38
0.0369895225655 -0.0595048841271 0.869 1.36052852628e-38
0.0385977626771 -0.0595048841271 0.869 1.70107978623e-38
0.0402060027886 -0.0595048841271 0.869 1.53512569065e-38
0.0418142429001 -0.0595048841271 0.869 1.8575978182e-38
0.0434224830117 -0.0595048841271 0.869 1.7846319269e-38
-0.0228521851523 -0.0587627618202 0.882 2.34911208274e-38
-0.0212198862128 -0.0587627618202 0.882 1.67611887707e-38
-0.0195431709757 -0.0586295129272 0.88 1.27895838216e-38
-0.0179145733944 -0.0586295129272 0.88 9.75179996516e-39
-0.0162489622317 -0.0584962640342 0.878 9.38088887334e-39
-0.0146240660085 -0.0584962640342 0.878 9.28472897012e-39
-0.0129547534877 -0.0582963906946 0.875 8.63935675848e-39
-0.0113094997948 -0.0581631418016 0.873 9.00741760922e-39
-0.0096716488181 -0.0580298929086 0.871 8.73083352223e-39
-0.00804120055772 -0.0578966440156 0.869 1.01054919014e-38
-0.00643296044618 -0.0578966440156 0.869 1.0748699107e-38
-0.00481361626021 -0.0577633951226 0.867 1.18503663284e-38
-0.00319797343239 -0.057563521783 0.864 1.2401020573e-38
-0.0015989867162 -0.057563521783 0.864 1.26761683291e-38
0.0 -0.05743027289 0.862 1.35048401889e-38
0.00159528535806 -0.05743027289 0.862 1.35984693471e-38
0.00319057071611 -0.05743027289 0.862 1.46090185373e-38
0.00478585607417 -0.05743027289 0.862 1.48838075609e-38
0.00636633599967 -0.057297023997 0.86 1.49752913312e-38
0.00795791999959 -0.057297023997 0.86 1.43299247247e-38
0.0095495039995 -0.057297023997 0.86 1.48773503776e-38
0.0111410879994 -0.057297023997 0.86 1.46036375512e-38
0.0127326719993 -0.057297023997 0.86 1.46018438891e-38
0.0143242559993 -0.057297023997 0.86 1.47855148814e-38
0.0159158399992 -0.057297023997 0.86 1.53383215204e-38
0.0175074239991 -0.057297023997 0.86 1.23977919813e-38
0.019099007999 -0.057297023997 0.86 1.24935833431e-38
0.0207387096547 -0.05743027289 0.862 1.26761683291e-38
0.0223339950128 -0.05743027289 0.862 1.30442277785e-38
0.0239292803708 -0.05743027289 0.862 1.29531209575e-38
0.0255245657289 -0.05743027289 0.862 1.1942560557e-38
0.0271827741753 -0.057563521783 0.864 1.19418613091e-38
0.0287817608915 -0.057563521783 0.864 1.3778565627e-38
0.0304862363147 -0.0577633951226 0.867 1.23977919813e-38
0.0320907750681 -0.0577633951226 0.867 1.16638254769e-38
0.0337730423424 -0.0578966440156 0.869 1.48870739876e-38
0.035381282454 -0.0578966440156 0.869 1.41491277955e-38
0.0370746538027 -0.0580298929086 0.871 1.53498345886e-38
0.0386865952724 -0.0580298929086 0.871 1.4799184548e-38
0.0402060027886 -0.0578966440156 0.869 1.64554786951e-38
0.0418142429001 -0.0578966440156 0.869 1.92191965979e-38
0.0434224830117 -0.0578966440156 0.869 1.80299524263e-38
-0.0212198862128 -0.0571304628807 0.882 1.73139926071e-38
-0.0195875872734 -0.0571304628807 0.882 1.35285964018e-38
-0.0179552883339 -0.0571304628807 0.882 1.05829871558e-38
-0.0162859758131 -0.0570009153459 0.88 9.01066161517e-39
-0.0146573782318 -0.0570009153459 0.88 9.28401991309e-39
-0.0129991697854 -0.056871367811 0.878 8.54966945286e-39
-0.0113354093017 -0.0566770465087 0.875 8.36205240407e-39
-0.0096716488181 -0.0564179514389 0.871 8.82123128616e-39
-0.00805970734842 -0.0564179514389 0.871 9.83034414538e-39
-0.00643296044618 -0.056288403904 0.869 1.06554286812e-38
-0.00482472033463 -0.056288403904 0.869 1.17574546351e-38
-0.00320907750681 -0.0561588563692 0.867 1.28601980538e-38
-0.0015989867162 -0.0559645350669 0.864 1.35030465269e-38
0.0 -0.0559645350669 0.864 1.35955994879e-38
0.0015989867162 -0.0559645350669 0.864 1.49806653108e-38
0.00319057071611 -0.055834987532 0.862 1.52590416585e-38
0.00478585607417 -0.055834987532 0.862 1.65533481825e-38
0.00638114143223 -0.055834987532 0.862 1.55385194268e-38
0.00797642679028 -0.055834987532 0.862 1.47959181212e-38
0.00957171214834 -0.055834987532 0.862 1.46057899456e-38
0.0111669975064 -0.055834987532 0.862 1.60809354377e-38
0.0127622828645 -0.055834987532 0.862 1.4510008393e-38
0.0143575682225 -0.055834987532 0.862 1.49691858738e-38
0.0159528535806 -0.055834987532 0.862 1.51557267253e-38
0.0175481389386 -0.055834987532 0.862 1.23977919813e-38
0.0191434242967 -0.055834987532 0.862 1.15759500502e-38
0.0207387096547 -0.055834987532 0.862 1.13000708163e-38
0.0223858140267 -0.0559645350669 0.864 1.2033319856e-38
0.0239848007429 -0.0559645350669 0.864 1.35923751001e-38
0.0255837874591 -0.0559645350669 0.864 1.21233616901e-38
0.0272771588079 -0.0561588563692 0.867 1.06550699488e-38
0.0288816975613 -0.0561588563692 0.867 1.2126605696e-38
0.0305565621193 -0.056288403904 0.869 1.38732583708e-38
0.0321648022309 -0.056288403904 0.869 1.40587230251e-38
0.0337730423424 -0.056288403904 0.869 1.49813827756e-38
0.035462712333 -0.0564179514389 0.871 1.46990603714e-38
0.0370746538027 -0.0564179514389 0.871 1.60866737549e-38
0.0386865952724 -0.0564179514389 0.871 1.42449135521e-38
0.0402985367421 -0.0564179514389 0.871 1.73749182617e-38
0.0419104782118 -0.0564179514389 0.871 2.00485677057e-38
0.0444218497093 -0.0575838792528 0.889 1.81214614199e-38
-0.0213401803524 -0.0558127793831 0.887 1.88795330605e-38
-0.0196986280176 -0.0558127793831 0.887 1.36193655098e-38
-0.0179552883339 -0.0554981639413 0.882 1.03975000806e-38
-0.0163229893945 -0.0554981639413 0.882 8.6426203826e-39
-0.014690690455 -0.0554981639413 0.882 9.00923088943e-39
-0.0130287806505 -0.0553723177646 0.88 8.45604449857e-39
-0.0114001830692 -0.0553723177646 0.88 8.36205240407e-39
-0.00969385696694 -0.054931856146 0.873 8.63684142773e-39
-0.00807821413911 -0.054931856146 0.873 9.82890921575e-39
-0.00644776587873 -0.0548060099692 0.871 1.09312939021e-38
-0.00483582440905 -0.0548060099692 0.871 1.17578133675e-38
-0.00321648022309 -0.0546801637925 0.869 1.22187845103e-38
-0.00160824011154 -0.0546801637925 0.869 1.21265902817e-38
0.0 -0.0546801637925 0.869 1.36881524488e-38
0.00160824011154 -0.0546801637925 0.869 1.53483870473e-38
0.00320907750681 -0.0545543176158 0.867 1.37810641422e-38
0.00479696014859 -0.0543655483507 0.864 1.98766788309e-38
0.00638114143223 -0.0542397021739 0.862 1.61031964651e-38
0.00797642679028 -0.0542397021739 0.862 1.43374749208e-38
0.00957171214834 -0.0542397021739 0.862 1.50671198208e-38
0.0111669975064 -0.0542397021739 0.862 1.46969079769e-38
0.0127622828645 -0.0542397021739 0.862 1.4970262071e-38
0.0143575682225 -0.0542397021739 0.862 1.50613801023e-38
0.0159528535806 -0.0542397021739 0.862 1.61706101316e-38
0.0175481389386 -0.0542397021739 0.862 1.18467790044e-38
0.0191878405943 -0.0543655483507 0.864 1.09313023098e-38
0.0208590037943 -0.0545543176158 0.867 1.05639519174e-38
0.0224635425477 -0.0545543176158 0.867 1.04706814916e-38
