# .PCD v0.7 - Point Cloud Data file format
VERSION 0.7
FIELDS x y z rgb
SIZE 4 4 4 4
TYPE F F F F
COUNT 1 1 1 1
WIDTH 842
HEIGHT 1
VIEWPOINT 0 0 0 1 0 0 0
POINTS 842
DATA ascii
0.0406594191607 -0.0813188383213 0.845 1.74696306236e-38
0.0422232429745 -0.0813188383213 0.845 1.72884469361e-38
0.0440979808721 -0.0818962501911 0.851 2.33819694861e-38
0.0458339178395 -0.082184956126 0.854 2.19147413304e-38
0.047414397765 -0.082184956126 0.854 2.3109328653e-38
0.0489948776905 -0.082184956126 0.854 2.34965130239e-38
-0.0222303569849 -0.0809820147307 0.858 2.34940018971e-38
-0.0206424743431 -0.0809820147307 0.858 1.72221627161e-38
-0.018965759106 -0.0806044762005 0.854 1.04800085342e-38
-0.0173852791805 -0.0806044762005 0.854 1.59152150787e-38
-0.0157492788829 -0.0803213223028 0.851 1.7218124174e-38
-0.0141743509946 -0.0803213223028 0.851 1.52810140184e-38
-0.0125698122412 -0.0801325530377 0.849 1.42610915428e-38
-0.0109726762041 -0.0799437837726 0.847 1.30575008776e-38
-0.00940515103207 -0.0799437837726 0.847 1.46262376928e-38
-0.00781911906936 -0.0797550145075 0.845 1.28709642299e-38
-0.00625529525549 -0.0797550145075 0.845 1.30514024266e-38
-0.0046803673672 -0.0795662452424 0.843 1.47087615607e-38
-0.00312024491147 -0.0795662452424 0.843 1.72927405146e-38
-0.00155642109759 -0.0793774759773 0.841 1.5178326867e-38
0.0 -0.0793774759773 0.841 1.50843431803e-38
0.00155271973945 -0.0791887067122 0.839 1.78487771465e-38
0.00310543947891 -0.0791887067122 0.839 1.49010267164e-38
0.00465815921836 -0.0791887067122 0.839 1.35130910343e-38
0.00619607352526 -0.078999937447 0.837 1.84963003513e-38
0.00774509190657 -0.078999937447 0.837 1.36138948406e-38
0.00929411028789 -0.078999937447 0.837 1.46158442621e-38
0.0108431286692 -0.078999937447 0.837 1.46161931854e-38
0.0123625361854 -0.0788111681819 0.835 1.51715109512e-38
0.0139078532086 -0.0788111681819 0.835 1.61881585923e-38
0.0154161566504 -0.0786223989168 0.833 1.86814371018e-38
0.0169577723154 -0.0786223989168 0.833 1.25950948051e-38
0.0184993879804 -0.0786223989168 0.833 1.42345145162e-38
0.0200891213013 -0.0788111681819 0.835 1.46018438891e-38
0.0216344383245 -0.0788111681819 0.835 1.48773503776e-38
0.0231797553476 -0.0788111681819 0.835 1.43263374006e-38
0.0247250723708 -0.0788111681819 0.835 1.44181728968e-38
0.0263333124823 -0.078999937447 0.837 1.42355781017e-38
0.0278823308637 -0.078999937447 0.837 1.48791440396e-38
0.029431349245 -0.078999937447 0.837 1.49716970006e-38
0.0310543947891 -0.0791887067122 0.839 1.47008554347e-38
0.0326848430495 -0.0793774759773 0.841 1.51604070622e-38
0.0342412641471 -0.0793774759773 0.841 1.44261028448e-38
0.0358828164819 -0.0795662452424 0.843 1.66337364715e-38
0.0375317715329 -0.0797550145075 0.845 1.53458689139e-38
0.0390955953468 -0.0797550145075 0.845 1.56253326693e-38
0.0407556544723 -0.0799437837726 0.847 1.55356677844e-38
0.0423231796443 -0.0799437837726 0.847 1.76582804294e-38
0.044253437914 -0.0806044762005 0.854 2.34752539249e-38
0.0458339178395 -0.0806044762005 0.854 2.16363467657e-38
0.047414397765 -0.0806044762005 0.854 2.34817321277e-38
0.0489948776905 -0.0806044762005 0.854 2.34939822789e-38
-0.0239292803708 -0.0797642679028 0.862 2.34918368909e-38
-0.0222821759988 -0.0795791999959 0.86 2.34911180248e-38
-0.0206905919989 -0.0795791999959 0.86 1.75913025667e-38
-0.0190545917013 -0.0793941320889 0.858 1.1126099612e-38
-0.01742599412 -0.0792090641819 0.856 1.5457479534e-38
-0.015804799255 -0.079023996275 0.854 1.51887609353e-38
-0.0142243193295 -0.079023996275 0.854 1.47270569134e-38
-0.0125994231063 -0.0787463944145 0.851 1.51869434512e-38
-0.011024495218 -0.0787463944145 0.851 1.2599399594e-38
-0.0094273591809 -0.0785613265075 0.849 1.5083980244e-38
-0.00785613265075 -0.0785613265075 0.849 1.34219730029e-38
-0.00627010068805 -0.0783762586006 0.847 1.46194217771e-38
-0.00469147144162 -0.0781911906936 0.845 1.46165519178e-38
-0.00312024491147 -0.0780061227866 0.843 1.55392116683e-38
-0.00156012245573 -0.0780061227866 0.843 1.60966818285e-38
0.0 -0.0778210548797 0.841 1.28652203075e-38
0.00155642109759 -0.0778210548797 0.841 1.47966383886e-38
0.00311284219519 -0.0778210548797 0.841 1.55417466172e-38
0.00465815921836 -0.0776359869727 0.839 1.6006281262e-38
0.00621087895782 -0.0776359869727 0.839 1.49017441813e-38
0.00776359869727 -0.0776359869727 0.839 1.63786553094e-38
0.00931631843672 -0.0776359869727 0.839 1.23156422602e-38
0.0108690381762 -0.0776359869727 0.839 1.47959181212e-38
0.0123625361854 -0.0772658511588 0.835 1.52576067289e-38
0.0139078532086 -0.0772658511588 0.835 1.60938119693e-38
0.0154531702318 -0.0772658511588 0.835 1.61892347895e-38
0.0169984872549 -0.0772658511588 0.835 1.68360293191e-38
0.0185438042781 -0.0772658511588 0.835 1.47988286181e-38
0.0200891213013 -0.0772658511588 0.835 1.37760418885e-38
0.0216344383245 -0.0772658511588 0.835 1.48787853072e-38
0.0231797553476 -0.0772658511588 0.835 1.48773503776e-38
0.0247250723708 -0.0772658511588 0.835 1.4510008393e-38
0.0263333124823 -0.0774509190657 0.837 1.46936793853e-38
0.0278823308637 -0.0774509190657 0.837 1.46018438891e-38
0.0295016750496 -0.0776359869727 0.839 1.44214014885e-38
0.0311284219519 -0.0778210548797 0.841 1.48809405043e-38
0.0327625715704 -0.0780061227866 0.843 1.47908958675e-38
0.0343226940261 -0.0780061227866 0.843 1.50671198208e-38
0.0359679477191 -0.0781911906936 0.845 1.54351792703e-38
0.0375317715329 -0.0781911906936 0.845 1.62653266974e-38
0.0390955953468 -0.0781911906936 0.845 1.56260487328e-38
0.0408518897839 -0.0785613265075 0.849 1.6825690539e-38
0.0424231163141 -0.0785613265075 0.849 1.74735304373e-38
0.0443570759419 -0.0792090641819 0.856 2.34720127216e-38
0.0459412572255 -0.0792090641819 0.856 2.15437980087e-38
0.0476364792533 -0.0793941320889 0.858 2.3482780299e-38
0.0492243618951 -0.0793941320889 0.858 2.34943564256e-38
-0.0239292803708 -0.0781689825448 0.862 2.32123619252e-38
-0.0223339950128 -0.0781689825448 0.862 2.34918284831e-38
-0.0206905919989 -0.0779876159959 0.86 1.88820413848e-38
-0.0190545917013 -0.0778062494471 0.858 9.92935428968e-39
-0.01742599412 -0.0776248828983 0.856 1.35195538228e-38
-0.0158418128364 -0.0776248828983 0.856 1.51862273877e-38
-0.0142243193295 -0.0774435163495 0.854 1.49092873709e-38
-0.012643839404 -0.0774435163495 0.854 1.40798882371e-38
-0.011024495218 -0.0771714665262 0.851 1.36124697201e-38
-0.00944956732974 -0.0771714665262 0.851 1.46237265659e-38
-0.00787463944145 -0.0771714665262 0.851 1.44400555736e-38
-0.0062849061206 -0.0769900999774 0.849 1.39740621771e-38
-0.00470257551603 -0.0768087334286 0.847 1.43370993729e-38
-0.00313505034402 -0.0768087334286 0.847 1.44296523338e-38
-0.00156382381387 -0.0766273668797 0.845 1.56292549037e-38
0.0 -0.0766273668797 0.845 1.51750982753e-38
0.00156382381387 -0.0766273668797 0.845 1.25900725514e-38
0.00312024491147 -0.0764460003309 0.843 1.51711522188e-38
0.0046803673672 -0.0764460003309 0.843 1.44379031792e-38
0.00624048982293 -0.0764460003309 0.843 1.48038102342e-38
0.00780061227866 -0.0764460003309 0.843 1.5912671722e-38
0.00933852658556 -0.0762646337821 0.841 1.61009866174e-38
0.0108949476832 -0.0762646337821 0.841 1.32343559541e-38
0.0124513687807 -0.0762646337821 0.841 1.51636188383e-38
0.0140077898783 -0.0762646337821 0.841 1.39683224586e-38
0.0155642109759 -0.0762646337821 0.841 1.46118883965e-38
0.0170392021945 -0.0759019006844 0.837 1.58104175718e-38
0.0185882205758 -0.0759019006844 0.837 1.66430368894e-38
0.0201853566129 -0.0760832672332 0.839 1.47044413575e-38
0.0217380763524 -0.0760832672332 0.839 1.41466124648e-38
0.0232907960918 -0.0760832672332 0.839 1.46940381177e-38
0.0248435158313 -0.0760832672332 0.839 1.46936793853e-38
0.0263962355707 -0.0760832672332 0.839 1.48773503776e-38
0.0279489553102 -0.0760832672332 0.839 1.50631737644e-38
0.0295720008543 -0.0762646337821 0.841 1.41444600704e-38
0.0312024491147 -0.0764460003309 0.843 1.54352129014e-38
0.0327625715704 -0.0764460003309 0.843 1.45164655763e-38
0.0344041239052 -0.0766273668797 0.845 1.53440612389e-38
0.0359679477191 -0.0766273668797 0.845 1.52508020235e-38
0.0375317715329 -0.0766273668797 0.845 1.56192566391e-38
0.0392806632538 -0.0769900999774 0.849 1.60888065312e-38
0.0408518897839 -0.0769900999774 0.849 1.54420358237e-38
0.0424231163141 -0.0769900999774 0.849 1.77497305685e-38
0.0443570759419 -0.0776248828983 0.856 2.2824157409e-38
0.0459412572255 -0.0776248828983 0.856 2.22806343724e-38
0.0476364792533 -0.0778062494471 0.858 2.3488189311e-38
0.0492243618951 -0.0778062494471 0.858 2.34918452987e-38
-0.0239292803708 -0.0765736971867 0.862 2.31198131681e-38
-0.0223339950128 -0.0765736971867 0.862 2.34932578076e-38
-0.0207387096547 -0.0765736971867 0.862 1.96199749652e-38
-0.0190545917013 -0.0762183668053 0.858 1.10364431349e-38
-0.01742599412 -0.0760407016146 0.856 1.28763550251e-38
-0.0158418128364 -0.0760407016146 0.856 1.62925875577e-38
-0.0142243193295 -0.075863036424 0.854 1.53702613163e-38
-0.012643839404 -0.075863036424 0.854 1.57390508423e-38
-0.0110633594785 -0.075863036424 0.854 1.32440431304e-38
-0.00944956732974 -0.0755965386379 0.851 1.70197423504e-38
-0.00787463944145 -0.0755965386379 0.851 1.40713080866e-38
-0.00629971155316 -0.0755965386379 0.851 1.50825453143e-38
-0.00471367959045 -0.0754188734472 0.849 1.38822266809e-38
-0.0031424530603 -0.0754188734472 0.849 1.40644627436e-38
-0.00156752517201 -0.0752412082565 0.847 1.64615126863e-38
0.0 -0.0752412082565 0.847 1.52680099687e-38
0.00156382381387 -0.0750635430659 0.845 1.36074376573e-38
0.00312764762774 -0.0750635430659 0.845 1.48945695331e-38
0.00469147144162 -0.0750635430659 0.845 1.50829040467e-38
0.00625529525549 -0.0750635430659 0.845 1.48974393924e-38
0.00780061227866 -0.0748858778752 0.843 1.42502861304e-38
0.0093607347344 -0.0748858778752 0.843 1.72037636673e-38
0.0109208571901 -0.0748858778752 0.843 1.56404232524e-38
0.0124809796459 -0.0748858778752 0.843 1.36953327022e-38
0.0140077898783 -0.0747082126845 0.841 1.45204116328e-38
0.0155642109759 -0.0747082126845 0.841 1.48899060118e-38
0.0171206320735 -0.0747082126845 0.841 1.50757336025e-38
0.0186770531711 -0.0747082126845 0.841 1.5815794354e-38
0.0201853566129 -0.0745305474938 0.839 1.5725800164e-38
0.0217380763524 -0.0745305474938 0.839 1.38703885115e-38
0.0233463164639 -0.0747082126845 0.841 1.49699061412e-38
0.0249619592917 -0.0748858778752 0.843 1.45110845902e-38
0.0265220817475 -0.0748858778752 0.843 1.46936793853e-38
0.0280822042032 -0.0748858778752 0.843 1.43277723303e-38
0.0296423266589 -0.0748858778752 0.843 1.44199819731e-38
0.0312024491147 -0.0748858778752 0.843 1.46061514806e-38
0.0328403000913 -0.0750635430659 0.845 1.54341030731e-38
0.0344855537843 -0.0752412082565 0.847 1.55263001042e-38
0.0361382101935 -0.0754188734472 0.849 1.58976203752e-38
0.037798269319 -0.0755965386379 0.851 1.47930608737e-38
0.0393731972073 -0.0755965386379 0.851 1.59959228638e-38
0.0409481250955 -0.0755965386379 0.851 1.42467268323e-38
0.0426729579885 -0.075863036424 0.854 1.76582776268e-38
0.0443570759419 -0.0760407016146 0.856 2.15334213935e-38
0.0459412572255 -0.0760407016146 0.856 2.32043689188e-38
0.0475254385092 -0.0760407016146 0.856 2.34867655918e-38
-0.0241236016732 -0.0755872852426 0.869 2.34864348853e-38
-0.0224635425477 -0.07541332141 0.867 2.34911054131e-38
-0.0207387096547 -0.0749784118287 0.862 2.0172076751e-38
-0.019099007999 -0.0748044479961 0.86 1.11275821857e-38
-0.0175074239991 -0.0748044479961 0.86 1.11246576758e-38
-0.0158788264178 -0.0746304841636 0.858 1.67507364855e-38
-0.0142243193295 -0.0742825564985 0.854 1.6566280766e-38
-0.012643839404 -0.0742825564985 0.854 1.6384085341e-38
-0.0110633594785 -0.0742825564985 0.854 1.44450778273e-38
-0.00944956732974 -0.0740216107496 0.851 1.43421314356e-38
-0.00787463944145 -0.0740216107496 0.851 1.48974393924e-38
-0.00629971155316 -0.0740216107496 0.851 1.34183856789e-38
-0.00471367959045 -0.0738476469171 0.849 1.42459813415e-38
-0.0031424530603 -0.0738476469171 0.849 1.45236402244e-38
-0.00157122653015 -0.0738476469171 0.849 1.47087461464e-38
0.0 -0.0738476469171 0.849 1.42488512008e-38
0.00156752517201 -0.0736736830845 0.847 1.42492099332e-38
0.00313505034402 -0.0736736830845 0.847 1.48953024122e-38
0.00469147144162 -0.073499719252 0.845 1.40666151381e-38
0.00625529525549 -0.073499719252 0.845 1.61910284515e-38
0.00781911906936 -0.073499719252 0.845 1.41634728879e-38
0.00938294288323 -0.073499719252 0.845 1.45272275485e-38
0.0109208571901 -0.0733257554194 0.843 1.66534443331e-38
0.0124809796459 -0.0733257554194 0.843 1.39776635142e-38
0.0140411021016 -0.0733257554194 0.843 1.44300138688e-38
0.0156012245573 -0.0733257554194 0.843 1.49838939024e-38
0.0171613470131 -0.0733257554194 0.843 1.45250751541e-38
0.0186770531711 -0.0731517915869 0.841 1.71973022801e-38
0.0202334742687 -0.0731517915869 0.841 1.45257926189e-38
0.0217898953663 -0.0731517915869 0.841 1.47912545999e-38
0.023401836836 -0.0733257554194 0.843 1.51560882603e-38
0.0249619592917 -0.0733257554194 0.843 1.51553679929e-38
0.0265220817475 -0.0733257554194 0.843 1.47891022055e-38
0.0281488286497 -0.073499719252 0.845 1.46954730473e-38
0.0297126524636 -0.073499719252 0.845 1.49713438734e-38
0.0312764762774 -0.073499719252 0.845 1.44210427561e-38
0.0329180286122 -0.0736736830845 0.847 1.49713382682e-38
0.0344855537843 -0.0736736830845 0.847 1.5157161655e-38
0.0361382101935 -0.0738476469171 0.849 1.47941244592e-38
0.037798269319 -0.0740216107496 0.851 1.5712508848e-38
0.0395119981375 -0.0742825564985 0.854 1.66402230821e-38
0.041092478063 -0.0742825564985 0.854 1.52623108878e-38
0.0426729579885 -0.0742825564985 0.854 1.69207350087e-38
0.044253437914 -0.0742825564985 0.854 2.0608967981e-38
0.0458339178395 -0.0742825564985 0.854 2.34805914708e-38
0.047414397765 -0.0742825564985 0.854 2.34878473942e-38
-0.0241236016732 -0.073979045131 0.869 2.33016638737e-38
-0.0224635425477 -0.0738087826566 0.867 2.34907522859e-38
-0.0208590037943 -0.0738087826566 0.867 2.05397802707e-38
-0.0191434242967 -0.0733831264706 0.862 1.13105287068e-38
-0.0175481389386 -0.0733831264706 0.862 1.20473356432e-38
-0.0158788264178 -0.0730426015218 0.858 1.63787099601e-38
-0.014290943776 -0.0730426015218 0.858 1.72116347608e-38
-0.0127030611342 -0.0730426015218 0.858 1.50915136245e-38
-0.0110892689855 -0.0728723390474 0.856 1.49060489701e-38
-0.00948287955299 -0.072702076573 0.854 1.37871625931e-38
-0.0079023996275 -0.072702076573 0.854 1.45265128863e-38
-0.00629971155316 -0.0724466828613 0.851 1.40658976733e-38
-0.00472478366487 -0.0724466828613 0.851 1.47080286816e-38
-0.00314985577658 -0.0724466828613 0.851 1.4064821476e-38
-0.00157492788829 -0.0724466828613 0.851 1.43421216265e-38
0.0 -0.0722764203869 0.849 1.4249927398e-38
0.00157122653015 -0.0722764203869 0.849 1.44375444468e-38
0.00313505034402 -0.0721061579125 0.847 1.49910685506e-38
0.00469147144162 -0.0719358954381 0.845 1.48048864314e-38
0.00625529525549 -0.0719358954381 0.845 1.489708066e-38
0.00781911906936 -0.0719358954381 0.845 1.57304160411e-38
0.00938294288323 -0.0719358954381 0.845 1.48095499527e-38
0.0109467666971 -0.0719358954381 0.845 1.56364435648e-38
0.012510590511 -0.0719358954381 0.845 1.71165580613e-38
0.0140744143248 -0.0719358954381 0.845 1.4440414306e-38
0.0156012245573 -0.0717656329637 0.843 1.65562292521e-38
0.0171613470131 -0.0717656329637 0.843 1.5083980244e-38
0.0187214694688 -0.0717656329637 0.843 1.58190229456e-38
0.0202815919245 -0.0717656329637 0.843 1.62731781727e-38
0.0218417143803 -0.0717656329637 0.843 1.49774367191e-38
0.0234573572081 -0.0719358954381 0.845 1.5064608694e-38
0.025021181022 -0.0719358954381 0.845 1.50617388347e-38
0.0265850048358 -0.0719358954381 0.845 1.51546505281e-38
0.0281488286497 -0.0719358954381 0.845 1.4970262071e-38
0.0297126524636 -0.0719358954381 0.845 1.45111112149e-38
0.0313505034402 -0.0721061579125 0.847 1.54330422901e-38
0.0329180286122 -0.0721061579125 0.847 1.50674897636e-38
0.0345669836633 -0.0722764203869 0.849 1.4610101741e-38
0.0362233414307 -0.0724466828613 0.851 1.4610101741e-38
0.037931518212 -0.072702076573 0.854 1.58976203752e-38
0.0395119981375 -0.072702076573 0.854 1.59004902344e-38
0.041092478063 -0.072702076573 0.854 1.52605102193e-38
0.0426729579885 -0.072702076573 0.854 1.69189371427e-38
0.044253437914 -0.072702076573 0.854 1.84884516786e-38
0.0458339178395 -0.072702076573 0.854 2.34752483197e-38
0.047414397765 -0.072702076573 0.854 2.34892991394e-38
-0.0242901627894 -0.0728704883683 0.875 2.33042044279e-38
-0.0225671805756 -0.0725373661358 0.871 2.34925487505e-38
-0.0209071214501 -0.0723708050195 0.869 2.10929540498e-38
-0.0191434242967 -0.0717878411125 0.862 1.122048407e-38
-0.0175481389386 -0.0717878411125 0.862 1.11257492874e-38
-0.0159158399992 -0.0716212799963 0.86 1.60088904797e-38
-0.014290943776 -0.07145471888 0.858 1.64744774997e-38
-0.0127030611342 -0.07145471888 0.858 1.50879529251e-38
-0.0110892689855 -0.0712881577637 0.856 1.38883251319e-38
-0.00948287955299 -0.0711215966475 0.854 1.44325221931e-38
-0.0079023996275 -0.0711215966475 0.854 1.47112628784e-38
-0.006321919702 -0.0711215966475 0.854 1.41606030287e-38
-0.00472478366487 -0.0708717549731 0.851 1.45275862809e-38
-0.00314985577658 -0.0708717549731 0.851 1.34201793409e-38
-0.00157492788829 -0.0708717549731 0.851 1.40655389409e-38
0.0 -0.0708717549731 0.851 1.43414041617e-38
0.00157492788829 -0.0708717549731 0.851 1.48059626286e-38
0.00314985577658 -0.0708717549731 0.851 1.47152033297e-38
0.00471367959045 -0.0707051938568 0.849 1.47123334704e-38
0.0062849061206 -0.0707051938568 0.849 1.60970475674e-38
0.00783762586006 -0.0705386327405 0.847 1.54549095527e-38
0.00940515103207 -0.0705386327405 0.847 1.5178326867e-38
0.0109467666971 -0.0703720716242 0.845 1.68388991783e-38
0.012510590511 -0.0703720716242 0.845 1.69325283365e-38
0.0140744143248 -0.0703720716242 0.845 1.85016308907e-38
0.0156382381387 -0.0703720716242 0.845 1.59194680195e-38
0.0172020619526 -0.0703720716242 0.845 1.64690460669e-38
0.0187658857665 -0.0703720716242 0.845 1.50832627791e-38
0.0203297095803 -0.0703720716242 0.845 1.42449051443e-38
0.0218935333942 -0.0703720716242 0.845 1.51593140494e-38
0.0234573572081 -0.0703720716242 0.845 1.58007275929e-38
0.0250804027522 -0.0705386327405 0.847 1.49709795358e-38
0.0266479279242 -0.0705386327405 0.847 1.54319506786e-38
0.0282154530962 -0.0705386327405 0.847 1.5245409827e-38
0.0297829782682 -0.0705386327405 0.847 1.48805789693e-38
0.031424530603 -0.0707051938568 0.849 1.49734906626e-38
0.0329957571332 -0.0707051938568 0.849 1.44228392207e-38
0.0346484135424 -0.0708717549731 0.851 1.46100989384e-38
0.0363510382865 -0.0711215966475 0.854 1.488454044e-38
0.037931518212 -0.0711215966475 0.854 1.5805423344e-38
0.039604532091 -0.0712881577637 0.856 1.56242760902e-38
0.0411887133746 -0.0712881577637 0.856 1.63654340584e-38
0.0427728946582 -0.0712881577637 0.856 1.57207835155e-38
0.044253437914 -0.0711215966475 0.854 1.85817010849e-38
0.0458339178395 -0.0711215966475 0.854 2.01533427919e-38
0.047414397765 -0.0711215966475 0.854 2.34872027969e-38
-0.0242901627894 -0.0712511441823 0.875 2.32112927345e-38
-0.0226189995895 -0.0710882844242 0.873 2.34914837637e-38
-0.0209552391059 -0.0709254246661 0.871 2.27528509354e-38
-0.0192544650409 -0.0705997051498 0.867 1.039216814e-38
-0.0176499262875 -0.0705997051498 0.867 1.09399357097e-38
-0.0159528535806 -0.0701925557545 0.862 1.22288906748e-38
-0.0143242559993 -0.0700296959964 0.86 1.80425304813e-38
-0.0127326719993 -0.0700296959964 0.86 1.43528835988e-38
-0.0111410879994 -0.0700296959964 0.86 1.49964635497e-38
-0.00950508770183 -0.0697039764801 0.856 1.4812419812e-38
-0.0079023996275 -0.069541116722 0.854 1.527267349e-38
-0.006321919702 -0.069541116722 0.854 1.42542321869e-38
-0.0047414397765 -0.069541116722 0.854 1.4531173605e-38
-0.003160959851 -0.069541116722 0.854 1.50846977088e-38
-0.0015804799255 -0.069541116722 0.854 1.45322498022e-38
0.0 -0.069541116722 0.854 1.48052451638e-38
0.00157492788829 -0.0692968270848 0.851 1.63743617309e-38
0.00314985577658 -0.0692968270848 0.851 1.44375444468e-38
0.00472478366487 -0.0692968270848 0.851 1.5638580545e-38
0.00629971155316 -0.0692968270848 0.851 1.52708798279e-38
0.00785613265075 -0.0691339673266 0.849 1.60073714722e-38
0.0094273591809 -0.0691339673266 0.849 1.60087923889e-38
0.0109726762041 -0.0689711075685 0.847 1.64729921233e-38
0.012510590511 -0.0688082478104 0.845 1.68414131078e-38
0.0140744143248 -0.0688082478104 0.845 1.87782373984e-38
0.0156382381387 -0.0688082478104 0.845 1.65670262568e-38
0.0172020619526 -0.0688082478104 0.845 1.60091511213e-38
0.0187658857665 -0.0688082478104 0.845 1.63750581763e-38
0.0203778272361 -0.0689711075685 0.847 1.4981741508e-38
0.0219453524082 -0.0689711075685 0.847 1.50674785532e-38
0.0235128775802 -0.0689711075685 0.847 1.52511495456e-38
0.0251396244824 -0.0691339673266 0.849 1.55241449072e-38
0.0267108510126 -0.0691339673266 0.849 1.52475622215e-38
0.0282820775427 -0.0691339673266 0.849 1.552306871e-38
0.0298533040729 -0.0691339673266 0.849 1.51539330633e-38
0.031424530603 -0.0691339673266 0.849 1.55234288437e-38
0.0330734856541 -0.0692968270848 0.851 1.50668017261e-38
0.0346484135424 -0.0692968270848 0.851 1.45157579206e-38
0.0363510382865 -0.069541116722 0.854 1.56185111484e-38
0.037931518212 -0.069541116722 0.854 1.58064939361e-38
0.0396970660444 -0.0698668362382 0.858 1.5350540843e-38
0.0412849486862 -0.0698668362382 0.858 1.57207835155e-38
0.0427728946582 -0.0697039764801 0.856 1.67367375138e-38
0.044253437914 -0.069541116722 0.854 1.8029251777e-38
0.0458339178395 -0.069541116722 0.854 1.85864024413e-38
0.047414397765 -0.069541116722 0.854 2.34857454465e-38
-0.0242901627894 -0.0696317999964 0.875 2.33020422243e-38
-0.0226708186035 -0.0696317999964 0.875 2.34893131524e-38
-0.0210514744175 -0.0696317999964 0.875 2.23836900653e-38
-0.0192988813385 -0.0691543247964 0.869 9.65388423496e-39
-0.017690641227 -0.0691543247964 0.869 1.17721906897e-38
-0.0159528535806 -0.0685972703964 0.862 1.08484267161e-38
-0.0143575682225 -0.0685972703964 0.862 1.65641970352e-38
-0.0127622828645 -0.0685972703964 0.862 1.68439284385e-38
-0.0111410879994 -0.0684381119964 0.86 1.50929485541e-38
-0.00952729585067 -0.0682789535964 0.858 1.49982614156e-38
-0.00792090641819 -0.0681197951965 0.856 1.38886838643e-38
-0.00633672513455 -0.0681197951965 0.856 1.44414905033e-38
-0.0047414397765 -0.0679606367965 0.854 1.4812419812e-38
-0.003160959851 -0.0679606367965 0.854 1.36106662489e-38
-0.0015804799255 -0.0679606367965 0.854 1.52669393766e-38
0.0 -0.0679606367965 0.854 1.53623565917e-38
0.00157492788829 -0.0677218991965 0.851 1.52712385603e-38
0.00314985577658 -0.0677218991965 0.851 1.46233678335e-38
0.00472478366487 -0.0677218991965 0.851 1.61903207958e-38
0.00629971155316 -0.0677218991965 0.851 1.59187505547e-38
0.00787463944145 -0.0677218991965 0.851 1.66545163264e-38
0.0094273591809 -0.0675627407965 0.849 1.66570218481e-38
0.0109985857111 -0.0675627407965 0.849 1.61038564767e-38
0.0125402013761 -0.0674035823965 0.847 1.83186829684e-38
0.0141077265481 -0.0674035823965 0.847 1.65673387463e-38
0.0156752517201 -0.0674035823965 0.847 1.65655773142e-38
0.0172427768921 -0.0674035823965 0.847 1.73938932442e-38
0.0188103020641 -0.0674035823965 0.847 1.73903087228e-38
0.020425944892 -0.0675627407965 0.849 1.4614040791e-38
0.0219971714221 -0.0675627407965 0.849 1.58979440751e-38
0.0235683979523 -0.0675627407965 0.849 1.61752442256e-38
0.0251396244824 -0.0675627407965 0.849 1.51564441901e-38
0.0267108510126 -0.0675627407965 0.849 1.54297982842e-38
0.0282820775427 -0.0675627407965 0.849 1.5888975765e-38
0.0298533040729 -0.0675627407965 0.849 1.51553848085e-38
0.0314985577658 -0.0677218991965 0.851 1.57989409373e-38
0.0330734856541 -0.0677218991965 0.851 1.47883847407e-38
0.034770558361 -0.0679606367965 0.854 1.58028799873e-38
0.0363510382865 -0.0679606367965 0.854 1.48830900961e-38
0.037931518212 -0.0679606367965 0.854 1.57139255608e-38
0.0397895999979 -0.0684381119964 0.86 1.57193205599e-38
0.0413811839978 -0.0684381119964 0.86 1.58144126737e-38
0.0429727679978 -0.0684381119964 0.86 1.4984661814e-38
0.0445643519977 -0.0684381119964 0.86 1.83069092587e-38
0.0461559359976 -0.0684381119964 0.86 1.74807611373e-38
-0.0243734433476 -0.0682456413732 0.878 2.33016862945e-38
-0.0226708186035 -0.0680124558104 0.875 2.34882299487e-38
-0.0210514744175 -0.0680124558104 0.875 2.34914641455e-38
-0.0193432976362 -0.0677015417267 0.871 1.039216814e-38
-0.0177313561665 -0.0677015417267 0.871 1.29765170367e-38
-0.0160824011154 -0.0675460846849 0.869 9.46695662501e-39
-0.0143908804458 -0.0671574420802 0.864 1.65599258775e-38
-0.0127622828645 -0.0670019850384 0.862 1.72119850854e-38
-0.0111410879994 -0.0668465279965 0.86 1.55550225188e-38
-0.0095495039995 -0.0668465279965 0.86 1.39837493534e-38
-0.00793941320889 -0.0666910709547 0.858 1.46212294521e-38
-0.00635153056711 -0.0666910709547 0.858 1.52687316374e-38
-0.00475254385092 -0.0665356139128 0.856 1.34241352065e-38
-0.00316836256728 -0.0665356139128 0.856 1.44382619116e-38
-0.0015804799255 -0.066380156871 0.854 1.46233678335e-38
0.0 -0.066380156871 0.854 1.50861326384e-38
0.0015804799255 -0.066380156871 0.854 1.54563444823e-38
0.003160959851 -0.066380156871 0.854 1.57332859004e-38
0.0047414397765 -0.066380156871 0.854 1.56410916718e-38
0.006321919702 -0.066380156871 0.854 1.57340033652e-38
0.0079023996275 -0.066380156871 0.854 1.66563043832e-38
0.00944956732974 -0.0661469713082 0.851 1.64726333909e-38
0.011024495218 -0.0661469713082 0.851 1.86853355141e-38
0.0125994231063 -0.0661469713082 0.851 1.72156228562e-38
0.0141743509946 -0.0661469713082 0.851 1.70283253035e-38
0.0157492788829 -0.0661469713082 0.851 1.72141388811e-38
0.0172834918317 -0.0659915142663 0.849 1.8042087671e-38
0.0188547183618 -0.0659915142663 0.849 1.57286223791e-38
0.020425944892 -0.0659915142663 0.849 1.56303296996e-38
0.0220489904361 -0.0661469713082 0.851 1.5993008163e-38
0.0236239183244 -0.0661469713082 0.851 1.58957916807e-38
0.0251988462126 -0.0661469713082 0.851 1.58947154835e-38
0.0267737741009 -0.0661469713082 0.851 1.52479349669e-38
0.0283487019892 -0.0661469713082 0.851 1.58918456242e-38
0.0299236298775 -0.0661469713082 0.851 1.52489971511e-38
0.03160959851 -0.066380156871 0.854 1.56152629385e-38
0.0331900784355 -0.066380156871 0.854 1.52500733483e-38
0.034770558361 -0.066380156871 0.854 1.53415501121e-38
0.0364361695237 -0.0665356139128 0.856 1.58943735666e-38
0.0381091834027 -0.0666910709547 0.858 1.58961840443e-38
0.0397895999979 -0.0668465279965 0.86 1.51682977738e-38
0.0414774193095 -0.0670019850384 0.862 1.57225673684e-38
0.0429727679978 -0.0668465279965 0.86 1.60924386968e-38
0.0445643519977 -0.0668465279965 0.86 1.8954796801e-38
0.0461559359976 -0.0668465279965 0.86 1.73903829916e-38
-0.0259983395707 -0.06662074515 0.878 2.28439521511e-38
-0.0243734433476 -0.06662074515 0.878 2.32113025436e-38
-0.0227485471244 -0.06662074515 0.878 2.3487869815e-38
-0.0210514744175 -0.0663931116244 0.875 2.34921774065e-38
-0.0193877139339 -0.0662413559407 0.873 7.90540706961e-39
-0.0177313561665 -0.066089600257 0.871 1.3433156766e-38
-0.0161194146968 -0.066089600257 0.871 1.01119855185e-38
-0.0144741610039 -0.0659378445733 0.869 1.1856106047e-38
-0.0127918937296 -0.065558455364 0.864 1.73042017347e-38
-0.0111669975064 -0.0654066996803 0.862 1.57375990971e-38
-0.00957171214834 -0.0654066996803 0.862 1.61982059023e-38
-0.00795791999959 -0.0652549439966 0.86 1.63808020987e-38
-0.00636633599967 -0.0652549439966 0.86 1.4167060212e-38
-0.00476364792533 -0.0651031883129 0.858 1.56400280863e-38
-0.00317576528356 -0.0651031883129 0.858 1.45344021966e-38
-0.00158418128364 -0.0649514326292 0.856 1.42567433137e-38
0.0 -0.0649514326292 0.856 1.56378658827e-38
0.0015804799255 -0.0647996769455 0.854 1.51804792614e-38
0.003160959851 -0.0647996769455 0.854 1.72098396974e-38
0.0047414397765 -0.0647996769455 0.854 1.52755433492e-38
0.006321919702 -0.0647996769455 0.854 1.55503323729e-38
0.0079023996275 -0.0647996769455 0.854 1.79506109072e-38
0.00948287955299 -0.0647996769455 0.854 1.75829101902e-38
0.011024495218 -0.0645720434199 0.851 1.68453563617e-38
0.0125994231063 -0.0645720434199 0.851 1.9058068294e-38
0.0141743509946 -0.0645720434199 0.851 1.80428205501e-38
0.0157492788829 -0.0645720434199 0.851 1.72145494616e-38
0.0173242067712 -0.0645720434199 0.851 1.38815386434e-38
0.0188991346595 -0.0645720434199 0.851 1.56271025092e-38
0.0204740625478 -0.0645720434199 0.851 1.60859198563e-38
0.0220489904361 -0.0645720434199 0.851 1.59919319657e-38
0.0236239183244 -0.0645720434199 0.851 1.58035974521e-38
0.0251988462126 -0.0645720434199 0.851 1.59840398528e-38
0.0267737741009 -0.0645720434199 0.851 1.57092508291e-38
0.0283487019892 -0.0645720434199 0.851 1.59847573176e-38
0.0300291185845 -0.0647996769455 0.854 1.60780277434e-38
0.03160959851 -0.0647996769455 0.854 1.55241491111e-38
0.0331900784355 -0.0647996769455 0.854 1.55234274424e-38
0.03485198824 -0.0649514326292 0.856 1.58914896944e-38
0.0364361695237 -0.0649514326292 0.856 1.6077669011e-38
0.038198015998 -0.0652549439966 0.86 1.61723883794e-38
0.0398821339514 -0.0654066996803 0.862 1.59937564563e-38
0.0414774193095 -0.0654066996803 0.862 1.48913773752e-38
0.0433225463419 -0.0657860888896 0.867 1.88608285286e-38
0.0449270850953 -0.0657860888896 0.867 1.60067128619e-38
0.0465316238487 -0.0657860888896 0.867 1.72056189865e-38
-0.0259983395707 -0.0649958489268 0.878 2.30272475955e-38
-0.0243734433476 -0.0649958489268 0.878 2.32102095308e-38
-0.0227485471244 -0.0649958489268 0.878 2.33949581216e-38
-0.0211236509012 -0.0649958489268 0.878 2.34936445659e-38
-0.0194321302315 -0.0647737674385 0.875 1.06719836212e-38
-0.0177720711061 -0.0646257131129 0.873 1.15863616978e-38
-0.0161194146968 -0.0644776587873 0.871 1.21428075089e-38
-0.0145074732272 -0.0644776587873 0.871 9.46766568204e-39
-0.0128659208924 -0.0643296044618 0.869 1.69336788026e-38
-0.0111929070134 -0.0639594686478 0.864 1.63865852574e-38
-0.00957171214834 -0.0638114143223 0.862 1.73978042682e-38
-0.00797642679028 -0.0638114143223 0.862 1.5280255916e-38
-0.00636633599967 -0.0636633599967 0.86 1.51847980633e-38
-0.00477475199975 -0.0636633599967 0.86 1.67485238352e-38
-0.00317576528356 -0.0635153056711 0.858 1.49996781283e-38
-0.00158788264178 -0.0635153056711 0.858 1.55499736405e-38
0.0 -0.0633672513455 0.856 1.53637915213e-38
0.00158418128364 -0.0633672513455 0.856 1.56421832833e-38
0.00316836256728 -0.0633672513455 0.856 1.62886218831e-38
0.00475254385092 -0.0633672513455 0.856 1.46298250169e-38
0.00633672513455 -0.0633672513455 0.856 1.64755340788e-38
0.00792090641819 -0.0633672513455 0.856 1.70319154301e-38
0.00948287955299 -0.06321919702 0.854 1.6568064619e-38
0.0110633594785 -0.06321919702 0.854 1.69364771956e-38
0.012643839404 -0.06321919702 0.854 1.91491681084e-38
0.0142243193295 -0.06321919702 0.854 1.82279194655e-38
0.015804799255 -0.06321919702 0.854 1.18589759062e-38
0.0173852791805 -0.06321919702 0.854 1.55334845614e-38
0.0188991346595 -0.0629971155316 0.851 1.56249515161e-38
0.0204740625478 -0.0629971155316 0.851 1.62724747209e-38
0.022126718957 -0.06321919702 0.854 1.58093371706e-38
0.0237071988825 -0.06321919702 0.854 1.63578390207e-38
0.025287678808 -0.06321919702 0.854 1.58975853427e-38
0.0268681587335 -0.06321919702 0.854 1.58050323818e-38
0.028448638659 -0.06321919702 0.854 1.54337443406e-38
0.0300291185845 -0.06321919702 0.854 1.59847573176e-38
0.0316836256728 -0.0633672513455 0.856 1.6537922689e-38
0.0332678069564 -0.0633672513455 0.856 1.63546132317e-38
0.03485198824 -0.0633672513455 0.856 1.72798275492e-38
0.0365213007609 -0.0635153056711 0.858 1.60819752012e-38
0.038198015998 -0.0636633599967 0.86 1.59905222595e-38
0.0399746679049 -0.0639594686478 0.864 1.5439516289e-38
0.0417180075885 -0.0641815501362 0.867 1.63636333899e-38
0.0433225463419 -0.0641815501362 0.867 1.5353099614e-38
0.0449270850953 -0.0641815501362 0.867 1.6466239266e-38
-0.0259983395707 -0.0633709527037 0.878 2.31201634927e-38
-0.0243734433476 -0.0633709527037 0.878 2.28421472787e-38
-0.0228003661383 -0.0635153056711 0.88 2.2935049163e-38
-0.021171768557 -0.0635153056711 0.88 2.34939892854e-38
-0.0194987546781 -0.0633709527037 0.878 1.1040406007e-38
-0.0178127860456 -0.0631544232525 0.875 1.06658627495e-38
-0.0161564282782 -0.0630100702851 0.873 1.07562465005e-38
-0.0145074732272 -0.0628657173177 0.871 1.1123954224e-38
-0.0128659208924 -0.0627213643502 0.869 1.17693236331e-38
-0.0112317712738 -0.0625770113828 0.867 1.73975113969e-38
-0.00959392029717 -0.0623604819316 0.864 1.64762235176e-38
-0.00797642679028 -0.0622161289642 0.862 1.6757143222e-38
-0.00638114143223 -0.0622161289642 0.862 1.48167246008e-38
-0.00477475199975 -0.0620717759968 0.86 1.50865067851e-38
-0.00318316799983 -0.0620717759968 0.86 1.58269150586e-38
-0.00159158399992 -0.0620717759968 0.86 1.62882449338e-38
0.0 -0.0619274230293 0.858 1.55503323729e-38
0.00158418128364 -0.0617830700619 0.856 1.57357970272e-38
0.00316836256728 -0.0617830700619 0.856 1.71208894748e-38
0.00475254385092 -0.0617830700619 0.856 1.66620567134e-38
0.00633672513455 -0.0617830700619 0.856 1.49082139763e-38
0.00792090641819 -0.0617830700619 0.856 1.70294365331e-38
0.00948287955299 -0.0616387170945 0.854 1.76755065914e-38
0.0110633594785 -0.0616387170945 0.854 1.98896016053e-38
0.012643839404 -0.0616387170945 0.854 1.85074658975e-38
0.0142243193295 -0.0616387170945 0.854 1.0477138675e-38
0.015804799255 -0.0616387170945 0.854 1.50664079612e-38
0.0173852791805 -0.0616387170945 0.854 1.54366141999e-38
0.018965759106 -0.0616387170945 0.854 1.5345854901e-38
0.0205462390315 -0.0616387170945 0.854 1.57139157517e-38
0.022126718957 -0.0616387170945 0.854 1.58071973879e-38
0.0237071988825 -0.0616387170945 0.854 1.58071847762e-38
0.025287678808 -0.0616387170945 0.854 1.60816192713e-38
0.0268681587335 -0.0616387170945 0.854 1.59890733169e-38
0.0285152631055 -0.0617830700619 0.856 1.5986909712e-38
0.0300994443891 -0.0617830700619 0.856 1.62624176018e-38
0.0316836256728 -0.0617830700619 0.856 1.62620574681e-38
0.0333455354773 -0.0619274230293 0.858 1.62570352144e-38
0.0349334181191 -0.0619274230293 0.858 1.73655183516e-38
0.0366064319981 -0.0620717759968 0.86 1.66308343824e-38
0.0382868485934 -0.0622161289642 0.862 1.63571439767e-38
0.0401134688351 -0.0625770113828 0.867 1.58990454957e-38
0.0417180075885 -0.0625770113828 0.867 1.58144070685e-38
0.0434224830117 -0.0627213643502 0.869 1.60016906082e-38
0.0450307231232 -0.0627213643502 0.869 1.6651373214e-38
-0.026057561301 -0.0618867080898 0.88 2.29364981056e-38
-0.0244289637197 -0.0618867080898 0.88 2.26595566875e-38
-0.0228003661383 -0.0618867080898 0.88 2.25666393889e-38
-0.021171768557 -0.0618867080898 0.88 2.34943606295e-38
-0.0195431709757 -0.0618867080898 0.88 1.15021072263e-38
-0.0178738584549 -0.0617460564805 0.878 9.46731956132e-39
-0.0161934418596 -0.0615350790666 0.875 1.08495127224e-38
-0.0145407854504 -0.0613944274573 0.873 1.09410049004e-38
-0.0128955317575 -0.061253775848 0.871 9.82639808891e-39
-0.0112576807808 -0.0611131242387 0.869 1.53549297098e-38
-0.00962723252043 -0.0609724726294 0.867 1.65687834851e-38
-0.00802269376702 -0.0609724726294 0.867 1.53724010991e-38
-0.00639594686478 -0.0607614952154 0.864 1.65706023705e-38
-0.00478585607417 -0.0606208436061 0.862 1.56468678241e-38
-0.00319057071611 -0.0606208436061 0.862 1.55506911053e-38
-0.00159158399992 -0.0604801919968 0.86 1.60102427328e-38
0.0 -0.0604801919968 0.86 1.54588556091e-38
0.00158788264178 -0.0603395403876 0.858 1.58265563262e-38
0.00317576528356 -0.0603395403876 0.858 1.74882314594e-38
0.00476364792533 -0.0603395403876 0.858 1.6661350459e-38
0.00635153056711 -0.0603395403876 0.858 1.65691940655e-38
0.00793941320889 -0.0603395403876 0.858 1.76776729988e-38
0.00950508770183 -0.0601988887783 0.856 1.71230152446e-38
0.0110892689855 -0.0601988887783 0.856 1.85060085471e-38
0.0126734502691 -0.0601988887783 0.856 9.46371962556e-39
0.0142576315527 -0.0601988887783 0.856 1.39604303456e-38
0.015804799255 -0.060058237169 0.854 1.55241463085e-38
0.0173852791805 -0.060058237169 0.854 1.51585965846e-38
0.018965759106 -0.060058237169 0.854 1.49763605219e-38
0.0205462390315 -0.060058237169 0.854 1.58043233247e-38
0.022126718957 -0.060058237169 0.854 1.51604238778e-38
0.0237627192546 -0.0601988887783 0.856 1.64503961856e-38
0.0253469005382 -0.0601988887783 0.856 1.59901383037e-38
0.0269310818219 -0.0601988887783 0.856 1.61720170353e-38
0.028581887552 -0.0603395403876 0.858 1.63549691615e-38
0.0301697701938 -0.0603395403876 0.858 1.644716339e-38
0.0317576528356 -0.0603395403876 0.858 1.64478808549e-38
0.0333455354773 -0.0603395403876 0.858 1.71829319643e-38
0.0350148479982 -0.0604801919968 0.86 1.72740471931e-38
0.0366915632353 -0.0606208436061 0.862 1.663264486e-38
0.0383756811887 -0.0607614952154 0.864 1.6726991483e-38
0.0401134688351 -0.0609724726294 0.867 1.62696174733e-38
0.0418142429001 -0.0611131242387 0.869 1.53552043643e-38
0.0434224830117 -0.0611131242387 0.869 1.60971106259e-38
0.0451343611511 -0.061253775848 0.871 1.60092281927e-38
-0.0245677646499 -0.0606004861364 0.885 2.33038667149e-38
-0.0228521851523 -0.0603950607596 0.882 2.25662862617e-38
-0.021171768557 -0.0602581105085 0.88 2.34943620308e-38
-0.0195431709757 -0.0602581105085 0.88 1.23325965703e-38
-0.0178738584549 -0.0601211602573 0.878 1.10375221347e-38
-0.0161934418596 -0.0599157348806 0.875 1.08505945248e-38
-0.0145407854504 -0.0597787846294 0.873 1.07566136407e-38
-0.0128955317575 -0.0596418343783 0.871 1.14891269986e-38
-0.0112835902878 -0.0596418343783 0.871 9.64272709659e-39
-0.00964944066926 -0.0595048841271 0.869 1.76705305806e-38
-0.00802269376702 -0.059367933876 0.867 1.72155682056e-38
-0.00641815501362 -0.059367933876 0.867 1.52812830677e-38
-0.00479696014859 -0.0591625084992 0.864 1.60148908398e-38
-0.00319797343239 -0.0591625084992 0.864 1.61042152091e-38
-0.00159528535806 -0.0590255582481 0.862 1.7027243501e-38
0.0 -0.0590255582481 0.862 1.56421804807e-38
0.00159158399992 -0.0588886079969 0.86 1.56428853338e-38
0.00318316799983 -0.0588886079969 0.86 1.73960456387e-38
0.00477475199975 -0.0588886079969 0.86 1.6663120299e-38
0.00635153056711 -0.0587516577458 0.858 1.55553560279e-38
0.00793941320889 -0.0587516577458 0.858 1.80439317798e-38
0.00952729585067 -0.0587516577458 0.858 1.94297627116e-38
0.0111151784924 -0.0587516577458 0.858 9.46300216075e-39
0.0127030611342 -0.0587516577458 0.858 1.32243114468e-38
0.0142576315527 -0.0586147074946 0.856 1.41426734148e-38
0.0158418128364 -0.0586147074946 0.856 1.49724368862e-38
0.01742599412 -0.0586147074946 0.856 1.4147688662e-38
0.0190101754037 -0.0586147074946 0.856 1.50638912292e-38
0.0205943566873 -0.0586147074946 0.856 1.46983429066e-38
0.0222303569849 -0.0587516577458 0.858 1.54373316647e-38
0.0238182396267 -0.0587516577458 0.858 1.5158955317e-38
0.0254061222684 -0.0587516577458 0.858 1.58000101281e-38
0.0269940049102 -0.0587516577458 0.858 1.72747772696e-38
0.0286485119985 -0.0588886079969 0.86 1.67262600052e-38
0.0302400959984 -0.0588886079969 0.86 1.67251810054e-38
0.0318316799983 -0.0588886079969 0.86 1.6818455635e-38
0.0334232639983 -0.0588886079969 0.86 1.72751275942e-38
0.0350148479982 -0.0588886079969 0.86 1.73691140835e-38
0.0366915632353 -0.0590255582481 0.862 1.77433014111e-38
0.0385089300817 -0.059367933876 0.867 1.61756099645e-38
0.0401134688351 -0.059367933876 0.867 1.61763386397e-38
0.0418142429001 -0.0595048841271 0.869 1.53527184608e-38
0.0435224196815 -0.0596418343783 0.871 1.46209071534e-38
0.0451343611511 -0.0596418343783 0.871 1.508906976e-38
0.0467463026208 -0.0596418343783 0.871 1.73017999092e-38
-0.024623285022 -0.0590958840527 0.887 2.33953210579e-38
-0.0228521851523 -0.0587627618202 0.882 2.32123591226e-38
-0.021171768557 -0.0586295129272 0.88 2.34911194261e-38
-0.0195431709757 -0.0586295129272 0.88 1.12265993365e-38
-0.0178738584549 -0.0584962640342 0.878 1.1128991892e-38
-0.0162489622317 -0.0584962640342 0.878 1.02977892871e-38
-0.0145740976737 -0.0582963906946 0.875 1.04789533565e-38
-0.0129251426226 -0.0581631418016 0.873 1.17653509519e-38
-0.0112835902878 -0.0580298929086 0.871 9.64272709659e-39
-0.00964944066926 -0.0578966440156 0.869 1.39687008092e-38
-0.00804120055772 -0.0578966440156 0.869 1.85964469487e-38
-0.00643296044618 -0.0578966440156 0.869 1.67553145275e-38
-0.00481361626021 -0.0577633951226 0.867 1.71223061876e-38
-0.00319797343239 -0.057563521783 0.864 1.54606492712e-38
-0.0015989867162 -0.057563521783 0.864 1.63811580285e-38
0.0 -0.05743027289 0.862 1.7304902384e-38
0.00159528535806 -0.05743027289 0.862 1.54585361131e-38
0.00318316799983 -0.057297023997 0.86 1.70258337948e-38
0.00477475199975 -0.057297023997 0.86 1.72152122757e-38
0.00636633599967 -0.057297023997 0.86 1.61996702592e-38
0.00795791999959 -0.057297023997 0.86 1.9335361438e-38
0.00952729585067 -0.057163775104 0.858 9.83536639908e-39
0.0111151784924 -0.057163775104 0.858 1.19386145005e-38
0.0127030611342 -0.057163775104 0.858 1.36834889275e-38
0.014290943776 -0.057163775104 0.858 1.42345047071e-38
0.0158788264178 -0.057163775104 0.858 1.32243142493e-38
0.0174667090596 -0.057163775104 0.858 1.66426991765e-38
0.0190545917013 -0.057163775104 0.858 1.5910140977e-38
0.0206424743431 -0.057163775104 0.858 1.33254739855e-38
0.0222821759988 -0.057297023997 0.86 1.49734906626e-38
0.0238737599988 -0.057297023997 0.86 1.51557267253e-38
0.0254653439987 -0.057297023997 0.86 1.56159916137e-38
0.0270569279986 -0.057297023997 0.86 1.57092508291e-38
0.0286485119985 -0.057297023997 0.86 1.69106456597e-38
0.0302400959984 -0.057297023997 0.86 1.73665945488e-38
0.0319057071611 -0.05743027289 0.862 1.68188381895e-38
0.0335009925192 -0.05743027289 0.862 1.69088519977e-38
0.0350962778772 -0.05743027289 0.862 2.06942299861e-38
0.0367766944725 -0.057563521783 0.864 1.78441514603e-38
0.0385089300817 -0.0577633951226 0.867 1.61756323853e-38
0.0402060027886 -0.0578966440156 0.869 1.60855891499e-38
0.0419104782118 -0.0580298929086 0.871 1.55367495869e-38
0.0435224196815 -0.0580298929086 0.871 1.58191070235e-38
0.045237999179 -0.0581631418016 0.873 1.47220795013e-38
0.0468536420069 -0.0581631418016 0.873 1.90534972584e-38
-0.024623285022 -0.0574543317179 0.887 2.3303500976e-38
-0.0229817326872 -0.0574543317179 0.887 2.25677113823e-38
-0.0213401803524 -0.0574543317179 0.887 2.34925529544e-38
-0.0196542117199 -0.0573247841831 0.885 1.11361735466e-38
-0.0179552883339 -0.0571304628807 0.882 1.17746737906e-38
-0.0162859758131 -0.0570009153459 0.88 1.10357368805e-38
-0.0146240660085 -0.056871367811 0.878 1.03878311212e-38
-0.0129547534877 -0.0566770465087 0.875 1.05707776422e-38
-0.0113094997948 -0.0565474989738 0.873 1.11199885494e-38
-0.0096716488181 -0.0564179514389 0.871 8.99987862348e-39
-0.00804120055772 -0.056288403904 0.869 1.36010070986e-38
-0.00643296044618 -0.056288403904 0.869 1.95169767255e-38
-0.00482472033463 -0.056288403904 0.869 1.82329333114e-38
-0.00320907750681 -0.0561588563692 0.867 1.67549557951e-38
-0.0016045387534 -0.0561588563692 0.867 1.68439312411e-38
0.0 -0.0559645350669 0.864 1.52759020816e-38
0.0015989867162 -0.0559645350669 0.864 1.59205442168e-38
0.00319057071611 -0.055834987532 0.862 1.65673387463e-38
0.00478585607417 -0.055834987532 0.862 1.66613378473e-38
0.00636633599967 -0.0557054399971 0.86 1.79514124499e-38
0.00795791999959 -0.0557054399971 0.86 1.41685007468e-38
0.0095495039995 -0.0557054399971 0.86 1.15712725159e-38
0.0111410879994 -0.0557054399971 0.86 1.96841390206e-38
0.0127326719993 -0.0557054399971 0.86 1.14794370197e-38
0.0143242559993 -0.0557054399971 0.86 1.37771180857e-38
0.0159158399992 -0.0557054399971 0.86 1.36838476599e-38
0.0175074239991 -0.0557054399971 0.86 1.36838490612e-38
0.019099007999 -0.0557054399971 0.86 1.86760098729e-38
0.0206905919989 -0.0557054399971 0.86 1.1765346748e-38
0.0222821759988 -0.0557054399971 0.86 1.47865910787e-38
0.0238737599988 -0.0557054399971 0.86 1.50610213699e-38
0.0254653439987 -0.0557054399971 0.86 1.56145454737e-38
0.027119851087 -0.055834987532 0.862 1.54315919462e-38
0.028715136445 -0.055834987532 0.862 1.66276057907e-38
0.0303104218031 -0.055834987532 0.862 1.72758408551e-38
0.0319057071611 -0.055834987532 0.862 1.63574802883e-38
0.0335009925192 -0.055834987532 0.862 1.8014114951e-38
0.0351777077563 -0.0559645350669 0.864 1.94988999753e-38
0.0369043913283 -0.0561588563692 0.867 1.52586829261e-38
0.0385977626771 -0.056288403904 0.869 1.69992819915e-38
0.0402060027886 -0.056288403904 0.869 1.56242508669e-38
0.0419104782118 -0.0564179514389 0.871 1.59040593416e-38
0.0435224196815 -0.0564179514389 0.871 1.52662933781e-38
0.045237999179 -0.0565474989738 0.873 1.39827250042e-38
0.0468536420069 -0.0565474989738 0.873 1.92360906522e-38
-0.0213882980082 -0.0559386255599 0.889 2.3493992088e-38
-0.0196986280176 -0.0558127793831 0.887 1.07681197024e-38
-0.0180163607432 -0.0556869332064 0.885 1.18643568923e-38
-0.0163229893945 -0.0554981639413 0.882 1.11275821857e-38
-0.014690690455 -0.0554981639413 0.882 1.02056062689e-38
-0.0130287806505 -0.0553723177646 0.88 1.06629732721e-38
-0.0113742735622 -0.0552464715878 0.878 1.0568978375e-38
-0.0096716488181 -0.0548060099692 0.871 9.55483765691e-39
-0.00805970734842 -0.0548060099692 0.871 9.36722060812e-39
-0.00644776587873 -0.0548060099692 0.871 1.74728325906e-38
-0.00482472033463 -0.0546801637925 0.869 1.98882423458e-38
-0.00321648022309 -0.0546801637925 0.869 1.68489633039e-38
-0.00160824011154 -0.0546801637925 0.869 1.67513824841e-38
0.0 -0.0546801637925 0.869 1.51815708729e-38
0.0016045387534 -0.0545543176158 0.867 1.71190888063e-38
0.00319057071611 -0.0542397021739 0.862 1.56453964607e-38
0.00478585607417 -0.0542397021739 0.862 1.75825654708e-38
0.00638114143223 -0.0542397021739 0.862 1.6662782586e-38
0.00797642679028 -0.0542397021739 0.862 1.01937400735e-38
0.00957171214834 -0.0542397021739 0.862 1.29488049583e-38
0.0111410879994 -0.0541138559972 0.86 1.23977919813e-38
0.0127326719993 -0.0541138559972 0.86 1.34079852417e-38
0.0143242559993 -0.0541138559972 0.86 1.29488049583e-38
0.0159158399992 -0.0541138559972 0.86 1.33161469429e-38
0.0175074239991 -0.0541138559972 0.86 1.34998179352e-38
0.0191434242967 -0.0542397021739 0.862 1.46990603714e-38
0.0207387096547 -0.0542397021739 0.862 1.38682361171e-38
0.0223339950128 -0.0542397021739 0.862 1.43281310627e-38
0.0239292803708 -0.0542397021739 0.862 1.45103671254e-38
0.0255245657289 -0.0542397021739 0.862 1.53368865908e-38
0.027119851087 -0.0542397021739 0.862 1.53393977176e-38
0.0287817608915 -0.0543655483507 0.864 1.59818874583e-38
0.0303807476077 -0.0543655483507 0.864 1.69074338836e-38
0.0320907750681 -0.0545543176158 0.867 1.70957515817e-38
0.0336953138215 -0.0545543176158 0.867 1.66308399876e-38
0.035381282454 -0.0546801637925 0.869 1.76474820234e-38
0.0369895225655 -0.0546801637925 0.869 1.69081345329e-38
0.0386865952724 -0.0548060099692 0.871 1.62642126651e-38
0.0402985367421 -0.0548060099692 0.871 1.59923075137e-38
0.0420067135234 -0.054931856146 0.873 1.56303675347e-38
0.0436223563512 -0.054931856146 0.873 1.59120089078e-38
0.0453416372069 -0.0550577023227 0.875 1.61017769498e-38
0.0469609813929 -0.0550577023227 0.875 2.01519358882e-38
-0.0213882980082 -0.0542933718669 0.889 2.34900236107e-38
-0.0197430443153 -0.0542933718669 0.889 1.28875233738e-38
-0.0180570756828 -0.0541712270483 0.887 1.30597093239e-38
-0.016415523348 -0.0541712270483 0.887 9.83502588355e-39
-0.0147406587899 -0.0540490822297 0.885 9.83682795338e-39
-0.0130583915156 -0.0538658650018 0.882 9.92757604192e-39
-0.0114001830692 -0.0537437201832 0.88 1.02938264151e-38
-0.00971606511577 -0.0534383581368 0.875 1.09345224937e-38
-0.00807821413911 -0.0533162133182 0.873 1.02862930345e-38
-0.00646257131129 -0.0533162133182 0.873 1.01019045774e-38
-0.00484692848347 -0.0533162133182 0.873 1.72023273364e-38
-0.00322388293937 -0.0531940684996 0.871 1.97996018101e-38
-0.00161194146968 -0.0531940684996 0.871 1.81371517588e-38
0.0 -0.0531940684996 0.871 1.63822328244e-38
0.00161194146968 -0.0531940684996 0.871 1.69354234192e-38
0.00321648022309 -0.053071923681 0.869 1.65684331604e-38
0.00482472033463 -0.053071923681 0.869 1.77666092085e-38
