# .PCD v0.7 - Point Cloud Data file format
VERSION 0.7
FIELDS x y z rgb
SIZE 4 4 4 4
TYPE F F F F
COUNT 1 1 1 1
WIDTH 840
HEIGHT 1
VIEWPOINT 0 0 0 1 0 0 0
POINTS 840
DATA ascii
-0.0321740556262 -0.0880553101349 0.915 7.80601717343e-39
-0.0304806842775 -0.0880553101349 0.915 6.88766221185e-39
-0.0287243898404 -0.0878628395117 0.913 7.8985701344e-39
-0.0270347198498 -0.0878628395117 0.913 7.71418167727e-39
-0.0253450498591 -0.0878628395117 0.913 7.07133320417e-39
-0.0236553798685 -0.0878628395117 0.913 8.0815236619e-39
-0.0218935333942 -0.0875741335768 0.91 7.98968816575e-39
-0.0202094154408 -0.0875741335768 0.91 6.79582671569e-39
-0.0184845825479 -0.0873816629536 0.908 7.4386751888e-39
-0.0168041659526 -0.0873816629536 0.908 8.0815236619e-39
-0.0150904371341 -0.0871891923303 0.906 8.35703015038e-39
-0.013413721897 -0.0871891923303 0.906 9.64272709659e-39
-0.0117370066599 -0.0871891923303 0.906 9.73456259275e-39
-0.0100602914227 -0.0871891923303 0.906 8.54070114269e-39
-0.00838357618561 -0.0871891923303 0.906 8.99987862348e-39
-0.00670686094849 -0.0871891923303 0.906 9.55125033284e-39
-0.00503014571137 -0.0871891923303 0.906 8.99987862348e-39
-0.00335343047424 -0.0871891923303 0.906 9.27538511196e-39
-0.00167671523712 -0.0871891923303 0.906 9.09171411964e-39
0.0 -0.0871891923303 0.906 8.17335915806e-39
0.00167671523712 -0.0871891923303 0.906 8.63253663885e-39
0.00336083319052 -0.0873816629536 0.908 9.27538511196e-39
0.00504124978578 -0.0873816629536 0.908 8.54070114269e-39
0.00672166638105 -0.0873816629536 0.908 9.1835496158e-39
0.00840208297631 -0.0873816629536 0.908 9.55089160043e-39
0.0100824995716 -0.0873816629536 0.908 1.02855755697e-38
0.0117629161668 -0.0873816629536 0.908 9.91823358506e-39
0.0134433327621 -0.0873816629536 0.908 1.01019045774e-38
0.0151237493574 -0.0873816629536 0.908 9.27538511196e-39
0.016841179534 -0.0875741335768 0.91 8.35703015038e-39
0.0185863698967 -0.0878628395117 0.913 8.0815236619e-39
0.0202760398873 -0.0878628395117 0.913 1.1020259539e-38
0.0219657098779 -0.0878628395117 0.913 1.14794370197e-38
0.0237071988825 -0.0880553101349 0.915 1.16631080121e-38
0.0254005702312 -0.0880553101349 0.915 1.23059564852e-38
0.0271827741753 -0.0883440160698 0.918 1.26736572022e-38
0.0288816975613 -0.0883440160698 0.918 1.28576869269e-38
-0.0415292383234 -0.0882496314373 0.935 2.20087544443e-38
-0.0395008940631 -0.0875889390094 0.928 2.34853460764e-38
-0.0377834638864 -0.0875889390094 0.928 1.94337634187e-38
-0.0358717124074 -0.0871170158466 0.923 6.15297824259e-39
-0.0340524948819 -0.086833861949 0.92 8.72437213501e-39
-0.0322795443332 -0.0866450926839 0.918 7.62234618111e-39
-0.0304806842775 -0.0863619387862 0.915 6.88766221185e-39
-0.0287873129287 -0.0863619387862 0.915 7.71418167727e-39
-0.02709394158 -0.0863619387862 0.915 7.62234618111e-39
-0.0253450498591 -0.0861731695211 0.913 7.16316870032e-39
-0.0236553798685 -0.0861731695211 0.913 7.62234618111e-39
-0.0218935333942 -0.0858900156234 0.91 7.80601717343e-39
-0.0202094154408 -0.0858900156234 0.91 6.97949770801e-39
-0.0184845825479 -0.0857012463583 0.908 7.98968816575e-39
-0.0168041659526 -0.0857012463583 0.908 8.26519465422e-39
-0.0150904371341 -0.0855124770932 0.906 8.35703015038e-39
-0.013413721897 -0.0855124770932 0.906 8.26519465422e-39
-0.0117370066599 -0.0855124770932 0.906 9.82639808891e-39
-0.0100602914227 -0.0855124770932 0.906 8.17335915806e-39
-0.00838357618561 -0.0855124770932 0.906 9.27538511196e-39
-0.00670686094849 -0.0855124770932 0.906 1.05614407906e-38
-0.00503014571137 -0.0855124770932 0.906 9.55090841601e-39
-0.00335343047424 -0.0855124770932 0.906 1.00100690812e-38
-0.00167671523712 -0.0855124770932 0.906 9.91823358506e-39
0.0 -0.0855124770932 0.906 1.03774110659e-38
0.00167671523712 -0.0855124770932 0.906 9.82639808891e-39
0.00335343047424 -0.0855124770932 0.906 8.81620763117e-39
0.00504124978578 -0.0857012463583 0.908 7.80601717343e-39
0.00672166638105 -0.0857012463583 0.908 9.82639808891e-39
0.00840208297631 -0.0857012463583 0.908 9.09171411964e-39
0.0100824995716 -0.0857012463583 0.908 9.09171411964e-39
0.0117629161668 -0.0857012463583 0.908 9.09171411964e-39
0.0134729436272 -0.0858900156234 0.91 9.55089160043e-39
0.0151570615806 -0.0858900156234 0.91 1.01019045774e-38
0.016841179534 -0.0858900156234 0.91 1.00100690812e-38
0.0185863698967 -0.0861731695211 0.913 1.01019045774e-38
0.0202760398873 -0.0861731695211 0.913 1.16631080121e-38
0.0219657098779 -0.0861731695211 0.913 1.16631080121e-38
0.0237849274034 -0.0866450926839 0.918 1.15712725159e-38
0.0254838507894 -0.0866450926839 0.918 1.21222854929e-38
0.0271827741753 -0.0866450926839 0.918 1.26761683291e-38
0.0288816975613 -0.0866450926839 0.918 1.29516748175e-38
-0.0415292383234 -0.0865192465071 0.935 2.16406949949e-38
-0.0397988533933 -0.0865192465071 0.935 2.34860439231e-38
-0.0377834638864 -0.0858715088327 0.928 1.97107048368e-38
-0.0359494409284 -0.0855939069723 0.925 6.70399121953e-39
-0.0341635356261 -0.0854088390653 0.923 8.17335915806e-39
-0.0323498701378 -0.0851312372049 0.92 7.80601717343e-39
-0.0305806209472 -0.0849461692979 0.918 7.89785266959e-39
-0.0287873129287 -0.0846685674374 0.915 7.34683969264e-39
-0.02709394158 -0.0846685674374 0.915 8.0815236619e-39
-0.0254005702312 -0.0846685674374 0.915 7.71418167727e-39
-0.0237071988825 -0.0846685674374 0.915 6.70399121953e-39
-0.0220138275337 -0.0846685674374 0.915 7.4386751888e-39
-0.0202760398873 -0.0844834995305 0.913 8.26519465422e-39
-0.0185252974874 -0.08420589767 0.91 8.35703015038e-39
-0.016841179534 -0.08420589767 0.91 8.17335915806e-39
-0.0151237493574 -0.0840208297631 0.908 7.80601717343e-39
-0.0134433327621 -0.0840208297631 0.908 7.98968816575e-39
-0.0117629161668 -0.0840208297631 0.908 9.73456259275e-39
-0.0100824995716 -0.0840208297631 0.908 8.63253663885e-39
-0.00840208297631 -0.0840208297631 0.908 9.36722060812e-39
-0.00672166638105 -0.0840208297631 0.908 1.13876015236e-38
-0.00504124978578 -0.0840208297631 0.908 1.09284240428e-38
-0.00336083319052 -0.0840208297631 0.908 1.01019045774e-38
-0.00167671523712 -0.0838357618561 0.906 1.01937400735e-38
0.0 -0.0838357618561 0.906 1.11120950351e-38
0.00167671523712 -0.0838357618561 0.906 1.03774110659e-38
0.00335343047424 -0.0838357618561 0.906 9.91823358506e-39
0.00504124978578 -0.0840208297631 0.908 8.81620763117e-39
0.0067364718136 -0.08420589767 0.91 1.08365885466e-38
0.008420589767 -0.08420589767 0.91 9.82639808891e-39
0.0101047077204 -0.08420589767 0.91 1.01937400735e-38
0.0117888256738 -0.08420589767 0.91 9.64272709659e-39
0.0134729436272 -0.08420589767 0.91 1.01937400735e-38
0.0151570615806 -0.08420589767 0.91 1.06529175543e-38
0.0168966999061 -0.0844834995305 0.913 1.15712725159e-38
0.0185863698967 -0.0844834995305 0.913 1.26732984698e-38
0.020320456185 -0.0846685674374 0.915 1.19386145005e-38
0.0220138275337 -0.0846685674374 0.915 1.16631080121e-38
0.0237849274034 -0.0849461692979 0.918 1.15712725159e-38
0.0255393711615 -0.0851312372049 0.92 1.24896274775e-38
0.0272419959056 -0.0851312372049 0.92 1.28601980538e-38
0.0289446206497 -0.0851312372049 0.92 1.30438690461e-38
-0.0415292383234 -0.084788861577 0.935 2.21942247039e-38
-0.0397988533933 -0.084788861577 0.935 2.34882019227e-38
-0.0378648937655 -0.0843354452049 0.93 1.96181588824e-38
-0.0360660337097 -0.0841540786561 0.928 7.62234618111e-39
-0.0342375627889 -0.0838820288328 0.925 8.72437213501e-39
-0.0324553588448 -0.083700662284 0.923 7.98968816575e-39
-0.0305806209472 -0.0832472459119 0.918 7.62234618111e-39
-0.0288816975613 -0.0832472459119 0.918 7.34683969264e-39
-0.02709394158 -0.0829751960887 0.915 8.44886564654e-39
-0.0254005702312 -0.0829751960887 0.915 8.26519465422e-39
-0.0237071988825 -0.0829751960887 0.915 7.34683969264e-39
-0.0220138275337 -0.0829751960887 0.915 8.44886564654e-39
-0.020320456185 -0.0829751960887 0.915 8.17335915806e-39
-0.0185863698967 -0.0827938295399 0.913 8.0815236619e-39
-0.016841179534 -0.0825217797166 0.91 7.4386751888e-39
-0.0151237493574 -0.0823404131678 0.908 7.80601717343e-39
-0.0134433327621 -0.0823404131678 0.908 8.44886564654e-39
-0.0117629161668 -0.0823404131678 0.908 9.73456259275e-39
-0.0100824995716 -0.0823404131678 0.908 9.82639808891e-39
-0.00840208297631 -0.0823404131678 0.908 1.01019045774e-38
-0.00672166638105 -0.0823404131678 0.908 1.13876015236e-38
-0.00504124978578 -0.0823404131678 0.908 1.06529175543e-38
-0.00336083319052 -0.0823404131678 0.908 1.01937400735e-38
-0.00168041659526 -0.0823404131678 0.908 9.91823358506e-39
0.0 -0.0823404131678 0.908 1.01937400735e-38
0.00168041659526 -0.0823404131678 0.908 1.0469246562e-38
0.00336083319052 -0.0823404131678 0.908 1.01937400735e-38
0.0050523538602 -0.0825217797166 0.91 1.01937400735e-38
0.0067364718136 -0.0825217797166 0.91 1.08365885466e-38
0.00844834995305 -0.0827938295399 0.913 1.12039305313e-38
0.0101380199437 -0.0827938295399 0.913 1.06529175543e-38
0.0118276899343 -0.0827938295399 0.913 1.05610820582e-38
0.0135173599249 -0.0827938295399 0.913 1.08365885466e-38
0.0152070299155 -0.0827938295399 0.913 1.11120950351e-38
0.0168966999061 -0.0827938295399 0.913 1.18467790044e-38
0.0186270848362 -0.0829751960887 0.915 1.16631080121e-38
0.020320456185 -0.0829751960887 0.915 1.13876015236e-38
0.0220138275337 -0.0829751960887 0.915 1.15712725159e-38
0.0237849274034 -0.0832472459119 0.918 1.14794370197e-38
0.0255393711615 -0.0834286124608 0.92 1.23977919813e-38
0.0272419959056 -0.0834286124608 0.92 1.27694387548e-38
0.0289446206497 -0.0834286124608 0.92 1.27665688956e-38
0.0307471820635 -0.083700662284 0.923 1.12957660274e-38
-0.0415292383234 -0.0830584766468 0.935 2.25640778154e-38
-0.0397988533933 -0.0830584766468 0.935 2.3208726957e-38
-0.0379870385841 -0.0828808114561 0.933 1.96163568125e-38
-0.0360660337097 -0.0824366484794 0.928 7.71418167727e-39
-0.0342375627889 -0.0821701506934 0.925 8.81620763117e-39
-0.0324553588448 -0.0819924855027 0.923 8.35703015038e-39
-0.0306472453938 -0.0817259877167 0.92 7.62234618111e-39
-0.0288816975613 -0.081548322526 0.918 7.8985701344e-39
-0.02709394158 -0.08128182474 0.915 7.07133320417e-39
-0.0254005702312 -0.08128182474 0.915 8.44886564654e-39
-0.0237071988825 -0.08128182474 0.915 7.80601717343e-39
-0.0220138275337 -0.08128182474 0.915 7.98968816575e-39
-0.020320456185 -0.08128182474 0.915 7.98968816575e-39
-0.0185863698967 -0.0811041595493 0.913 8.35703015038e-39
-0.0168966999061 -0.0811041595493 0.913 8.54070114269e-39
-0.0151570615806 -0.0808376617632 0.91 9.1835496158e-39
-0.0134729436272 -0.0808376617632 0.91 9.55089160043e-39
-0.0117888256738 -0.0808376617632 0.91 9.73456259275e-39
-0.0100824995716 -0.0806599965725 0.908 9.82639808891e-39
-0.00840208297631 -0.0806599965725 0.908 1.03774110659e-38
-0.00672166638105 -0.0806599965725 0.908 1.1020259539e-38
-0.00504124978578 -0.0806599965725 0.908 1.1020259539e-38
-0.00336083319052 -0.0806599965725 0.908 1.07447530505e-38
-0.00168041659526 -0.0806599965725 0.908 1.09284240428e-38
0.0 -0.0808376617632 0.91 1.09284240428e-38
0.0016841179534 -0.0808376617632 0.91 1.12039305313e-38
0.0033682359068 -0.0808376617632 0.91 1.09284240428e-38
0.0050523538602 -0.0808376617632 0.91 1.1020259539e-38
0.00675867996244 -0.0811041595493 0.913 1.13876015236e-38
0.00844834995305 -0.0811041595493 0.913 1.13876015236e-38
0.0101380199437 -0.0811041595493 0.913 1.1020259539e-38
0.0118276899343 -0.0811041595493 0.913 1.09284240428e-38
0.0135173599249 -0.0811041595493 0.913 1.08365885466e-38
0.0152403421387 -0.08128182474 0.915 1.14794370197e-38
0.0169337134875 -0.08128182474 0.915 9.45905610427e-39
0.0186881572455 -0.081548322526 0.918 9.45905610427e-39
0.0203870806315 -0.081548322526 0.918 1.02855755697e-38
0.0221341216733 -0.0817259877167 0.92 1.14794370197e-38
0.0239144749383 -0.0819924855027 0.923 1.12957660274e-38
0.0256226517196 -0.0819924855027 0.923 1.26732984698e-38
0.0273308285009 -0.0819924855027 0.923 1.3321527929e-38
0.0290390052822 -0.0819924855027 0.923 1.27694387548e-38
0.0307471820635 -0.0819924855027 0.923 1.11120950351e-38
-0.0397988533933 -0.0813280917167 0.935 2.32987898106e-38
-0.0379870385841 -0.0811541278841 0.933 2.06301626203e-38
-0.0360660337097 -0.0807192183028 0.928 6.97949770801e-39
-0.0343486035331 -0.0807192183028 0.928 8.44886564654e-39
-0.0325256846495 -0.0804582725539 0.925 8.99987862348e-39
-0.0307471820635 -0.0802843087214 0.923 8.08188239431e-39
-0.0289446206497 -0.0800233629726 0.92 8.17479408769e-39
-0.0271827741753 -0.07984939914 0.918 7.4386751888e-39
-0.0254005702312 -0.0795884533912 0.915 8.63253663885e-39
-0.0237071988825 -0.0795884533912 0.915 7.34683969264e-39
-0.0220138275337 -0.0795884533912 0.915 7.80601717343e-39
-0.020320456185 -0.0795884533912 0.915 8.17335915806e-39
-0.0186270848362 -0.0795884533912 0.915 8.54070114269e-39
-0.0169337134875 -0.0795884533912 0.915 9.45905610427e-39
-0.0151570615806 -0.0791535438098 0.91 9.45905610427e-39
-0.0134729436272 -0.0791535438098 0.91 8.81620763117e-39
-0.0117888256738 -0.0791535438098 0.91 8.81620763117e-39
-0.0101047077204 -0.0791535438098 0.91 9.36722060812e-39
-0.008420589767 -0.0791535438098 0.91 1.00100690812e-38
-0.0067364718136 -0.0791535438098 0.91 1.05610820582e-38
-0.0050523538602 -0.0791535438098 0.91 1.11120950351e-38
-0.0033682359068 -0.0791535438098 0.91 1.09284240428e-38
-0.0016841179534 -0.0791535438098 0.91 1.15712725159e-38
0.0 -0.0791535438098 0.91 1.1020259539e-38
0.0016841179534 -0.0791535438098 0.91 1.08365885466e-38
0.00337933998122 -0.0794144895587 0.913 9.91823358506e-39
0.00506900997183 -0.0794144895587 0.913 1.05610820582e-38
0.006773485395 -0.0795884533912 0.915 1.05610820582e-38
0.00846685674374 -0.0795884533912 0.915 1.01019045774e-38
0.0101602280925 -0.0795884533912 0.915 9.55089160043e-39
0.0118535994412 -0.0795884533912 0.915 9.27538511196e-39
0.01354697079 -0.0795884533912 0.915 1.02855755697e-38
0.0152403421387 -0.0795884533912 0.915 1.02855755697e-38
0.0169337134875 -0.0795884533912 0.915 8.35703015038e-39
0.0186881572455 -0.07984939914 0.918 8.44886564654e-39
0.0203870806315 -0.07984939914 0.918 8.99987862348e-39
0.0221341216733 -0.0800233629726 0.92 1.07447530505e-38
0.0239144749383 -0.0802843087214 0.923 1.14794370197e-38
0.0256226517196 -0.0802843087214 0.923 1.23059564852e-38
0.0273308285009 -0.0802843087214 0.923 1.38761492495e-38
0.0290390052822 -0.0802843087214 0.923 1.31421617256e-38
0.03081380651 -0.0804582725539 0.925 1.17549435082e-38
0.0325256846495 -0.0804582725539 0.925 2.34763595494e-38
-0.0397988533933 -0.0795977067866 0.935 2.31165341297e-38
-0.0379870385841 -0.0794274443121 0.933 2.04471950798e-38
-0.0361437622307 -0.0791720506005 0.93 7.4386751888e-39
-0.0343486035331 -0.0790017881261 0.928 9.36722060812e-39
-0.0325256846495 -0.0787463944145 0.925 8.81620763117e-39
-0.0307471820635 -0.0785761319401 0.923 8.90804312733e-39
-0.0289446206497 -0.0783207382285 0.92 8.54070114269e-39
-0.0271827741753 -0.0781504757541 0.918 7.80601717343e-39
-0.0254005702312 -0.0778950820425 0.915 8.26519465422e-39
-0.0237071988825 -0.0778950820425 0.915 6.97949770801e-39
-0.0220860040175 -0.0781504757541 0.918 8.54070114269e-39
-0.020320456185 -0.0778950820425 0.915 9.27538511196e-39
-0.0186270848362 -0.0778950820425 0.915 8.72437213501e-39
-0.0169337134875 -0.0778950820425 0.915 7.98968816575e-39
-0.0152070299155 -0.077724819568 0.913 8.35703015038e-39
-0.0134729436272 -0.0774694258564 0.91 8.63253663885e-39
-0.0117888256738 -0.0774694258564 0.91 9.1835496158e-39
-0.0101047077204 -0.0774694258564 0.91 8.99987862348e-39
-0.008420589767 -0.0774694258564 0.91 9.91823358506e-39
-0.0067364718136 -0.0774694258564 0.91 1.09284240428e-38
-0.0050523538602 -0.0774694258564 0.91 1.08365885466e-38
-0.0033682359068 -0.0774694258564 0.91 1.05610820582e-38
-0.0016841179534 -0.0774694258564 0.91 1.11120950351e-38
0.0 -0.0774694258564 0.91 1.0469246562e-38
0.00168966999061 -0.077724819568 0.913 1.07447530505e-38
0.00337933998122 -0.077724819568 0.913 9.82639808891e-39
0.00506900997183 -0.077724819568 0.913 1.13876015236e-38
0.006773485395 -0.0778950820425 0.915 9.91823358506e-39
0.00846685674374 -0.0778950820425 0.915 9.1835496158e-39
0.0101602280925 -0.0778950820425 0.915 8.72437213501e-39
0.0118535994412 -0.0778950820425 0.915 9.09171411964e-39
0.01354697079 -0.0778950820425 0.915 9.27538511196e-39
0.0152403421387 -0.0778950820425 0.915 9.09171411964e-39
0.0169337134875 -0.0778950820425 0.915 8.81620763117e-39
0.0186881572455 -0.0781504757541 0.918 8.99987862348e-39
0.0204314969292 -0.0783207382285 0.92 8.0815236619e-39
0.0221341216733 -0.0783207382285 0.92 1.17567427755e-38
0.0239144749383 -0.0785761319401 0.923 1.15712725159e-38
0.0256781720917 -0.0787463944145 0.925 1.24924973367e-38
0.0273900502311 -0.0787463944145 0.925 1.38761492495e-38
0.0291019283706 -0.0787463944145 0.925 1.35138155056e-38
0.03081380651 -0.0787463944145 0.925 1.16631080121e-38
-0.0397988533933 -0.0778673218564 0.935 2.33941972165e-38
-0.0379870385841 -0.0777007607401 0.933 1.96178057552e-38
-0.0361437622307 -0.0774509190657 0.93 8.82122988486e-39
-0.0343486035331 -0.0772843579495 0.928 1.00161675321e-38
-0.0325256846495 -0.0770345162751 0.925 9.09243158445e-39
-0.0307471820635 -0.0768679551588 0.923 8.63253663885e-39
-0.0289446206497 -0.0766181134844 0.92 8.63253663885e-39
-0.0272419959056 -0.0766181134844 0.92 8.44886564654e-39
-0.0254838507894 -0.0764515523681 0.918 7.98968816575e-39
-0.0237849274034 -0.0764515523681 0.918 7.62234618111e-39
-0.0220860040175 -0.0764515523681 0.918 8.35703015038e-39
-0.0203870806315 -0.0764515523681 0.918 8.26519465422e-39
-0.0186270848362 -0.0762017106937 0.915 8.26519465422e-39
-0.0169337134875 -0.0762017106937 0.915 7.71418167727e-39
-0.0152070299155 -0.0760351495774 0.913 8.72437213501e-39
-0.0135173599249 -0.0760351495774 0.913 1.01019045774e-38
-0.0118276899343 -0.0760351495774 0.913 1.00100690812e-38
-0.0101380199437 -0.0760351495774 0.913 9.73456259275e-39
-0.00844834995305 -0.0760351495774 0.913 1.01019045774e-38
-0.0067364718136 -0.075785307903 0.91 1.07447530505e-38
-0.0050523538602 -0.075785307903 0.91 1.0469246562e-38
-0.0033682359068 -0.075785307903 0.91 1.1020259539e-38
-0.0016841179534 -0.075785307903 0.91 1.0469246562e-38
0.0 -0.0760351495774 0.913 9.91823358506e-39
0.00168966999061 -0.0760351495774 0.913 1.01019045774e-38
0.00337933998122 -0.0760351495774 0.913 1.01019045774e-38
0.00508011404625 -0.0762017106937 0.915 1.13876015236e-38
0.006773485395 -0.0762017106937 0.915 1.02855755697e-38
0.00846685674374 -0.0762017106937 0.915 9.73456259275e-39
0.0101602280925 -0.0762017106937 0.915 1.01019045774e-38
0.0118535994412 -0.0762017106937 0.915 9.91823358506e-39
0.01354697079 -0.0762017106937 0.915 7.34683969264e-39
0.0152903104736 -0.0764515523681 0.918 7.4386751888e-39
0.0169892338596 -0.0764515523681 0.918 8.63253663885e-39
0.0187288721851 -0.0766181134844 0.92 9.09171411964e-39
0.0204314969292 -0.0766181134844 0.92 8.81620763117e-39
0.0221341216733 -0.0766181134844 0.92 1.1481236287e-38
0.0239662939522 -0.0770345162751 0.925 1.12039305313e-38
0.0256781720917 -0.0770345162751 0.925 1.3045666912e-38
0.0273900502311 -0.0770345162751 0.925 1.27705247612e-38
0.0291019283706 -0.0770345162751 0.925 1.38804722553e-38
0.03081380651 -0.0770345162751 0.925 1.12957660274e-38
-0.0379870385841 -0.0759740771681 0.933 2.01688243373e-38
-0.0361437622307 -0.0757297875309 0.93 9.00669453921e-39
-0.0343486035331 -0.0755669277728 0.928 9.00167228552e-39
-0.0325256846495 -0.0753226381356 0.925 1.00158116023e-38
-0.03081380651 -0.0753226381356 0.925 8.44958311135e-39
-0.0290390052822 -0.0751597783775 0.923 8.26806451347e-39
-0.0272419959056 -0.0749154887403 0.92 8.63253663885e-39
-0.0254838507894 -0.0747526289822 0.918 7.80601717343e-39
-0.0237849274034 -0.0747526289822 0.918 8.0815236619e-39
-0.0220860040175 -0.0747526289822 0.918 8.35703015038e-39
-0.0203870806315 -0.0747526289822 0.918 7.98968816575e-39
-0.0186270848362 -0.074508339345 0.915 7.34683969264e-39
-0.0169337134875 -0.074508339345 0.915 8.35703015038e-39
-0.0152403421387 -0.074508339345 0.915 8.99987862348e-39
-0.0135173599249 -0.0743454795868 0.913 1.01937400735e-38
-0.0118276899343 -0.0743454795868 0.913 9.27538511196e-39
-0.0101380199437 -0.0743454795868 0.913 9.36722060812e-39
-0.00844834995305 -0.0743454795868 0.913 9.27538511196e-39
-0.00675867996244 -0.0743454795868 0.913 1.02855755697e-38
-0.00506900997183 -0.0743454795868 0.913 9.55089160043e-39
-0.0033682359068 -0.0741011899496 0.91 9.45905610427e-39
-0.0016841179534 -0.0741011899496 0.91 8.90804312733e-39
0.0 -0.0743454795868 0.913 8.0815236619e-39
0.00169337134875 -0.074508339345 0.915 8.99987862348e-39
0.0033867426975 -0.074508339345 0.915 9.73456259275e-39
0.00508011404625 -0.074508339345 0.915 1.00100690812e-38
0.006773485395 -0.074508339345 0.915 1.05610820582e-38
0.00846685674374 -0.074508339345 0.915 9.82639808891e-39
0.0101602280925 -0.074508339345 0.915 1.11120950351e-38
0.0118924637017 -0.0747526289822 0.918 9.73456259275e-39
0.0135913870877 -0.0747526289822 0.918 7.16316870032e-39
0.0152903104736 -0.0747526289822 0.918 7.25500419648e-39
0.017026247441 -0.0749154887403 0.92 8.17335915806e-39
0.0187288721851 -0.0749154887403 0.92 9.55089160043e-39
0.0204314969292 -0.0749154887403 0.92 1.05610820582e-38
0.022206298157 -0.0751597783775 0.923 1.12039305313e-38
0.0239662939522 -0.0753226381356 0.925 1.20315261939e-38
0.0256781720917 -0.0753226381356 0.925 1.17549435082e-38
0.0274788828265 -0.0755669277728 0.928 1.3322279025e-38
0.0291963130031 -0.0755669277728 0.928 1.37836159067e-38
0.0309137431798 -0.0755669277728 0.928 1.33229628586e-38
0.0326311733564 -0.0755669277728 0.928 2.34828825937e-38
-0.0378648937655 -0.0740086559961 0.93 1.90631886386e-38
-0.0361437622307 -0.0740086559961 0.93 9.74424836773e-39
-0.0344226306959 -0.0740086559961 0.93 1.09323700993e-38
-0.0326311733564 -0.0738494975962 0.928 8.0815236619e-39
-0.03081380651 -0.0736107599962 0.925 9.27574384436e-39
-0.0290390052822 -0.0734516015962 0.923 8.35738888278e-39
-0.0273308285009 -0.0734516015962 0.923 8.44886564654e-39
-0.0255393711615 -0.0732128639962 0.92 8.35703015038e-39
-0.0238367464174 -0.0732128639962 0.92 8.54070114269e-39
-0.0221341216733 -0.0732128639962 0.92 7.34683969264e-39
-0.0203870806315 -0.0730537055962 0.918 7.25500419648e-39
-0.0186881572455 -0.0730537055962 0.918 7.53051068496e-39
-0.0169337134875 -0.0728149679962 0.915 8.0815236619e-39
-0.0152403421387 -0.0728149679962 0.915 8.99987862348e-39
-0.01354697079 -0.0728149679962 0.915 1.03774110659e-38
-0.0118535994412 -0.0728149679962 0.915 8.54070114269e-39
-0.0101602280925 -0.0728149679962 0.915 9.45905610427e-39
-0.00846685674374 -0.0728149679962 0.915 1.00100690812e-38
-0.00675867996244 -0.0726558095962 0.913 1.03774110659e-38
-0.00506900997183 -0.0726558095962 0.913 8.72437213501e-39
-0.0033867426975 -0.0728149679962 0.915 7.89785266959e-39
-0.00169337134875 -0.0728149679962 0.915 8.26519465422e-39
0.0 -0.0728149679962 0.915 8.72437213501e-39
0.00169337134875 -0.0728149679962 0.915 8.72437213501e-39
0.0033867426975 -0.0728149679962 0.915 1.05610820582e-38
0.00508011404625 -0.0728149679962 0.915 8.54070114269e-39
0.00679569354383 -0.0730537055962 0.918 8.72437213501e-39
0.00849461692979 -0.0730537055962 0.918 9.45905610427e-39
0.0101935403157 -0.0730537055962 0.918 1.02855755697e-38
0.0118924637017 -0.0730537055962 0.918 1.02855755697e-38
0.0135913870877 -0.0730537055962 0.918 9.27538511196e-39
0.0152903104736 -0.0730537055962 0.918 8.72437213501e-39
0.017026247441 -0.0732128639962 0.92 9.45905610427e-39
0.0187288721851 -0.0732128639962 0.92 1.05610820582e-38
0.0204314969292 -0.0732128639962 0.92 1.12039305313e-38
0.022206298157 -0.0734516015962 0.923 1.12957660274e-38
0.0239662939522 -0.0736107599962 0.925 1.17553022406e-38
0.0257614526498 -0.0738494975962 0.928 1.26768857939e-38
0.0274788828265 -0.0738494975962 0.928 1.34126459604e-38
0.0291963130031 -0.0738494975962 0.928 1.41527557573e-38
0.0309137431798 -0.0738494975962 0.928 1.24921386043e-38
0.0326311733564 -0.0738494975962 0.928 2.34878796241e-38
-0.0379870385841 -0.0725207100241 0.933 1.92468330062e-38
-0.0362603550121 -0.0725207100241 0.933 1.14033857495e-38
-0.0344226306959 -0.0722875244614 0.93 9.46192596353e-39
-0.0326311733564 -0.0721320674195 0.928 9.46336089316e-39
-0.03081380651 -0.0718988818567 0.925 9.37044919978e-39
-0.0290390052822 -0.0717434248149 0.923 8.54070114269e-39
-0.0273308285009 -0.0717434248149 0.923 8.63253663885e-39
-0.0255393711615 -0.0715102392521 0.92 8.72437213501e-39
-0.0238367464174 -0.0715102392521 0.92 8.81620763117e-39
-0.0221341216733 -0.0715102392521 0.92 7.80601717343e-39
-0.0204314969292 -0.0715102392521 0.92 8.63253663885e-39
-0.0186881572455 -0.0713547822102 0.918 8.81620763117e-39
-0.0169892338596 -0.0713547822102 0.918 8.81620763117e-39
-0.0152403421387 -0.0711215966475 0.915 9.09171411964e-39
-0.01354697079 -0.0711215966475 0.915 8.72437213501e-39
-0.0118535994412 -0.0711215966475 0.915 7.98968816575e-39
-0.0101602280925 -0.0711215966475 0.915 9.55089160043e-39
-0.00846685674374 -0.0711215966475 0.915 1.07447530505e-38
-0.006773485395 -0.0711215966475 0.915 1.09284240428e-38
-0.00508011404625 -0.0711215966475 0.915 1.01937400735e-38
-0.0033867426975 -0.0711215966475 0.915 9.91823358506e-39
-0.00169337134875 -0.0711215966475 0.915 1.06529175543e-38
0.0 -0.0711215966475 0.915 1.09284240428e-38
0.00169892338596 -0.0713547822102 0.918 1.03774110659e-38
0.00339784677192 -0.0713547822102 0.918 1.1020259539e-38
0.00509677015787 -0.0713547822102 0.918 1.02855755697e-38
0.00679569354383 -0.0713547822102 0.918 1.01937400735e-38
0.00849461692979 -0.0713547822102 0.918 1.01937400735e-38
0.0101935403157 -0.0713547822102 0.918 1.07447530505e-38
0.0118924637017 -0.0713547822102 0.918 1.07447530505e-38
0.0135913870877 -0.0713547822102 0.918 1.07447530505e-38
0.0153236226969 -0.0715102392521 0.92 1.06529175543e-38
0.017026247441 -0.0715102392521 0.92 1.09284240428e-38
0.0187288721851 -0.0715102392521 0.92 1.11120950351e-38
0.0204981213757 -0.0717434248149 0.923 1.16631080121e-38
0.022206298157 -0.0717434248149 0.923 1.15712725159e-38
0.0239662939522 -0.0718988818567 0.925 1.18474964692e-38
0.0257614526498 -0.0721320674195 0.928 1.1940766895e-38
0.0274788828265 -0.0721320674195 0.928 1.40605166872e-38
0.0292592360915 -0.0722875244614 0.93 1.42466988063e-38
0.0309803676263 -0.0722875244614 0.93 1.54484944083e-38
0.0327014991611 -0.0722875244614 0.93 2.34911166235e-38
-0.0381906132817 -0.0711734156614 0.938 1.90635235489e-38
-0.0364546763144 -0.0711734156614 0.938 1.01094379579e-38
-0.0345336714401 -0.0707940264521 0.933 1.1306886732e-38
-0.0327014991611 -0.0705663929266 0.93 1.00143892844e-38
-0.0309137431798 -0.0704146372428 0.928 7.89785266959e-39
-0.0291019283706 -0.0701870037173 0.925 8.26555338663e-39
-0.0273900502311 -0.0701870037173 0.925 8.17335915806e-39
-0.0256226517196 -0.0700352480336 0.923 7.80601717343e-39
-0.0239144749383 -0.0700352480336 0.923 8.35703015038e-39
-0.022206298157 -0.0700352480336 0.923 8.26519465422e-39
-0.0204314969292 -0.069807614508 0.92 9.27538511196e-39
-0.0187288721851 -0.069807614508 0.92 8.0815236619e-39
-0.0169892338596 -0.0696558588243 0.918 8.0815236619e-39
-0.0152903104736 -0.0696558588243 0.918 9.36722060812e-39
-0.0135913870877 -0.0696558588243 0.918 9.36722060812e-39
-0.0118924637017 -0.0696558588243 0.918 9.1835496158e-39
-0.0101935403157 -0.0696558588243 0.918 9.64272709659e-39
-0.00846685674374 -0.0694282252987 0.915 1.1020259539e-38
-0.006773485395 -0.0694282252987 0.915 1.15712725159e-38
-0.00508011404625 -0.0694282252987 0.915 1.13876057275e-38
-0.0033867426975 -0.0694282252987 0.915 1.20304499967e-38
-0.00169337134875 -0.0694282252987 0.915 1.2214120989e-38
0.0 -0.0694282252987 0.915 1.14794370197e-38
0.00169892338596 -0.0696558588243 0.918 1.12957660274e-38
0.00339784677192 -0.0696558588243 0.918 1.17549435082e-38
0.00509677015787 -0.0696558588243 0.918 1.2214120989e-38
0.00679569354383 -0.0696558588243 0.918 1.18467790044e-38
0.00849461692979 -0.0696558588243 0.918 1.07447530505e-38
0.0101935403157 -0.0696558588243 0.918 1.07447530505e-38
0.0118924637017 -0.0696558588243 0.918 9.45905610427e-39
0.0135913870877 -0.0696558588243 0.918 1.01937400735e-38
0.0153236226969 -0.069807614508 0.92 1.08365885466e-38
0.017026247441 -0.069807614508 0.92 1.09284240428e-38
0.0187899445944 -0.0700352480336 0.923 1.1020259539e-38
0.0205425376733 -0.0701870037173 0.925 1.15712725159e-38
0.0222544158128 -0.0701870037173 0.925 1.18467790044e-38
0.0240440224732 -0.0704146372428 0.928 1.16631080121e-38
0.0257614526498 -0.0704146372428 0.928 1.11120950351e-38
0.0275381045567 -0.0705663929266 0.93 1.47955818096e-38
0.0292592360915 -0.0705663929266 0.93 1.3603135671e-38
0.0309803676263 -0.0705663929266 0.93 1.48016606423e-38
-0.0401393783421 -0.069807614508 0.943 2.33012981348e-38
-0.0382720431608 -0.0695855330196 0.94 1.93401272541e-38
-0.0364546763144 -0.0694374786941 0.938 1.14005158902e-38
-0.0345336714401 -0.0690673428801 0.933 1.04778561398e-38
-0.0328069878681 -0.0690673428801 0.933 1.0565039325e-38
-0.0309137431798 -0.0686972070662 0.928 8.45030057616e-39
-0.0291019283706 -0.0684751255778 0.925 8.54428846676e-39
-0.0273900502311 -0.0684751255778 0.925 7.4386751888e-39
-0.0256226517196 -0.0683270712523 0.923 8.54249480473e-39
-0.0239144749383 -0.0683270712523 0.923 8.35703015038e-39
-0.022206298157 -0.0683270712523 0.923 7.71418167727e-39
-0.0204981213757 -0.0683270712523 0.923 8.54070114269e-39
-0.0187288721851 -0.0681049897639 0.92 8.26519465422e-39
-0.017026247441 -0.0681049897639 0.92 8.35703015038e-39
-0.0152903104736 -0.0679569354383 0.918 8.99987862348e-39
-0.0135913870877 -0.0679569354383 0.918 9.64272709659e-39
-0.0118924637017 -0.0679569354383 0.918 1.01019045774e-38
-0.0101935403157 -0.0679569354383 0.918 9.91823358506e-39
-0.00849461692979 -0.0679569354383 0.918 9.1835496158e-39
-0.00679569354383 -0.0679569354383 0.918 9.1835496158e-39
-0.00509677015787 -0.0679569354383 0.918 9.36722060812e-39
-0.00339784677192 -0.0679569354383 0.918 1.01019045774e-38
-0.00169892338596 -0.0679569354383 0.918 1.11120950351e-38
0.0 -0.0679569354383 0.918 1.07447530505e-38
0.00169892338596 -0.0679569354383 0.918 1.06529175543e-38
0.00339784677192 -0.0679569354383 0.918 1.12039305313e-38
0.00509677015787 -0.0679569354383 0.918 1.00100690812e-38
0.00679569354383 -0.0679569354383 0.918 9.64272709659e-39
0.00849461692979 -0.0679569354383 0.918 9.55089160043e-39
0.0101935403157 -0.0679569354383 0.918 9.55089160043e-39
0.0118924637017 -0.0679569354383 0.918 8.44886564654e-39
0.0136209979528 -0.0681049897639 0.92 1.06529175543e-38
0.0153236226969 -0.0681049897639 0.92 1.08365885466e-38
0.0170817678131 -0.0683270712523 0.923 9.73456259275e-39
0.0188306595339 -0.0684751255778 0.925 1.13876015236e-38
0.0205425376733 -0.0684751255778 0.925 1.18467790044e-38
0.0222544158128 -0.0684751255778 0.925 1.18467930174e-38
0.0240440224732 -0.0686972070662 0.928 1.12039305313e-38
0.0258169730219 -0.0688452613918 0.93 1.30460326509e-38
0.0275381045567 -0.0688452613918 0.93 1.2591507481e-38
0.0293536207241 -0.0690673428801 0.933 1.44368816326e-38
0.0310803042961 -0.0690673428801 0.933 1.59094473342e-38
-0.0401393783421 -0.0680624241453 0.943 2.34889614265e-38
-0.0382720431608 -0.0678458946941 0.94 1.94323411008e-38
-0.0364546763144 -0.0677015417267 0.938 1.04792910694e-38
-0.034718739347 -0.0677015417267 0.938 1.23181561896e-38
-0.0328069878681 -0.0673406593081 0.933 1.00132976729e-38
-0.0309803676263 -0.067124129857 0.93 9.00238975033e-39
-0.0291963130031 -0.0669797768895 0.928 8.8180012932e-39
-0.0273900502311 -0.0667632474384 0.925 7.80601717343e-39
-0.0256781720917 -0.0667632474384 0.925 9.27646130918e-39
-0.0239662939522 -0.0667632474384 0.925 7.98968816575e-39
-0.0222544158128 -0.0667632474384 0.925 8.26519465422e-39
-0.0204981213757 -0.0666188944709 0.923 8.54070114269e-39
-0.0187899445944 -0.0666188944709 0.923 9.64272709659e-39
-0.017026247441 -0.0664023650198 0.92 8.17335915806e-39
-0.0153236226969 -0.0664023650198 0.92 8.44886564654e-39
-0.0136209979528 -0.0664023650198 0.92 7.98968816575e-39
-0.0119183732087 -0.0664023650198 0.92 8.35703015038e-39
-0.0102157484646 -0.0664023650198 0.92 9.1835496158e-39
-0.00849461692979 -0.0662580120524 0.918 9.1835496158e-39
-0.00679569354383 -0.0662580120524 0.918 8.81620763117e-39
-0.00509677015787 -0.0662580120524 0.918 8.72437213501e-39
-0.00339784677192 -0.0662580120524 0.918 9.45905610427e-39
-0.00169892338596 -0.0662580120524 0.918 1.05610820582e-38
0.0 -0.0662580120524 0.918 9.55089160043e-39
0.0017026247441 -0.0664023650198 0.92 1.1020259539e-38
0.00340524948819 -0.0664023650198 0.92 9.64272709659e-39
0.00510787423229 -0.0664023650198 0.92 8.44886564654e-39
0.00681049897639 -0.0664023650198 0.92 8.81620763117e-39
0.00851312372049 -0.0664023650198 0.92 8.81620763117e-39
0.0102157484646 -0.0664023650198 0.92 8.35703015038e-39
0.0119183732087 -0.0664023650198 0.92 8.72437213501e-39
0.0136209979528 -0.0664023650198 0.92 9.64272709659e-39
0.0153236226969 -0.0664023650198 0.92 1.01019045774e-38
0.0170817678131 -0.0666188944709 0.923 9.36722060812e-39
0.0188306595339 -0.0667632474384 0.925 1.14797957522e-38
0.0206091621199 -0.0669797768895 0.928 1.14794370197e-38
0.0223265922965 -0.0669797768895 0.928 1.15712725159e-38
0.0240958414871 -0.067124129857 0.93 1.12957660274e-38
0.0258169730219 -0.067124129857 0.93 1.24053253619e-38
0.027626937152 -0.0673406593081 0.933 1.29563411414e-38
0.0294165438124 -0.0674850122756 0.935 1.10281516519e-38
0.0311469287426 -0.0674850122756 0.935 1.68296141747e-38
-0.0436297590675 -0.0663172337826 0.943 2.27470677766e-38
-0.0418845687048 -0.0663172337826 0.943 2.22864203337e-38
-0.0401393783421 -0.0663172337826 0.943 2.34860411205e-38
-0.0383941879794 -0.0663172337826 0.943 1.89727922759e-38
-0.0365324048353 -0.0661062563686 0.94 9.55663131894e-39
-0.034718739347 -0.0659656047594 0.938 1.26840702511e-38
-0.0328773136727 -0.0657546273454 0.935 1.04728422939e-38
-0.0309803676263 -0.0654029983222 0.93 8.35703015038e-39
-0.0291963130031 -0.0652623467129 0.928 8.63253663885e-39
-0.0274788828265 -0.0652623467129 0.928 8.44886564654e-39
-0.0256781720917 -0.0650513692989 0.925 9.09279031686e-39
-0.0239662939522 -0.0650513692989 0.925 8.0815236619e-39
-0.0222544158128 -0.0650513692989 0.925 1.03774110659e-38
-0.0205425376733 -0.0650513692989 0.925 1.01019045774e-38
-0.0187899445944 -0.0649107176896 0.923 9.91823358506e-39
-0.0170817678131 -0.0649107176896 0.923 9.36722060812e-39
-0.0153236226969 -0.0646997402757 0.92 9.73456259275e-39
-0.0136209979528 -0.0646997402757 0.92 9.27538511196e-39
-0.0119183732087 -0.0646997402757 0.92 9.36722060812e-39
-0.0102157484646 -0.0646997402757 0.92 9.91823358506e-39
-0.00851312372049 -0.0646997402757 0.92 1.07447530505e-38
-0.00681049897639 -0.0646997402757 0.92 1.01937400735e-38
-0.00510787423229 -0.0646997402757 0.92 1.02855755697e-38
-0.00340524948819 -0.0646997402757 0.92 1.08365885466e-38
-0.0017026247441 -0.0646997402757 0.92 1.08365885466e-38
0.0 -0.0646997402757 0.92 1.02855755697e-38
0.0017026247441 -0.0646997402757 0.92 1.17549435082e-38
0.00340524948819 -0.0646997402757 0.92 1.06529175543e-38
0.00510787423229 -0.0646997402757 0.92 1.03774110659e-38
0.00681049897639 -0.0646997402757 0.92 1.03774110659e-38
0.00851312372049 -0.0646997402757 0.92 1.01937400735e-38
0.0102157484646 -0.0646997402757 0.92 9.82639808891e-39
0.0119572374691 -0.0649107176896 0.923 1.01937400735e-38
0.0136654142505 -0.0649107176896 0.923 9.91823358506e-39
0.0153735910318 -0.0649107176896 0.923 1.05610820582e-38
0.0171187813945 -0.0650513692989 0.925 1.12957660274e-38
0.0188917319432 -0.0652623467129 0.928 1.12957660274e-38
0.0206091621199 -0.0652623467129 0.928 1.15712725159e-38
0.0223747099523 -0.0654029983222 0.93 1.12957660274e-38
0.024173570008 -0.0656139757361 0.933 1.34108621074e-38
0.02590025358 -0.0656139757361 0.933 1.22195019751e-38
0.0276861588823 -0.0657546273454 0.935 1.3235097241e-38
0.0294165438124 -0.0657546273454 0.935 1.07479816421e-38
0.0311469287426 -0.0657546273454 0.935 1.76647502244e-38
-0.0436297590675 -0.0645720434199 0.943 2.24715304596e-38
-0.0418845687048 -0.0645720434199 0.943 2.22885713269e-38
-0.0402670751979 -0.0647774687966 0.946 2.31183333969e-38
-0.0383941879794 -0.0645720434199 0.943 1.91579024018e-38
-0.0365324048353 -0.0643666180432 0.94 1.04803826809e-38
-0.0347927665098 -0.0643666180432 0.94 1.22234480316e-38
-0.0329828023797 -0.064229667792 0.938 1.0287732168e-38
-0.0310803042961 -0.0638872921641 0.933 8.91019552177e-39
-0.0292592360915 -0.0636818667874 0.93 8.63289537126e-39
-0.0274788828265 -0.0635449165362 0.928 7.89785266959e-39
-0.0256781720917 -0.0633394911595 0.925 8.54070114269e-39
-0.0239662939522 -0.0633394911595 0.925 8.17335915806e-39
-0.0222544158128 -0.0633394911595 0.925 9.09171411964e-39
-0.0205425376733 -0.0633394911595 0.925 9.64272709659e-39
-0.0188306595339 -0.0633394911595 0.925 1.02855755697e-38
-0.0170817678131 -0.0632025409083 0.923 1.08365885466e-38
-0.0153735910318 -0.0632025409083 0.923 1.11120950351e-38
-0.0136654142505 -0.0632025409083 0.923 1.12039305313e-38
-0.0119572374691 -0.0632025409083 0.923 1.12039305313e-38
-0.0102490606878 -0.0632025409083 0.923 1.07447530505e-38
-0.00854088390653 -0.0632025409083 0.923 1.12957660274e-38
-0.00683270712523 -0.0632025409083 0.923 1.12957660274e-38
-0.00512453034392 -0.0632025409083 0.923 1.09284240428e-38
-0.00340524948819 -0.0629971155316 0.92 1.16631080121e-38
-0.0017026247441 -0.0629971155316 0.92 1.13876015236e-38
0.0 -0.0629971155316 0.92 1.1020259539e-38
0.0017026247441 -0.0629971155316 0.92 1.14794370197e-38
0.00340524948819 -0.0629971155316 0.92 1.12957660274e-38
0.00510787423229 -0.0629971155316 0.92 1.14794370197e-38
0.00681049897639 -0.0629971155316 0.92 1.13876015236e-38
0.00851312372049 -0.0629971155316 0.92 1.16631080121e-38
0.0102157484646 -0.0629971155316 0.92 1.13876015236e-38
0.0119572374691 -0.0632025409083 0.923 1.15712725159e-38
0.0136654142505 -0.0632025409083 0.923 1.14794370197e-38
0.015406903255 -0.0633394911595 0.925 1.13876015236e-38
0.0171187813945 -0.0633394911595 0.925 1.15712725159e-38
0.0188917319432 -0.0635449165362 0.928 1.13876015236e-38
0.0206091621199 -0.0635449165362 0.928 1.11120950351e-38
0.0223747099523 -0.0636818667874 0.93 1.19386145005e-38
0.024173570008 -0.0638872921641 0.933 1.30427928489e-38
0.02590025358 -0.0638872921641 0.933 1.24006618406e-38
0.0276861588823 -0.0640242424153 0.935 1.36946264477e-38
0.0294165438124 -0.0640242424153 0.935 1.35127337032e-38
0.0311469287426 -0.0640242424153 0.935 1.81268213865e-38
0.0329828023797 -0.064229667792 0.938 2.34903669288e-38
-0.0420178175978 -0.0630267263967 0.946 2.26587929799e-38
-0.0402670751979 -0.0630267263967 0.946 2.33963454071e-38
-0.0383941879794 -0.0628268530572 0.943 1.84206904901e-38
-0.0365324048353 -0.0626269797177 0.94 9.74317217051e-39
-0.0347927665098 -0.0626269797177 0.94 1.20422881661e-38
-0.0329828023797 -0.0624937308247 0.938 1.07512102338e-38
-0.0310803042961 -0.0621606085921 0.933 9.27789623881e-39
-0.0292592360915 -0.0619607352526 0.93 9.0009548207e-39
-0.0275381045567 -0.0619607352526 0.93 9.27538511196e-39
-0.0257614526498 -0.0618274863596 0.928 8.72437213501e-39
-0.0240440224732 -0.0618274863596 0.928 7.16316870032e-39
-0.0223265922965 -0.0618274863596 0.928 7.53051068496e-39
-0.0205425376733 -0.06162761302 0.925 8.26519465422e-39
-0.0188306595339 -0.06162761302 0.925 8.35703015038e-39
-0.0171187813945 -0.06162761302 0.925 8.35703015038e-39
-0.015406903255 -0.06162761302 0.925 1.01019045774e-38
-0.0136950251156 -0.06162761302 0.925 1.01937400735e-38
-0.0119831469761 -0.06162761302 0.925 1.14794370197e-38
-0.0102712688367 -0.06162761302 0.925 1.12957660274e-38
-0.00854088390653 -0.061494364127 0.923 1.20304499967e-38
-0.00683270712523 -0.061494364127 0.923 1.17549589225e-38
-0.00512453034392 -0.061494364127 0.923 1.19386145005e-38
-0.00341635356261 -0.061494364127 0.923 1.2214120989e-38
-0.00170817678131 -0.061494364127 0.923 1.24896274775e-38
0.0 -0.061494364127 0.923 1.13876015236e-38
0.00170817678131 -0.061494364127 0.923 1.19386145005e-38
0.00341635356261 -0.061494364127 0.923 1.13876015236e-38
0.00512453034392 -0.061494364127 0.923 1.17549435082e-38
0.00683270712523 -0.061494364127 0.923 1.13876015236e-38
0.00854088390653 -0.061494364127 0.923 1.16631080121e-38
0.0102490606878 -0.061494364127 0.923 1.15712725159e-38
0.0119572374691 -0.061494364127 0.923 1.14794370197e-38
0.0136950251156 -0.06162761302 0.925 1.11120950351e-38
0.015406903255 -0.06162761302 0.925 1.1020259539e-38
0.0171743017665 -0.0618274863596 0.928 1.12039305313e-38
0.0188917319432 -0.0618274863596 0.928 1.14794370197e-38
0.0206535784175 -0.0619607352526 0.93 1.1020259539e-38
0.022446886436 -0.0621606085921 0.933 1.18489313988e-38
0.024225389022 -0.0622938574851 0.935 1.24942909988e-38
0.0259557739521 -0.0622938574851 0.935 1.23102612741e-38
0.0276861588823 -0.0622938574851 0.935 1.2405335171e-38
0.0294165438124 -0.0622938574851 0.935 1.38804652488e-38
0.0312468654123 -0.0624937308247 0.938 1.84952437723e-38
0.0329828023797 -0.0624937308247 0.938 2.34907116483e-38
0.034718739347 -0.0624937308247 0.938 2.34860397192e-38
-0.0420178175978 -0.0612759839968 0.946 2.25662442228e-38
-0.0401393783421 -0.0610816626945 0.943 2.30268538306e-38
-0.0382720431608 -0.0608873413922 0.94 1.85118141266e-38
-0.0365324048353 -0.0608873413922 0.94 9.18964806672e-39
-0.034718739347 -0.0607577938573 0.938 1.27794832622e-38
-0.0329828023797 -0.0607577938573 0.938 1.02873692317e-38
-0.0310803042961 -0.0604339250201 0.933 9.18534327783e-39
-0.0293536207241 -0.0604339250201 0.933 8.99987862348e-39
-0.0275381045567 -0.0602396037178 0.93 9.64272709659e-39
-0.0257614526498 -0.0601100561829 0.928 9.45905610427e-39
-0.0240440224732 -0.0601100561829 0.928 8.72437213501e-39
-0.0223265922965 -0.0601100561829 0.928 8.54070114269e-39
-0.0206091621199 -0.0601100561829 0.928 8.54070114269e-39
-0.0188917319432 -0.0601100561829 0.928 7.16316870032e-39
-0.0171187813945 -0.0599157348806 0.925 7.25500419648e-39
-0.015406903255 -0.0599157348806 0.925 8.17335915806e-39
-0.0136950251156 -0.0599157348806 0.925 9.73456259275e-39
-0.0119831469761 -0.0599157348806 0.925 1.11120950351e-38
-0.0102712688367 -0.0599157348806 0.925 1.06529175543e-38
-0.00855939069723 -0.0599157348806 0.925 1.06529175543e-38
-0.00684751255778 -0.0599157348806 0.925 1.1020259539e-38
-0.00513563441834 -0.0599157348806 0.925 1.0469246562e-38
-0.00342375627889 -0.0599157348806 0.925 1.01937400735e-38
-0.00171187813945 -0.0599157348806 0.925 1.06529175543e-38
0.0 -0.0597861873457 0.923 1.03774110659e-38
0.00170817678131 -0.0597861873457 0.923 1.03774110659e-38
0.00341635356261 -0.0597861873457 0.923 1.03774110659e-38
0.00512453034392 -0.0597861873457 0.923 1.07447530505e-38
0.00683270712523 -0.0597861873457 0.923 1.07447530505e-38
0.00855939069723 -0.0599157348806 0.925 1.08365885466e-38
0.0102712688367 -0.0599157348806 0.925 1.00100690812e-38
0.0119831469761 -0.0599157348806 0.925 1.11120950351e-38
0.0136950251156 -0.0599157348806 0.925 1.14794370197e-38
0.015406903255 -0.0599157348806 0.925 1.1020259539e-38
0.0171743017665 -0.0601100561829 0.928 1.11120950351e-38
0.0188917319432 -0.0601100561829 0.928 1.11120950351e-38
0.0206535784175 -0.0602396037178 0.93 1.16631080121e-38
0.022446886436 -0.0604339250201 0.933 1.21237204225e-38
0.024225389022 -0.060563472555 0.935 1.48963772081e-38
0.0259557739521 -0.060563472555 0.935 1.15755773048e-38
0.0276861588823 -0.060563472555 0.935 1.21294713514e-38
0.0294165438124 -0.060563472555 0.935 1.36999906183e-38
0.0312468654123 -0.0607577938573 0.938 1.9693070897e-38
0.0329828023797 -0.0607577938573 0.938 2.3492156387e-38
0.034718739347 -0.0607577938573 0.938 2.26555601843e-38
-0.0420178175978 -0.0595252415969 0.946 2.15495811674e-38
-0.0401393783421 -0.0593364723318 0.943 2.32087297596e-38
-0.0382720431608 -0.0591477030667 0.94 1.78653629151e-38
-0.0365324048353 -0.0591477030667 0.94 9.1885718695e-39
-0.034718739347 -0.0590218568899 0.938 1.26869303013e-38
-0.0329828023797 -0.0590218568899 0.938 1.00136564053e-38
-0.0311469287426 -0.0588330876248 0.935 8.63612396292e-39
-0.0293536207241 -0.0587072414481 0.933 9.09171411964e-39
-0.027626937152 -0.0587072414481 0.933 8.26519465422e-39
-0.0258169730219 -0.058518472183 0.93 8.72437213501e-39
-0.0240958414871 -0.058518472183 0.93 1.01019045774e-38
-0.0223747099523 -0.058518472183 0.93 1.00100690812e-38
-0.0206091621199 -0.0583926260063 0.928 9.36722060812e-39
-0.0188917319432 -0.0583926260063 0.928 8.90804312733e-39
-0.0171743017665 -0.0583926260063 0.928 8.90804312733e-39
-0.0154568715899 -0.0583926260063 0.928 9.55089160043e-39
-0.0137394414132 -0.0583926260063 0.928 1.01019045774e-38
-0.0120220112366 -0.0583926260063 0.928 1.01019045774e-38
-0.0103045810599 -0.0583926260063 0.928 9.45905610427e-39
-0.00855939069723 -0.0582038567412 0.925 9.1835496158e-39
-0.00684751255778 -0.0582038567412 0.925 1.02855755697e-38
-0.00513563441834 -0.0582038567412 0.925 8.99987862348e-39
-0.00342375627889 -0.0582038567412 0.925 8.63253663885e-39
-0.00171187813945 -0.0582038567412 0.925 8.81620763117e-39
0.0 -0.0582038567412 0.925 8.35703015038e-39
0.00171187813945 -0.0582038567412 0.925 8.26519465422e-39
0.00342375627889 -0.0582038567412 0.925 8.99987862348e-39
0.00513563441834 -0.0582038567412 0.925 1.02855755697e-38
0.00684751255778 -0.0582038567412 0.925 1.09284240428e-38
0.00855939069723 -0.0582038567412 0.925 1.09284240428e-38
0.0102712688367 -0.0582038567412 0.925 9.55089160043e-39
0.0120220112366 -0.0583926260063 0.928 1.08365885466e-38
0.0137394414132 -0.0583926260063 0.928 1.11120950351e-38
0.0154568715899 -0.0583926260063 0.928 1.11120950351e-38
0.0171743017665 -0.0583926260063 0.928 1.11120950351e-38
0.0189324468827 -0.058518472183 0.93 1.15712725159e-38
0.020720202864 -0.0587072414481 0.933 1.20308087291e-38
0.022446886436 -0.0587072414481 0.933 1.2215914651e-38
0.024225389022 -0.0588330876248 0.935 1.24046078971e-38
0.0259557739521 -0.0588330876248 0.935 1.23113416752e-38
0.0276861588823 -0.0588330876248 0.935 1.32354685851e-38
0.0294165438124 -0.0588330876248 0.935 1.41620379583e-38
0.0312468654123 -0.0590218568899 0.938 1.9691648579e-38
0.0329828023797 -0.0590218568899 0.938 2.34907200561e-38
0.034718739347 -0.0590218568899 0.938 2.31154621364e-38
-0.0402670751979 -0.057774499197 0.946 2.27466726104e-38
-0.0383941879794 -0.0575912819691 0.943 1.91557317904e-38
-0.0365324048353 -0.0574080647412 0.94 9.37224286181e-39
-0.0347927665098 -0.0574080647412 0.94 1.195045267e-38
-0.0329828023797 -0.0572859199226 0.938 1.08412562718e-38
-0.0312468654123 -0.0572859199226 0.938 9.55412019209e-39
-0.0293536207241 -0.0569805578761 0.933 9.09171411964e-39
-0.027626937152 -0.0569805578761 0.933 8.63253663885e-39
-0.0258169730219 -0.0567973406482 0.93 9.27538511196e-39
-0.0240958414871 -0.0567973406482 0.93 1.00100690812e-38
-0.0223747099523 -0.0567973406482 0.93 8.17335915806e-39
-0.0206535784175 -0.0567973406482 0.93 8.63253663885e-39
-0.0188917319432 -0.0566751958296 0.928 1.09284240428e-38
-0.0171743017665 -0.0566751958296 0.928 1.07447530505e-38
-0.0154568715899 -0.0566751958296 0.928 9.64272709659e-39
-0.0137394414132 -0.0566751958296 0.928 1.09284240428e-38
-0.0120220112366 -0.0566751958296 0.928 1.01937400735e-38
-0.0103045810599 -0.0566751958296 0.928 9.82639808891e-39
-0.00858715088327 -0.0566751958296 0.928 1.03774110659e-38
-0.00686972070662 -0.0566751958296 0.928 1.13876015236e-38
-0.00515229052996 -0.0566751958296 0.928 1.01937400735e-38
-0.00343486035331 -0.0566751958296 0.928 1.00100690812e-38
-0.00171743017665 -0.0566751958296 0.928 1.00100690812e-38
0.0 -0.0566751958296 0.928 1.00100690812e-38
0.00171743017665 -0.0566751958296 0.928 9.45905610427e-39
0.00343486035331 -0.0566751958296 0.928 1.09284240428e-38
0.00515229052996 -0.0566751958296 0.928 1.1020259539e-38
0.00686972070662 -0.0566751958296 0.928 1.1020259539e-38
0.00858715088327 -0.0566751958296 0.928 1.1020259539e-38
0.0103045810599 -0.0566751958296 0.928 1.01019045774e-38
0.0120220112366 -0.0566751958296 0.928 1.02855755697e-38
