# .PCD v0.7 - Point Cloud Data file format
VERSION 0.7
FIELDS x y z rgb
SIZE 4 4 4 4
TYPE F F F F
COUNT 1 1 1 1
WIDTH 855
HEIGHT 1
VIEWPOINT 0 0 0 1 0 0 0
POINTS 855
DATA ascii
0.0108431286692 -0.179686132233 0.837 1.03774110659e-38
0.0123921470505 -0.179686132233 0.837 1.05610820582e-38
0.0139411654318 -0.179686132233 0.837 1.08365885466e-38
0.0154901838131 -0.179686132233 0.837 1.12957660274e-38
0.0171206320735 -0.180544847321 0.841 1.13876015236e-38
0.0186770531711 -0.180544847321 0.841 1.13876015236e-38
0.0202815919245 -0.180974204865 0.843 1.11120950351e-38
0.0218417143803 -0.180974204865 0.843 1.09284240428e-38
0.023401836836 -0.180974204865 0.843 1.06529175543e-38
0.0249619592917 -0.180974204865 0.843 1.11120950351e-38
0.0265850048358 -0.181403562409 0.845 1.16631080121e-38
0.0282154530962 -0.181832919953 0.847 1.06529175543e-38
0.0297829782682 -0.181832919953 0.847 2.28180659646e-38
0.031424530603 -0.182262277497 0.849 1.46409457215e-38
0.0330734856541 -0.182691635042 0.851 1.44674313404e-38
0.0346484135424 -0.182691635042 0.851 1.02174164124e-38
0.0362233414307 -0.182691635042 0.851 6.70399121953e-39
0.0377094367236 -0.182262277497 0.849 1.60153042228e-38
0.0392806632538 -0.182262277497 0.849 1.63888063155e-38
0.0408518897839 -0.182262277497 0.849 1.63873419586e-38
-0.0335009925192 -0.183457816176 0.862 3.86969551832e-39
-0.0319057071611 -0.183457816176 0.862 1.6026883152e-38
-0.0303104218031 -0.183457816176 0.862 1.03089169982e-38
-0.0286485119985 -0.18303215999 0.86 5.87747175411e-39
-0.0269940049102 -0.182606503804 0.858 6.42848473106e-39
-0.0254061222684 -0.182606503804 0.858 7.16316870032e-39
-0.0237627192546 -0.182180847618 0.856 7.80601717343e-39
-0.022126718957 -0.181755191432 0.854 7.89785266959e-39
-0.0204740625478 -0.181116707153 0.851 8.17335915806e-39
-0.0188991346595 -0.181116707153 0.851 8.26519465422e-39
-0.0172834918317 -0.180691050967 0.849 8.17335915806e-39
-0.0156752517201 -0.180265394781 0.847 8.17335915806e-39
-0.0140744143248 -0.179839738595 0.845 8.26519465422e-39
-0.012510590511 -0.179839738595 0.845 8.72437213501e-39
-0.0109467666971 -0.179839738595 0.845 9.27538511196e-39
-0.00938294288323 -0.179839738595 0.845 9.27538511196e-39
-0.00781911906936 -0.179839738595 0.845 9.27538511196e-39
-0.00625529525549 -0.179839738595 0.845 9.45905610427e-39
-0.00469147144162 -0.179839738595 0.845 9.55089160043e-39
-0.00312024491147 -0.179414082409 0.843 9.73456259275e-39
-0.00156012245573 -0.179414082409 0.843 1.00100690812e-38
0.0 -0.179414082409 0.843 1.0469246562e-38
0.00156012245573 -0.179414082409 0.843 1.06529175543e-38
0.00312024491147 -0.179414082409 0.843 1.08365885466e-38
0.00466926329278 -0.178988426223 0.841 1.07447530505e-38
0.00622568439037 -0.178988426223 0.841 1.07447530505e-38
0.00778210548797 -0.178988426223 0.841 1.06529175543e-38
0.00933852658556 -0.178988426223 0.841 1.06529175543e-38
0.0108949476832 -0.178988426223 0.841 1.05610820582e-38
0.0124513687807 -0.178988426223 0.841 1.06529175543e-38
0.0140077898783 -0.178988426223 0.841 1.12957660274e-38
0.0156012245573 -0.179414082409 0.843 1.16631080121e-38
0.0171613470131 -0.179414082409 0.843 1.13876015236e-38
0.0187214694688 -0.179414082409 0.843 1.14794370197e-38
0.0202815919245 -0.179414082409 0.843 1.09284240428e-38
0.0218935333942 -0.179839738595 0.845 1.09284240428e-38
0.0234573572081 -0.179839738595 0.845 1.09284240428e-38
0.025021181022 -0.179839738595 0.845 1.12957660274e-38
0.0266479279242 -0.180265394781 0.847 1.17549435082e-38
0.0282154530962 -0.180265394781 0.847 1.06529175543e-38
0.0298533040729 -0.180691050967 0.849 2.23599772927e-38
0.0314985577658 -0.181116707153 0.851 5.6938007618e-39
0.0330734856541 -0.181116707153 0.851 9.00993714386e-39
0.034770558361 -0.181755191432 0.854 1.27970667554e-38
0.0362233414307 -0.181116707153 0.851 1.71316318288e-38
0.037798269319 -0.181116707153 0.851 1.70355854308e-38
0.0393731972073 -0.181116707153 0.851 1.5928493783e-38
0.041092478063 -0.181755191432 0.854 1.68515444957e-38
-0.0335009925192 -0.181862530818 0.862 6.44152381327e-39
-0.0319057071611 -0.181862530818 0.862 1.35432876149e-38
-0.0303104218031 -0.181862530818 0.862 1.1327422761e-38
-0.0286485119985 -0.181440575991 0.86 4.95911679253e-39
-0.0269940049102 -0.181018621163 0.858 6.42848473106e-39
-0.0254061222684 -0.181018621163 0.858 7.34683969264e-39
-0.0238182396267 -0.181018621163 0.858 7.98968816575e-39
-0.0221785379709 -0.180596666335 0.856 8.17335915806e-39
-0.0205462390315 -0.180174711507 0.854 8.17335915806e-39
-0.0188991346595 -0.179541779265 0.851 8.17335915806e-39
-0.0173242067712 -0.179541779265 0.851 8.35703015038e-39
-0.0156752517201 -0.178697869609 0.847 8.0815236619e-39
-0.0141077265481 -0.178697869609 0.847 8.26519465422e-39
-0.012510590511 -0.178275914781 0.845 8.90804312733e-39
-0.0109467666971 -0.178275914781 0.845 9.36722060812e-39
-0.00938294288323 -0.178275914781 0.845 9.36722060812e-39
-0.00781911906936 -0.178275914781 0.845 9.36722060812e-39
-0.00625529525549 -0.178275914781 0.845 9.36722060812e-39
-0.00469147144162 -0.178275914781 0.845 9.55089160043e-39
-0.00312024491147 -0.177853959954 0.843 9.73456259275e-39
-0.00156012245573 -0.177853959954 0.843 1.00100690812e-38
0.0 -0.177853959954 0.843 1.03774110659e-38
0.00156012245573 -0.177853959954 0.843 1.06529175543e-38
0.00312024491147 -0.177853959954 0.843 1.07447530505e-38
0.0046803673672 -0.177853959954 0.843 1.08365885466e-38
0.00624048982293 -0.177853959954 0.843 1.08365885466e-38
0.00780061227866 -0.177853959954 0.843 1.07447530505e-38
0.0093607347344 -0.177853959954 0.843 1.05610820582e-38
0.0109208571901 -0.177853959954 0.843 1.02855755697e-38
0.0124809796459 -0.177853959954 0.843 1.09284240428e-38
0.0140411021016 -0.177853959954 0.843 1.15712725159e-38
0.0156012245573 -0.177853959954 0.843 1.16631080121e-38
0.0171613470131 -0.177853959954 0.843 1.14794370197e-38
0.0187214694688 -0.177853959954 0.843 1.12957660274e-38
0.0203297095803 -0.178275914781 0.845 1.11120950351e-38
0.0218935333942 -0.178275914781 0.845 1.09284240428e-38
0.0234573572081 -0.178275914781 0.845 1.09284240428e-38
0.025021181022 -0.178275914781 0.845 1.12957660274e-38
0.0266479279242 -0.178697869609 0.847 1.19386145005e-38
0.0282820775427 -0.179119824437 0.849 1.06529175543e-38
0.0298533040729 -0.179119824437 0.849 2.17181699844e-38
0.0314985577658 -0.179541779265 0.851 1.16810446324e-38
0.0330734856541 -0.179541779265 0.851 1.65745694464e-38
0.034770558361 -0.180174711507 0.854 1.69473372587e-38
0.0363510382865 -0.180174711507 0.854 1.694401478e-38
0.037931518212 -0.180174711507 0.854 1.78652606204e-38
0.0395119981375 -0.180174711507 0.854 1.22435454542e-38
0.0411887133746 -0.180596666335 0.856 1.60210999933e-38
-0.0335009925192 -0.18026724546 0.862 6.99420573669e-39
-0.0319057071611 -0.18026724546 0.862 5.4222403298e-39
-0.0303104218031 -0.18026724546 0.862 5.3336334253e-39
-0.0286485119985 -0.179848991991 0.86 6.15584810184e-39
-0.0270569279986 -0.179848991991 0.86 6.70399121953e-39
-0.0254061222684 -0.179430738521 0.858 7.53051068496e-39
-0.0238182396267 -0.179430738521 0.858 8.35703015038e-39
-0.0221785379709 -0.179012485051 0.856 8.26519465422e-39
-0.0205462390315 -0.178594231581 0.854 8.17335915806e-39
-0.018965759106 -0.178594231581 0.854 8.17335915806e-39
-0.0173242067712 -0.177966851377 0.851 7.89785266959e-39
-0.0157122653015 -0.177548597907 0.849 7.89785266959e-39
-0.0141077265481 -0.177130344437 0.847 8.26519465422e-39
-0.0125402013761 -0.177130344437 0.847 8.81620763117e-39
-0.0109726762041 -0.177130344437 0.847 9.36722060812e-39
-0.00940515103207 -0.177130344437 0.847 9.36722060812e-39
-0.00781911906936 -0.176712090968 0.845 9.55089160043e-39
-0.00625529525549 -0.176712090968 0.845 9.36722060812e-39
-0.00469147144162 -0.176712090968 0.845 9.45905610427e-39
-0.00312764762774 -0.176712090968 0.845 9.73456259275e-39
-0.00156382381387 -0.176712090968 0.845 9.91823358506e-39
0.0 -0.176293837498 0.843 1.01937400735e-38
0.00156012245573 -0.176293837498 0.843 1.06529175543e-38
0.00312024491147 -0.176293837498 0.843 1.07447530505e-38
0.0046803673672 -0.176293837498 0.843 1.08365885466e-38
0.00624048982293 -0.176293837498 0.843 1.08365885466e-38
0.00780061227866 -0.176293837498 0.843 1.06529175543e-38
0.0093607347344 -0.176293837498 0.843 1.08365885466e-38
0.0109208571901 -0.176293837498 0.843 1.09284240428e-38
0.0124809796459 -0.176293837498 0.843 1.12957660274e-38
0.0140411021016 -0.176293837498 0.843 1.18467790044e-38
0.0156012245573 -0.176293837498 0.843 1.16631080121e-38
0.0171613470131 -0.176293837498 0.843 1.14794370197e-38
0.0187214694688 -0.176293837498 0.843 1.13876015236e-38
0.0203297095803 -0.176712090968 0.845 1.09284240428e-38
0.0218935333942 -0.176712090968 0.845 1.08365885466e-38
0.0234573572081 -0.176712090968 0.845 1.1020259539e-38
0.025021181022 -0.176712090968 0.845 1.14794370197e-38
0.0266479279242 -0.177130344437 0.847 1.16631080121e-38
0.0282820775427 -0.177548597907 0.849 1.06529175543e-38
0.0299236298775 -0.177966851377 0.851 2.06171922017e-38
0.0314985577658 -0.177966851377 0.851 1.56532969814e-38
0.0331900784355 -0.178594231581 0.854 1.5005799e-38
0.03485198824 -0.179012485051 0.856 1.40827847211e-38
0.0364361695237 -0.179012485051 0.856 1.85081749545e-38
0.037931518212 -0.178594231581 0.854 1.76783330104e-38
0.0395119981375 -0.178594231581 0.854 1.23335872883e-38
0.0412849486862 -0.179430738521 0.858 1.67615545096e-38
-0.0335787210401 -0.179086512214 0.864 1.2062429029e-38
-0.0319797343239 -0.179086512214 0.864 1.1143363609e-38
-0.0303104218031 -0.178671960102 0.862 8.74885842437e-39
-0.0286485119985 -0.178257407991 0.86 5.14278778485e-39
-0.0270569279986 -0.178257407991 0.86 6.52032022722e-39
-0.0254061222684 -0.177842855879 0.858 7.62234618111e-39
-0.0238182396267 -0.177842855879 0.858 8.17335915806e-39
-0.0222303569849 -0.177842855879 0.858 8.0815236619e-39
-0.0205943566873 -0.177428303768 0.856 7.80601717343e-39
-0.018965759106 -0.177013751656 0.854 7.80601717343e-39
-0.0173852791805 -0.177013751656 0.854 7.80601717343e-39
-0.0157492788829 -0.176391923488 0.851 7.62234618111e-39
-0.0141410387714 -0.175977371377 0.849 8.26519465422e-39
-0.0125698122412 -0.175977371377 0.849 8.90804312733e-39
-0.0109985857111 -0.175977371377 0.849 9.36722060812e-39
-0.0094273591809 -0.175977371377 0.849 9.27538511196e-39
-0.00783762586006 -0.175562819265 0.847 9.27538511196e-39
-0.00627010068805 -0.175562819265 0.847 9.27538511196e-39
-0.00470257551603 -0.175562819265 0.847 9.45905610427e-39
-0.00312764762774 -0.175148267154 0.845 9.73456259275e-39
-0.00156382381387 -0.175148267154 0.845 1.01019045774e-38
0.0 -0.175148267154 0.845 1.02855755697e-38
0.00156012245573 -0.174733715042 0.843 1.02855755697e-38
0.00312024491147 -0.174733715042 0.843 1.07447530505e-38
0.0046803673672 -0.174733715042 0.843 1.06529175543e-38
0.00624048982293 -0.174733715042 0.843 1.07447530505e-38
0.00780061227866 -0.174733715042 0.843 1.07447530505e-38
0.0093607347344 -0.174733715042 0.843 1.08365885466e-38
0.0109208571901 -0.174733715042 0.843 1.1020259539e-38
0.012510590511 -0.175148267154 0.845 1.12039305313e-38
0.0140411021016 -0.174733715042 0.843 1.12039305313e-38
0.0156012245573 -0.174733715042 0.843 1.11120950351e-38
0.0171613470131 -0.174733715042 0.843 1.12957660274e-38
0.0187214694688 -0.174733715042 0.843 1.11120950351e-38
0.0203297095803 -0.175148267154 0.845 1.09284240428e-38
0.0218935333942 -0.175148267154 0.845 1.06529175543e-38
0.0234573572081 -0.175148267154 0.845 1.09284240428e-38
0.0250804027522 -0.175562819265 0.847 1.12957660274e-38
0.0266479279242 -0.175562819265 0.847 1.2214120989e-38
0.0282820775427 -0.175977371377 0.849 1.03774110659e-38
0.0299236298775 -0.176391923488 0.851 1.99732479132e-38
0.0314985577658 -0.176391923488 0.851 1.51008658904e-38
0.0331900784355 -0.177013751656 0.854 1.72256589558e-38
0.03485198824 -0.177428303768 0.856 1.39966623187e-38
0.0364361695237 -0.177428303768 0.856 1.70326735326e-38
0.0380203508073 -0.177428303768 0.856 1.72156480796e-38
0.039604532091 -0.177428303768 0.856 1.32591365162e-38
0.0413811839978 -0.178257407991 0.86 1.54722604302e-38
-0.0335787210401 -0.177487525498 0.864 1.19673439217e-38
-0.0319797343239 -0.177487525498 0.864 9.47771018943e-39
-0.0303104218031 -0.177076674744 0.862 7.08066024674e-39
-0.0286485119985 -0.176665823991 0.86 6.06114274643e-39
-0.0270569279986 -0.176665823991 0.86 6.97949770801e-39
-0.0254653439987 -0.176665823991 0.86 7.71418167727e-39
-0.0238737599988 -0.176665823991 0.86 7.71418167727e-39
-0.0222303569849 -0.176254973237 0.858 7.71418167727e-39
-0.0205943566873 -0.175844122484 0.856 7.89785266959e-39
-0.018965759106 -0.17543327173 0.854 8.17335915806e-39
-0.0173852791805 -0.17543327173 0.854 7.62234618111e-39
-0.0157492788829 -0.1748169956 0.851 7.98968816575e-39
-0.0141743509946 -0.1748169956 0.851 8.26519465422e-39
-0.0125698122412 -0.174406144847 0.849 8.81620763117e-39
-0.0109985857111 -0.174406144847 0.849 9.09171411964e-39
-0.0094273591809 -0.174406144847 0.849 8.99987862348e-39
-0.00785613265075 -0.174406144847 0.849 9.09171411964e-39
-0.00627010068805 -0.173995294093 0.847 9.27538511196e-39
-0.00470257551603 -0.173995294093 0.847 9.64272709659e-39
-0.00312764762774 -0.17358444334 0.845 9.73456259275e-39
-0.00156382381387 -0.17358444334 0.845 1.01937400735e-38
0.0 -0.17358444334 0.845 1.01019045774e-38
0.00156012245573 -0.173173592586 0.843 1.0469246562e-38
0.00312024491147 -0.173173592586 0.843 1.09284240428e-38
0.0046803673672 -0.173173592586 0.843 1.11120950351e-38
0.00624048982293 -0.173173592586 0.843 1.09284240428e-38
0.00780061227866 -0.173173592586 0.843 1.08365885466e-38
0.0093607347344 -0.173173592586 0.843 1.08365885466e-38
0.0109208571901 -0.173173592586 0.843 1.1020259539e-38
0.012510590511 -0.17358444334 0.845 1.1020259539e-38
0.0140411021016 -0.173173592586 0.843 1.09284240428e-38
0.0156012245573 -0.173173592586 0.843 1.09284240428e-38
0.0171613470131 -0.173173592586 0.843 1.11120950351e-38
0.0187658857665 -0.17358444334 0.845 1.08365885466e-38
0.0203297095803 -0.17358444334 0.845 1.06529175543e-38
0.0218935333942 -0.17358444334 0.845 1.06529175543e-38
0.0235128775802 -0.173995294093 0.847 1.09284240428e-38
0.0250804027522 -0.173995294093 0.847 1.14794370197e-38
0.0267108510126 -0.174406144847 0.849 1.2214120989e-38
0.0283487019892 -0.1748169956 0.851 1.01937400735e-38
0.0299236298775 -0.1748169956 0.851 2.03459778905e-38
0.0314985577658 -0.1748169956 0.851 1.23350138101e-38
0.0331900784355 -0.17543327173 0.854 1.44547636023e-38
0.03485198824 -0.175844122484 0.856 1.72206395047e-38
0.0364361695237 -0.175844122484 0.856 1.40810092759e-38
0.0380203508073 -0.175844122484 0.856 1.75879926997e-38
0.039604532091 -0.175844122484 0.856 1.25204784645e-38
0.0413811839978 -0.176665823991 0.86 1.66696741719e-38
-0.0320907750681 -0.176499262875 0.867 1.25086430976e-38
-0.0303807476077 -0.175888538782 0.864 6.89447812758e-39
-0.0287817608915 -0.175888538782 0.864 7.44513237212e-39
-0.027119851087 -0.175481389386 0.862 7.07133320417e-39
-0.0254653439987 -0.175074239991 0.86 7.80601717343e-39
-0.0238737599988 -0.175074239991 0.86 7.62234618111e-39
-0.0222821759988 -0.175074239991 0.86 7.62234618111e-39
-0.0206424743431 -0.174667090596 0.858 7.62234618111e-39
-0.0190101754037 -0.1742599412 0.856 7.80601717343e-39
-0.0173852791805 -0.173852791805 0.854 7.34683969264e-39
-0.0157492788829 -0.173242067712 0.851 7.89785266959e-39
-0.0141743509946 -0.173242067712 0.851 8.26519465422e-39
-0.0125994231063 -0.173242067712 0.851 8.81620763117e-39
-0.0109985857111 -0.172834918317 0.849 9.36722060812e-39
-0.0094273591809 -0.172834918317 0.849 9.36722060812e-39
-0.00785613265075 -0.172834918317 0.849 9.27538511196e-39
-0.0062849061206 -0.172834918317 0.849 9.27538511196e-39
-0.00471367959045 -0.172834918317 0.849 9.36722060812e-39
-0.00313505034402 -0.172427768921 0.847 9.82639808891e-39
-0.00156752517201 -0.172427768921 0.847 1.03774110659e-38
0.0 -0.172020619526 0.845 1.0469246562e-38
0.00156382381387 -0.172020619526 0.845 1.0469246562e-38
0.00312764762774 -0.172020619526 0.845 1.07447530505e-38
0.00469147144162 -0.172020619526 0.845 1.12039305313e-38
0.00625529525549 -0.172020619526 0.845 1.12039305313e-38
0.00781911906936 -0.172020619526 0.845 1.09284240428e-38
0.00938294288323 -0.172020619526 0.845 1.06529175543e-38
0.0109467666971 -0.172020619526 0.845 1.05610820582e-38
0.012510590511 -0.172020619526 0.845 1.05610820582e-38
0.0140744143248 -0.172020619526 0.845 1.02855755697e-38
0.0156382381387 -0.172020619526 0.845 1.08365885466e-38
0.0172020619526 -0.172020619526 0.845 1.11120950351e-38
0.0187658857665 -0.172020619526 0.845 1.06529175543e-38
0.0203297095803 -0.172020619526 0.845 1.05610820582e-38
0.0219453524082 -0.172427768921 0.847 1.05610820582e-38
0.0235128775802 -0.172427768921 0.847 1.06529175543e-38
0.0251988462126 -0.173242067712 0.851 1.12039305313e-38
0.0267737741009 -0.173242067712 0.851 1.14794370197e-38
0.0283487019892 -0.173242067712 0.851 9.73456259275e-39
0.0299236298775 -0.173242067712 0.851 2.07165933083e-38
0.03160959851 -0.173852791805 0.854 1.32584330644e-38
0.0331900784355 -0.173852791805 0.854 1.54714616901e-38
0.0350148479982 -0.175074239991 0.86 1.70337076909e-38
0.0366064319981 -0.175074239991 0.86 1.62964957792e-38
0.0382868485934 -0.175481389386 0.862 1.63890991869e-38
0.0398821339514 -0.175481389386 0.862 1.29814580151e-38
0.0414774193095 -0.175481389386 0.862 1.65778316692e-38
0.0430727046675 -0.175481389386 0.862 1.58363233765e-38
-0.0304862363147 -0.174894724121 0.867 7.26792556962e-39
-0.0288816975613 -0.174894724121 0.867 6.15333697499e-39
-0.027119851087 -0.173886104028 0.862 6.97949770801e-39
-0.0254653439987 -0.173482655991 0.86 7.4386751888e-39
-0.0238737599988 -0.173482655991 0.86 6.3366492349e-39
-0.0222821759988 -0.173482655991 0.86 4.86728129637e-39
-0.0206905919989 -0.173482655991 0.86 4.86728129637e-39
-0.0190545917013 -0.173079207954 0.858 7.16316870032e-39
-0.0173852791805 -0.172272311879 0.854 7.80601717343e-39
-0.015804799255 -0.172272311879 0.854 8.26519465422e-39
-0.0142243193295 -0.172272311879 0.854 8.44886564654e-39
-0.0125994231063 -0.171667139824 0.851 8.81620763117e-39
-0.011024495218 -0.171667139824 0.851 9.55089160043e-39
-0.00944956732974 -0.171667139824 0.851 9.36722060812e-39
-0.00787463944145 -0.171667139824 0.851 9.27538511196e-39
-0.0062849061206 -0.171263691786 0.849 9.27538511196e-39
-0.00471367959045 -0.171263691786 0.849 9.55089160043e-39
-0.0031424530603 -0.171263691786 0.849 9.73456259275e-39
-0.00156752517201 -0.170860243749 0.847 1.07447530505e-38
0.0 -0.170860243749 0.847 1.06529175543e-38
0.00156752517201 -0.170860243749 0.847 1.06529175543e-38
0.00312764762774 -0.170456795712 0.845 1.08365885466e-38
0.00469147144162 -0.170456795712 0.845 1.13876015236e-38
0.00625529525549 -0.170456795712 0.845 1.14794370197e-38
0.00781911906936 -0.170456795712 0.845 1.11120950351e-38
0.00938294288323 -0.170456795712 0.845 1.06529175543e-38
0.0109467666971 -0.170456795712 0.845 1.05610820582e-38
0.012510590511 -0.170456795712 0.845 1.02855755697e-38
0.0140744143248 -0.170456795712 0.845 1.08365885466e-38
0.0156382381387 -0.170456795712 0.845 1.06529175543e-38
0.0172020619526 -0.170456795712 0.845 1.09284240428e-38
0.0187658857665 -0.170456795712 0.845 1.06529175543e-38
0.020425944892 -0.171263691786 0.849 1.08365885466e-38
0.0220489904361 -0.171667139824 0.851 1.05610820582e-38
0.0236239183244 -0.171667139824 0.851 1.09284240428e-38
0.0251988462126 -0.171667139824 0.851 1.11120950351e-38
0.0268681587335 -0.172272311879 0.854 1.13876015236e-38
0.028448638659 -0.172272311879 0.854 9.27538511196e-39
0.0300994443891 -0.172675759917 0.856 1.80464975572e-38
0.0317576528356 -0.173079207954 0.858 1.46373626013e-38
0.0334232639983 -0.173482655991 0.86 1.64834500138e-38
0.0350148479982 -0.173482655991 0.86 1.6482408849e-38
0.0366064319981 -0.173482655991 0.86 1.74032160829e-38
0.038198015998 -0.173482655991 0.86 1.62061750866e-38
0.0397895999979 -0.173482655991 0.86 1.16957989039e-38
0.0413811839978 -0.173482655991 0.86 1.74075951406e-38
0.0429727679978 -0.173482655991 0.86 1.53760682972e-38
-0.0306972137286 -0.174489425405 0.873 8.64623573264e-39
-0.0288816975613 -0.173290185368 0.867 6.88837967666e-39
-0.0271827741753 -0.172690565349 0.864 5.6938007618e-39
-0.0255245657289 -0.17229081867 0.862 4.13259732711e-39
-0.0239292803708 -0.17229081867 0.862 3.21424236553e-39
-0.0223339950128 -0.17229081867 0.862 6.42848473106e-40
-0.0206905919989 -0.171891071991 0.86 1.01019045774e-39
-0.019099007999 -0.171891071991 0.86 3.85709083864e-39
-0.0174667090596 -0.171491325312 0.858 6.97949770801e-39
-0.0158418128364 -0.171091578633 0.856 8.0815236619e-39
-0.0142243193295 -0.170691831954 0.854 8.26519465422e-39
-0.012643839404 -0.170691831954 0.854 8.90804312733e-39
-0.011024495218 -0.170092211935 0.851 7.80601717343e-39
-0.00944956732974 -0.170092211935 0.851 7.34683969264e-39
-0.00787463944145 -0.170092211935 0.851 7.53051068496e-39
-0.0062849061206 -0.169692465256 0.849 8.81620763117e-39
-0.00471367959045 -0.169692465256 0.849 9.55089160043e-39
-0.0031424530603 -0.169692465256 0.849 9.82639808891e-39
-0.00156752517201 -0.169292718577 0.847 1.0469246562e-38
0.0 -0.169292718577 0.847 1.07447530505e-38
0.00156752517201 -0.169292718577 0.847 1.08365885466e-38
0.00312764762774 -0.168892971898 0.845 1.11120950351e-38
0.00469147144162 -0.168892971898 0.845 1.16631080121e-38
0.00627010068805 -0.169292718577 0.847 1.11120950351e-38
0.00781911906936 -0.168892971898 0.845 1.09284240428e-38
0.00938294288323 -0.168892971898 0.845 1.0469246562e-38
0.0109467666971 -0.168892971898 0.845 1.0469246562e-38
0.0125402013761 -0.169292718577 0.847 1.05610820582e-38
0.0141077265481 -0.169292718577 0.847 1.09284240428e-38
0.0157122653015 -0.169692465256 0.849 1.09284240428e-38
0.0172834918317 -0.169692465256 0.849 1.12957660274e-38
0.0188547183618 -0.169692465256 0.849 1.08365885466e-38
0.0204740625478 -0.170092211935 0.851 1.05610820582e-38
0.0220489904361 -0.170092211935 0.851 1.0469246562e-38
0.0236239183244 -0.170092211935 0.851 1.03774110659e-38
0.025287678808 -0.170691831954 0.854 1.09284240428e-38
0.0268681587335 -0.170691831954 0.854 1.21222854929e-38
0.028448638659 -0.170691831954 0.854 9.09171411964e-39
0.0300994443891 -0.171091578633 0.856 1.74969139047e-38
0.0317576528356 -0.171491325312 0.858 1.53792310278e-38
0.0333455354773 -0.171491325312 0.858 1.44540629531e-38
0.0349334181191 -0.171491325312 0.858 1.41735748486e-38
0.0366064319981 -0.171891071991 0.86 1.77735007943e-38
0.038198015998 -0.171891071991 0.86 1.3446725539e-38
0.0397895999979 -0.171891071991 0.86 1.15067357151e-38
0.0413811839978 -0.171891071991 0.86 1.69462834823e-38
0.0429727679978 -0.171891071991 0.86 1.66675287839e-38
-0.0306972137286 -0.172873782577 0.873 8.19201324322e-39
-0.0289483220078 -0.172081691935 0.869 7.89928759921e-39
-0.0272771588079 -0.171685646614 0.867 3.58158435016e-39
-0.0255837874591 -0.171091578633 0.864 2.75506488474e-39
-0.0239848007429 -0.171091578633 0.864 3.03057137321e-39
-0.0223339950128 -0.170695533312 0.862 2.38772290011e-39
-0.0207387096547 -0.170695533312 0.862 2.57139389242e-39
-0.019099007999 -0.170299487991 0.86 2.57139389242e-39
-0.0174667090596 -0.16990344267 0.858 4.5917748079e-39
-0.0158418128364 -0.169507397349 0.856 7.53051068496e-39
-0.0142243193295 -0.169111352028 0.854 8.26519465422e-39
-0.012643839404 -0.169111352028 0.854 6.52032022722e-39
-0.011024495218 -0.168517284047 0.851 4.49993931174e-39
-0.00944956732974 -0.168517284047 0.851 4.31626831943e-39
-0.00787463944145 -0.168517284047 0.851 5.14278778485e-39
-0.00629971155316 -0.168517284047 0.851 7.80601717343e-39
-0.00471367959045 -0.168121238726 0.849 9.55089160043e-39
-0.0031424530603 -0.168121238726 0.849 1.01019045774e-38
-0.00157122653015 -0.168121238726 0.849 1.01019045774e-38
0.0 -0.168121238726 0.849 1.07447530505e-38
0.00157122653015 -0.168121238726 0.849 1.09284240428e-38
0.00313505034402 -0.167725193405 0.847 1.13876015236e-38
0.00470257551603 -0.167725193405 0.847 1.13876015236e-38
0.00627010068805 -0.167725193405 0.847 1.11120950351e-38
0.00783762586006 -0.167725193405 0.847 1.08365885466e-38
0.00940515103207 -0.167725193405 0.847 1.06529175543e-38
0.0109726762041 -0.167725193405 0.847 1.08365885466e-38
0.0125698122412 -0.168121238726 0.849 1.06529175543e-38
0.0141410387714 -0.168121238726 0.849 1.1020259539e-38
0.0157122653015 -0.168121238726 0.849 1.09284240428e-38
0.0172834918317 -0.168121238726 0.849 1.11120950351e-38
0.0188991346595 -0.168517284047 0.851 1.09284240428e-38
0.0204740625478 -0.168517284047 0.851 1.08365885466e-38
0.0220489904361 -0.168517284047 0.851 1.06529175543e-38
0.0236239183244 -0.168517284047 0.851 1.08365885466e-38
0.025287678808 -0.169111352028 0.854 1.11120950351e-38
0.0268681587335 -0.169111352028 0.854 1.17549435082e-38
0.0285152631055 -0.169507397349 0.856 9.27538511196e-39
0.0300994443891 -0.169507397349 0.856 1.6576032402e-38
0.0317576528356 -0.16990344267 0.858 1.38119431552e-38
0.0333455354773 -0.16990344267 0.858 1.74083532431e-38
0.0349334181191 -0.16990344267 0.858 1.58383944956e-38
0.0366064319981 -0.170299487991 0.86 1.44558397995e-38
0.038198015998 -0.170299487991 0.86 5.96933667754e-39
0.0397895999979 -0.170299487991 0.86 1.50984206246e-38
0.0413811839978 -0.170299487991 0.86 1.63002078188e-38
0.0429727679978 -0.170299487991 0.86 1.69448485526e-38
-0.0289483220078 -0.170473451824 0.869 7.71418167727e-39
-0.0272771588079 -0.170081107861 0.867 3.39791335785e-39
-0.0255837874591 -0.169492591917 0.864 2.75506488474e-39
-0.0239848007429 -0.169492591917 0.864 3.12240686937e-39
-0.0223339950128 -0.169100247954 0.862 3.76525534248e-39
-0.0207387096547 -0.169100247954 0.862 3.39791335785e-39
-0.019099007999 -0.168707903991 0.86 4.68361030406e-39
-0.0174667090596 -0.168315560028 0.858 3.94892633479e-39
-0.0158418128364 -0.167923216066 0.856 5.51012976948e-39
-0.0142243193295 -0.167530872103 0.854 6.61215572338e-39
-0.012643839404 -0.167530872103 0.854 4.5917748079e-39
-0.0110633594785 -0.167530872103 0.854 3.30607786169e-39
-0.00944956732974 -0.166942356159 0.851 3.76525534248e-39
-0.00787463944145 -0.166942356159 0.851 4.77544580022e-39
-0.00629971155316 -0.166942356159 0.851 5.6938007618e-39
-0.00471367959045 -0.166550012196 0.849 6.3366492349e-39
-0.0031424530603 -0.166550012196 0.849 8.81620763117e-39
-0.00157122653015 -0.166550012196 0.849 1.03774110659e-38
0.0 -0.166550012196 0.849 1.08365885466e-38
0.00157122653015 -0.166550012196 0.849 1.08365885466e-38
0.0031424530603 -0.166550012196 0.849 1.12957660274e-38
0.00471367959045 -0.166550012196 0.849 1.12957660274e-38
0.0062849061206 -0.166550012196 0.849 1.07447530505e-38
0.00785613265075 -0.166550012196 0.849 1.06529175543e-38
0.0094273591809 -0.166550012196 0.849 1.06529175543e-38
0.0109985857111 -0.166550012196 0.849 1.0469246562e-38
0.0125994231063 -0.166942356159 0.851 1.0469246562e-38
0.0141743509946 -0.166942356159 0.851 1.1020259539e-38
0.0157492788829 -0.166942356159 0.851 1.09284240428e-38
0.0173242067712 -0.166942356159 0.851 1.1020259539e-38
0.0188991346595 -0.166942356159 0.851 1.09284240428e-38
0.0204740625478 -0.166942356159 0.851 1.08365885466e-38
0.022126718957 -0.167530872103 0.854 1.08365885466e-38
0.0237071988825 -0.167530872103 0.854 1.09284240428e-38
0.0253469005382 -0.167923216066 0.856 1.1020259539e-38
0.0269310818219 -0.167923216066 0.856 1.16631080121e-38
0.0285152631055 -0.167923216066 0.856 8.72437213501e-39
0.0301697701938 -0.168315560028 0.858 1.58373799555e-38
0.0318316799983 -0.168707903991 0.86 1.38976535757e-38
0.0334232639983 -0.168707903991 0.86 1.49153760127e-38
0.0350148479982 -0.168707903991 0.86 1.59295531646e-38
0.0366064319981 -0.168707903991 0.86 7.16424489754e-39
0.038198015998 -0.168707903991 0.86 1.5737641136e-38
0.0397895999979 -0.168707903991 0.86 1.48290013767e-38
0.0413811839978 -0.168707903991 0.86 1.75005292548e-38
0.0429727679978 -0.168707903991 0.86 1.41782621919e-38
-0.0289483220078 -0.168865211712 0.869 7.07133320417e-39
-0.0272771588079 -0.168476569108 0.867 2.11221641163e-39
-0.0256726200545 -0.168476569108 0.867 1.83670992316e-39
-0.0240680813011 -0.168476569108 0.867 1.92854541932e-39
-0.0223339950128 -0.167504962596 0.862 2.11221641163e-39
-0.0207387096547 -0.167504962596 0.862 1.19386145005e-39
-0.019099007999 -0.167116319991 0.86 2.57139389242e-39
-0.0174667090596 -0.166727677387 0.858 1.92854541932e-39
-0.0158418128364 -0.166339034782 0.856 2.29588740395e-39
-0.0142576315527 -0.166339034782 0.856 9.1835496158e-40
-0.012643839404 -0.165950392177 0.854 6.89199082281e-39
-0.0110633594785 -0.165950392177 0.854 4.86728129637e-39
-0.00948287955299 -0.165950392177 0.854 4.40810381558e-39
-0.0079023996275 -0.165950392177 0.854 3.76525534248e-39
-0.00629971155316 -0.16536742827 0.851 3.67341984632e-39
-0.00472478366487 -0.16536742827 0.851 2.38772290011e-39
-0.00314985577658 -0.16536742827 0.851 5.32645877716e-39
-0.00157122653015 -0.164978785666 0.849 9.64272709659e-39
0.0 -0.164978785666 0.849 1.05610820582e-38
0.00157492788829 -0.16536742827 0.851 1.08365885466e-38
0.0031424530603 -0.164978785666 0.849 1.09284240428e-38
0.00471367959045 -0.164978785666 0.849 1.11120950351e-38
0.00629971155316 -0.16536742827 0.851 1.08365885466e-38
0.00787463944145 -0.16536742827 0.851 1.05610820582e-38
0.00944956732974 -0.16536742827 0.851 1.02855755697e-38
0.011024495218 -0.16536742827 0.851 1.02855755697e-38
0.0125994231063 -0.16536742827 0.851 1.06529175543e-38
0.0141743509946 -0.16536742827 0.851 1.1020259539e-38
0.0157492788829 -0.16536742827 0.851 1.08365885466e-38
0.0173242067712 -0.16536742827 0.851 1.12957660274e-38
0.0188991346595 -0.16536742827 0.851 1.12039305313e-38
0.0205462390315 -0.165950392177 0.854 1.06529175543e-38
0.022126718957 -0.165950392177 0.854 1.06529175543e-38
0.0237071988825 -0.165950392177 0.854 1.09284240428e-38
0.0253469005382 -0.166339034782 0.856 1.14794370197e-38
0.0269310818219 -0.166339034782 0.856 1.16631080121e-38
0.028581887552 -0.166727677387 0.858 9.27538511196e-39
0.0302400959984 -0.167116319991 0.86 1.73204161593e-38
0.0318316799983 -0.167116319991 0.86 1.38148536521e-38
0.0334232639983 -0.167116319991 0.86 5.87747175411e-39
0.0350148479982 -0.167116319991 0.86 1.05653868471e-38
0.0366064319981 -0.167116319991 0.86 1.76680811108e-38
0.038198015998 -0.167116319991 0.86 1.51026343291e-38
0.0397895999979 -0.167116319991 0.86 1.4825720937e-38
0.0413811839978 -0.167116319991 0.86 1.66689763253e-38
0.0429727679978 -0.167116319991 0.86 1.72217969772e-38
-0.0307675395333 -0.16841179534 0.875 8.83631065894e-39
-0.0289483220078 -0.167256971601 0.869 6.97949770801e-39
-0.0273400818963 -0.167256971601 0.869 1.83670992316e-39
-0.0256726200545 -0.166872030354 0.867 0.0
-0.0240680813011 -0.166872030354 0.867 4.68361030406e-39
-0.0223858140267 -0.166294618484 0.864 9.47736126611e-39
-0.0207868273105 -0.166294618484 0.864 1.10514692584e-38
-0.0191434242967 -0.165909677238 0.862 1.05894737664e-38
-0.0175074239991 -0.165524735991 0.86 8.93207819859e-39
-0.0158788264178 -0.165139794745 0.858 7.07996240011e-39
-0.014290943776 -0.165139794745 0.858 4.04076183095e-39
-0.0126734502691 -0.164754853498 0.856 5.05095228869e-39
-0.0110892689855 -0.164754853498 0.856 4.31626831943e-39
-0.00948287955299 -0.164369912252 0.854 1.56120343469e-39
-0.0079023996275 -0.164369912252 0.854 4.5917748079e-40
-0.00629971155316 -0.163792500382 0.851 2.57139389242e-39
-0.00472478366487 -0.163792500382 0.851 3.21424236553e-39
-0.00314985577658 -0.163792500382 0.851 3.67341984632e-39
-0.00157492788829 -0.163792500382 0.851 6.52032022722e-39
0.0 -0.163792500382 0.851 8.35703015038e-39
0.00157492788829 -0.163792500382 0.851 7.53051068496e-39
0.00314985577658 -0.163792500382 0.851 9.55089160043e-39
0.00472478366487 -0.163792500382 0.851 1.12039305313e-38
0.00629971155316 -0.163792500382 0.851 1.07447530505e-38
0.00787463944145 -0.163792500382 0.851 1.05610820582e-38
0.00944956732974 -0.163792500382 0.851 1.05610820582e-38
0.011024495218 -0.163792500382 0.851 1.06529175543e-38
0.0125994231063 -0.163792500382 0.851 1.09284240428e-38
0.0141743509946 -0.163792500382 0.851 1.12957660274e-38
0.015804799255 -0.164369912252 0.854 1.1020259539e-38
0.0173852791805 -0.164369912252 0.854 1.11120950351e-38
0.018965759106 -0.164369912252 0.854 1.09284240428e-38
0.0205462390315 -0.164369912252 0.854 1.06529175543e-38
0.022126718957 -0.164369912252 0.854 1.08365885466e-38
0.0237627192546 -0.164754853498 0.856 1.08365885466e-38
0.0254061222684 -0.165139794745 0.858 1.14794370197e-38
0.0270569279986 -0.165524735991 0.86 1.13876015236e-38
0.0286485119985 -0.165524735991 0.86 1.19450955059e-38
0.0302400959984 -0.165524735991 0.86 5.23856933748e-39
0.0319057071611 -0.165909677238 0.862 1.42543064557e-38
0.0335009925192 -0.165909677238 0.862 1.57481228485e-38
0.0350962778772 -0.165909677238 0.862 1.35343389229e-38
0.0366064319981 -0.165524735991 0.86 1.74922251601e-38
0.038198015998 -0.165524735991 0.86 1.27949087557e-38
0.0397895999979 -0.165524735991 0.86 1.55593259064e-38
0.0413811839978 -0.165524735991 0.86 1.69430366737e-38
0.0429727679978 -0.165524735991 0.86 1.64824144542e-38
0.0445643519977 -0.165524735991 0.86 1.59292574906e-38
-0.0341228206866 -0.167364310987 0.878 1.62962029078e-38
-0.0323868837192 -0.166792451154 0.875 1.76795030946e-38
-0.0307675395333 -0.166792451154 0.875 9.02032917327e-39
-0.0290149464543 -0.166029971377 0.871 4.95911679253e-39
-0.0273400818963 -0.165648731489 0.869 2.93873587706e-39
-0.0257318417847 -0.165648731489 0.869 3.49767039422e-39
-0.0241236016732 -0.165648731489 0.869 1.38206676394e-38
-0.0224635425477 -0.165267491601 0.867 1.27074901523e-38
-0.0208590037943 -0.165267491601 0.867 1.28929351885e-38
-0.0191878405943 -0.164695631768 0.864 1.39034675631e-38
-0.0175481389386 -0.16431439188 0.862 1.39978590276e-38
-0.0159158399992 -0.163933151991 0.86 1.39060109198e-38
-0.014290943776 -0.163551912103 0.858 1.50127088028e-38
-0.0127030611342 -0.163551912103 0.858 1.51971028651e-38
-0.0110892689855 -0.163170672215 0.856 1.47357519704e-38
-0.00948287955299 -0.162789432326 0.854 1.29851112002e-38
-0.0079023996275 -0.162789432326 0.854 6.16194655276e-39
-0.006321919702 -0.162789432326 0.854 5.96930725027e-39
-0.00472478366487 -0.162217572494 0.851 2.38772290011e-39
-0.00314985577658 -0.162217572494 0.851 1.19386145005e-39
-0.00157492788829 -0.162217572494 0.851 6.24662141376e-39
0.0 -0.162217572494 0.851 6.98057390523e-39
0.00157492788829 -0.162217572494 0.851 5.23462328101e-39
0.00314985577658 -0.162217572494 0.851 9.0945839789e-39
0.00472478366487 -0.162217572494 0.851 1.02855755697e-38
0.00629971155316 -0.162217572494 0.851 1.03774110659e-38
0.00787463944145 -0.162217572494 0.851 1.09284240428e-38
0.00944956732974 -0.162217572494 0.851 1.0469246562e-38
0.011024495218 -0.162217572494 0.851 1.03774110659e-38
0.0125994231063 -0.162217572494 0.851 1.08365885466e-38
0.0142243193295 -0.162789432326 0.854 1.1020259539e-38
0.015804799255 -0.162789432326 0.854 1.11120950351e-38
0.0173852791805 -0.162789432326 0.854 1.1020259539e-38
0.018965759106 -0.162789432326 0.854 1.09284240428e-38
0.0205462390315 -0.162789432326 0.854 1.06529175543e-38
0.0221785379709 -0.163170672215 0.856 1.08365885466e-38
0.0237627192546 -0.163170672215 0.856 1.09284240428e-38
0.0254061222684 -0.163551912103 0.858 1.11120950351e-38
0.0270569279986 -0.163933151991 0.86 1.13876015236e-38
0.0286485119985 -0.163933151991 0.86 1.22220411279e-38
0.0302400959984 -0.163933151991 0.86 1.24329743819e-38
0.0319057071611 -0.16431439188 0.862 1.1501678429e-38
0.0335009925192 -0.16431439188 0.862 1.53771234749e-38
0.0350962778772 -0.16431439188 0.862 1.57530484126e-38
0.0366064319981 -0.163933151991 0.86 1.28875205712e-38
0.038198015998 -0.163933151991 0.86 1.34424207501e-38
0.0398821339514 -0.16431439188 0.862 1.56551691162e-38
0.0414774193095 -0.16431439188 0.862 1.71281496022e-38
0.0429727679978 -0.163933151991 0.86 1.72196235633e-38
0.0445643519977 -0.163933151991 0.86 1.64838788111e-38
-0.0341228206866 -0.165739414763 0.878 1.60221747892e-38
-0.0323868837192 -0.165173106968 0.875 1.77749525395e-38
-0.0307675395333 -0.165173106968 0.875 8.74268009945e-39
-0.0290149464543 -0.164418029908 0.871 1.92854541932e-39
-0.0273400818963 -0.164040491378 0.869 1.26170475468e-38
-0.0257318417847 -0.164040491378 0.869 2.11221641163e-39
-0.0241236016732 -0.164040491378 0.869 1.30784152571e-38
-0.0225153615616 -0.164040491378 0.869 1.33542468469e-38
-0.0208590037943 -0.163662952847 0.867 4.13654338359e-39
-0.0191878405943 -0.163096645052 0.864 6.25237374396e-39
-0.0175481389386 -0.162719106522 0.862 1.35383648534e-38
-0.0159158399992 -0.162341567992 0.86 1.34446572225e-38
-0.0143242559993 -0.162341567992 0.86 1.33524671978e-38
-0.0127030611342 -0.161964029461 0.858 1.34439439616e-38
-0.0111151784924 -0.161964029461 0.858 1.38116474812e-38
-0.00950508770183 -0.161586490931 0.856 1.48243588749e-38
-0.00792090641819 -0.161586490931 0.856 1.70381287875e-38
-0.006321919702 -0.161208952401 0.854 1.79615452391e-38
-0.0047414397765 -0.161208952401 0.854 1.63034504234e-38
-0.003160959851 -0.161208952401 0.854 7.45194828785e-39
-0.00157492788829 -0.160642644606 0.851 7.16316870032e-39
0.0 -0.160642644606 0.851 6.24481373874e-39
0.00157492788829 -0.160642644606 0.851 5.23462328101e-39
0.00314985577658 -0.160642644606 0.851 8.81692509598e-39
0.00472478366487 -0.160642644606 0.851 1.0469246562e-38
0.00629971155316 -0.160642644606 0.851 1.03774110659e-38
0.0079023996275 -0.161208952401 0.854 1.08365885466e-38
0.00948287955299 -0.161208952401 0.854 1.05610820582e-38
0.0110633594785 -0.161208952401 0.854 1.06529175543e-38
0.012643839404 -0.161208952401 0.854 1.08365885466e-38
0.0142243193295 -0.161208952401 0.854 1.09284240428e-38
0.015804799255 -0.161208952401 0.854 1.12957660274e-38
0.0173852791805 -0.161208952401 0.854 1.09284240428e-38
0.018965759106 -0.161208952401 0.854 1.09284240428e-38
0.0205462390315 -0.161208952401 0.854 1.06529175543e-38
0.0221785379709 -0.161586490931 0.856 1.08365885466e-38
0.0237627192546 -0.161586490931 0.856 1.09284240428e-38
0.0254653439987 -0.162341567992 0.86 1.12039305313e-38
0.0270569279986 -0.162341567992 0.86 1.18467790044e-38
0.0286485119985 -0.162341567992 0.86 1.24986294188e-38
0.0303104218031 -0.162719106522 0.862 1.43734280355e-38
0.0319057071611 -0.162719106522 0.862 1.58467308202e-38
0.0335009925192 -0.162719106522 0.862 1.39076966818e-38
0.0350962778772 -0.162719106522 0.862 9.48058004869e-39
0.0366915632353 -0.162719106522 0.862 1.63895153725e-38
0.0382868485934 -0.162719106522 0.862 1.22446146449e-38
0.0398821339514 -0.162719106522 0.862 1.73128953904e-38
0.0414774193095 -0.162719106522 0.862 1.65760716384e-38
0.0429727679978 -0.162341567992 0.86 1.63916649644e-38
0.0445643519977 -0.162341567992 0.86 1.69433715841e-38
-0.0341228206866 -0.16411451854 0.878 1.620620031e-38
-0.0323868837192 -0.163553762782 0.875 1.7497304867e-38
-0.0307675395333 -0.163553762782 0.875 7.63705420979e-39
-0.0290149464543 -0.162806088438 0.871 4.40810381558e-39
-0.0273400818963 -0.162432251266 0.869 1.22503921985e-38
-0.0257318417847 -0.162432251266 0.869 1.14174071419e-38
-0.0241236016732 -0.162432251266 0.869 1.25223576057e-38
-0.0225153615616 -0.162432251266 0.869 1.35372059796e-38
-0.0209071214501 -0.162432251266 0.869 2.11221641163e-39
-0.0192544650409 -0.162058414094 0.867 1.38329037776e-39
-0.0175481389386 -0.161123821164 0.862 1.28997749263e-38
-0.0159528535806 -0.161123821164 0.862 1.30762474484e-38
-0.0143242559993 -0.160749983992 0.86 1.35368556549e-38
-0.0127326719993 -0.160749983992 0.86 1.32606064783e-38
-0.0111410879994 -0.160749983992 0.86 1.37194546539e-38
-0.00952729585067 -0.16037614682 0.858 1.66689889369e-38
-0.00793941320889 -0.16037614682 0.858 1.30787683844e-38
-0.00633672513455 -0.160002309647 0.856 7.07133320417e-39
-0.0047414397765 -0.159628472475 0.854 1.8320385546e-38
-0.003160959851 -0.159628472475 0.854 1.81441386329e-38
-0.0015804799255 -0.159628472475 0.854 1.85132756809e-38
0.0 -0.159628472475 0.854 9.20261428141e-39
0.0015804799255 -0.159628472475 0.854 5.23462328101e-39
0.003160959851 -0.159628472475 0.854 5.14278778485e-39
0.0047414397765 -0.159628472475 0.854 9.73456259275e-39
0.006321919702 -0.159628472475 0.854 1.01937400735e-38
0.0079023996275 -0.159628472475 0.854 1.07447530505e-38
0.00948287955299 -0.159628472475 0.854 1.06529175543e-38
0.0110633594785 -0.159628472475 0.854 1.06529175543e-38
0.012643839404 -0.159628472475 0.854 1.08365885466e-38
0.0142243193295 -0.159628472475 0.854 1.1020259539e-38
0.015804799255 -0.159628472475 0.854 1.12957660274e-38
0.0173852791805 -0.159628472475 0.854 1.1020259539e-38
0.0190101754037 -0.160002309647 0.856 1.09284240428e-38
0.0205943566873 -0.160002309647 0.856 1.06529175543e-38
0.0222303569849 -0.16037614682 0.858 1.05610820582e-38
0.0238182396267 -0.16037614682 0.858 1.09284240428e-38
0.0254653439987 -0.160749983992 0.86 1.12039305313e-38
0.0270569279986 -0.160749983992 0.86 1.19386145005e-38
0.028715136445 -0.161123821164 0.862 1.45258514734e-38
0.0303104218031 -0.161123821164 0.862 1.09632743356e-38
0.0319057071611 -0.161123821164 0.862 6.71511192415e-39
0.0335009925192 -0.161123821164 0.862 1.62036387364e-38
0.0350962778772 -0.161123821164 0.862 1.66692860122e-38
0.0366915632353 -0.161123821164 0.862 1.70341364882e-38
0.0382868485934 -0.161123821164 0.862 1.1044664553e-38
0.0398821339514 -0.161123821164 0.862 1.74065413642e-38
0.0414774193095 -0.161123821164 0.862 1.71299460668e-38
0.0430727046675 -0.161123821164 0.862 1.62994847488e-38
-0.0341228206866 -0.162489622317 0.878 1.66668225295e-38
-0.0323868837192 -0.161934418596 0.875 1.75894850826e-38
-0.0307675395333 -0.161934418596 0.875 5.97791682803e-39
-0.0290815709008 -0.161564282782 0.873 1.34295862575e-38
-0.0274030049846 -0.161194146968 0.871 9.11610792331e-39
-0.0257910635149 -0.161194146968 0.871 1.11448111504e-38
-0.0241791220453 -0.161194146968 0.871 1.27996409406e-38
-0.0225671805756 -0.161194146968 0.871 1.27067712862e-38
-0.0209071214501 -0.160824011154 0.869 1.12344928508e-38
-0.0192544650409 -0.16045387534 0.867 0.0
-0.0175481389386 -0.159528535806 0.862 1.43687841324e-38
-0.0159528535806 -0.159528535806 0.862 1.26145742551e-38
-0.0143242559993 -0.159158399992 0.86 1.37187483995e-38
-0.0127326719993 -0.159158399992 0.86 1.30737293151e-38
-0.0111410879994 -0.159158399992 0.86 1.6115469037e-38
-0.0095495039995 -0.159158399992 0.86 1.68551794639e-38
-0.00795791999959 -0.159158399992 0.86 5.15103863021e-39
-0.00635153056711 -0.158788264178 0.858 6.52715856372e-39
-0.00476364792533 -0.158788264178 0.858 1.5644407144e-38
-0.00317576528356 -0.158788264178 0.858 1.66740280062e-38
-0.00158418128364 -0.158418128364 0.856 1.51030743368e-38
0.0 -0.158418128364 0.856 1.69448485526e-38
0.00158418128364 -0.158418128364 0.856 1.56591572116e-38
0.003160959851 -0.15804799255 0.854 4.68504523369e-39
0.0047414397765 -0.15804799255 0.854 4.95911679253e-39
0.006321919702 -0.15804799255 0.854 9.1835496158e-39
0.0079023996275 -0.15804799255 0.854 1.08365885466e-38
0.00948287955299 -0.15804799255 0.854 1.08365885466e-38
0.0110633594785 -0.15804799255 0.854 1.06529175543e-38
0.012643839404 -0.15804799255 0.854 1.08365885466e-38
0.0142243193295 -0.15804799255 0.854 1.11120950351e-38
0.015804799255 -0.15804799255 0.854 1.12957660274e-38
0.0173852791805 -0.15804799255 0.854 1.11120950351e-38
0.0190101754037 -0.158418128364 0.856 1.09284240428e-38
0.0206424743431 -0.158788264178 0.858 1.0469246562e-38
0.0222303569849 -0.158788264178 0.858 1.05610820582e-38
0.0238182396267 -0.158788264178 0.858 1.08365885466e-38
0.0254653439987 -0.159158399992 0.86 1.15712725159e-38
0.0270569279986 -0.159158399992 0.86 1.12039305313e-38
0.028715136445 -0.159528535806 0.862 1.44336558435e-38
0.0303104218031 -0.159528535806 0.862 1.71374472175e-38
0.0319797343239 -0.15989867162 0.864 1.59338173158e-38
0.0335787210401 -0.15989867162 0.864 1.47342693966e-38
0.0351777077563 -0.15989867162 0.864 1.50061647389e-38
0.0366915632353 -0.159528535806 0.862 1.33466391975e-38
0.0382868485934 -0.159528535806 0.862 1.45530562818e-38
0.0398821339514 -0.159528535806 0.862 1.66689861344e-38
0.0414774193095 -0.159528535806 0.862 1.7127430736e-38
0.0430727046675 -0.159528535806 0.862 1.74969363255e-38
-0.0341228206866 -0.160864726094 0.878 1.68512193944e-38
-0.0324979244634 -0.160864726094 0.878 1.82341258164e-38
-0.0308730282403 -0.160864726094 0.878 6.16266401757e-39
-0.0291481953473 -0.16031507441 0.875 1.37108198528e-38
-0.027465928073 -0.159948639954 0.873 3.85888450067e-39
-0.0258502852452 -0.159948639954 0.873 1.17008561901e-38
-0.0242346424173 -0.159948639954 0.873 1.20624318315e-38
-0.0225671805756 -0.159582205499 0.871 1.23390159185e-38
-0.0209071214501 -0.159215771043 0.869 1.41825655795e-38
-0.0192544650409 -0.158849336587 0.867 1.1143739157e-38
-0.0175888538782 -0.158299684903 0.864 1.3635554711e-38
-0.0159528535806 -0.157933250448 0.862 1.32606471159e-38
-0.0143575682225 -0.157933250448 0.862 1.36276093487e-38
-0.0127622828645 -0.157933250448 0.862 1.61143704191e-38
-0.0111669975064 -0.157933250448 0.862 1.51931371904e-38
-0.00957171214834 -0.157933250448 0.862 1.68540878524e-38
-0.00795791999959 -0.157566815992 0.86 1.363050303e-38
-0.00636633599967 -0.157566815992 0.86 5.78707118758e-39
-0.00477475199975 -0.157566815992 0.86 1.52752911155e-38
-0.00318316799983 -0.157566815992 0.86 1.41851215479e-38
-0.00158788264178 -0.157200381536 0.858 1.50098375422e-38
0.0 -0.157200381536 0.858 1.5563361646e-38
0.00158788264178 -0.157200381536 0.858 1.52882194951e-38
0.00316836256728 -0.15683394708 0.856 1.75938207e-38
0.00475254385092 -0.15683394708 0.856 9.94017651772e-39
0.00633672513455 -0.15683394708 0.856 5.32645877716e-39
0.00792090641819 -0.15683394708 0.856 8.63253663885e-39
0.00950508770183 -0.15683394708 0.856 1.02855755697e-38
0.0110892689855 -0.15683394708 0.856 1.07447530505e-38
0.0126734502691 -0.15683394708 0.856 1.09284240428e-38
0.0142576315527 -0.15683394708 0.856 1.1020259539e-38
0.0158418128364 -0.15683394708 0.856 1.12957660274e-38
0.01742599412 -0.15683394708 0.856 1.11120950351e-38
0.0190545917013 -0.157200381536 0.858 1.08365885466e-38
0.0206424743431 -0.157200381536 0.858 1.06529175543e-38
0.0222303569849 -0.157200381536 0.858 1.08365885466e-38
0.0238182396267 -0.157200381536 0.858 1.09284240428e-38
0.0254653439987 -0.157566815992 0.86 1.21222854929e-38
0.027119851087 -0.157933250448 0.862 1.11120950351e-38
0.028715136445 -0.157933250448 0.862 1.39769992987e-38
0.0303807476077 -0.158299684903 0.864 1.89770788479e-38
0.0319797343239 -0.158299684903 0.864 1.53792170148e-38
0.0336953138215 -0.158849336587 0.867 1.23436317957e-38
0.0351777077563 -0.158299684903 0.864 1.0677311358e-38
0.0367766944725 -0.158299684903 0.864 1.77730551814e-38
0.0383756811887 -0.158299684903 0.864 1.41803669422e-38
0.0399746679049 -0.158299684903 0.864 1.95230751764e-38
0.0414774193095 -0.157933250448 0.862 1.71277810607e-38
0.0430727046675 -0.157933250448 0.862 1.7955055826e-38
-0.0324979244634 -0.159239829871 0.878 1.82334041477e-38
-0.0308730282403 -0.159239829871 0.878 6.25485824614e-39
-0.0291481953473 -0.158695730224 0.875 1.18733518272e-38
-0.027465928073 -0.158332997127 0.873 2.11221641163e-39
-0.0258502852452 -0.158332997127 0.873 1.16079374902e-38
-0.0242346424173 -0.158332997127 0.873 1.35375619094e-38
-0.0226189995895 -0.158332997127 0.873 1.3263149835e-38
-0.0209552391059 -0.157970264029 0.871 1.16050830453e-38
-0.0192988813385 -0.157607530931 0.869 4.68972977445e-39
-0.0176499262875 -0.157244797834 0.867 4.68361030406e-39
-0.015989867162 -0.156700698187 0.864 1.13270149832e-38
-0.0143575682225 -0.15633796509 0.862 1.41890493875e-38
-0.0127622828645 -0.15633796509 0.862 1.59350350442e-38
-0.0111669975064 -0.15633796509 0.862 1.58396052175e-38
-0.00957171214834 -0.15633796509 0.862 1.62083653161e-38
-0.00797642679028 -0.15633796509 0.862 1.70391853666e-38
-0.00636633599967 -0.155975231992 0.86 1.47375638493e-38
-0.00477475199975 -0.155975231992 0.86 1.61215800997e-38
-0.00318316799983 -0.155975231992 0.86 1.49212446507e-38
