# .PCD v0.7 - Point Cloud Data file format
VERSION 0.7
FIELDS x y z rgb
SIZE 4 4 4 4
TYPE F F F F
COUNT 1 1 1 1
WIDTH 856
HEIGHT 1
VIEWPOINT 0 0 0 1 0 0 0
POINTS 856
DATA ascii
0.0418142429001 -0.17690641227 0.869 7.98968816575e-39
0.0434224830117 -0.17690641227 0.869 1.29628249494e-38
0.045237999179 -0.177720711061 0.873 1.80512073214e-38
0.0474976783231 -0.180163607432 0.885 1.53782122838e-38
-0.0258502852452 -0.176105068233 0.873 1.09564766368e-38
-0.0241791220453 -0.175701620195 0.871 6.71693781605e-39
-0.0225671805756 -0.175701620195 0.871 9.1835496158e-41
-0.0209071214501 -0.175298172158 0.869 6.42848473106e-40
-0.0192544650409 -0.174894724121 0.867 4.95911679253e-39
-0.0175481389386 -0.173886104028 0.862 8.44886564654e-39
-0.0159528535806 -0.173886104028 0.862 1.3796866585e-38
-0.0143242559993 -0.173482655991 0.86 1.12172036303e-38
-0.0127030611342 -0.173079207954 0.858 1.16749461815e-38
-0.0110892689855 -0.172675759917 0.856 1.03774110659e-38
-0.00950508770183 -0.172675759917 0.856 1.07447530505e-38
-0.0079023996275 -0.172272311879 0.854 1.02855755697e-38
-0.006321919702 -0.172272311879 0.854 1.03774110659e-38
-0.0047414397765 -0.172272311879 0.854 1.00100690812e-38
-0.00314985577658 -0.171667139824 0.851 9.91823358506e-39
-0.00157492788829 -0.171667139824 0.851 1.01019045774e-38
0.0 -0.171667139824 0.851 1.06529175543e-38
0.00157492788829 -0.171667139824 0.851 1.06529175543e-38
0.00314985577658 -0.171667139824 0.851 1.07447530505e-38
0.00472478366487 -0.171667139824 0.851 1.06529175543e-38
0.00629971155316 -0.171667139824 0.851 1.12039305313e-38
0.00787463944145 -0.171667139824 0.851 1.13876015236e-38
0.00944956732974 -0.171667139824 0.851 1.07447530505e-38
0.011024495218 -0.171667139824 0.851 1.05610820582e-38
0.0125994231063 -0.171667139824 0.851 1.02855755697e-38
0.0141743509946 -0.171667139824 0.851 1.05610820582e-38
0.015804799255 -0.172272311879 0.854 1.05610820582e-38
0.0173242067712 -0.171667139824 0.851 1.09284240428e-38
0.0188991346595 -0.171667139824 0.851 1.09284240428e-38
0.0205462390315 -0.172272311879 0.854 1.09284240428e-38
0.022126718957 -0.172272311879 0.854 1.1020259539e-38
0.0237071988825 -0.172272311879 0.854 1.12039305313e-38
0.0253469005382 -0.172675759917 0.856 1.14794370197e-38
0.0269310818219 -0.172675759917 0.856 1.14794370197e-38
0.0285152631055 -0.172675759917 0.856 1.14794370197e-38
0.0301697701938 -0.173079207954 0.858 1.15712725159e-38
0.0318316799983 -0.173482655991 0.86 1.14794370197e-38
0.0334232639983 -0.173482655991 0.86 1.12957660274e-38
0.0350962778772 -0.173886104028 0.862 1.17549435082e-38
0.0367766944725 -0.174289552065 0.864 7.71418167727e-39
0.0385089300817 -0.174894724121 0.867 8.17694648213e-39
0.0402060027886 -0.175298172158 0.869 7.89892886681e-39
0.0418142429001 -0.175298172158 0.869 6.24481373874e-39
0.0435224196815 -0.175701620195 0.871 1.35213867212e-38
0.0454970942488 -0.177113688326 0.878 1.73140094227e-38
0.0474976783231 -0.178525756456 0.885 1.66693420642e-38
-0.0258502852452 -0.174489425405 0.873 9.93551019383e-39
-0.0241791220453 -0.174089678726 0.871 1.24330318351e-38
-0.0225671805756 -0.174089678726 0.871 5.88718135117e-39
-0.0209071214501 -0.173689932047 0.869 4.5917748079e-40
-0.0192544650409 -0.173290185368 0.867 2.02038091548e-39
-0.0175481389386 -0.17229081867 0.862 6.70399121953e-39
-0.0159528535806 -0.17229081867 0.862 1.34270499073e-38
-0.0143242559993 -0.171891071991 0.86 1.11275205286e-38
-0.0127326719993 -0.171891071991 0.86 1.18611283007e-38
-0.0111151784924 -0.171491325312 0.858 1.0103339507e-38
-0.00950508770183 -0.171091578633 0.856 1.07447530505e-38
-0.00792090641819 -0.171091578633 0.856 1.08365885466e-38
-0.006321919702 -0.170691831954 0.854 1.06529175543e-38
-0.0047414397765 -0.170691831954 0.854 1.0469246562e-38
-0.00314985577658 -0.170092211935 0.851 1.00100690812e-38
-0.00157492788829 -0.170092211935 0.851 9.64272709659e-39
0.0 -0.170092211935 0.851 1.06529175543e-38
0.00157492788829 -0.170092211935 0.851 1.07447530505e-38
0.00314985577658 -0.170092211935 0.851 1.08365885466e-38
0.00472478366487 -0.170092211935 0.851 1.08365885466e-38
0.00629971155316 -0.170092211935 0.851 1.08365885466e-38
0.00787463944145 -0.170092211935 0.851 1.15712725159e-38
0.00944956732974 -0.170092211935 0.851 1.09284632792e-38
0.011024495218 -0.170092211935 0.851 1.07447530505e-38
0.0125994231063 -0.170092211935 0.851 1.06529175543e-38
0.0141743509946 -0.170092211935 0.851 1.08365885466e-38
0.015804799255 -0.170691831954 0.854 1.1020259539e-38
0.0173852791805 -0.170691831954 0.854 1.12039305313e-38
0.018965759106 -0.170691831954 0.854 1.09284240428e-38
0.0205462390315 -0.170691831954 0.854 1.1020259539e-38
0.022126718957 -0.170691831954 0.854 1.08365885466e-38
0.0237071988825 -0.170691831954 0.854 1.1020259539e-38
0.0253469005382 -0.171091578633 0.856 1.09284240428e-38
0.0269310818219 -0.171091578633 0.856 1.00100690812e-38
0.0285152631055 -0.171091578633 0.856 9.27538511196e-39
0.0301697701938 -0.171491325312 0.858 9.27538511196e-39
0.0318316799983 -0.171891071991 0.86 1.12957660274e-38
0.0334232639983 -0.171891071991 0.86 1.13876015236e-38
0.0350962778772 -0.17229081867 0.862 9.09171411964e-39
0.0367766944725 -0.172690565349 0.864 7.34719842505e-39
0.0385089300817 -0.173290185368 0.867 7.34719842505e-39
0.0402060027886 -0.173689932047 0.869 6.3366492349e-39
0.0418142429001 -0.173689932047 0.869 5.23462328101e-39
0.0435224196815 -0.174089678726 0.871 1.34302897093e-38
0.0454970942488 -0.175488792102 0.878 1.59321511719e-38
-0.0276232357939 -0.173863895879 0.878 1.76820660695e-38
-0.0259095069754 -0.173269827898 0.875 8.55720283341e-39
-0.0242346424173 -0.172873782577 0.873 1.03139812909e-38
-0.0226189995895 -0.172873782577 0.873 1.27081515652e-38
-0.0209071214501 -0.172081691935 0.869 5.05204530149e-39
-0.0192544650409 -0.171685646614 0.867 3.39791335785e-39
-0.0175888538782 -0.171091578633 0.864 3.12240686937e-39
-0.0159528535806 -0.170695533312 0.862 1.22292648215e-38
-0.0143242559993 -0.170299487991 0.86 1.15888504038e-38
-0.0127326719993 -0.170299487991 0.86 1.18600521034e-38
-0.0111151784924 -0.16990344267 0.858 1.27834349239e-38
-0.00952729585067 -0.16990344267 0.858 1.05610820582e-38
-0.00792090641819 -0.169507397349 0.856 1.1020259539e-38
-0.006321919702 -0.169111352028 0.854 1.08365885466e-38
-0.0047414397765 -0.169111352028 0.854 1.06529175543e-38
-0.003160959851 -0.169111352028 0.854 1.05610820582e-38
-0.00157492788829 -0.168517284047 0.851 1.01019045774e-38
0.0 -0.168517284047 0.851 1.01019045774e-38
0.00157492788829 -0.168517284047 0.851 1.07447530505e-38
0.00314985577658 -0.168517284047 0.851 1.08365885466e-38
0.00472478366487 -0.168517284047 0.851 1.08365885466e-38
0.00629971155316 -0.168517284047 0.851 1.07447530505e-38
0.00787463944145 -0.168517284047 0.851 1.09284240428e-38
0.00944956732974 -0.168517284047 0.851 1.08365885466e-38
0.011024495218 -0.168517284047 0.851 1.08365885466e-38
0.0125994231063 -0.168517284047 0.851 1.0469246562e-38
0.0141743509946 -0.168517284047 0.851 1.06529175543e-38
0.015804799255 -0.169111352028 0.854 1.11120950351e-38
0.0173852791805 -0.169111352028 0.854 1.09284240428e-38
0.018965759106 -0.169111352028 0.854 1.11120950351e-38
0.0205462390315 -0.169111352028 0.854 1.11120950351e-38
0.022126718957 -0.169111352028 0.854 1.09284240428e-38
0.0237071988825 -0.169111352028 0.854 8.90804312733e-39
0.0253469005382 -0.169507397349 0.856 7.25500419648e-39
0.0269940049102 -0.16990344267 0.858 6.70399121953e-39
0.028581887552 -0.16990344267 0.858 6.52032022722e-39
0.0301697701938 -0.16990344267 0.858 6.61215572338e-39
0.0318316799983 -0.170299487991 0.86 7.89785266959e-39
0.0335009925192 -0.170695533312 0.862 7.53051068496e-39
0.0350962778772 -0.170695533312 0.862 5.51012976948e-39
0.0367766944725 -0.171091578633 0.864 2.93873587706e-39
0.0385977626771 -0.172081691935 0.869 4.95911679253e-39
0.0402060027886 -0.172081691935 0.869 1.58316248227e-38
0.0418142429001 -0.172081691935 0.869 1.56551523006e-38
0.0435224196815 -0.172477737256 0.871 1.02199275392e-38
0.045237999179 -0.172873782577 0.873 1.65803904402e-38
-0.0276232357939 -0.172238999656 0.878 1.72207221813e-38
-0.0258502852452 -0.171258139749 0.873 8.92455742973e-39
-0.0242346424173 -0.171258139749 0.873 1.12348403728e-38
-0.0226189995895 -0.171258139749 0.873 5.2450265208e-39
-0.0209071214501 -0.170473451824 0.869 1.25216541539e-38
-0.0192544650409 -0.170081107861 0.867 5.69669864702e-39
-0.0175888538782 -0.169492591917 0.864 2.57139389242e-39
-0.0159528535806 -0.169100247954 0.862 9.00960783872e-39
-0.0143575682225 -0.169100247954 0.862 1.19590622477e-38
-0.0127326719993 -0.168707903991 0.86 1.18622044979e-38
-0.0111410879994 -0.168707903991 0.86 1.29681765082e-38
-0.00952729585067 -0.168315560028 0.858 1.01980448624e-38
-0.00793941320889 -0.168315560028 0.858 1.12039305313e-38
-0.00633672513455 -0.167923216066 0.856 1.1020259539e-38
-0.00475254385092 -0.167923216066 0.856 1.08365885466e-38
-0.003160959851 -0.167530872103 0.854 1.08365885466e-38
-0.0015804799255 -0.167530872103 0.854 1.05610820582e-38
0.0 -0.167530872103 0.854 1.06529175543e-38
0.0015804799255 -0.167530872103 0.854 1.06529175543e-38
0.00314985577658 -0.166942356159 0.851 1.07447530505e-38
0.00472478366487 -0.166942356159 0.851 1.08365885466e-38
0.00629971155316 -0.166942356159 0.851 1.12039305313e-38
0.00787463944145 -0.166942356159 0.851 1.11120950351e-38
0.00944956732974 -0.166942356159 0.851 1.06529203569e-38
0.011024495218 -0.166942356159 0.851 1.06529175543e-38
0.0125994231063 -0.166942356159 0.851 1.05610820582e-38
0.0141743509946 -0.166942356159 0.851 1.09284240428e-38
0.015804799255 -0.167530872103 0.854 1.11120950351e-38
0.0173852791805 -0.167530872103 0.854 1.1020259539e-38
0.018965759106 -0.167530872103 0.854 1.11120950351e-38
0.0205462390315 -0.167530872103 0.854 1.12039305313e-38
0.022126718957 -0.167530872103 0.854 9.45905610427e-39
0.0237071988825 -0.167530872103 0.854 5.60196526564e-39
0.0254061222684 -0.168315560028 0.858 3.12240686937e-39
0.0270569279986 -0.168707903991 0.86 3.76525534248e-39
0.0286485119985 -0.168707903991 0.86 5.51012976948e-39
0.0303104218031 -0.169100247954 0.862 6.97951031969e-39
0.0319057071611 -0.169100247954 0.862 7.81534421601e-39
0.0335009925192 -0.169100247954 0.862 2.38772290011e-39
0.0350962778772 -0.169100247954 0.862 3.67341984632e-39
0.0369043913283 -0.170081107861 0.867 1.5742678804e-38
0.0385977626771 -0.170473451824 0.869 1.98947611862e-38
0.0402060027886 -0.170473451824 0.869 2.0815290963e-38
0.0418142429001 -0.170473451824 0.869 1.83259683191e-38
0.0435224196815 -0.170865795786 0.871 1.20620787043e-38
0.045237999179 -0.171258139749 0.873 1.63941999133e-38
-0.0258502852452 -0.169642496921 0.873 9.57098341781e-39
-0.0242346424173 -0.169642496921 0.873 1.20620576849e-38
-0.0226189995895 -0.169642496921 0.873 1.744874427e-39
-0.0209071214501 -0.168865211712 0.869 1.09529215426e-38
-0.0192544650409 -0.168476569108 0.867 1.42762227637e-38
-0.0175888538782 -0.167893605201 0.864 2.75506488474e-39
-0.0159528535806 -0.167504962596 0.862 4.49993931174e-39
-0.0143575682225 -0.167504962596 0.862 1.22370798631e-38
-0.0127622828645 -0.167504962596 0.862 1.1493786316e-38
-0.0111410879994 -0.167116319991 0.86 1.37032192099e-38
-0.0095495039995 -0.167116319991 0.86 1.16778160407e-38
-0.00793941320889 -0.166727677387 0.858 1.12039305313e-38
-0.00635153056711 -0.166727677387 0.858 1.13876015236e-38
-0.00475254385092 -0.166339034782 0.856 1.11120950351e-38
-0.003160959851 -0.165950392177 0.854 1.08365885466e-38
-0.0015804799255 -0.165950392177 0.854 1.06529175543e-38
0.0 -0.165950392177 0.854 1.06529175543e-38
0.0015804799255 -0.165950392177 0.854 1.02855755697e-38
0.003160959851 -0.165950392177 0.854 1.06529175543e-38
0.0047414397765 -0.165950392177 0.854 1.07447530505e-38
0.006321919702 -0.165950392177 0.854 1.12039305313e-38
0.0079023996275 -0.165950392177 0.854 1.09284240428e-38
0.00948287955299 -0.165950392177 0.854 1.07447530505e-38
0.0110633594785 -0.165950392177 0.854 1.07447530505e-38
0.012643839404 -0.165950392177 0.854 1.07447530505e-38
0.0142243193295 -0.165950392177 0.854 1.1020259539e-38
0.015804799255 -0.165950392177 0.854 1.13876015236e-38
0.0173852791805 -0.165950392177 0.854 1.08365885466e-38
0.018965759106 -0.165950392177 0.854 1.09284240428e-38
0.0205943566873 -0.166339034782 0.856 9.45905610427e-39
0.0221785379709 -0.166339034782 0.856 5.51012976948e-39
0.0237627192546 -0.166339034782 0.856 4.77544580022e-39
0.0254653439987 -0.167116319991 0.86 3.489748854e-39
0.0270569279986 -0.167116319991 0.86 4.49993931174e-39
0.0286485119985 -0.167116319991 0.86 5.23462328101e-39
0.0302400959984 -0.167116319991 0.86 4.86728550027e-39
0.0319057071611 -0.167504962596 0.862 4.40810381558e-39
0.0335787210401 -0.167893605201 0.864 1.35271334462e-38
0.0351777077563 -0.167893605201 0.864 1.87909569846e-38
0.0369043913283 -0.168476569108 0.867 1.87898583666e-38
0.0385977626771 -0.168865211712 0.869 1.51931245787e-38
0.0402060027886 -0.168865211712 0.869 1.78641760153e-38
0.0418142429001 -0.168865211712 0.869 1.65771282174e-38
0.0435224196815 -0.169253854317 0.871 1.51941937695e-38
0.045237999179 -0.169642496921 0.873 1.62055122725e-38
-0.0242346424173 -0.168026854094 0.873 1.11437447622e-38
-0.0226189995895 -0.168026854094 0.873 7.54523833182e-39
-0.0209552391059 -0.167641912847 0.871 7.72822268788e-39
-0.0192988813385 -0.167256971601 0.869 1.23426536894e-38
-0.0175888538782 -0.166294618484 0.864 1.34464620949e-38
-0.015989867162 -0.166294618484 0.864 4.04076183095e-39
-0.0143575682225 -0.165909677238 0.862 1.29689612354e-38
-0.0127622828645 -0.165909677238 0.862 1.11282379934e-38
-0.0111669975064 -0.165909677238 0.862 1.24135762072e-38
-0.0095495039995 -0.165524735991 0.86 1.31525649654e-38
-0.00795791999959 -0.165524735991 0.86 1.12114639118e-38
-0.00635153056711 -0.165139794745 0.858 1.14794370197e-38
-0.00476364792533 -0.165139794745 0.858 1.11120950351e-38
-0.00316836256728 -0.164754853498 0.856 1.08365885466e-38
-0.0015804799255 -0.164369912252 0.854 1.07447530505e-38
0.0 -0.164369912252 0.854 1.1020259539e-38
0.0015804799255 -0.164369912252 0.854 1.0469246562e-38
0.003160959851 -0.164369912252 0.854 1.06529175543e-38
0.0047414397765 -0.164369912252 0.854 1.08365885466e-38
0.006321919702 -0.164369912252 0.854 1.11120950351e-38
0.0079023996275 -0.164369912252 0.854 1.09284240428e-38
0.00948287955299 -0.164369912252 0.854 1.08365885466e-38
0.0110633594785 -0.164369912252 0.854 1.08365885466e-38
0.012643839404 -0.164369912252 0.854 1.09284240428e-38
0.0142243193295 -0.164369912252 0.854 1.11120950351e-38
0.015804799255 -0.164369912252 0.854 1.12039305313e-38
0.0173852791805 -0.164369912252 0.854 1.15712725159e-38
0.018965759106 -0.164369912252 0.854 8.44886564654e-39
0.0205943566873 -0.164754853498 0.856 5.78563625795e-39
0.0221785379709 -0.164754853498 0.856 4.49993931174e-39
0.0237627192546 -0.164754853498 0.856 4.77544580022e-39
0.0254653439987 -0.165524735991 0.86 5.05095228869e-39
0.0270569279986 -0.165524735991 0.86 3.94892633479e-39
0.0286485119985 -0.165524735991 0.86 1.83670992316e-39
0.0302400959984 -0.165524735991 0.86 1.16796685573e-38
0.0319057071611 -0.165909677238 0.862 1.98032844225e-38
0.0336953138215 -0.166872030354 0.867 1.81448392822e-38
0.0352998525749 -0.166872030354 0.867 1.85125301901e-38
0.0369895225655 -0.167256971601 0.869 1.86954795137e-38
0.0385977626771 -0.167256971601 0.869 1.02174444384e-38
0.0402060027886 -0.167256971601 0.869 1.54632178512e-38
0.0418142429001 -0.167256971601 0.869 1.62101659847e-38
0.0435224196815 -0.167641912847 0.871 1.58352724026e-38
0.045237999179 -0.168026854094 0.873 1.65742541543e-38
-0.0242346424173 -0.166411211266 0.873 1.18755616748e-38
-0.0226189995895 -0.166411211266 0.873 1.16000607916e-38
-0.0209552391059 -0.166029971377 0.871 1.08635383187e-38
-0.0192988813385 -0.165648731489 0.869 1.20631717171e-38
-0.0176499262875 -0.165267491601 0.867 1.28918393731e-38
-0.015989867162 -0.164695631768 0.864 1.25248967585e-38
-0.0143908804458 -0.164695631768 0.864 3.21424236553e-39
-0.0127622828645 -0.16431439188 0.862 1.13158564435e-38
-0.0111669975064 -0.16431439188 0.862 1.19536812616e-38
-0.0095495039995 -0.163933151991 0.86 1.32429655319e-38
-0.00795791999959 -0.163933151991 0.86 1.33373135562e-38
-0.00635153056711 -0.163551912103 0.858 1.01937400735e-38
-0.00476364792533 -0.163551912103 0.858 1.12957660274e-38
-0.00316836256728 -0.163170672215 0.856 1.09284240428e-38
-0.00158418128364 -0.163170672215 0.856 1.08365885466e-38
0.0 -0.162789432326 0.854 1.1020259539e-38
0.0015804799255 -0.162789432326 0.854 1.06529175543e-38
0.003160959851 -0.162789432326 0.854 1.1020259539e-38
0.0047414397765 -0.162789432326 0.854 1.06529175543e-38
0.006321919702 -0.162789432326 0.854 1.09284240428e-38
0.0079023996275 -0.162789432326 0.854 1.08365899479e-38
0.00948287955299 -0.162789432326 0.854 1.06529175543e-38
0.0110633594785 -0.162789432326 0.854 1.08365885466e-38
0.012643839404 -0.162789432326 0.854 1.12957660274e-38
0.0142243193295 -0.162789432326 0.854 1.11120950351e-38
0.015804799255 -0.162789432326 0.854 1.16631080121e-38
0.01742599412 -0.163170672215 0.856 9.82639808891e-39
0.0190101754037 -0.163170672215 0.856 5.96930725027e-39
0.0206424743431 -0.163551912103 0.858 4.77544580022e-39
0.0222303569849 -0.163551912103 0.858 4.40810381558e-39
0.0238182396267 -0.163551912103 0.858 3.85709083864e-39
0.0255245657289 -0.16431439188 0.862 1.37753244237e-39
0.027119851087 -0.16431439188 0.862 4.04076183095e-39
0.0287817608915 -0.164695631768 0.864 1.86057978133e-38
0.0304862363147 -0.165267491601 0.867 1.8976755148e-38
0.0320907750681 -0.165267491601 0.867 1.73139898045e-38
0.0336953138215 -0.165267491601 0.867 1.70363309216e-38
0.035381282454 -0.165648731489 0.869 1.74958797465e-38
0.0369895225655 -0.165648731489 0.869 2.01698809163e-38
0.0386865952724 -0.166029971377 0.871 1.42704452101e-38
0.0402985367421 -0.166029971377 0.871 1.82329543309e-38
0.0419104782118 -0.166029971377 0.871 9.6653482577e-39
0.043722293021 -0.166792451154 0.875 1.69455225772e-38
0.0453416372069 -0.166792451154 0.875 1.63916649644e-38
-0.0242346424173 -0.164795568438 0.873 1.04883308458e-38
-0.0226189995895 -0.164795568438 0.873 9.11937575133e-39
-0.0209552391059 -0.164418029908 0.871 8.56837258347e-39
-0.0192988813385 -0.164040491378 0.869 1.22515342567e-38
-0.017690641227 -0.164040491378 0.869 1.27078012406e-38
-0.016045387534 -0.163662952847 0.867 1.44584392082e-38
-0.0143908804458 -0.163096645052 0.864 7.82251886415e-39
-0.0127622828645 -0.162719106522 0.862 8.73262298037e-39
-0.0111669975064 -0.162719106522 0.862 1.12211496868e-38
-0.0095495039995 -0.162341567992 0.86 1.33322941051e-38
-0.00795791999959 -0.162341567992 0.86 1.32472801299e-38
-0.00636633599967 -0.162341567992 0.86 1.20415707013e-38
-0.00476364792533 -0.161964029461 0.858 1.09284240428e-38
-0.00317576528356 -0.161964029461 0.858 1.14794370197e-38
-0.00158418128364 -0.161586490931 0.856 1.1020259539e-38
0.0 -0.161586490931 0.856 1.12957660274e-38
0.00158418128364 -0.161586490931 0.856 1.11120950351e-38
0.003160959851 -0.161208952401 0.854 1.12957660274e-38
0.0047414397765 -0.161208952401 0.854 1.09284240428e-38
0.006321919702 -0.161208952401 0.854 1.08365885466e-38
0.0079023996275 -0.161208952401 0.854 1.11120950351e-38
0.00948287955299 -0.161208952401 0.854 1.1020259539e-38
0.0110633594785 -0.161208952401 0.854 1.1020259539e-38
0.012643839404 -0.161208952401 0.854 1.16631080121e-38
0.0142243193295 -0.161208952401 0.854 1.09284240428e-38
0.015804799255 -0.161208952401 0.854 1.23977919813e-38
0.01742599412 -0.161586490931 0.856 6.88766221185e-39
0.0190545917013 -0.161964029461 0.858 5.51012976948e-39
0.0206424743431 -0.161964029461 0.858 4.86728129637e-39
0.0222303569849 -0.161964029461 0.858 2.75506488474e-39
0.0238737599988 -0.162341567992 0.86 8.26519465422e-40
0.0255245657289 -0.162719106522 0.862 1.36279568707e-38
0.027119851087 -0.162719106522 0.862 1.93459286297e-38
0.0287817608915 -0.163096645052 0.864 1.47393645178e-38
0.0304862363147 -0.163662952847 0.867 1.68605716604e-38
0.0321648022309 -0.164040491378 0.869 1.81451741925e-38
0.0337730423424 -0.164040491378 0.869 1.67593838983e-38
0.035381282454 -0.164040491378 0.869 1.8324564218e-38
0.0370746538027 -0.164418029908 0.871 1.9432694228e-38
0.0386865952724 -0.164418029908 0.871 2.17372262422e-38
0.0403910706956 -0.164795568438 0.873 8.64119666336e-39
0.0420067135234 -0.164795568438 0.873 1.92854541932e-39
0.0438721980256 -0.165739414763 0.878 1.75895173124e-38
0.0454970942488 -0.165739414763 0.878 1.69444814124e-38
-0.0242346424173 -0.16317992561 0.873 5.97578265047e-39
-0.0226189995895 -0.16317992561 0.873 2.75506488474e-40
-0.0210033567617 -0.16317992561 0.873 0.0
-0.0193432976362 -0.162806088438 0.871 1.01249110956e-38
-0.017690641227 -0.162432251266 0.869 1.37255825321e-38
-0.016045387534 -0.162058414094 0.867 7.6388787004e-39
-0.0144408487806 -0.162058414094 0.867 1.69445444709e-38
-0.0127918937296 -0.161497658336 0.864 2.11221641163e-39
-0.0111669975064 -0.161123821164 0.862 1.1862280168e-38
-0.00957171214834 -0.161123821164 0.862 1.27819943891e-38
-0.00795791999959 -0.160749983992 0.86 1.30603707368e-38
-0.00636633599967 -0.160749983992 0.86 1.28723949556e-38
-0.00477475199975 -0.160749983992 0.86 1.10231293982e-38
-0.00317576528356 -0.16037614682 0.858 1.16631080121e-38
-0.00158788264178 -0.16037614682 0.858 1.14794370197e-38
0.0 -0.16037614682 0.858 1.12957660274e-38
0.00158788264178 -0.16037614682 0.858 1.13876015236e-38
0.00316836256728 -0.160002309647 0.856 1.12957660274e-38
0.00475254385092 -0.160002309647 0.856 1.12957660274e-38
0.00633672513455 -0.160002309647 0.856 1.13876015236e-38
0.00792090641819 -0.160002309647 0.856 1.13876015236e-38
0.00950508770183 -0.160002309647 0.856 1.12957660274e-38
0.0110633594785 -0.159628472475 0.854 1.08365885466e-38
0.012643839404 -0.159628472475 0.854 1.08365885466e-38
0.0142243193295 -0.159628472475 0.854 1.07447530505e-38
0.015804799255 -0.159628472475 0.854 1.17549435082e-38
0.01742599412 -0.160002309647 0.856 5.23462328101e-39
0.0190545917013 -0.16037614682 0.858 4.59213354031e-39
0.0206424743431 -0.16037614682 0.858 1.19386145005e-39
0.0222821759988 -0.160749983992 0.86 3.12240686937e-39
0.0238737599988 -0.160749983992 0.86 1.78685704873e-38
0.0255245657289 -0.161123821164 0.862 1.74112399179e-38
0.0271827741753 -0.161497658336 0.864 1.79608081562e-38
0.0288816975613 -0.162058414094 0.867 1.74490105167e-39
0.0305565621193 -0.162432251266 0.869 1.05909535375e-38
0.0321648022309 -0.162432251266 0.869 1.71342802829e-38
0.0337730423424 -0.162432251266 0.869 1.80497569775e-38
0.035462712333 -0.162806088438 0.871 1.90653382304e-38
0.0370746538027 -0.162806088438 0.871 2.02646255081e-38
0.0386865952724 -0.162806088438 0.871 1.07702650903e-38
0.0403910706956 -0.16317992561 0.873 5.05095228869e-39
0.0420067135234 -0.16317992561 0.873 6.70399121953e-39
0.043722293021 -0.163553762782 0.875 1.87844311376e-38
0.0454970942488 -0.16411451854 0.878 1.7774264502e-38
-0.0226189995895 -0.161564282782 0.873 2.93873587706e-39
-0.0210033567617 -0.161564282782 0.873 3.03057137321e-39
-0.0193432976362 -0.161194146968 0.871 3.67341984632e-39
-0.017690641227 -0.160824011154 0.869 4.13259732711e-39
-0.0160824011154 -0.160824011154 0.869 3.76525534248e-39
-0.0144408487806 -0.16045387534 0.867 1.45474594957e-38
-0.0127918937296 -0.15989867162 0.864 1.09586598598e-38
-0.0111929070134 -0.15989867162 0.864 7.53051068496e-39
-0.00957171214834 -0.159528535806 0.862 1.07605372764e-38
-0.00797642679028 -0.159528535806 0.862 1.30607294692e-38
-0.00636633599967 -0.159158399992 0.86 1.33387470845e-38
-0.00477475199975 -0.159158399992 0.86 1.21373522539e-38
-0.00318316799983 -0.159158399992 0.86 1.19386145005e-38
-0.00158788264178 -0.158788264178 0.858 1.18467790044e-38
0.0 -0.158788264178 0.858 1.15712725159e-38
0.00158788264178 -0.158788264178 0.858 1.16631080121e-38
0.00317576528356 -0.158788264178 0.858 1.15712725159e-38
0.00476364792533 -0.158788264178 0.858 1.16631080121e-38
0.00635153056711 -0.158788264178 0.858 1.14794370197e-38
0.00792090641819 -0.158418128364 0.856 1.16631080121e-38
0.00950508770183 -0.158418128364 0.856 1.11120950351e-38
0.0110892689855 -0.158418128364 0.856 1.08365885466e-38
0.0126734502691 -0.158418128364 0.856 1.08365885466e-38
0.0142576315527 -0.158418128364 0.856 1.12957660274e-38
0.0158418128364 -0.158418128364 0.856 8.99987862348e-39
0.01742599412 -0.158418128364 0.856 5.05095228869e-39
0.019099007999 -0.159158399992 0.86 3.30607786169e-39
0.0206905919989 -0.159158399992 0.86 0.0
0.0222821759988 -0.159158399992 0.86 1.87959343967e-38
0.0239292803708 -0.159528535806 0.862 1.6761204185e-38
0.0255837874591 -0.15989867162 0.864 1.70366938579e-38
0.0272771588079 -0.16045387534 0.867 1.69477478392e-38
0.0289483220078 -0.160824011154 0.869 3.39791335785e-39
0.0305565621193 -0.160824011154 0.869 9.21021212168e-39
0.0321648022309 -0.160824011154 0.869 1.8333902471e-38
0.0337730423424 -0.160824011154 0.869 1.88827448366e-38
0.035462712333 -0.161194146968 0.871 1.94359312275e-38
0.0370746538027 -0.161194146968 0.871 2.10025590885e-38
0.0386865952724 -0.161194146968 0.871 4.13259732711e-39
0.0403910706956 -0.161564282782 0.873 5.96930725027e-39
0.0420067135234 -0.161564282782 0.873 7.4386751888e-39
0.043722293021 -0.161934418596 0.875 1.90635515749e-38
0.0454970942488 -0.162489622317 0.878 1.79590088889e-38
-0.0226708186035 -0.16031507441 0.875 2.93873587706e-39
-0.0210033567617 -0.159948639954 0.873 2.66322938858e-39
-0.0193432976362 -0.159582205499 0.871 4.49993931174e-39
-0.0177313561665 -0.159582205499 0.871 5.51012976948e-39
-0.0160824011154 -0.159215771043 0.869 3.489748854e-39
-0.0144741610039 -0.159215771043 0.869 1.83670992316e-39
-0.0128363100272 -0.158849336587 0.867 1.67676725787e-38
-0.0112317712738 -0.158849336587 0.867 2.11221641163e-39
-0.00959392029717 -0.158299684903 0.864 1.22385834563e-38
-0.00797642679028 -0.157933250448 0.862 1.29714065012e-38
-0.00638114143223 -0.157933250448 0.862 1.3617882936e-38
-0.00477475199975 -0.157566815992 0.86 1.27816356567e-38
-0.00318316799983 -0.157566815992 0.86 1.16631080121e-38
-0.00159158399992 -0.157566815992 0.86 1.21222854929e-38
0.0 -0.157566815992 0.86 1.2214120989e-38
0.00159158399992 -0.157566815992 0.86 1.14794370197e-38
0.00318316799983 -0.157566815992 0.86 1.14794370197e-38
0.00477475199975 -0.157566815992 0.86 1.17549435082e-38
0.00636633599967 -0.157566815992 0.86 1.17549435082e-38
0.00795791999959 -0.157566815992 0.86 1.15712725159e-38
0.00952729585067 -0.157200381536 0.858 1.1020259539e-38
0.0111151784924 -0.157200381536 0.858 1.08365885466e-38
0.0126734502691 -0.15683394708 0.856 1.08365885466e-38
0.0142576315527 -0.15683394708 0.856 1.14794370197e-38
0.0158418128364 -0.15683394708 0.856 5.05095228869e-39
0.0174667090596 -0.157200381536 0.858 6.42848473106e-40
0.019099007999 -0.157566815992 0.86 5.60196526564e-39
0.0206905919989 -0.157566815992 0.86 2.75506488474e-39
0.0222821759988 -0.157566815992 0.86 1.75938389169e-38
0.0239292803708 -0.157933250448 0.862 1.62098450873e-38
0.0255837874591 -0.158299684903 0.864 1.6393475442e-38
0.0272771588079 -0.158849336587 0.867 1.77767826353e-38
0.0289483220078 -0.159215771043 0.869 3.94896416985e-39
0.0305565621193 -0.159215771043 0.869 1.96175156864e-38
0.0321648022309 -0.159215771043 0.869 1.52017860045e-38
0.0338507708634 -0.159582205499 0.871 8.37465147857e-39
0.035462712333 -0.159582205499 0.871 1.15053344167e-38
0.0370746538027 -0.159582205499 0.871 1.67619875108e-38
0.0386865952724 -0.159582205499 0.871 7.53051068496e-39
0.0403910706956 -0.159948639954 0.873 1.22284786931e-38
0.042102948835 -0.16031507441 0.875 7.98968816575e-39
0.0438721980256 -0.160864726094 0.878 1.92493945798e-38
0.0454970942488 -0.160864726094 0.878 1.67600873501e-38
-0.0228003661383 -0.159602562968 0.88 2.66322938858e-39
-0.0211236509012 -0.159239829871 0.878 4.59249227271e-39
-0.0193877139339 -0.158332997127 0.873 5.87783048652e-39
-0.0177720711061 -0.158332997127 0.873 6.24481373874e-39
-0.0161194146968 -0.157970264029 0.871 5.32645877716e-39
-0.0144741610039 -0.157607530931 0.869 4.5917748079e-40
-0.0128659208924 -0.157607530931 0.869 1.63985425372e-38
-0.0112317712738 -0.157244797834 0.867 1.01019045774e-39
-0.00959392029717 -0.156700698187 0.864 1.04904958519e-38
-0.00797642679028 -0.15633796509 0.862 1.13144201126e-38
-0.00638114143223 -0.15633796509 0.862 1.40759519897e-38
-0.00478585607417 -0.15633796509 0.862 1.28774172093e-38
-0.00318316799983 -0.155975231992 0.86 1.29624367897e-38
-0.00159158399992 -0.155975231992 0.86 1.18467790044e-38
0.0 -0.155975231992 0.86 1.2214120989e-38
0.00159158399992 -0.155975231992 0.86 1.23977919813e-38
0.00318316799983 -0.155975231992 0.86 1.20304499967e-38
0.00477475199975 -0.155975231992 0.86 1.2214120989e-38
0.00636633599967 -0.155975231992 0.86 1.16631080121e-38
0.00795791999959 -0.155975231992 0.86 1.13876015236e-38
0.0095495039995 -0.155975231992 0.86 1.09284240428e-38
0.0111410879994 -0.155975231992 0.86 1.07447530505e-38
0.0127326719993 -0.155975231992 0.86 1.1020259539e-38
0.0143242559993 -0.155975231992 0.86 1.12957660274e-38
0.0159158399992 -0.155975231992 0.86 3.67341984632e-39
0.0175481389386 -0.15633796509 0.862 1.16918962877e-38
0.0191434242967 -0.15633796509 0.862 1.92533042025e-38
0.0207387096547 -0.15633796509 0.862 1.18773385213e-38
0.0223339950128 -0.15633796509 0.862 1.64878234663e-38
0.0239848007429 -0.156700698187 0.864 1.69477450366e-38
0.0256726200545 -0.157244797834 0.867 1.63923838305e-38
0.0272771588079 -0.157244797834 0.867 1.84206876875e-38
0.0289483220078 -0.157607530931 0.869 1.93462789543e-38
0.030626887924 -0.157970264029 0.871 5.88503035803e-39
0.0322388293937 -0.157970264029 0.871 3.76525534248e-39
0.0338507708634 -0.157970264029 0.871 4.95911679253e-39
0.0355441422121 -0.158332997127 0.873 2.57139389242e-39
0.0371597850399 -0.158332997127 0.873 9.9372702247e-39
0.0388642604631 -0.158695730224 0.875 7.99435168703e-39
0.0404836046491 -0.158695730224 0.875 7.16639729199e-39
0.0422473018025 -0.159239829871 0.878 6.06114274643e-39
0.0439721346954 -0.159602562968 0.88 1.750125793e-38
0.0457043703046 -0.159965296066 0.882 1.62994679332e-38
-0.0228003661383 -0.157973965387 0.88 1.92854541932e-39
-0.0211236509012 -0.157614933648 0.878 2.20405190779e-39
-0.0194987546781 -0.157614933648 0.878 6.70686528268e-39
-0.0178127860456 -0.157076386038 0.875 7.25930898536e-39
-0.0161194146968 -0.156358322559 0.871 6.79582671569e-39
-0.0145074732272 -0.156358322559 0.871 1.1020259539e-39
-0.0128955317575 -0.156358322559 0.871 1.46450431182e-38
-0.0112576807808 -0.15599929082 0.869 6.07262218345e-39
-0.00962723252043 -0.15564025908 0.867 6.15837604427e-39
-0.00799493358098 -0.155101711471 0.864 1.31540125067e-38
-0.00639594686478 -0.155101711471 0.864 1.35234942741e-38
-0.00478585607417 -0.154742679731 0.862 1.43525248663e-38
-0.00319057071611 -0.154742679731 0.862 1.31511300357e-38
-0.00159528535806 -0.154742679731 0.862 1.21280252114e-38
0.0 -0.154742679731 0.862 1.28569694621e-38
0.00159528535806 -0.154742679731 0.862 1.26732984698e-38
0.00318316799983 -0.154383647992 0.86 1.2214120989e-38
0.00477475199975 -0.154383647992 0.86 1.2214120989e-38
0.00636633599967 -0.154383647992 0.86 1.19386145005e-38
0.00795791999959 -0.154383647992 0.86 1.12039305313e-38
0.0095495039995 -0.154383647992 0.86 1.09284240428e-38
0.0111669975064 -0.154742679731 0.862 1.07447530505e-38
0.0127622828645 -0.154742679731 0.862 1.12039305313e-38
0.0143575682225 -0.154742679731 0.862 6.42848473106e-39
0.0159528535806 -0.154742679731 0.862 1.2513034767e-38
0.0175481389386 -0.154742679731 0.862 1.79619376027e-38
0.0191878405943 -0.155101711471 0.864 1.64838788111e-38
0.0207868273105 -0.155101711471 0.864 1.6945930355e-38
0.0223858140267 -0.155101711471 0.864 1.65760716384e-38
0.0240680813011 -0.15564025908 0.867 1.63913118372e-38
0.0257318417847 -0.15599929082 0.869 1.7773165884e-38
0.0273400818963 -0.15599929082 0.869 1.74105238544e-38
0.0289483220078 -0.15599929082 0.869 3.94892633479e-39
0.030626887924 -0.156358322559 0.871 1.17664649842e-38
0.0323128565565 -0.156717354299 0.873 8.73298171277e-39
0.0339284993843 -0.156717354299 0.873 6.42848473106e-39
0.0355441422121 -0.156717354299 0.873 7.90146801963e-39
0.0371597850399 -0.156717354299 0.873 2.75506488474e-39
0.0391751745468 -0.158332997127 0.882 7.35293814356e-39
0.0408074734862 -0.158332997127 0.882 4.5917748079e-39
0.0425841253931 -0.158871544736 0.885 7.81862045182e-39
0.0443219130396 -0.159230576475 0.887 1.87912652703e-38
0.0459634653743 -0.159230576475 0.887 1.66682868864e-38
-0.0245677646499 -0.157233693759 0.885 2.8469003809e-39
-0.0228521851523 -0.156700698187 0.882 6.43855866572e-39
-0.021171768557 -0.156345367806 0.88 3.67341984632e-39
-0.0194987546781 -0.155990037424 0.878 3.94892633479e-39
-0.0178127860456 -0.155457041852 0.875 4.40810381558e-39
-0.0161564282782 -0.155101711471 0.873 3.94892633479e-39
-0.0145074732272 -0.15474638109 0.871 4.5917748079e-40
-0.0128955317575 -0.15474638109 0.871 1.47393519061e-38
-0.0112835902878 -0.15474638109 0.871 9.75972851187e-39
-0.00964944066926 -0.154391050708 0.869 3.12240686937e-39
-0.00804120055772 -0.154391050708 0.869 1.28785172286e-38
-0.00639594686478 -0.153502724755 0.864 1.27859404456e-38
-0.00478585607417 -0.153147394373 0.862 1.5091882166e-38
-0.00319057071611 -0.153147394373 0.862 1.26022694532e-38
-0.00159528535806 -0.153147394373 0.862 1.4346067683e-38
0.0 -0.153147394373 0.862 1.22209369047e-38
0.00159528535806 -0.153147394373 0.862 1.2765133966e-38
0.00319057071611 -0.153147394373 0.862 1.24896274775e-38
0.00478585607417 -0.153147394373 0.862 1.24896274775e-38
0.00638114143223 -0.153147394373 0.862 1.19386145005e-38
0.00797642679028 -0.153147394373 0.862 1.15712725159e-38
0.00957171214834 -0.153147394373 0.862 1.1020259539e-38
0.0111669975064 -0.153147394373 0.862 1.12957660274e-38
0.0127622828645 -0.153147394373 0.862 6.70399121953e-39
0.0143575682225 -0.153147394373 0.862 6.61611439154e-39
0.0159528535806 -0.153147394373 0.862 1.88821142523e-38
0.0175888538782 -0.153502724755 0.864 1.61175920042e-38
0.0192544650409 -0.154035720327 0.867 1.60275725909e-38
0.0208590037943 -0.154035720327 0.867 1.65760870527e-38
0.0224635425477 -0.154035720327 0.867 1.62994819462e-38
0.0240680813011 -0.154035720327 0.867 1.74065413642e-38
0.0257318417847 -0.154391050708 0.869 1.72261255882e-38
0.0274030049846 -0.15474638109 0.871 3.03057137321e-39
0.0290149464543 -0.15474638109 0.871 1.02034622823e-38
0.0306972137286 -0.155101711471 0.873 1.08459155892e-38
0.0323128565565 -0.155101711471 0.873 7.07133320417e-39
0.0339284993843 -0.155101711471 0.873 1.00165276658e-38
0.0356255720912 -0.155457041852 0.875 5.51048850189e-39
0.0374577443701 -0.156345367806 0.88 3.03057137321e-39
0.0391751745468 -0.156700698187 0.882 7.44513237212e-39
0.0408074734862 -0.156700698187 0.882 4.95911679253e-39
0.0425841253931 -0.157233693759 0.885 1.61047014596e-38
0.0443219130396 -0.157589024141 0.887 1.79608053536e-38
-0.0262648373568 -0.155947471806 0.887 3.21424236553e-39
-0.0245677646499 -0.155595842783 0.885 2.29588740395e-39
-0.0228521851523 -0.155068399248 0.882 1.17908293606e-38
-0.0212198862128 -0.155068399248 0.882 2.20405190779e-39
-0.0194987546781 -0.154365141201 0.878 2.38772290011e-39
-0.0178127860456 -0.153837697666 0.875 3.21424236553e-39
-0.0161564282782 -0.153486068643 0.873 2.75506488474e-39
-0.0145074732272 -0.15313443962 0.871 1.01019045774e-39
-0.0128955317575 -0.15313443962 0.871 1.5106709305e-38
-0.0112835902878 -0.15313443962 0.871 9.76010125726e-39
-0.0096716488181 -0.15313443962 0.871 3.58158435016e-39
-0.00804120055772 -0.152782810597 0.869 1.26055134592e-38
-0.00641815501362 -0.152431181573 0.867 1.26926700198e-38
-0.00479696014859 -0.151903738039 0.864 1.39830304873e-38
-0.00319057071611 -0.151552109015 0.862 1.46298250169e-38
-0.00159528535806 -0.151552109015 0.862 1.37035779423e-38
0.0 -0.151552109015 0.862 1.45315323374e-38
0.00159528535806 -0.151552109015 0.862 1.18467790044e-38
0.00319057071611 -0.151552109015 0.862 1.2765133966e-38
0.00478585607417 -0.151552109015 0.862 1.25814629736e-38
0.00638114143223 -0.151552109015 0.862 1.23059564852e-38
0.00797642679028 -0.151552109015 0.862 1.17549435082e-38
0.00957171214834 -0.151552109015 0.862 1.18467790044e-38
0.0111669975064 -0.151552109015 0.862 8.0815236619e-39
0.0127622828645 -0.151552109015 0.862 1.65303893084e-39
0.0143908804458 -0.151903738039 0.864 1.93427182549e-38
0.015989867162 -0.151903738039 0.864 1.565737476e-38
0.0176499262875 -0.152431181573 0.867 1.05848480801e-38
0.0192544650409 -0.152431181573 0.867 1.69488198325e-38
0.0208590037943 -0.152431181573 0.867 1.66693392616e-38
0.0224635425477 -0.152431181573 0.867 1.7683119846e-38
0.0241236016732 -0.152782810597 0.869 1.63970921933e-38
0.0257910635149 -0.15313443962 0.871 2.93873587706e-39
0.0274030049846 -0.15313443962 0.871 8.5475408805e-39
0.0290815709008 -0.153486068643 0.873 1.1586339277e-38
0.0307675395333 -0.153837697666 0.875 7.34683969264e-39
0.0323868837192 -0.153837697666 0.875 1.29577872814e-38
0.0340062279052 -0.153837697666 0.875 8.17335915806e-39
0.0357477169098 -0.154365141201 0.878 6.06114274643e-39
0.0375428756073 -0.155068399248 0.882 1.21449206669e-38
0.0393084234398 -0.155595842783 0.885 4.04076183095e-39
0.0409462744165 -0.155595842783 0.885 2.11221641163e-39
0.0426803607048 -0.155947471806 0.887 1.79526371848e-38
-0.0262648373568 -0.154305919471 0.887 2.66322938858e-39
-0.024623285022 -0.154305919471 0.887 6.25129054025e-39
-0.0228521851523 -0.153436100308 0.882 1.31705141974e-38
-0.0212198862128 -0.153436100308 0.882 3.21424236553e-39
-0.0195431709757 -0.153088172643 0.88 2.75506488474e-40
-0.0178127860456 -0.15221835348 0.875 2.02038091548e-39
-0.0161564282782 -0.151870425815 0.873 2.75506488474e-40
-0.0145074732272 -0.15152249815 0.871 1.09579536053e-38
-0.0128955317575 -0.15152249815 0.871 1.48279896392e-38
-0.0112835902878 -0.15152249815 0.871 4.78262044835e-39
-0.0096716488181 -0.15152249815 0.871 4.87232316825e-39
-0.00805970734842 -0.15152249815 0.871 1.25140338928e-38
-0.00643296044618 -0.151174570485 0.869 1.26001170588e-38
-0.00482472033463 -0.151174570485 0.869 1.36106704528e-38
-0.00319797343239 -0.150304751322 0.864 1.6472309691e-38
-0.00159528535806 -0.149956823657 0.862 1.41677944924e-38
0.0 -0.149956823657 0.862 1.36063614601e-38
0.00159528535806 -0.149956823657 0.862 1.36024154036e-38
0.00319057071611 -0.149956823657 0.862 1.25832566357e-38
0.00478585607417 -0.149956823657 0.862 1.29488049583e-38
0.00638114143223 -0.149956823657 0.862 1.2765133966e-38
0.00797642679028 -0.149956823657 0.862 1.20304499967e-38
0.00957171214834 -0.149956823657 0.862 1.20304499967e-38
0.0111669975064 -0.149956823657 0.862 4.04076183095e-39
0.0127918937296 -0.150304751322 0.864 1.83216971614e-38
0.0143908804458 -0.150304751322 0.864 1.8884925257e-38
0.015989867162 -0.150304751322 0.864 2.57139389242e-39
0.0176499262875 -0.15082664282 0.867 1.41793958424e-38
0.0192544650409 -0.15082664282 0.867 1.71368236397e-38
0.0208590037943 -0.15082664282 0.867 1.84235841714e-38
0.0224635425477 -0.15082664282 0.867 1.48319146762e-38
0.0241236016732 -0.151174570485 0.869 2.47955839627e-39
0.0257910635149 -0.15152249815 0.871 7.53482948682e-39
0.027465928073 -0.151870425815 0.873 1.08469917864e-38
0.0291481953473 -0.15221835348 0.875 7.71418167727e-39
0.0308730282403 -0.152740244978 0.878 1.34194814943e-38
0.0324979244634 -0.152740244978 0.878 8.99987862348e-39
0.0341228206866 -0.152740244978 0.878 6.97949770801e-39
0.0358291467888 -0.153088172643 0.88 4.5917748079e-39
0.0376705724632 -0.153957991806 0.885 1.84123990071e-38
0.0393972560352 -0.154305919471 0.887 9.66496850581e-39
0.04103880837 -0.154305919471 0.887 1.53803576718e-38
0.0426803607048 -0.154305919471 0.887 1.37198470175e-38
-0.0279693127799 -0.153008593443 0.889 1.8882394512e-38
-0.0262648373568 -0.152664367136 0.887 6.06257767605e-39
-0.0245677646499 -0.152320140829 0.885 1.06791232369e-38
-0.0229299136732 -0.152320140829 0.885 1.14170596199e-38
-0.0212920626966 -0.152320140829 0.885 1.05866053084e-38
-0.0195431709757 -0.151459575062 0.88 5.41829707592e-39
-0.0178738584549 -0.151115348755 0.878 3.76525534248e-39
-0.0161934418596 -0.150599009294 0.875 1.03982806039e-38
-0.0145407854504 -0.150254782988 0.873 1.12370642335e-38
-0.0129251426226 -0.150254782988 0.873 1.64877996442e-38
-0.0113094997948 -0.150254782988 0.873 6.42848473106e-40
-0.00969385696694 -0.150254782988 0.873 5.70640263889e-39
-0.00805970734842 -0.149910556681 0.871 1.07612547412e-38
-0.00643296044618 -0.149566330374 0.869 1.31532824302e-38
-0.00482472033463 -0.149566330374 0.869 1.33362359577e-38
-0.00320907750681 -0.149222104067 0.867 1.39815955576e-38
-0.0016045387534 -0.149222104067 0.867 1.42585369757e-38
0.0 -0.148705764606 0.864 1.42535147221e-38
0.0015989867162 -0.148705764606 0.864 1.39787256984e-38
0.00319057071611 -0.148361538299 0.862 1.16666953361e-38
0.00478585607417 -0.148361538299 0.862 1.34086999039e-38
0.00638114143223 -0.148361538299 0.862 1.23059564852e-38
0.00797642679028 -0.148361538299 0.862 1.30417166517e-38
0.00957171214834 -0.148361538299 0.862 6.97949770801e-39
0.0111669975064 -0.148361538299 0.862 2.20405190779e-39
0.0127918937296 -0.148705764606 0.864 1.81492029256e-38
0.0143908804458 -0.148705764606 0.864 1.64871003963e-38
0.015989867162 -0.148705764606 0.864 3.85709083864e-39
0.0176499262875 -0.149222104067 0.867 2.20405190779e-39
0.0192544650409 -0.149222104067 0.867 1.0862520976e-38
0.0208590037943 -0.149222104067 0.867 5.69387362932e-39
0.0225153615616 -0.149566330374 0.869 3.12240686937e-39
0.0241236016732 -0.149566330374 0.869 8.91164446438e-39
0.0257910635149 -0.149910556681 0.871 9.82962668057e-39
0.027465928073 -0.150254782988 0.873 7.62234618111e-39
0.0291481953473 -0.150599009294 0.875 1.23210330553e-38
0.0308730282403 -0.151115348755 0.878 1.18593346386e-38
0.0325719516262 -0.151459575062 0.88 6.15297824259e-39
0.0342005492075 -0.151459575062 0.88 7.71454040968e-39
0.0359105766679 -0.151803801369 0.882 3.12240686937e-39
0.0377557037004 -0.152664367136 0.887 1.82363314602e-38
0.0394860886305 -0.153008593443 0.889 1.53768249983e-38
0.0411313423234 -0.153008593443 0.889 1.7127820297e-38
0.0427765960164 -0.153008593443 0.889 1.07691720775e-38
-0.0279693127799 -0.15136333975 0.889 1.80501101047e-38
-0.0262648373568 -0.151022814801 0.887 9.74604202977e-39
-0.0245677646499 -0.150682289853 0.885 1.14156344994e-38
-0.0229299136732 -0.150682289853 0.885 1.15085363837e-38
-0.0212920626966 -0.150682289853 0.885 1.14170624225e-38
-0.0195875872734 -0.150171502429 0.882 1.11397734824e-38
-0.0179145733944 -0.149830977481 0.88 1.18773567382e-38
-0.0162489622317 -0.149490452532 0.878 1.17848051785e-38
-0.0145740976737 -0.148979665109 0.875 1.31680955563e-38
-0.0129251426226 -0.14863914016 0.873 1.49226613634e-38
-0.0113094997948 -0.14863914016 0.873 1.65303893084e-39
-0.00969385696694 -0.14863914016 0.873 1.00255982708e-38
-0.00807821413911 -0.14863914016 0.873 1.14980911049e-38
-0.00644776587873 -0.148298615211 0.871 1.30582183424e-38
-0.00482472033463 -0.147958090262 0.869 1.27823531215e-38
-0.00321648022309 -0.147958090262 0.869 1.32411718699e-38
-0.0016045387534 -0.147617565313 0.867 1.56418301561e-38
0.0 -0.147617565313 0.867 1.39826717549e-38
0.0015989867162 -0.14710677789 0.864 1.42549496517e-38
0.00319797343239 -0.14710677789 0.864 1.45322498022e-38
0.00478585607417 -0.146766252941 0.862 1.22205781723e-38
0.00638114143223 -0.146766252941 0.862 1.29495224231e-38
0.00797642679028 -0.146766252941 0.862 1.16656191389e-38
0.00957171214834 -0.146766252941 0.862 3.67341984632e-39
0.0111929070134 -0.14710677789 0.864 1.54726555964e-38
0.0127918937296 -0.14710677789 0.864 1.81491608866e-38
0.0143908804458 -0.14710677789 0.864 1.02214157182e-38
0.016045387534 -0.147617565313 0.867 1.56120343469e-39
0.0176499262875 -0.147617565313 0.867 5.60375892767e-39
0.0192544650409 -0.147617565313 0.867 4.22443282327e-39
0.0209071214501 -0.147958090262 0.869 5.6938007618e-39
0.0225153615616 -0.147958090262 0.869 9.37260159422e-39
0.0241236016732 -0.147958090262 0.869 7.62234618111e-39
0.0258502852452 -0.14863914016 0.873 7.62234618111e-39
0.0275288511614 -0.148979665109 0.875 1.18554011938e-38
0.0292481320171 -0.149490452532 0.878 1.32404544051e-38
0.0309433540449 -0.149830977481 0.88 7.80601717343e-39
0.0325719516262 -0.149830977481 0.88 8.35703015038e-39
0.0342782777284 -0.150171502429 0.882 6.42848473106e-39
0.0360327214865 -0.150682289853 0.885 4.31698578424e-39
0.0378408349376 -0.15136333975 0.889 1.92540356803e-38
0.0394860886305 -0.15136333975 0.889 1.85125147758e-38
0.0409462744165 -0.150682289853 0.885 1.74980083188e-38
0.0425841253931 -0.150682289853 0.885 1.00226639518e-38
-0.0280322358683 -0.150054909648 0.891 1.89724391487e-38
-0.026324059087 -0.149718086057 0.889 7.89964633162e-39
-0.024623285022 -0.149381262467 0.887 1.07749496311e-38
-0.0229299136732 -0.149044438876 0.885 1.12312460422e-38
-0.0212920626966 -0.149044438876 0.885 1.17847659421e-38
-0.0195875872734 -0.14853920349 0.882 1.21560595884e-38
-0.0179552883339 -0.14853920349 0.882 1.21553519327e-38
-0.0162489622317 -0.147865556309 0.878 1.3167704594e-38
-0.0145740976737 -0.147360320923 0.875 1.63016777809e-38
-0.0129547534877 -0.147360320923 0.875 1.01019045774e-39
-0.0113354093017 -0.147360320923 0.875 1.46936793853e-39
-0.00971606511577 -0.147360320923 0.875 1.03964252847e-38
-0.00807821413911 -0.147023497332 0.873 1.22342100038e-38
-0.00644776587873 -0.146686673741 0.871 1.2597605932e-38
-0.00483582440905 -0.146686673741 0.871 1.25972471995e-38
-0.00321648022309 -0.146349850151 0.869 1.29663828462e-38
-0.00160824011154 -0.146349850151 0.869 1.49028385954e-38
0.0 -0.146349850151 0.869 1.47227367102e-38
0.0016045387534 -0.14601302656 0.867 1.3706806534e-38
0.00319797343239 -0.145507791174 0.864 1.47141271325e-38
0.00479696014859 -0.145507791174 0.864 1.36067201925e-38
0.00639594686478 -0.145507791174 0.864 1.33226041262e-38
0.00799493358098 -0.145507791174 0.864 1.00125802081e-38
0.00959392029717 -0.145507791174 0.864 1.92854541932e-39
0.0111929070134 -0.145507791174 0.864 1.86058874964e-38
0.0127918937296 -0.145507791174 0.864 1.740837146e-38
0.0143908804458 -0.145507791174 0.864 5.97935175766e-39
0.016045387534 -0.14601302656 0.867 2.29588740395e-39
0.0176499262875 -0.14601302656 0.867 4.5917748079e-39
0.0192988813385 -0.146349850151 0.869 4.86728129637e-39
0.0209071214501 -0.146349850151 0.869 4.13259732711e-39
0.0225153615616 -0.146349850151 0.869 5.96930725027e-39
0.0241791220453 -0.146686673741 0.871 6.61215572338e-39
0.0258502852452 -0.147023497332 0.873 1.09381210282e-38
0.0275288511614 -0.147360320923 0.875 1.19511701348e-38
0.0292481320171 -0.147865556309 0.878 8.81620763117e-39
0.0309433540449 -0.148202379899 0.88 8.35774761519e-39
0.0325719516262 -0.148202379899 0.88 7.25500419648e-39
0.0342782777284 -0.14853920349 0.882 2.8469003809e-39
0.0360327214865 -0.149044438876 0.885 1.69380592616e-38
0.0377557037004 -0.149381262467 0.887 1.85172147309e-38
0.0394860886305 -0.149718086057 0.889 1.8328475242e-38
0.0409462744165 -0.149044438876 0.885 1.47339162694e-38
0.0425841253931 -0.149044438876 0.885 1.51683398128e-38
-0.0281266205009 -0.148905637946 0.894 1.88740497796e-38
-0.0263832808172 -0.148405954597 0.891 5.23462328101e-39
-0.024623285022 -0.147739710132 0.887 1.25237953379e-38
-0.0229817326872 -0.147739710132 0.887 1.24308654277e-38
-0.0212920626966 -0.147406587899 0.885 6.16589821443e-39
-0.0195875872734 -0.14690690455 0.882 1.26167841027e-38
-0.0179552883339 -0.14690690455 0.882 1.27070795719e-38
-0.0162859758131 -0.146573782318 0.88 1.58392072487e-38
-0.0146240660085 -0.146240660085 0.878 9.11221371488e-39
-0.0129547534877 -0.145740976737 0.875 1.744874427e-39
-0.0113354093017 -0.145740976737 0.875 9.01214138634e-39
-0.00971606511577 -0.145740976737 0.875 1.10381961593e-38
-0.00807821413911 -0.145407854504 0.873 1.23253280351e-38
-0.00644776587873 -0.145074732272 0.871 1.29681765082e-38
-0.00483582440905 -0.145074732272 0.871 1.24160873341e-38
