# .PCD v0.7 - Point Cloud Data file format
VERSION 0.7
FIELDS x y z rgb
SIZE 4 4 4 4
TYPE F F F F
COUNT 1 1 1 1
WIDTH 844
HEIGHT 1
VIEWPOINT 0 0 0 1 0 0 0
POINTS 844
DATA ascii
0.026216719701 -0.0699112525359 0.787 2.34779598322e-38
0.0276732041288 -0.0699112525359 0.787 2.34851344804e-38
0.0291296885566 -0.0699112525359 0.787 2.34797534943e-38
0.0305861729845 -0.0699112525359 0.787 2.34761661702e-38
0.0320426574123 -0.0699112525359 0.787 2.34801122267e-38
0.0334991418401 -0.0699112525359 0.787 2.34837626092e-38
0.0349556262679 -0.0699112525359 0.787 2.34865806204e-38
0.0364121106958 -0.0699112525359 0.787 2.34837415897e-38
0.0378685951236 -0.0699112525359 0.787 2.34838354767e-38
0.0393250795514 -0.0699112525359 0.787 2.34780551205e-38
0.0407815639793 -0.0699112525359 0.787 2.34816494511e-38
0.0422380484071 -0.0699112525359 0.787 2.34856627699e-38
0.0436945328349 -0.0699112525359 0.787 2.22853063015e-38
0.0451510172628 -0.0699112525359 0.787 2.13640912897e-38
0.0466075016906 -0.0699112525359 0.787 1.98853836969e-38
0.0480639861184 -0.0699112525359 0.787 2.00693083243e-38
0.0495204705463 -0.0699112525359 0.787 1.89705375867e-38
0.0509769549741 -0.0699112525359 0.787 1.44501967706e-38
0.0524334394019 -0.0699112525359 0.787 1.96109716225e-38
-0.00293887836264 -0.069063641522 0.794 1.53613406503e-38
-0.00146573782318 -0.0688896776894 0.792 1.56368639543e-38
0.0 -0.0687157138569 0.79 1.58179971951e-38
0.00146203646504 -0.0687157138569 0.79 1.52655450847e-38
0.00292407293008 -0.0687157138569 0.79 1.34212667485e-38
0.00438610939512 -0.0687157138569 0.79 1.53541309697e-38
0.00584814586016 -0.0687157138569 0.79 1.85870890775e-38
0.00730092892985 -0.0686287319406 0.789 1.76744710318e-38
0.00876111471582 -0.0686287319406 0.789 1.99786359058e-38
0.0102213005018 -0.0686287319406 0.789 2.02569842276e-38
0.0116814862878 -0.0686287319406 0.789 2.11753644125e-38
0.0131416720737 -0.0686287319406 0.789 2.30145896664e-38
0.0145648442783 -0.0684547681081 0.787 2.34762656624e-38
0.0160213287061 -0.0684547681081 0.787 2.34758074378e-38
0.017477813134 -0.0684547681081 0.787 2.3476883635e-38
0.0189342975618 -0.0684547681081 0.787 2.34762082092e-38
0.0203389629757 -0.0682808042755 0.785 2.34726419046e-38
0.0217917460454 -0.0682808042755 0.785 2.3478747362e-38
0.0232445291151 -0.0682808042755 0.785 2.34826233535e-38
0.0246973121848 -0.0682808042755 0.785 2.34797857241e-38
0.026216719701 -0.0684547681081 0.787 2.34783185646e-38
0.0276732041288 -0.0684547681081 0.787 2.34783367815e-38
0.0291296885566 -0.0684547681081 0.787 2.34815695771e-38
0.0305084444635 -0.0682808042755 0.785 2.34790388321e-38
0.0319612275332 -0.0682808042755 0.785 2.34798081449e-38
0.0334140106029 -0.0682808042755 0.785 2.34737279109e-38
0.0348667936726 -0.0682808042755 0.785 2.34772521765e-38
0.0363195767423 -0.0682808042755 0.785 2.34859738582e-38
0.037772359812 -0.0682808042755 0.785 2.3481667668e-38
0.0392251428817 -0.0682808042755 0.785 2.34852886232e-38
0.0407815639793 -0.0684547681081 0.787 2.26490861854e-38
0.0422380484071 -0.0684547681081 0.787 2.1453377824e-38
0.0436945328349 -0.0684547681081 0.787 2.0625085716e-38
0.0451510172628 -0.0684547681081 0.787 1.84116254903e-38
0.0466075016906 -0.0684547681081 0.787 1.75733253087e-38
0.0480639861184 -0.0684547681081 0.787 2.09031145417e-38
0.0495204705463 -0.0684547681081 0.787 1.5472202977e-38
0.052142882788 -0.070020442601 0.805 1.64817208115e-38
0.0537659283321 -0.0701944064336 0.807 2.03549363915e-38
0.0553963765925 -0.0703683702661 0.809 2.34866955269e-38
0.0583907753272 -0.0703683702661 0.809 2.34806194967e-38
-0.00294628107892 -0.0677644648151 0.796 1.44440660898e-38
-0.00147314053946 -0.0677644648151 0.796 1.45380441713e-38
0.0 -0.0674239398663 0.792 1.42571384799e-38
0.00146573782318 -0.0674239398663 0.792 1.51729837159e-38
0.00293147564636 -0.0674239398663 0.792 1.49867735708e-38
0.00438610939512 -0.0672536773918 0.79 1.41552220426e-38
0.00584814586016 -0.0672536773918 0.79 1.26732984698e-38
0.0073101823252 -0.0672536773918 0.79 1.63668199426e-38
0.00876111471582 -0.0671685461546 0.789 1.72962956088e-38
0.0102213005018 -0.0671685461546 0.789 1.76694880145e-38
0.0116814862878 -0.0671685461546 0.789 1.96062828779e-38
0.0131416720737 -0.0671685461546 0.789 1.97045167028e-38
0.0145648442783 -0.0669982836802 0.787 2.13644262e-38
0.0160213287061 -0.0669982836802 0.787 2.1732145134e-38
0.017477813134 -0.0669982836802 0.787 2.23767858678e-38
0.0189342975618 -0.0669982836802 0.787 2.34838592988e-38
0.0203389629757 -0.0668280212058 0.785 2.34827606808e-38
0.0217917460454 -0.0668280212058 0.785 2.34788090191e-38
0.0232445291151 -0.0668280212058 0.785 2.34802201267e-38
0.0246973121848 -0.0668280212058 0.785 2.34837990429e-38
0.0261500952545 -0.0668280212058 0.785 2.34805536357e-38
0.0276028783241 -0.0668280212058 0.785 2.34755580067e-38
0.0290556613938 -0.0668280212058 0.785 2.34823837315e-38
0.0305084444635 -0.0668280212058 0.785 2.34831011963e-38
0.0319612275332 -0.0668280212058 0.785 2.34838536936e-38
0.0334140106029 -0.0668280212058 0.785 2.34874256034e-38
0.0348667936726 -0.0668280212058 0.785 2.32065633522e-38
0.0363195767423 -0.0668280212058 0.785 2.24690165301e-38
0.037772359812 -0.0668280212058 0.785 2.18232911913e-38
0.0392251428817 -0.0668280212058 0.785 2.16385271862e-38
0.0407815639793 -0.0669982836802 0.787 2.12704579276e-38
0.0422380484071 -0.0669982836802 0.787 1.73967518931e-38
0.0436945328349 -0.0669982836802 0.787 1.59173814861e-38
0.0451510172628 -0.0669982836802 0.787 1.58355246363e-38
0.0466075016906 -0.0669982836802 0.787 1.97017155072e-38
0.0480639861184 -0.0669982836802 0.787 2.06235358799e-38
0.0506530861369 -0.0685306459499 0.805 1.71267300868e-38
0.052142882788 -0.0685306459499 0.805 2.0633710708e-38
0.0537659283321 -0.0687009084243 0.807 2.10953180404e-38
0.0553963765925 -0.0688711708987 0.809 2.28406128569e-38
0.0568935759598 -0.0688711708987 0.809 2.32036528552e-38
0.0583907753272 -0.0688711708987 0.809 2.10827974386e-38
0.0 -0.0662913242756 0.796 1.50883480913e-38
0.00147314053946 -0.0662913242756 0.796 1.47112993122e-38
0.00293887836264 -0.0661247631593 0.794 1.50775636983e-38
0.00439721346954 -0.0659582020431 0.792 1.47998879998e-38
0.00584814586016 -0.0657916409268 0.79 1.47073168219e-38
0.0073101823252 -0.0657916409268 0.79 1.36906635757e-38
0.00876111471582 -0.0657083603687 0.789 1.40547923829e-38
0.0102213005018 -0.0657083603687 0.789 1.35938058258e-38
0.0116814862878 -0.0657083603687 0.789 1.84948233827e-38
0.0131416720737 -0.0657083603687 0.789 1.80385339781e-38
0.0145648442783 -0.0655417992524 0.787 1.72985026539e-38
0.0160213287061 -0.0655417992524 0.787 1.95129900313e-38
0.017477813134 -0.0655417992524 0.787 1.99793421603e-38
0.0189342975618 -0.0655417992524 0.787 1.98882367406e-38
0.0203389629757 -0.0653752381361 0.785 2.12704579276e-38
0.0217917460454 -0.0653752381361 0.785 2.28384646664e-38
0.0232445291151 -0.0653752381361 0.785 2.32065661548e-38
0.0246973121848 -0.0653752381361 0.785 2.34846033883e-38
0.0261500952545 -0.0653752381361 0.785 2.32072794157e-38
0.0276028783241 -0.0653752381361 0.785 2.32072850209e-38
0.0290556613938 -0.0653752381361 0.785 2.30225182132e-38
0.0304307159426 -0.0652086770199 0.783 2.26537581145e-38
0.0318797976542 -0.0652086770199 0.783 2.19158399484e-38
0.0333288793657 -0.0652086770199 0.783 2.16371076708e-38
0.0347779610773 -0.0652086770199 0.783 2.15456281045e-38
0.0362270427888 -0.0652086770199 0.783 2.09012424069e-38
0.037772359812 -0.0653752381361 0.785 1.98846199893e-38
0.0392251428817 -0.0653752381361 0.785 1.85953483307e-38
0.0407815639793 -0.0655417992524 0.787 1.17549463108e-38
0.0422380484071 -0.0655417992524 0.787 1.56428853338e-38
0.0436945328349 -0.0655417992524 0.787 1.70355854308e-38
0.0450362751604 -0.0653752381361 0.785 1.73153420575e-38
0.0464890582301 -0.0653752381361 0.785 2.34806110889e-38
0.0479418412998 -0.0653752381361 0.785 1.49878848005e-38
0.0506530861369 -0.0670408492988 0.805 2.0348539464e-38
0.052142882788 -0.0670408492988 0.805 2.10936000484e-38
0.0537659283321 -0.0672074104151 0.807 2.34885326291e-38
0.0553963765925 -0.0673739715314 0.809 2.3024320283e-38
0.0568935759598 -0.0673739715314 0.809 2.02566311004e-38
0.0583907753272 -0.0673739715314 0.809 2.34803070072e-38
0.0 -0.0651439032524 0.8 1.46262937447e-38
0.00148054325574 -0.0651439032524 0.8 1.4898217113e-38
0.00295368379519 -0.0649810434943 0.798 1.48949703045e-38
0.00440831754396 -0.064655323978 0.794 1.49850149412e-38
0.00586295129272 -0.0644924642199 0.792 1.47076867647e-38
0.0073101823252 -0.0643296044618 0.79 1.44282664496e-38
0.00876111471582 -0.0642481745827 0.789 1.49813981899e-38
0.0102213005018 -0.0642481745827 0.789 1.37835752691e-38
0.0116814862878 -0.0642481745827 0.789 1.43266961331e-38
0.0131416720737 -0.0642481745827 0.789 1.32243114468e-38
0.0145648442783 -0.0640853148246 0.787 1.46936849905e-38
0.0160213287061 -0.0640853148246 0.787 1.69042515348e-38
0.017477813134 -0.0640853148246 0.787 1.9409679302e-38
0.018886179906 -0.0639224550664 0.785 1.81297080614e-38
0.0203389629757 -0.0639224550664 0.785 1.82233484299e-38
0.0217917460454 -0.0639224550664 0.785 1.84052411745e-38
0.0232445291151 -0.0639224550664 0.785 1.99711249461e-38
0.0246973121848 -0.0639224550664 0.785 1.85874590203e-38
0.0261500952545 -0.0639224550664 0.785 1.99710969201e-38
0.0276028783241 -0.0639224550664 0.785 1.99732507158e-38
0.0290556613938 -0.0639224550664 0.785 2.02502229625e-38
0.0304307159426 -0.0637595953083 0.783 2.04356525844e-38
0.0318797976542 -0.0637595953083 0.783 1.9330351796e-38
0.0333288793657 -0.0637595953083 0.783 1.87764619533e-38
0.0347779610773 -0.0637595953083 0.783 1.53648677185e-38
0.0362270427888 -0.0637595953083 0.783 1.32318938727e-38
0.037772359812 -0.0639224550664 0.785 1.50757293986e-38
0.0392251428817 -0.0639224550664 0.785 1.76701914663e-38
0.0407815639793 -0.0640853148246 0.787 1.76852259976e-38
0.0422380484071 -0.0640853148246 0.787 1.43532423312e-38
0.0436945328349 -0.0640853148246 0.787 1.84119954331e-38
0.0450362751604 -0.0639224550664 0.785 1.58373533308e-38
0.0464890582301 -0.0639224550664 0.785 1.86878060033e-38
0.0479418412998 -0.0639224550664 0.785 2.34817419368e-38
0.0506530861369 -0.0655510526477 0.805 2.12736374738e-38
0.052142882788 -0.0655510526477 0.805 2.05393290526e-38
0.0538991772251 -0.065876772164 0.809 2.20108493855e-38
0.0553963765925 -0.065876772164 0.809 2.20072746732e-38
0.0568935759598 -0.065876772164 0.809 2.03498861119e-38
0.0583907753272 -0.065876772164 0.809 2.34892599031e-38
0.0598879746946 -0.065876772164 0.809 2.34936011257e-38
-0.0015009007255 -0.0645387311966 0.811 1.64791886651e-38
0.0 -0.0643795727966 0.809 1.27809181919e-38
0.00148424461388 -0.0638225183967 0.802 1.45330373319e-38
0.00296108651147 -0.0636633599967 0.8 1.45258346578e-38
0.00443052569279 -0.0635042015967 0.798 1.36017105505e-38
0.00587775672528 -0.0631858847967 0.794 1.47094636112e-38
0.0073286891159 -0.0630267263967 0.792 1.45229255622e-38
0.00877221879024 -0.0628675679967 0.79 1.39676049938e-38
0.0102342552553 -0.0628675679967 0.79 1.5074294469e-38
0.0116814862878 -0.0627879887967 0.789 1.26747333994e-38
0.0131416720737 -0.0627879887967 0.789 1.48830985039e-38
0.0145648442783 -0.0626288303967 0.787 1.53440724493e-38
0.0160213287061 -0.0626288303967 0.787 1.49713382682e-38
0.017477813134 -0.0626288303967 0.787 1.50613801023e-38
0.018886179906 -0.0624696719967 0.785 1.42345019045e-38
0.0203389629757 -0.0624696719967 0.785 1.52446923622e-38
0.0217917460454 -0.0624696719967 0.785 1.46018438891e-38
0.0232445291151 -0.0624696719967 0.785 1.46018438891e-38
0.0246973121848 -0.0624696719967 0.785 1.69052646736e-38
0.0261500952545 -0.0624696719967 0.785 1.41426664083e-38
0.0276028783241 -0.0624696719967 0.785 1.49691858738e-38
0.0290556613938 -0.0624696719967 0.785 1.55201988507e-38
0.0305084444635 -0.0624696719967 0.785 1.23059564852e-38
0.0319612275332 -0.0624696719967 0.785 1.57296985763e-38
0.0333288793657 -0.0623105135968 0.783 1.85788102062e-38
0.0347779610773 -0.0623105135968 0.783 1.95176591578e-38
0.0363195767423 -0.0624696719967 0.785 2.05368137218e-38
0.037772359812 -0.0624696719967 0.785 1.96101266396e-38
0.0392251428817 -0.0624696719967 0.785 1.0299253644e-38
0.0407815639793 -0.0626288303967 0.787 1.93426495913e-38
0.0422380484071 -0.0626288303967 0.787 1.28796144453e-38
0.0438055735791 -0.0627879887967 0.789 1.90544361283e-38
0.0453231304162 -0.0628675679967 0.79 1.9250658551e-38
0.0471404972627 -0.0633450431967 0.796 2.2569100069e-38
0.0489800722579 -0.0638225183967 0.802 2.11786056159e-38
0.0504643168718 -0.0638225183967 0.802 2.09977918711e-38
0.052142882788 -0.0640612559967 0.805 2.0999979298e-38
0.0538991772251 -0.0643795727966 0.809 2.24764966613e-38
0.0553963765925 -0.0643795727966 0.809 1.64791466262e-38
0.0570342275691 -0.0645387311966 0.811 2.34857188218e-38
0.0585351282946 -0.0645387311966 0.811 2.28409954114e-38
0.0600360290201 -0.0645387311966 0.811 2.34939570555e-38
-0.0015009007255 -0.0630378304711 0.811 2.26555573817e-38
0.0 -0.0628823734293 0.809 1.42586560861e-38
0.00148609529295 -0.0624160023037 0.803 1.33326486336e-38
0.00296848922775 -0.0623382737828 0.802 1.53566869381e-38
0.00444162976721 -0.0621828167409 0.8 1.4339625914e-38
0.00590736759039 -0.0620273596991 0.798 1.44310928686e-38
0.00736570269729 -0.0618719026572 0.796 1.43339030111e-38
0.00881663508791 -0.0617164456154 0.794 1.50703610242e-38
0.0102601647623 -0.0615609885735 0.792 1.47026476955e-38
0.0116962917203 -0.0614055315317 0.79 1.56274598404e-38
0.0131583281854 -0.0614055315317 0.79 1.57178604069e-38
0.0146018578597 -0.0613278030108 0.789 1.4978178006e-38
0.0160213287061 -0.0611723459689 0.787 1.61759616905e-38
0.017477813134 -0.0611723459689 0.787 1.55306020905e-38
0.0189342975618 -0.0611723459689 0.787 1.57146318152e-38
0.0203389629757 -0.0610168889271 0.785 1.51618251762e-38
0.0217917460454 -0.0610168889271 0.785 1.52522257428e-38
0.0232445291151 -0.0610168889271 0.785 1.59854747824e-38
0.0246973121848 -0.0610168889271 0.785 1.49745668599e-38
0.0261500952545 -0.0610168889271 0.785 1.58947238913e-38
0.0276028783241 -0.0610168889271 0.785 1.56224586061e-38
0.0290556613938 -0.0610168889271 0.785 1.64493424092e-38
0.0305084444635 -0.0610168889271 0.785 1.43302932662e-38
0.0319612275332 -0.0610168889271 0.785 2.15553194846e-38
0.0334140106029 -0.0610168889271 0.785 1.56353519533e-38
0.0348667936726 -0.0610168889271 0.785 1.96954895381e-38
0.0363195767423 -0.0610168889271 0.785 1.50886619821e-38
0.037772359812 -0.0610168889271 0.785 1.92371850663e-38
0.0393250795514 -0.0611723459689 0.787 1.05826060026e-38
0.0407815639793 -0.0611723459689 0.787 1.4443738186e-38
0.0423453877931 -0.0613278030108 0.789 1.80496995242e-38
0.0439721346954 -0.0615609885735 0.792 2.02623694176e-38
0.0454378725186 -0.0615609885735 0.792 1.99853999735e-38
0.0471404972627 -0.0618719026572 0.796 1.97013105319e-38
0.0489800722579 -0.0623382737828 0.802 2.04399307486e-38
0.0504643168718 -0.0623382737828 0.802 2.14595113073e-38
0.052142882788 -0.0625714593456 0.805 2.10953600793e-38
0.0540324261181 -0.0630378304711 0.811 1.80478974544e-38
0.0555333268436 -0.0630378304711 0.811 2.11814824816e-38
0.0570342275691 -0.0630378304711 0.811 2.34834935599e-38
0.0585351282946 -0.0630378304711 0.811 2.34863760308e-38
0.0600360290201 -0.0630378304711 0.811 2.34971716342e-38
-0.00150830344178 -0.0618404411131 0.815 2.21048779138e-38
0.0 -0.0615369297456 0.811 1.93343497005e-38
0.00148979665109 -0.0610816626945 0.805 1.11325609992e-38
0.00297219058589 -0.0609299070108 0.803 1.40637452788e-38
0.00445273384163 -0.0608540291689 0.802 1.50797146914e-38
0.0059369784555 -0.0608540291689 0.802 1.52597647285e-38
0.00740271627868 -0.0607022734852 0.8 1.57214869673e-38
0.00886105138558 -0.0605505178015 0.798 1.49763633245e-38
0.0103119837762 -0.0603987621178 0.796 1.52511495456e-38
0.0117259025854 -0.0600952507504 0.792 1.50689274958e-38
0.0131583281854 -0.0599434950666 0.79 1.47019302306e-38
0.0146018578597 -0.0598676172248 0.789 1.47955593888e-38
0.0160620436457 -0.0598676172248 0.789 1.50696309477e-38
0.0175222294316 -0.0598676172248 0.789 1.52525844752e-38
0.0189342975618 -0.0597158615411 0.787 1.55295343011e-38
0.0203907819896 -0.0597158615411 0.787 1.55309636255e-38
0.0217917460454 -0.0595641058574 0.785 1.58032387197e-38
0.0232445291151 -0.0595641058574 0.785 1.6262061672e-38
0.0246973121848 -0.0595641058574 0.785 1.55273734988e-38
0.0261500952545 -0.0595641058574 0.785 1.60805430741e-38
0.0276028783241 -0.0595641058574 0.785 1.55298874283e-38
0.0290556613938 -0.0595641058574 0.785 1.64493269949e-38
0.0305861729845 -0.0597158615411 0.787 1.16631080121e-38
0.0320426574123 -0.0597158615411 0.787 2.1553856529e-38
0.0334991418401 -0.0597158615411 0.787 1.84026796009e-38
0.0349556262679 -0.0597158615411 0.787 1.45254338865e-38
0.0364121106958 -0.0597158615411 0.787 1.93252748916e-38
0.0379648304352 -0.0598676172248 0.789 2.0907642137e-38
0.0394749845561 -0.0599434950666 0.79 1.83330560867e-38
0.0409370210211 -0.0599434950666 0.79 2.04471334227e-38
0.0425063968722 -0.0600952507504 0.792 1.9985810554e-38
0.0441942161837 -0.0603987621178 0.796 1.62919093293e-38
0.0457820988255 -0.0605505178015 0.798 2.14555400275e-38
0.0472589407231 -0.0605505178015 0.798 2.15469803575e-38
0.0489800722579 -0.0608540291689 0.802 2.22809748879e-38
0.0505272399602 -0.0609299070108 0.803 2.28406100543e-38
0.0522724303229 -0.0612334183782 0.807 1.65752504775e-38
0.0540324261181 -0.0615369297456 0.811 1.99811414275e-38
0.0556702770948 -0.0616886854293 0.813 2.34852760115e-38
0.0571748791784 -0.0616886854293 0.813 2.27452096549e-38
0.0586794812621 -0.0616886854293 0.813 2.34867529801e-38
0.0601840833457 -0.0616886854293 0.813 2.34957296981e-38
-0.0060776300648 -0.060776300648 0.821 2.35098197541e-38
-0.0045582225486 -0.060776300648 0.821 1.73979163721e-38
-0.00303141231612 -0.0606282463224 0.819 1.51837695102e-38
-0.00150830344178 -0.0603321376713 0.815 2.31211626185e-38
0.0 -0.0601840833457 0.813 1.21438514762e-38
0.00149349800922 -0.059739920369 0.807 2.22889356645e-38
0.00297959330217 -0.0595918660434 0.805 9.01530972217e-39
0.00445828587884 -0.0594438117178 0.803 1.16749461815e-38
0.0059369784555 -0.059369784555 0.802 1.45243717022e-38
0.00742122306938 -0.059369784555 0.802 1.44285761366e-38
0.00888325953442 -0.0592217302295 0.8 1.53419088445e-38
0.0103638027902 -0.0592217302295 0.8 1.58043233247e-38
0.0117851243157 -0.0589256215783 0.796 1.43288485275e-38
0.0132249526319 -0.0587775672528 0.794 1.32243114468e-38
0.0146203646504 -0.0584814586016 0.79 1.40508309122e-38
0.0160620436457 -0.0584074314388 0.789 1.48816551665e-38
0.0175222294316 -0.0584074314388 0.789 1.50638912292e-38
0.0189824152176 -0.0584074314388 0.789 1.59890705143e-38
0.0204426010036 -0.0584074314388 0.789 1.52518670104e-38
0.0218472664175 -0.0582593771132 0.787 1.5894023242e-38
0.0233037508453 -0.0582593771132 0.787 1.64457298617e-38
0.0247602352731 -0.0582593771132 0.787 1.56224586061e-38
0.026216719701 -0.0582593771132 0.787 1.55291685622e-38
0.0277435299334 -0.0584074314388 0.789 1.54369729323e-38
0.0292037157194 -0.0584074314388 0.789 1.62667336011e-38
0.0306639015054 -0.0584074314388 0.789 1.23059564852e-38
0.0321240872913 -0.0584074314388 0.789 2.23818179306e-38
0.0335842730773 -0.0584074314388 0.789 1.92431237692e-38
0.0350444588633 -0.0584074314388 0.789 2.05382626644e-38
0.036550911626 -0.0584814586016 0.79 1.9702367111e-38
0.0381091834027 -0.0586295129272 0.792 1.92420643875e-38
0.0396748578956 -0.0587775672528 0.794 1.81390042754e-38
0.0411442970769 -0.0587775672528 0.794 1.83227088988e-38
0.0427210756443 -0.0589256215783 0.796 1.90623842932e-38
0.0444162976721 -0.0592217302295 0.8 1.95194051757e-38
0.0458968409278 -0.0592217302295 0.8 2.04446601309e-38
0.0473773841836 -0.0592217302295 0.8 2.22892747787e-38
0.0490411446672 -0.0594438117178 0.803 2.04417061937e-38
0.0506530861369 -0.0595918660434 0.805 1.71202434762e-38
0.0524019778577 -0.0598879746946 0.809 1.96094624241e-38
0.0540324261181 -0.0600360290201 0.811 2.2196723219e-38
0.0556702770948 -0.0601840833457 0.813 2.17328485858e-38
0.0571748791784 -0.0601840833457 0.813 2.11775266161e-38
0.0586794812621 -0.0601840833457 0.813 2.34881865084e-38
0.0601840833457 -0.0601840833457 0.813 2.34942751503e-38
-0.0060776300648 -0.0592568931318 0.821 2.35047666719e-38
-0.0045582225486 -0.0592568931318 0.821 1.86896991576e-38
-0.00303141231612 -0.0591125401644 0.819 1.6842944727e-38
-0.00150830344178 -0.0588238342295 0.815 1.65706289951e-38
0.0 -0.0588238342295 0.815 1.77717281518e-38
0.00150460208364 -0.0586794812621 0.813 2.13655780674e-38
0.00298699601845 -0.0582464223598 0.807 2.10007402031e-38
0.00446938995326 -0.0581020693923 0.805 6.15728303147e-39
0.00594438117178 -0.0579577164249 0.803 1.35055744693e-38
0.00743047646473 -0.0579577164249 0.803 1.46133233261e-38
0.00890546768326 -0.0578855399412 0.802 1.48888340185e-38
0.0103638027902 -0.0577411869737 0.8 1.43335120488e-38
0.0118147351808 -0.0575968340063 0.798 1.43331589216e-38
0.0132582648551 -0.0574524810389 0.796 1.43310009219e-38
0.0146943918132 -0.0573081280714 0.794 1.46068661428e-38
0.0160824011154 -0.0570194221366 0.79 1.52497146159e-38
0.0175444375805 -0.0570194221366 0.79 1.51593140494e-38
0.0189824152176 -0.0569472456528 0.789 1.52518712143e-38
0.0204426010036 -0.0569472456528 0.789 1.56188502626e-38
0.0219027867896 -0.0569472456528 0.789 1.54369729323e-38
0.0233629725755 -0.0569472456528 0.789 1.55273734988e-38
0.0248231583615 -0.0569472456528 0.789 1.55284496961e-38
0.0262833441475 -0.0569472456528 0.789 1.54376903971e-38
0.0277786928358 -0.0570194221366 0.79 1.55316782877e-38
0.0292407293008 -0.0570194221366 0.79 1.62678027918e-38
0.0307027657658 -0.0570194221366 0.79 1.17549435082e-38
0.0321648022309 -0.0570194221366 0.79 2.33026994333e-38
0.0336268386959 -0.0570194221366 0.79 1.9518307959e-38
0.0351777077563 -0.057163775104 0.792 1.93422390108e-38
0.036735979533 -0.0573081280714 0.794 1.94290340364e-38
0.0383016540259 -0.0574524810389 0.796 1.75800445348e-38
0.0397747945654 -0.0574524810389 0.796 2.21030029764e-38
0.0413515731327 -0.0575968340063 0.798 1.54621486605e-38
0.0429357544164 -0.0577411869737 0.8 2.07176050458e-38
0.0445273384163 -0.0578855399412 0.802 2.0346693954e-38
0.0460115830302 -0.0578855399412 0.802 2.01680087816e-38
0.0475550493743 -0.0579577164249 0.803 1.9712466269e-38
0.0491632894858 -0.0581020693923 0.805 1.46316817373e-38
0.0507789323136 -0.0582464223598 0.807 2.0162325115e-38
0.0525315253926 -0.0585351282946 0.811 1.96127414625e-38
0.0541656750111 -0.0586794812621 0.813 2.20119760295e-38
0.0556702770948 -0.0586794812621 0.813 1.89691755246e-38
0.0571748791784 -0.0586794812621 0.813 2.3487118719e-38
0.0586794812621 -0.0586794812621 0.813 2.34907004379e-38
-0.0030388150324 -0.0577374856156 0.821 1.78574595918e-38
-0.00151200479992 -0.057456182397 0.817 1.46377956025e-38
0.0 -0.057456182397 0.817 1.23333126338e-38
0.00150830344178 -0.0573155307877 0.815 1.67531929617e-38
0.00300920416729 -0.0571748791784 0.813 2.21942597363e-38
0.00448049402767 -0.0567529243505 0.807 1.95248646345e-38
0.0059739920369 -0.0567529243505 0.807 7.53481547384e-39
0.00744898325543 -0.0566122727412 0.805 1.40641334385e-38
0.00891657175768 -0.0564716211319 0.803 1.44300236779e-38
0.0104026670506 -0.0564716211319 0.803 1.46122541354e-38
0.011873956911 -0.0564012953273 0.802 1.39672462614e-38
0.0133248893016 -0.056260643718 0.8 1.4336381908e-38
0.014768418976 -0.0561199921087 0.798 1.48859599554e-38
0.016204545934 -0.0559793404994 0.796 1.45189767031e-38
0.0175888538782 -0.0556980372808 0.792 1.57135752362e-38
0.0190064740455 -0.0555573856715 0.79 1.53462668827e-38
0.0204685105106 -0.0555573856715 0.79 1.59862034576e-38
0.0219305469756 -0.0555573856715 0.79 1.56228145359e-38
0.0233925834406 -0.0555573856715 0.79 1.58046764519e-38
0.0249175429941 -0.0556980372808 0.792 1.57121333001e-38
0.0263832808172 -0.0556980372808 0.792 1.58028799873e-38
0.0278490186404 -0.0556980372808 0.792 1.59901453102e-38
0.0293887836264 -0.0558386888901 0.794 1.67291592917e-38
0.0308582228077 -0.0558386888901 0.794 1.08365885466e-38
0.032327661989 -0.0558386888901 0.794 2.34892585018e-38
0.0337971011703 -0.0558386888901 0.794 1.92403646125e-38
0.0352665403517 -0.0558386888901 0.794 1.44508862095e-38
0.0368285134865 -0.0559793404994 0.796 2.30249943075e-38
0.0383016540259 -0.0559793404994 0.796 1.73056478747e-38
0.0398747312351 -0.0561199921087 0.798 2.20126094164e-38
0.0413515731327 -0.0561199921087 0.798 1.76755248083e-38
0.0429357544164 -0.056260643718 0.8 2.19193123659e-38
0.0445273384163 -0.0564012953273 0.802 2.33000846104e-38
0.0460115830302 -0.0564012953273 0.802 1.86913933274e-38
0.0475550493743 -0.0564716211319 0.803 1.6484112828e-38
0.0491632894858 -0.0566122727412 0.805 1.97052509832e-38
0.0507789323136 -0.0567529243505 0.807 2.20987444304e-38
0.0525315253926 -0.0570342275691 0.811 2.10006589278e-38
0.0541656750111 -0.0571748791784 0.813 1.94322836476e-38
0.0556702770948 -0.0571748791784 0.813 2.11811265518e-38
0.0571748791784 -0.0571748791784 0.813 2.34835187832e-38
0.0586794812621 -0.0571748791784 0.813 2.34913982845e-38
-0.0030388150324 -0.0562180780994 0.821 1.91478424801e-38
-0.0015194075162 -0.0562180780994 0.821 1.4633849546e-38
0.0 -0.0559441775971 0.817 1.38069811573e-38
0.00150830344178 -0.0558072273459 0.815 1.26066429058e-38
0.00300920416729 -0.0556702770948 0.813 1.79492026023e-38
0.00450270217651 -0.0555333268436 0.811 2.13637984183e-38
0.00598879746946 -0.0553963765925 0.809 1.93408335085e-38
0.00744898325543 -0.0551224760902 0.805 8.27165183754e-39
0.00893877990651 -0.0551224760902 0.805 1.38790022932e-38
0.0104026670506 -0.054985525839 0.803 1.45164964049e-38
0.0118887623436 -0.054985525839 0.803 1.51643419083e-38
0.0133582015249 -0.0549170507134 0.802 1.40587230251e-38
0.0148054325574 -0.0547801004623 0.8 1.66347902479e-38
0.0162452608736 -0.0546431502111 0.798 1.47937657268e-38
0.0176776864735 -0.05450619996 0.796 1.42427527498e-38
0.0190545917013 -0.0542322994576 0.792 1.56199264598e-38
0.0205203295245 -0.0542322994576 0.792 1.61720198379e-38
0.0219860673477 -0.0542322994576 0.792 1.55302657789e-38
0.0235110269011 -0.0543692497088 0.794 1.53444199713e-38
0.0250433891708 -0.05450619996 0.796 1.66308427902e-38
0.0265165297102 -0.05450619996 0.796 1.57128381532e-38
0.0279896702497 -0.05450619996 0.796 1.55284524987e-38
0.0294628107892 -0.05450619996 0.796 1.68188325843e-38
0.0309359513286 -0.05450619996 0.796 1.15712725159e-38
0.0324090918681 -0.05450619996 0.796 2.27488278075e-38
0.0338822324075 -0.05450619996 0.796 1.92456797376e-38
0.035355372947 -0.05450619996 0.796 1.91600099547e-38
0.0369210474399 -0.0546431502111 0.798 1.92456671259e-38
0.0383978893375 -0.0546431502111 0.798 1.99785630383e-38
0.0398747312351 -0.0546431502111 0.798 2.00787068331e-38
0.0415588491885 -0.0549170507134 0.802 1.79585983085e-38
0.0430430938024 -0.0549170507134 0.802 1.8322301121e-38
0.0445273384163 -0.0549170507134 0.802 1.82222372003e-38
0.0460115830302 -0.0549170507134 0.802 1.68411328481e-38
0.0475550493743 -0.054985525839 0.803 2.02631205136e-38
0.0491632894858 -0.0551224760902 0.805 1.84138087133e-38
0.0509047784904 -0.0553963765925 0.809 2.16374033448e-38
0.0525315253926 -0.0555333268436 0.811 1.95215883987e-38
0.0540324261181 -0.0555333268436 0.811 2.09941751198e-38
0.0581594404435 -0.0566289288529 0.827 2.34827648847e-38
-0.00304621774868 -0.0548319194762 0.823 2.1542391105e-38
-0.00152310887434 -0.0548319194762 0.823 2.02613604827e-38
0.0 -0.0544321727972 0.817 1.47317834931e-38
0.00151200479992 -0.0544321727972 0.817 1.34341979307e-38
0.00301660688356 -0.0542989239041 0.815 1.26948518415e-38
0.00451380625093 -0.0541656750111 0.813 1.67488643507e-38
0.00600360290201 -0.0540324261181 0.811 2.21009556794e-38
0.00746749004612 -0.0537659283321 0.807 1.79554383804e-38
0.00896098805535 -0.0537659283321 0.807 9.46945934407e-39
0.0104285765576 -0.0536326794391 0.805 1.37882892371e-38
0.0119183732087 -0.0536326794391 0.805 1.48881123498e-38
0.0134081698598 -0.0536326794391 0.805 1.46115296641e-38
0.0148609529295 -0.0534994305461 0.803 1.49770779867e-38
0.0163470482224 -0.0534994305461 0.803 1.56217299309e-38
0.0178109353665 -0.0534328060995 0.802 1.57171429421e-38
0.0192470623246 -0.0532995572065 0.8 1.49792303811e-38
0.0206757865664 -0.0531663083135 0.798 1.55277322312e-38
0.022152628464 -0.0531663083135 0.798 1.60791039406e-38
0.0236294703616 -0.0531663083135 0.798 1.58050323818e-38
0.0251063122592 -0.0531663083135 0.798 1.62652860598e-38
0.0265831541568 -0.0531663083135 0.798 1.60830808256e-38
0.0280599960544 -0.0531663083135 0.798 1.53469310982e-38
0.0295368379519 -0.0531663083135 0.798 1.65454658786e-38
0.0310136798495 -0.0531663083135 0.798 1.09284240428e-38
0.0324905217471 -0.0531663083135 0.798 2.31147194482e-38
0.0339673636447 -0.0531663083135 0.798 1.96083511944e-38
0.0354442055423 -0.0531663083135 0.798 1.92482553241e-38
0.0370135813934 -0.0532995572065 0.8 1.98914597271e-38
0.0384941246492 -0.0532995572065 0.8 1.80475485311e-38
0.0399746679049 -0.0532995572065 0.8 1.43690798064e-38
0.0415588491885 -0.0534328060995 0.802 1.69432903087e-38
0.0430967634954 -0.0534994305461 0.803 1.87758005404e-38
0.0445828587884 -0.0534994305461 0.803 1.97970780716e-38
0.0460689540813 -0.0534994305461 0.803 1.77684659289e-38
0.0476734928347 -0.0536326794391 0.805 1.83237458597e-38
0.0491632894858 -0.0536326794391 0.805 2.24679571485e-38
0.0510306246671 -0.0540324261181 0.811 1.7857399336e-38
0.0525315253926 -0.0540324261181 0.811 2.34805816617e-38
0.0 -0.053179263067 0.821 1.97103278876e-38
0.0015194075162 -0.053179263067 0.821 1.15945901224e-38
0.00303141231612 -0.0530497155321 0.819 1.42668270575e-38
0.00452491032535 -0.0527906204624 0.815 1.24153908887e-38
0.00601840833457 -0.0526610729275 0.813 1.34234079326e-38
0.00748599683682 -0.0524019778577 0.809 1.64690782967e-38
0.00898319620418 -0.0524019778577 0.809 1.74018890533e-38
0.0104544860646 -0.0522724303229 0.807 1.14005158902e-38
0.0119479840738 -0.0522724303229 0.807 1.43417783084e-38
0.013441482083 -0.0522724303229 0.807 1.49821002404e-38
0.0148979665109 -0.052142882788 0.805 1.47952006564e-38
0.0163877631619 -0.052142882788 0.805 1.48848837581e-38
0.0178331435154 -0.0520133352531 0.803 1.60783864758e-38
0.0193192388083 -0.0520133352531 0.803 1.47937965554e-38
0.0208053341012 -0.0520133352531 0.803 1.59901383037e-38
0.0222914293942 -0.0520133352531 0.803 1.54344618055e-38
0.0237775246871 -0.0520133352531 0.803 1.65404436249e-38
0.0252321584359 -0.0519485614857 0.802 1.54337443406e-38
0.0267164030498 -0.0519485614857 0.802 1.62609812709e-38
0.0282006476636 -0.0519485614857 0.802 1.61752442256e-38
0.0296848922775 -0.0519485614857 0.802 1.72848343886e-38
0.0311691368914 -0.0519485614857 0.802 1.09284240428e-38
0.0326533815053 -0.0519485614857 0.802 2.22860489896e-38
0.0341376261192 -0.0519485614857 0.802 1.99746548169e-38
0.035621870733 -0.0519485614857 0.802 1.47249185319e-38
0.0371061153469 -0.0519485614857 0.802 1.42606893702e-38
0.0385903599608 -0.0519485614857 0.802 1.61139009841e-38
0.0401245729095 -0.0520133352531 0.803 1.5014452018e-38
0.0416106682025 -0.0520133352531 0.803 2.06318259616e-38
0.0430967634954 -0.0520133352531 0.803 2.00761858971e-38
0.0445828587884 -0.0520133352531 0.803 1.73117687464e-38
0.0460689540813 -0.0520133352531 0.803 2.03517190103e-38
0.0476734928347 -0.052142882788 0.805 1.92478713684e-38
0.0492854343044 -0.0522724303229 0.807 2.00690336698e-38
0.0511564708438 -0.0526610729275 0.813 2.348563054e-38
0.0535679056716 -0.0535679056716 0.827 2.00704377708e-38
0.0550984172622 -0.0535679056716 0.827 2.16377718863e-38
0.0030388150324 -0.0516598555508 0.821 1.09456431983e-38
0.0045582225486 -0.0516598555508 0.821 1.38948607879e-38
0.00606282463224 -0.0515340093741 0.819 1.22356491373e-38
0.00752301041821 -0.0511564708438 0.813 6.42991966069e-39
0.00902761250186 -0.0511564708438 0.813 2.2101963213e-38
0.0105063050785 -0.0510306246671 0.811 1.35299836873e-38
0.012007205804 -0.0510306246671 0.811 1.32250289116e-38
0.0135081065295 -0.0510306246671 0.811 1.45189767031e-38
0.0149719936736 -0.0509047784904 0.809 1.51596727818e-38
0.016469193041 -0.0509047784904 0.809 1.58050323818e-38
0.0179219761107 -0.0507789323136 0.807 1.53462136334e-38
0.0194154741199 -0.0507789323136 0.807 1.57139157517e-38
0.0209089721291 -0.0507789323136 0.807 1.59904970361e-38
0.0224024701384 -0.0507789323136 0.807 1.65454658786e-38
0.0238367464174 -0.0506530861369 0.805 1.56210320843e-38
0.0253265430684 -0.0506530861369 0.805 1.75581786736e-38
0.026749715273 -0.0505272399602 0.803 1.52511495456e-38
0.028235810566 -0.0505272399602 0.803 1.7186897639e-38
0.0297219058589 -0.0505272399602 0.803 1.57146318152e-38
0.0312080011519 -0.0505272399602 0.803 1.17549435082e-38
0.0326940964448 -0.0505272399602 0.803 2.31164920908e-38
0.0341801917378 -0.0505272399602 0.803 1.73967322749e-38
0.0356662870307 -0.0505272399602 0.803 1.76733766177e-38
0.0371523823236 -0.0505272399602 0.803 1.86921121935e-38
0.0386384776166 -0.0505272399602 0.803 1.78692319002e-38
0.0402245095793 -0.0506530861369 0.805 1.87865793282e-38
0.0417143062304 -0.0506530861369 0.805 1.63836845696e-38
0.0432041028815 -0.0506530861369 0.805 1.94293871636e-38
0.0446938995326 -0.0506530861369 0.805 2.16449563435e-38
0.046298438286 -0.0507789323136 0.807 1.80478974544e-38
0.0477919362952 -0.0507789323136 0.807 2.21068859745e-38
0.0501404480346 -0.0516598555508 0.821 2.17364485215e-38
0.0516598555508 -0.0516598555508 0.821 1.79532285328e-38
0.0535679056716 -0.052037394081 0.827 2.29264143619e-38
0.0549651683692 -0.0519115479043 0.825 2.1453753372e-38
0.0564919786017 -0.0519115479043 0.825 2.20951725206e-38
0.00306842589751 -0.050629027309 0.829 1.39005977038e-38
0.00459153477185 -0.0505068824904 0.827 1.07655595301e-38
0.00609243549736 -0.0502625928532 0.823 1.12265727119e-38
0.007597037581 -0.0501404480346 0.821 1.03031534576e-38
0.00907202879953 -0.0498961583974 0.817 1.1037847236e-38
0.0105581240925 -0.0497740135788 0.815 2.25705476104e-38
0.0120664275343 -0.0497740135788 0.815 6.33772543212e-39
0.0135414187528 -0.0496518687602 0.813 1.55363684337e-38
0.0150460208364 -0.0496518687602 0.813 1.54405826772e-38
0.0165099079805 -0.0495297239416 0.811 1.55298846257e-38
0.0179663924084 -0.049407579123 0.809 1.47948503318e-38
0.0194635917757 -0.049407579123 0.809 1.55291671609e-38
0.0209607911431 -0.049407579123 0.809 1.59904970361e-38
0.0224579905105 -0.049407579123 0.809 1.56220788543e-38
0.0239551898778 -0.049407579123 0.809 1.57121206884e-38
0.0253894661568 -0.0492854343044 0.807 1.64464459252e-38
0.0268163397195 -0.0491632894858 0.805 1.69052660749e-38
0.0283061363706 -0.0491632894858 0.805 1.50675023753e-38
0.0297959330217 -0.0491632894858 0.805 1.72783477781e-38
0.0312857296728 -0.0491632894858 0.805 1.20304499967e-38
0.0327755263239 -0.0491632894858 0.805 2.34845767636e-38
0.034265322975 -0.0491632894858 0.805 1.59202135103e-38
0.035755119626 -0.0491632894858 0.805 1.89684146195e-38
0.0372449162771 -0.0491632894858 0.805 1.52802110744e-38
0.0387347129282 -0.0491632894858 0.805 1.85120803733e-38
0.0403244462491 -0.0492854343044 0.807 2.0720155409e-38
0.0418179442583 -0.0492854343044 0.807 2.0162325115e-38
0.0433114422675 -0.0492854343044 0.807 1.83230424079e-38
0.0450270217651 -0.0495297239416 0.811 1.7123815386e-38
0.0469868908999 -0.050018303216 0.819 2.21956288049e-38
0.0485025970579 -0.050018303216 0.819 1.93410997552e-38
0.0502625928532 -0.0502625928532 0.823 1.91549764906e-38
0.0519115479043 -0.0503847376718 0.825 2.01662487507e-38
0.0535679056716 -0.0505068824904 0.827 2.34835061716e-38
0.0549651683692 -0.0503847376718 0.825 2.05328634614e-38
0.0564919786017 -0.0503847376718 0.825 2.33877232176e-38
0.00307582861379 -0.0492132578207 0.831 2.08181496119e-38
0.00460263884627 -0.0490948143602 0.829 1.40839225754e-38
0.00612204636247 -0.0489763708998 0.827 8.9173701699e-39
0.0076155443717 -0.0487394839789 0.823 7.72171505782e-39
0.0091164450972 -0.0486210405184 0.821 6.3366492349e-39
0.0106099431064 -0.0485025970579 0.819 1.96210413533e-38
0.0120960383994 -0.0483841535975 0.817 1.39963694474e-38
0.013574730976 -0.048265710137 0.815 1.18503663284e-38
0.0150460208364 -0.0481472666766 0.813 1.42477750035e-38
0.0165506229201 -0.0481472666766 0.813 1.52543781372e-38
0.018010808706 -0.0480288232161 0.811 1.52540264113e-38
0.0195117094315 -0.0480288232161 0.811 1.59894236415e-38
0.021012610157 -0.0480288232161 0.811 1.56214034284e-38
0.0225135108825 -0.0480288232161 0.811 1.589616863e-38
0.0240144116081 -0.0480288232161 0.811 1.55295258933e-38
0.0255782354219 -0.0481472666766 0.813 1.62624162005e-38
0.0270828375056 -0.0481472666766 0.813 1.56199264598e-38
0.0285874395892 -0.0481472666766 0.813 1.60816360869e-38
0.0300920416729 -0.0481472666766 0.813 1.64504017908e-38
0.0315966437565 -0.0481472666766 0.813 1.16631080121e-38
0.0330198159611 -0.0480288232161 0.811 2.34846145986e-38
0.0345207166866 -0.0480288232161 0.811 2.17345511634e-38
0.0360216174121 -0.0480288232161 0.811 1.92499550992e-38
0.0375225181376 -0.0480288232161 0.811 2.02627225448e-38
0.0390234188631 -0.0480288232161 0.811 1.73074457407e-38
0.0406242562583 -0.0481472666766 0.813 1.84109360515e-38
0.0422324963699 -0.048265710137 0.815 1.81353580968e-38
0.0438481391977 -0.0483841535975 0.817 2.24722030828e-38
0.0453601439976 -0.0483841535975 0.817 2.00815963105e-38
0.0471016330022 -0.0486210405184 0.821 1.49100286578e-38
0.0487394839789 -0.0487394839789 0.823 2.09885208805e-38
0.0503847376718 -0.0488579274393 0.825 2.0259164648e-38
0.0519115479043 -0.0488579274393 0.825 2.14569721545e-38
0.0535679056716 -0.0489763708998 0.827 2.02587975078e-38
0.0550984172622 -0.0489763708998 0.827 2.28409813984e-38
0.0566289288529 -0.0489763708998 0.827 2.34874213995e-38
0.00308323133007 -0.0477900856161 0.833 1.69333102611e-38
0.00461374292069 -0.0476753435138 0.831 2.10911589865e-38
0.00613685179503 -0.0475606014115 0.829 1.70377504369e-38
0.00765255795309 -0.0474458593092 0.827 1.36253980997e-38
0.00913865324604 -0.0472163751045 0.823 1.54711309837e-38
0.0106358526134 -0.0471016330022 0.821 1.91557892437e-38
0.0121552601296 -0.0471016330022 0.821 2.06322743771e-38
0.0136080431993 -0.0468721487976 0.817 6.52032022722e-39
0.0150830344178 -0.0467574066952 0.815 1.38843902858e-38
0.0165506229201 -0.0466426645929 0.813 1.53472898306e-38
0.0180552250037 -0.0466426645929 0.813 1.51614664438e-38
0.0195598270874 -0.0466426645929 0.813 1.58028799873e-38
0.021064429171 -0.0466426645929 0.813 1.55248875954e-38
0.0225690312546 -0.0466426645929 0.813 1.59887201897e-38
0.0240736333383 -0.0466426645929 0.813 1.51625692657e-38
0.0255782354219 -0.0466426645929 0.813 1.60809158195e-38
0.0271494619521 -0.0467574066952 0.815 1.57124836247e-38
0.0287280911985 -0.0468721487976 0.817 1.57139143504e-38
0.0302400959984 -0.0468721487976 0.817 1.58993790048e-38
0.0316743722774 -0.0467574066952 0.815 1.25814629736e-38
0.0331826757192 -0.0467574066952 0.815 2.34824313756e-38
0.0346058479238 -0.0466426645929 0.813 2.03516587544e-38
0.0361104500074 -0.0466426645929 0.813 1.62964957792e-38
0.0376150520911 -0.0466426645929 0.813 1.6934680731e-38
0.0392158894863 -0.0467574066952 0.815 2.22838265303e-38
0.0408241295979 -0.0468721487976 0.817 2.21966685684e-38
0.0424397724257 -0.0469868908999 0.819 1.86053872329e-38
0.0440628179698 -0.0471016330022 0.821 1.75836767004e-38
0.0456932662302 -0.0472163751045 0.823 1.85106552528e-38
0.0473311172068 -0.0473311172068 0.825 2.13665771932e-38
0.0489763708998 -0.0474458593092 0.827 2.20112151244e-38
0.0505068824904 -0.0474458593092 0.827 2.00762209296e-38
0.052037394081 -0.0474458593092 0.827 1.9985059458e-38
0.0536974532065 -0.0475606014115 0.829 2.00783565084e-38
0.00461374292069 -0.0461374292069 0.831 1.98021998175e-38
0.00615165722759 -0.0461374292069 0.831 2.05400759446e-38
0.00767106474379 -0.0460263884627 0.829 1.97092614994e-38
0.00918306954371 -0.0459153477185 0.827 1.92482609293e-38
0.0106876716274 -0.0458043069744 0.825 2.14595085047e-38
0.0121848709947 -0.0456932662302 0.823 1.96210413533e-38
0.0136746676458 -0.045582225486 0.821 5.41829427332e-39
0.0151200479992 -0.0453601439976 0.817 1.35217608679e-38
0.0165913378596 -0.0452491032535 0.815 1.43349469784e-38
0.0180996413014 -0.0452491032535 0.815 1.51618307814e-38
0.0196079447432 -0.0452491032535 0.815 1.60812717493e-38
0.0211162481849 -0.0452491032535 0.815 1.54381065828e-38
0.0226245516267 -0.0452491032535 0.815 1.57135598219e-38
0.0241328550685 -0.0452491032535 0.815 1.53465751684e-38
0.0257040815987 -0.0453601439976 0.817 1.54369729323e-38
0.0272160863986 -0.0453601439976 0.817 1.58951050444e-38
0.0287280911985 -0.0453601439976 0.817 1.59865663939e-38
0.0303141231612 -0.0454711847418 0.819 1.54366141999e-38
0.0317521007983 -0.0453601439976 0.817 1.2765133966e-38
0.0332641055983 -0.0453601439976 0.817 2.34838522923e-38
0.0347761103982 -0.0453601439976 0.817 2.06289869309e-38
0.0361104500074 -0.0451380625093 0.813 2.23850002794e-38
0.0376150520911 -0.0451380625093 0.813 1.9618467168e-38
0.0394083601096 -0.0454711847418 0.819 1.77770755067e-38
0.0410240029374 -0.045582225486 0.821 1.71230152446e-38
0.0425434104536 -0.045582225486 0.821 1.97056405442e-38
0.0441701573558 -0.0456932662302 0.823 1.97063846337e-38
0.0458043069744 -0.0458043069744 0.825 1.979891097e-38
0.0473311172068 -0.0458043069744 0.825 2.14544568238e-38
0.0489763708998 -0.0459153477185 0.827 2.00779613423e-38
0.0505068824904 -0.0459153477185 0.827 1.83241158025e-38
0.052037394081 -0.0459153477185 0.827 2.15516887203e-38
0.0540860958111 -0.0463595106953 0.835 2.15530984266e-38
0.00463595106953 -0.0448141936721 0.835 9.19108299634e-39
0.00616646266014 -0.044706854286 0.833 1.57434397091e-38
0.00768957153448 -0.0445995149 0.831 1.85142748067e-38
0.00920527769254 -0.044492175514 0.829 1.96210105247e-38
0.0107135811343 -0.0443848361279 0.827 1.75938178974e-38
0.0122440927249 -0.0443848361279 0.827 4.87266228248e-39
0.0137079798691 -0.0441701573558 0.823 9.0949427113e-39
0.015194075162 -0.0440628179698 0.821 1.37932694518e-38
0.0167134826782 -0.0440628179698 0.821 1.57157304332e-38
0.0181884738967 -0.0439554785838 0.819 1.48860075995e-38
0.019656062399 -0.0438481391977 0.817 1.58958028911e-38
0.0211680671989 -0.0438481391977 0.817 1.58968748844e-38
0.0226800719988 -0.0438481391977 0.817 1.54355380027e-38
0.0241920767987 -0.0438481391977 0.817 1.57146318152e-38
0.025767004687 -0.0439554785838 0.819 1.60812661441e-38
0.0272827108451 -0.0439554785838 0.819 1.55284496961e-38
0.0287984170032 -0.0439554785838 0.819 1.61723743664e-38
0.0303141231612 -0.0439554785838 0.819 1.60844877293e-38
0.0318298293193 -0.0439554785838 0.819 1.23977919813e-38
0.0333455354773 -0.0439554785838 0.819 2.34817251212e-38
0.0348612416354 -0.0439554785838 0.819 1.41731586629e-38
0.0363769477935 -0.0439554785838 0.819 1.66553038561e-38
0.0378926539515 -0.0439554785838 0.819 1.91527260052e-38
0.0395045954212 -0.0440628179698 0.821 1.74104215596e-38
0.0412238762769 -0.0442774967419 0.825 1.99876056173e-38
0.0427506865094 -0.0442774967419 0.825 2.08112103819e-38
0.0443848361279 -0.0443848361279 0.827 1.94325919332e-38
0.0459153477185 -0.0443848361279 0.827 1.93389711828e-38
0.0474458593092 -0.0443848361279 0.827 2.09027067638e-38
0.0489763708998 -0.0443848361279 0.827 1.78620838767e-38
0.050629027309 -0.044492175514 0.829 1.95212198572e-38
0.0521632402577 -0.044492175514 0.829 2.21062848174e-38
0.0543451908809 -0.0450288724442 0.839 1.98928638281e-38
0.0584777572435 -0.0458339178395 0.854 2.34921269597e-38
0.060058237169 -0.0458339178395 0.854 2.23781927715e-38
0.00311284219519 -0.0435797907326 0.841 1.48156652192e-38
0.00463595106953 -0.0432688766489 0.835 1.50011901294e-38
0.0061812680927 -0.0432688766489 0.835 1.3623991196e-38
0.00770807832518 -0.043165238621 0.833 8.0815236619e-39
0.00922748584138 -0.0430616005931 0.831 8.9119891838e-39
0.0107394906413 -0.0429579625652 0.829 8.90804312733e-39
0.0122737035901 -0.0429579625652 0.829 1.05732817626e-38
0.0137412920923 -0.0427506865094 0.825 1.32415418127e-38
0.0152681023248 -0.0427506865094 0.825 1.43403321684e-38
0.0167949125573 -0.0427506865094 0.825 1.50692750179e-38
0.0181884738967 -0.0424397724257 0.819 1.58954329483e-38
0.0197041800548 -0.0424397724257 0.819 1.57146318152e-38
0.0212198862128 -0.0424397724257 0.819 1.61741680284e-38
0.0227355923709 -0.0424397724257 0.819 1.55302797919e-38
0.0243105202592 -0.0425434104536 0.821 1.63585564855e-38
0.0258299277754 -0.0425434104536 0.821 1.60808976026e-38
0.0272827108451 -0.0424397724257 0.819 1.61734505636e-38
0.0287984170032 -0.0424397724257 0.819 1.60816192713e-38
0.0303141231612 -0.0424397724257 0.819 1.61748854932e-38
0.0318298293193 -0.0424397724257 0.819 1.28569694621e-38
0.0333455354773 -0.0424397724257 0.819 2.34838663053e-38
0.0349463728726 -0.0425434104536 0.821 2.33942098282e-38
0.0364657803888 -0.0425434104536 0.821 2.0259164648e-38
0.037985187905 -0.0425434104536 0.821 1.9978172076e-38
0.0396970660444 -0.0427506865094 0.825 1.95219359207e-38
0.0413238129467 -0.0428543245373 0.827 2.00766118919e-38
0.0428543245373 -0.0428543245373 0.827 1.97056279325e-38
0.0443848361279 -0.0428543245373 0.827 1.93408068838e-38
0.0460263884627 -0.0429579625652 0.829 1.79571353529e-38
0.0475606014115 -0.0429579625652 0.829 2.17367582085e-38
0.0490948143602 -0.0429579625652 0.829 1.78620964884e-38
0.0507511721276 -0.0430616005931 0.831 1.98946785096e-38
0.0527924711414 -0.0434761527047 0.839 2.06336406431e-38
0.0546042859506 -0.0436834287605 0.843 2.1457340696e-38
0.056897277318 -0.044253437914 0.854 2.34871033047e-38
0.0584777572435 -0.044253437914 0.854 2.34888591317e-38
0.060058237169 -0.044253437914 0.854 2.25629497701e-38
0.0616387170945 -0.044253437914 0.854 2.34866997308e-38
0.00156752517201 -0.0423231796443 0.847 1.24189670024e-38
0.00311284219519 -0.042023369635 0.841 2.10002483473e-38
0.00465815921836 -0.0419234329653 0.839 1.33359486915e-38
0.00619607352526 -0.0418234962955 0.837 2.27504981553e-38
0.00772658511588 -0.0417235596257 0.835 7.07133320417e-39
0.00924969399022 -0.041623622956 0.833 1.35213558926e-38
0.0107913096553 -0.041623622956 0.833 1.27805664659e-38
0.0123329253203 -0.041623622956 0.833 1.36949795749e-38
0.0138079165388 -0.0414237496164 0.829 1.46147680649e-38
0.0153051159062 -0.0413238129467 0.827 1.46144345558e-38
0.0168356274968 -0.0413238129467 0.827 1.56235291982e-38
0.0183661390874 -0.0413238129467 0.827 1.53448025258e-38
0.019896650678 -0.0413238129467 0.827 1.58028799873e-38
0.0214271622687 -0.0413238129467 0.827 1.56188502626e-38
0.0229021534872 -0.0412238762769 0.825 1.55273734988e-38
0.0244289637197 -0.0412238762769 0.825 1.5617063607e-38
0.0258928508638 -0.0411239396072 0.823 1.60780277434e-38
0.0273493352916 -0.0410240029374 0.821 1.69102883286e-38
0.0288687428078 -0.0410240029374 0.821 1.51604182726e-38
0.030388150324 -0.0410240029374 0.821 1.59894264441e-38
0.0319075578402 -0.0410240029374 0.821 1.29488049583e-38
0.0334269653564 -0.0410240029374 0.821 2.34845795662e-38
0.0350315041098 -0.0411239396072 0.823 2.29331798309e-38
0.0365546129841 -0.0411239396072 0.823 2.14562687027e-38
0.038170255812 -0.0412238762769 0.825 2.14561888287e-38
0.0396970660444 -0.0412238762769 0.825 1.86932514492e-38
0.0414237496164 -0.0414237496164 0.829 1.98932589943e-38
0.0429579625652 -0.0414237496164 0.829 1.73085793911e-38
0.044492175514 -0.0414237496164 0.829 1.86918249273e-38
0.0460263884627 -0.0414237496164 0.829 1.65677899645e-38
0.0476753435138 -0.0415236862862 0.831 1.81393041532e-38
0.0492132578207 -0.0415236862862 0.831 2.00737055988e-38
0.0509954617648 -0.0417235596257 0.835 1.87004415116e-38
0.0530441634949 -0.0421233063048 0.843 2.01708828447e-38
0.0546042859506 -0.0421233063048 0.843 2.30218175639e-38
0.056897277318 -0.0426729579885 0.854 2.34806166941e-38
0.0584777572435 -0.0426729579885 0.854 2.06229361241e-38
0.060058237169 -0.0426729579885 0.854 2.34860299101e-38
0.0616387170945 -0.0426729579885 0.854 2.3489222068e-38
0.00156752517201 -0.0407556544723 0.847 1.35275019877e-38
0.00312024491147 -0.040563183849 0.843 1.95273631497e-38
