# .PCD v0.7 - Point Cloud Data file format
VERSION 0.7
FIELDS x y z rgb
SIZE 4 4 4 4
TYPE F F F F
COUNT 1 1 1 1
WIDTH 850
HEIGHT 1
VIEWPOINT 0 0 0 1 0 0 0
POINTS 850
DATA ascii
0.0159158399992 -0.0270569279986 0.86 2.1461265733e-38
0.0175074239991 -0.0270569279986 0.86 1.80482071414e-38
0.0190545917013 -0.0269940049102 0.858 1.83197773825e-38
0.0206424743431 -0.0269940049102 0.858 1.82290489121e-38
0.0222821759988 -0.0270569279986 0.86 2.03513630805e-38
0.0238737599988 -0.0270569279986 0.86 1.66628568549e-38
0.0254653439987 -0.0270569279986 0.86 1.73988804655e-38
0.0269940049102 -0.0269940049102 0.858 2.12714822768e-38
0.028581887552 -0.0269940049102 0.858 1.90609353506e-38
0.0301697701938 -0.0269940049102 0.858 2.28390784351e-38
0.0316836256728 -0.0269310818219 0.856 2.16401849222e-38
0.0332678069564 -0.0269310818219 0.856 2.0077598406e-38
0.0349334181191 -0.0269940049102 0.858 2.26580194631e-38
0.0365213007609 -0.0269940049102 0.858 1.36834889275e-38
0.038198015998 -0.0270569279986 0.86 1.81084910013e-38
0.0397895999979 -0.0270569279986 0.86 1.80176938673e-38
0.0413811839978 -0.0270569279986 0.86 1.94964070653e-38
0.0429727679978 -0.0270569279986 0.86 1.86684470651e-38
0.0445643519977 -0.0270569279986 0.86 2.22669058513e-38
0.0461559359976 -0.0270569279986 0.86 2.05220047996e-38
0.0477475199975 -0.0270569279986 0.86 5.05095228869e-39
0.0493391039974 -0.0270569279986 0.86 2.34893061459e-38
0.0511675749183 -0.0271827741753 0.864 2.34776473427e-38
0.0537437201832 -0.0276861588823 0.88 1.24099888832e-38
0.0553723177646 -0.0276861588823 0.88 1.83115405501e-38
0.0571304628807 -0.0277490819706 0.882 2.21747704773e-38
0.0587627618202 -0.0277490819706 0.882 2.3466540651e-38
0.0603950607596 -0.0277490819706 0.882 2.34762782741e-38
0.0620273596991 -0.0277490819706 0.882 2.34705763906e-38
0.0 -0.0263832808172 0.891 1.58251732446e-38
0.00164895505108 -0.0263832808172 0.891 1.23238931055e-38
0.00329050738588 -0.026324059087 0.889 1.93350237251e-38
0.00492465700439 -0.0262648373568 0.887 2.15520418475e-38
0.00655140390664 -0.0262056156265 0.885 1.98914415102e-38
0.00818925488329 -0.0262056156265 0.885 1.80471379506e-38
0.0097937936367 -0.0261167830312 0.882 1.53720633861e-38
0.0114260925761 -0.0261167830312 0.882 1.48192399316e-38
0.0130287806505 -0.026057561301 0.88 1.76798562218e-38
0.0146240660085 -0.0259983395707 0.878 1.92453714519e-38
0.0162489622317 -0.0259983395707 0.878 1.91577454563e-38
0.0177313561665 -0.0257910635149 0.871 2.24754232667e-38
0.0193432976362 -0.0257910635149 0.871 2.01673025272e-38
0.0209071214501 -0.0257318417847 0.869 2.00783018578e-38
0.0224635425477 -0.0256726200545 0.867 1.98971700183e-38
0.0240680813011 -0.0256726200545 0.867 2.08176969925e-38
0.0255837874591 -0.0255837874591 0.864 2.02612792074e-38
0.0271827741753 -0.0255837874591 0.864 2.06275071597e-38
0.0287817608915 -0.0255837874591 0.864 1.82279895304e-38
0.0303807476077 -0.0255837874591 0.864 2.00689734139e-38
0.0319797343239 -0.0255837874591 0.864 2.08972388972e-38
0.0335787210401 -0.0255837874591 0.864 1.73042255568e-38
0.0351777077563 -0.0255837874591 0.864 2.25633197129e-38
0.0367766944725 -0.0255837874591 0.864 1.37753244237e-38
0.0383756811887 -0.0255837874591 0.864 1.77400686156e-38
0.0399746679049 -0.0255837874591 0.864 1.81995768028e-38
0.0415736546211 -0.0255837874591 0.864 1.91215415092e-38
0.0431726413373 -0.0255837874591 0.864 1.92205432457e-38
0.0446679900256 -0.0255245657289 0.862 2.09758167086e-38
0.0462632753836 -0.0255245657289 0.862 2.01507167585e-38
0.0478585607417 -0.0255245657289 0.862 5.78563625795e-39
0.0494538460997 -0.0255245657289 0.862 2.34906892275e-38
0.0514636835694 -0.0257318417847 0.869 2.00664146429e-38
0.0540490822297 -0.0262056156265 0.885 1.51762305245e-38
0.0556869332064 -0.0262056156265 0.885 1.93200046081e-38
0.0573247841831 -0.0262056156265 0.885 2.09701358446e-38
0.0587627618202 -0.0261167830312 0.882 2.34802509552e-38
0.0603950607596 -0.0261167830312 0.882 2.34698070778e-38
0.0620273596991 -0.0261167830312 0.882 2.34748517522e-38
0.0 -0.0248176063243 0.894 1.70251555663e-38
0.00165450708829 -0.0248176063243 0.894 1.31518475006e-38
0.00329791010215 -0.0247343257662 0.891 1.05682595089e-38
0.00493576107881 -0.0246788053941 0.889 1.7575402033e-38
0.00656620933919 -0.024623285022 0.887 2.2007640412e-38
0.00820776167399 -0.024623285022 0.887 1.99810993885e-38
0.00982710585995 -0.0245677646499 0.885 1.90605822234e-38
0.0114649568366 -0.0245677646499 0.885 1.69418623856e-38
0.0130583915156 -0.0244844840917 0.882 1.49139719117e-38
0.0146573782318 -0.0244289637197 0.88 1.97967459639e-38
0.0162489622317 -0.0243734433476 0.878 1.70315384808e-38
0.0178127860456 -0.0242901627894 0.875 2.18300314369e-38
0.0193877139339 -0.0242346424173 0.873 1.69404582845e-38
0.0209552391059 -0.0241791220453 0.871 1.72141332759e-38
0.0225153615616 -0.0241236016732 0.869 1.86925676155e-38
0.0241236016732 -0.0241236016732 0.869 2.06318778096e-38
0.0256726200545 -0.0240680813011 0.867 2.16413255792e-38
0.0272771588079 -0.0240680813011 0.867 2.210339534e-38
0.0289483220078 -0.0241236016732 0.869 1.86924961493e-38
0.0305565621193 -0.0241236016732 0.869 1.86864313295e-38
0.0320907750681 -0.0240680813011 0.867 1.95187157368e-38
0.0336953138215 -0.0240680813011 0.867 2.34866506853e-38
0.0352998525749 -0.0240680813011 0.867 2.18268098517e-38
0.0369043913283 -0.0240680813011 0.867 1.30420753841e-38
0.0385089300817 -0.0240680813011 0.867 1.80159422442e-38
0.0401134688351 -0.0240680813011 0.867 1.77411195894e-38
0.0417180075885 -0.0240680813011 0.867 1.81070266444e-38
0.0434224830117 -0.0241236016732 0.869 1.96815045794e-38
0.0451343611511 -0.0241791220453 0.871 1.91286993418e-38
0.0467463026208 -0.0241791220453 0.871 2.04219590958e-38
0.0487468866951 -0.0243734433476 0.878 6.61215572338e-39
0.0506012671229 -0.0244844840917 0.882 2.34891758251e-38
0.0524112312531 -0.0245677646499 0.885 1.26930287522e-38
0.0541712270483 -0.024623285022 0.887 2.07036298962e-38
0.0558127793831 -0.024623285022 0.887 2.02386594476e-38
0.0574543317179 -0.024623285022 0.887 2.34611246325e-38
0.0590958840527 -0.024623285022 0.887 2.34669638432e-38
0.0607374363875 -0.024623285022 0.887 2.3473428033e-38
0.0623789887223 -0.024623285022 0.887 2.34795559112e-38
0.0 -0.02321491825 0.896 1.71152184199e-38
0.00165820844643 -0.02321491825 0.896 1.60102973834e-38
0.00330901417657 -0.023163099236 0.894 1.35202754915e-38
0.00494686515323 -0.0230853707151 0.891 1.13972872986e-38
0.00658101477175 -0.0230335517011 0.889 1.47955663953e-38
0.00820776167399 -0.0229817326872 0.887 2.14547637081e-38
0.00984931400879 -0.0229817326872 0.887 2.08162774772e-38
0.0114649568366 -0.0229299136732 0.885 2.1272934022e-38
0.0131028078133 -0.0229299136732 0.885 2.00762083179e-38
0.014690690455 -0.0228521851523 0.882 1.97973891599e-38
0.0162859758131 -0.0228003661383 0.88 1.78609278055e-38
0.0178738584549 -0.0227485471244 0.878 2.22903383642e-38
0.0194987546781 -0.0227485471244 0.878 1.98932617969e-38
0.0210514744175 -0.0226708186035 0.875 1.64783885237e-38
0.0226189995895 -0.0226189995895 0.873 2.09027095664e-38
0.0241791220453 -0.0225671805756 0.871 2.28420379774e-38
0.0257910635149 -0.0225671805756 0.871 2.1364721874e-38
0.0274030049846 -0.0225671805756 0.871 2.34862933542e-38
0.0290149464543 -0.0225671805756 0.871 1.47277589639e-38
0.030626887924 -0.0225671805756 0.871 2.09015689095e-38
0.0322388293937 -0.0225671805756 0.871 2.21952784803e-38
0.0337730423424 -0.0225153615616 0.869 2.24739729228e-38
0.035381282454 -0.0225153615616 0.869 2.13683316189e-38
0.0369895225655 -0.0225153615616 0.869 1.33172231401e-38
0.0385977626771 -0.0225153615616 0.869 1.70071699005e-38
0.0402060027886 -0.0225153615616 0.869 1.74648872283e-38
0.0418142429001 -0.0225153615616 0.869 1.773788259e-38
0.0435224196815 -0.0225671805756 0.871 1.8660906678e-38
0.0451343611511 -0.0225671805756 0.871 1.95871803772e-38
0.0469609813929 -0.0226708186035 0.875 1.88535571909e-38
0.0487468866951 -0.0227485471244 0.878 1.1759628049e-38
0.0504865250206 -0.0228003661383 0.88 1.56428993468e-38
0.0524112312531 -0.0229299136732 0.885 1.99656640859e-38
0.0541712270483 -0.0229817326872 0.887 2.13471369796e-38
0.0558127793831 -0.0229817326872 0.887 2.21729375789e-38
0.0575838792528 -0.0230335517011 0.889 2.34773867012e-38
0.0592291329458 -0.0230335517011 0.889 2.34740810381e-38
0.0608743866387 -0.0230335517011 0.889 2.34701447907e-38
0.0625196403316 -0.0230335517011 0.889 2.34791803632e-38
-0.00167671523712 -0.0217972980826 0.906 1.92392800075e-38
0.0 -0.0216048274593 0.898 1.66545527602e-38
0.00166190980456 -0.0216048274593 0.898 1.53649335796e-38
0.00331641689285 -0.0215567098035 0.896 1.35184972438e-38
0.00496352126486 -0.0215085921477 0.894 1.41599219976e-38
0.00659582020431 -0.021436415664 0.891 1.28709642299e-38
0.00822626846469 -0.0213882980082 0.889 1.0195892468e-38
0.00984931400879 -0.0213401803524 0.887 1.66523751424e-38
0.0114908663436 -0.0213401803524 0.887 2.21951579686e-38
0.0131028078133 -0.0212920626966 0.885 2.06293750906e-38
0.0147406587899 -0.0212920626966 0.885 2.24721610439e-38
0.0163229893945 -0.0212198862128 0.882 2.02626650916e-38
0.0179145733944 -0.021171768557 0.88 2.11864598938e-38
0.0194987546781 -0.0211236509012 0.878 2.03534538178e-38
0.0211236509012 -0.0211236509012 0.878 1.74003672431e-38
0.0226708186035 -0.0210514744175 0.875 1.74936292611e-38
0.0242346424173 -0.0210033567617 0.873 1.50011452878e-38
0.0258502852452 -0.0210033567617 0.873 2.26522685342e-38
0.027465928073 -0.0210033567617 0.873 2.3209745701e-38
0.0290815709008 -0.0210033567617 0.873 1.84170148842e-38
0.0306972137286 -0.0210033567617 0.873 1.78609698445e-38
0.0323128565565 -0.0210033567617 0.873 2.21027101051e-38
0.0338507708634 -0.0209552391059 0.871 2.15541255784e-38
0.035462712333 -0.0209552391059 0.871 2.21087889378e-38
0.0370746538027 -0.0209552391059 0.871 1.33165056753e-38
0.0386865952724 -0.0209552391059 0.871 1.69139036786e-38
0.0402985367421 -0.0209552391059 0.871 1.75553046104e-38
0.0419104782118 -0.0209552391059 0.871 1.78308125002e-38
0.0436223563512 -0.0210033567617 0.873 1.82017432102e-38
0.0453416372069 -0.0210514744175 0.875 2.01374828958e-38
0.047121990472 -0.0211236509012 0.878 1.91294294183e-38
0.0488579274393 -0.021171768557 0.88 1.88571711396e-38
0.0504865250206 -0.021171768557 0.88 1.97805553614e-38
0.0525296747135 -0.0213401803524 0.887 2.09786711536e-38
0.0542933718669 -0.0213882980082 0.889 2.16208329904e-38
0.0559386255599 -0.0213882980082 0.889 2.33765394546e-38
0.0577134267877 -0.021436415664 0.891 2.34798613943e-38
0.0593623818388 -0.021436415664 0.891 2.34715713125e-38
0.0613537125177 -0.0215567098035 0.896 2.34762852806e-38
0.0630119209642 -0.0215567098035 0.896 2.34845501389e-38
-0.00167671523712 -0.0201205828455 0.906 1.804469829e-38
0.0 -0.0201205828455 0.906 1.83130007031e-38
0.00166190980456 -0.0199429176548 0.898 1.49028554109e-38
0.00332381960913 -0.0199429176548 0.898 1.48110353291e-38
0.00497462533928 -0.0198985013571 0.896 1.37932918726e-38
0.00661802835314 -0.0198540850594 0.894 1.37957721709e-38
0.00824477525538 -0.0197874606129 0.891 1.32390208767e-38
0.00987152215763 -0.0197430443153 0.889 1.14798041599e-38
0.0114908663436 -0.0196986280176 0.887 1.17549435082e-38
0.0131324186784 -0.0196986280176 0.887 1.77397309026e-38
0.0147406587899 -0.0196542117199 0.885 2.09031145417e-38
0.0163785097666 -0.0196542117199 0.885 2.19215208123e-38
0.0179552883339 -0.0195875872734 0.882 2.21977377591e-38
0.0195875872734 -0.0195875872734 0.882 2.21948903206e-38
0.021171768557 -0.0195431709757 0.88 1.98914022738e-38
0.0227485471244 -0.0194987546781 0.878 2.10024161561e-38
0.0243734433476 -0.0194987546781 0.878 1.97106207589e-38
0.0259095069754 -0.0194321302315 0.875 2.1643864732e-38
0.0275288511614 -0.0194321302315 0.875 2.15498319999e-38
0.0291481953473 -0.0194321302315 0.875 2.03505601364e-38
0.0307675395333 -0.0194321302315 0.875 1.74893581034e-38
0.0323868837192 -0.0194321302315 0.875 2.05332109835e-38
0.0339284993843 -0.0193877139339 0.873 1.69383353174e-38
0.0355441422121 -0.0193877139339 0.873 2.25664642266e-38
0.0371597850399 -0.0193877139339 0.873 1.2765133966e-38
0.0387754278677 -0.0193877139339 0.873 1.79212004551e-38
0.0403910706956 -0.0193877139339 0.873 1.76499931503e-38
0.0420067135234 -0.0193877139339 0.873 1.75567227245e-38
0.0438721980256 -0.0194987546781 0.878 1.67241188211e-38
0.0454970942488 -0.0194987546781 0.878 2.01388926021e-38
0.047229329858 -0.0195431709757 0.88 1.99541482152e-38
0.0488579274393 -0.0195431709757 0.88 1.82060620121e-38
0.0508881223787 -0.0196986280176 0.887 2.12502722232e-38
0.052648118174 -0.0197430443153 0.889 2.18995526563e-38
0.0544155166855 -0.0197874606129 0.891 2.16244357288e-38
0.0560644717366 -0.0197874606129 0.891 2.34813425667e-38
0.05790774809 -0.0198540850594 0.894 2.34747914964e-38
0.0595622551783 -0.0198540850594 0.894 2.34744523822e-38
0.0612167622666 -0.0198540850594 0.894 2.34726881474e-38
0.0628712693549 -0.0198540850594 0.894 2.34809698213e-38
-0.006773485395 -0.0186270848362 0.915 2.34954073994e-38
-0.00506900997183 -0.0185863698967 0.913 2.34935899153e-38
-0.00337933998122 -0.0185863698967 0.913 2.34972094692e-38
-0.00168966999061 -0.0185863698967 0.913 1.97967697859e-38
0.0 -0.0184438676083 0.906 1.65609348124e-38
0.00166746184177 -0.0183420802595 0.901 1.4898888335e-38
0.00332381960913 -0.0182810078502 0.898 1.54549782163e-38
0.00497462533928 -0.0182402929107 0.896 1.4254988888e-38
0.00661802835314 -0.0181995779711 0.894 1.31489930556e-38
0.00824477525538 -0.0181385055618 0.891 1.45272415615e-38
0.00989373030646 -0.0181385055618 0.891 1.33254992089e-38
0.0115167758506 -0.0180977906223 0.889 1.34187682333e-38
0.0131324186784 -0.0180570756828 0.887 1.26793969207e-38
0.0147739710132 -0.0180570756828 0.887 1.13876015236e-38
0.016415523348 -0.0180570756828 0.887 1.442177003e-38
0.0180163607432 -0.0180163607432 0.885 1.88628968452e-38
0.0196542117199 -0.0180163607432 0.885 2.13665337529e-38
0.0212198862128 -0.0179552883339 0.882 1.67560319924e-38
0.0228003661383 -0.0179145733944 0.88 1.93394392165e-38
0.0244289637197 -0.0179145733944 0.88 2.34867137437e-38
0.026057561301 -0.0179145733944 0.88 2.29324357414e-38
0.0276232357939 -0.0178738584549 0.878 2.29342308047e-38
0.0292481320171 -0.0178738584549 0.878 2.06286015738e-38
0.0308730282403 -0.0178738584549 0.878 2.08104943184e-38
0.0324979244634 -0.0178738584549 0.878 2.18282559917e-38
0.0340062279052 -0.0178127860456 0.875 2.34906654054e-38
0.0356255720912 -0.0178127860456 0.875 2.32072401793e-38
0.0372449162771 -0.0178127860456 0.875 1.34079824391e-38
0.0388642604631 -0.0178127860456 0.875 1.74652739867e-38
0.0406224055793 -0.0178738584549 0.878 1.7281216236e-38
0.0422473018025 -0.0178738584549 0.878 1.75553046104e-38
0.0439721346954 -0.0179145733944 0.88 1.80177050777e-38
0.0456007322767 -0.0179145733944 0.88 1.76474820234e-38
0.047336669244 -0.0179552883339 0.882 2.05973876505e-38
0.0489689681835 -0.0179552883339 0.882 1.82078220429e-38
0.0508881223787 -0.0180570756828 0.887 1.89446864326e-38
0.052648118174 -0.0180977906223 0.889 2.18023319701e-38
0.0544155166855 -0.0181385055618 0.891 2.2269115699e-38
0.0562532410017 -0.0181995779711 0.894 2.34772900116e-38
0.05790774809 -0.0181995779711 0.894 2.34733411525e-38
0.0595622551783 -0.0181995779711 0.894 2.3470080331e-38
0.0612167622666 -0.0181995779711 0.894 2.34777440323e-38
0.0628712693549 -0.0181995779711 0.894 2.34867025334e-38
-0.006773485395 -0.0169337134875 0.915 2.34918004572e-38
-0.00506900997183 -0.0168966999061 0.913 2.34910815911e-38
-0.00337933998122 -0.0168966999061 0.913 2.3495410202e-38
-0.00168966999061 -0.0168966999061 0.913 1.99804169562e-38
0.0 -0.0168041659526 0.908 1.80371522978e-38
0.00167116319991 -0.0167116319991 0.903 1.64690951123e-38
0.00333492368355 -0.0166746184177 0.901 1.28735005801e-38
0.00498572941369 -0.0166190980456 0.898 1.43443146586e-38
0.0066328337857 -0.0165820844643 0.896 1.35170398934e-38
0.00827253544143 -0.0165450708829 0.894 1.51697200918e-38
0.00992704252972 -0.0165450708829 0.894 1.36956858294e-38
0.0115426853575 -0.0164895505108 0.891 1.36045790084e-38
0.0131620295435 -0.0164525369294 0.889 1.36960445618e-38
0.0148072832364 -0.0164525369294 0.889 1.36956858294e-38
0.0164525369294 -0.0164525369294 0.889 1.36013448116e-38
0.0180977906223 -0.0164525369294 0.889 1.19386145005e-38
0.0196986280176 -0.016415523348 0.887 1.09284240428e-38
0.0212920626966 -0.0163785097666 0.885 1.26790381883e-38
0.0229299136732 -0.0163785097666 0.885 1.24989545201e-38
0.0245677646499 -0.0163785097666 0.885 1.61903726439e-38
0.0261167830312 -0.0163229893945 0.882 1.914278099e-38
0.0276861588823 -0.0162859758131 0.88 2.08126298973e-38
0.0293147564636 -0.0162859758131 0.88 1.82333228724e-38
0.0309433540449 -0.0162859758131 0.88 1.88786796698e-38
0.0325719516262 -0.0162859758131 0.88 2.06325266108e-38
0.0342005492075 -0.0162859758131 0.88 2.21088407858e-38
0.0358291467888 -0.0162859758131 0.88 2.17356918204e-38
0.0374577443701 -0.0162859758131 0.88 1.35916534314e-38
0.0390863419515 -0.0162859758131 0.88 1.76489169531e-38
0.0407149395328 -0.0162859758131 0.88 1.77411350037e-38
0.0424397724257 -0.0163229893945 0.882 1.84829824107e-38
0.0440720713651 -0.0163229893945 0.882 1.73716546376e-38
0.0458598273464 -0.0163785097666 0.885 1.87527912196e-38
0.0474976783231 -0.0163785097666 0.885 1.82046172734e-38
0.0492465700439 -0.016415523348 0.887 1.91308923739e-38
0.0510028644811 -0.0164525369294 0.889 1.86681191612e-38
0.052648118174 -0.0164525369294 0.889 2.01442651804e-38
0.0545987339134 -0.0165450708829 0.894 2.3471953867e-38
0.0562532410017 -0.0165450708829 0.894 2.34719272423e-38
0.05790774809 -0.0165450708829 0.894 2.34737461278e-38
0.0596955040713 -0.0165820844643 0.896 2.34766468156e-38
0.0613537125177 -0.0165820844643 0.896 2.34787936048e-38
0.0630119209642 -0.0165820844643 0.896 2.34910031183e-38
-0.00679569354383 -0.0152903104736 0.918 2.34910787885e-38
-0.00508011404625 -0.0152403421387 0.915 2.34925193233e-38
-0.0033867426975 -0.0152403421387 0.915 2.34925389415e-38
-0.00169337134875 -0.0152403421387 0.915 2.13640884871e-38
0.0 -0.0152403421387 0.915 1.69326096118e-38
0.00168041659526 -0.0151237493574 0.908 1.4440414306e-38
0.00333492368355 -0.015007156576 0.901 1.53642147134e-38
0.00500238552532 -0.015007156576 0.901 1.29678444005e-38
0.00664763921826 -0.0149571882411 0.898 1.3699999026e-38
0.00829104223213 -0.0149238760178 0.896 1.47973530509e-38
0.00992704252972 -0.0148905637946 0.894 1.42474176724e-38
0.011581549618 -0.0148905637946 0.894 1.35130910343e-38
0.0131916404086 -0.0148405954597 0.891 1.40637452788e-38
0.0148072832364 -0.0148072832364 0.889 1.44300110662e-38
0.0164525369294 -0.0148072832364 0.889 1.41545129855e-38
0.0180977906223 -0.0148072832364 0.889 1.33261970555e-38
0.0197430443153 -0.0148072832364 0.889 1.31464665145e-38
0.0213401803524 -0.0147739710132 0.887 1.36960445618e-38
0.0229299136732 -0.0147406587899 0.885 1.30510436942e-38
0.0245677646499 -0.0147406587899 0.885 1.30478151026e-38
0.0262648373568 -0.0147739710132 0.887 1.05610820582e-38
0.0278434666032 -0.0147406587899 0.885 1.12957660274e-38
0.0294813175799 -0.0147406587899 0.885 1.23059564852e-38
0.0310136798495 -0.014690690455 0.882 1.26732984698e-38
0.032645978789 -0.014690690455 0.882 1.19386145005e-38
0.0342782777284 -0.014690690455 0.882 1.41473299296e-38
0.0360327214865 -0.0147406587899 0.885 1.14794370197e-38
0.0376705724632 -0.0147406587899 0.885 1.73669883137e-38
0.0393084234398 -0.0147406587899 0.885 1.89417885474e-38
0.0409462744165 -0.0147406587899 0.885 1.74667369423e-38
0.0425841253931 -0.0147406587899 0.885 1.72819351021e-38
0.0443219130396 -0.0147739710132 0.887 1.71876010908e-38
0.0459634653743 -0.0147739710132 0.887 1.81992264782e-38
0.0476050177091 -0.0147739710132 0.887 1.78376550406e-38
0.0492465700439 -0.0147739710132 0.887 1.9128756795e-38
0.0510028644811 -0.0148072832364 0.889 1.82078612793e-38
0.0527665616345 -0.0148405954597 0.891 2.05126777571e-38
0.054720878732 -0.0149238760178 0.896 2.34708650581e-38
0.0563790871785 -0.0149238760178 0.896 2.34765487247e-38
0.0580372956249 -0.0149238760178 0.896 2.34733537642e-38
0.0600286263038 -0.015007156576 0.901 2.34769999428e-38
0.0618330383968 -0.0150404687992 0.903 2.3489931125e-38
0.0635042015967 -0.0150404687992 0.903 2.32954995618e-38
-0.00679569354383 -0.0135913870877 0.918 2.3488203324e-38
-0.00509677015787 -0.0135913870877 0.918 2.34885634577e-38
-0.00339784677192 -0.0135913870877 0.918 2.34857202231e-38
-0.00169892338596 -0.0135913870877 0.918 2.21920414809e-38
0.0 -0.0135913870877 0.918 1.64698490109e-38
0.00169337134875 -0.01354697079 0.915 1.58244067343e-38
0.00336083319052 -0.0134433327621 0.908 1.47188425018e-38
0.00501348959974 -0.0133693055993 0.903 1.29678444005e-38
0.00666984736709 -0.0133396947342 0.901 1.3609619479e-38
0.00830954902282 -0.0132952784365 0.898 1.4710556624e-38
0.00994925067855 -0.0132656675714 0.896 1.3787528332e-38
0.011607459125 -0.0132656675714 0.896 1.35127337032e-38
0.0132360567063 -0.0132360567063 0.894 1.39726272475e-38
0.0148405954597 -0.0131916404086 0.891 1.42459813415e-38
0.0164895505108 -0.0131916404086 0.891 1.47087461464e-38
0.0181385055618 -0.0131916404086 0.891 1.4063389349e-38
0.0197874606129 -0.0131916404086 0.891 1.4061234152e-38
0.0213401803524 -0.0131324186784 0.887 1.4522572435e-38
0.0229817326872 -0.0131324186784 0.887 1.35077100482e-38
0.024623285022 -0.0131324186784 0.887 1.50753958896e-38
0.0262648373568 -0.0131324186784 0.887 1.37860863959e-38
0.0279063896916 -0.0131324186784 0.887 1.47987879805e-38
0.0294813175799 -0.0131028078133 0.885 1.48924171387e-38
0.0311191685565 -0.0131028078133 0.885 1.46158442621e-38
0.032831046696 -0.0131324186784 0.887 1.36942565049e-38
0.0344725990308 -0.0131324186784 0.887 1.46147582558e-38
0.0361955812446 -0.0131620295435 0.889 1.44325277983e-38
0.0377557037004 -0.0131324186784 0.887 1.73759748408e-38
0.0393972560352 -0.0131324186784 0.887 1.65407953508e-38
0.04103880837 -0.0131324186784 0.887 1.81067183587e-38
0.0426803607048 -0.0131324186784 0.887 1.6916046264e-38
0.0443219130396 -0.0131324186784 0.887 1.73759454135e-38
0.0459634653743 -0.0131324186784 0.887 1.87585141225e-38
0.0476050177091 -0.0131324186784 0.887 1.75610429277e-38
0.0493576107881 -0.0131620295435 0.889 1.87585323394e-38
0.0512897197369 -0.0132360567063 0.894 1.85741228628e-38
0.0529442268251 -0.0132360567063 0.894 1.96822626819e-38
0.054720878732 -0.0132656675714 0.896 2.34629182945e-38
0.0565049333552 -0.0132952784365 0.898 2.34759013248e-38
0.0581668431598 -0.0132952784365 0.898 2.34780495153e-38
0.0601618751969 -0.0133693055993 0.903 2.34838284702e-38
0.0618330383968 -0.0133693055993 0.903 2.34730440772e-38
0.0637151790106 -0.013413721897 0.906 2.34694343324e-38
0.0653918942478 -0.013413721897 0.906 2.34964962083e-38
-0.00679569354383 -0.0118924637017 0.918 2.34889039732e-38
-0.00509677015787 -0.0118924637017 0.918 2.34849593181e-38
-0.00342375627889 -0.0119831469761 0.925 2.34835257897e-38
-0.00170817678131 -0.0119572374691 0.923 2.28360039863e-38
0.0 -0.0119183732087 0.92 1.68407671092e-38
0.00169892338596 -0.0118924637017 0.918 1.54560726304e-38
0.00337933998122 -0.0118276899343 0.913 1.453121144e-38
0.0050523538602 -0.0117888256738 0.91 1.40713178957e-38
0.00668465279965 -0.0116981423994 0.903 1.33341087866e-38
0.00833730920887 -0.0116722328924 0.901 1.35124086019e-38
0.0100047710506 -0.0116722328924 0.901 1.41552220426e-38
0.011633368632 -0.011633368632 0.898 1.37846542689e-38
0.0132656675714 -0.011607459125 0.896 1.34194646787e-38
0.0149238760178 -0.011607459125 0.896 1.31421617256e-38
0.0165820844643 -0.011607459125 0.896 1.36960445618e-38
0.0182402929107 -0.011607459125 0.896 1.45226172765e-38
0.0198540850594 -0.011581549618 0.894 1.47977145859e-38
0.0213882980082 -0.0115167758506 0.889 1.41552220426e-38
0.0230335517011 -0.0115167758506 0.889 1.47101908851e-38
0.0246788053941 -0.0115167758506 0.889 1.56256956056e-38
0.026324059087 -0.0115167758506 0.889 1.58104203743e-38
0.0279693127799 -0.0115167758506 0.889 1.52583550223e-38
0.0296145664729 -0.0115167758506 0.889 1.55316824916e-38
0.0312598201658 -0.0115167758506 0.889 1.56267521846e-38
0.0329050738588 -0.0115167758506 0.889 1.54430839949e-38
0.0345503275517 -0.0115167758506 0.889 1.66412376222e-38
0.0362770111237 -0.0115426853575 0.891 1.56267423755e-38
0.0378408349376 -0.0115167758506 0.889 1.56242508669e-38
0.0394860886305 -0.0115167758506 0.889 1.7095752983e-38
0.0411313423234 -0.0115167758506 0.889 1.70957683972e-38
0.0427765960164 -0.0115167758506 0.889 1.7007876155e-38
0.0445217863791 -0.0115426853575 0.891 1.74674403941e-38
0.0461707414302 -0.0115426853575 0.891 1.72844812614e-38
0.0478196964812 -0.0115426853575 0.891 1.71940820962e-38
0.0496352126486 -0.011581549618 0.894 1.85734222136e-38
0.0512897197369 -0.011581549618 0.894 1.94946470344e-38
0.0530626702856 -0.011607459125 0.896 1.90358268847e-38
0.0548430235506 -0.011633368632 0.898 2.30916064313e-38
0.0566937026203 -0.0116722328924 0.901 2.34708748672e-38
0.0583611644621 -0.0116722328924 0.901 2.34758578845e-38
0.0603617485364 -0.0117370066599 0.906 2.2267669559e-38
0.0620384637735 -0.0117370066599 0.906 2.18992850083e-38
0.0637151790106 -0.0117370066599 0.906 2.34712462113e-38
-0.00679569354383 -0.0101935403157 0.918 2.34813705927e-38
-0.00509677015787 -0.0101935403157 0.918 2.34824299743e-38
-0.00342375627889 -0.0102712688367 0.925 2.34838901273e-38
-0.00170817678131 -0.0102490606878 0.923 2.26523063693e-38
0.0 -0.0102490606878 0.923 1.6655298251e-38
0.0017026247441 -0.0102157484646 0.92 1.59184520782e-38
0.00340524948819 -0.0102157484646 0.92 1.47170278203e-38
0.0050523538602 -0.0101047077204 0.91 1.44375794792e-38
0.00672166638105 -0.0100824995716 0.908 1.49878693862e-38
0.00838357618561 -0.0100602914227 0.906 1.38757989249e-38
0.0100269791995 -0.0100269791995 0.903 1.40626732855e-38
0.0116722328924 -0.0100047710506 0.901 1.40630390244e-38
0.0133396947342 -0.0100047710506 0.901 1.39719195918e-38
0.0149571882411 -0.00997145882739 0.898 1.46147680649e-38
0.0166190980456 -0.00997145882739 0.898 1.36978382238e-38
0.0182810078502 -0.00997145882739 0.898 1.4157735972e-38
0.0198985013571 -0.00994925067855 0.896 1.4064821476e-38
0.021436415664 -0.00989373030646 0.891 1.21280252114e-38
0.0230853707151 -0.00989373030646 0.891 1.45232941037e-38
0.0247343257662 -0.00989373030646 0.891 1.47026533006e-38
0.0264721134126 -0.00992704252972 0.894 1.35055576537e-38
0.0281266205009 -0.00992704252972 0.894 1.60880806586e-38
0.0296811909194 -0.00989373030646 0.891 1.51668474299e-38
0.0313301459705 -0.00989373030646 0.891 1.61849874539e-38
0.0329791010215 -0.00989373030646 0.891 1.42524693534e-38
0.0346280560726 -0.00989373030646 0.891 1.56245899811e-38
0.0363991559423 -0.00992704252972 0.894 1.51654405263e-38
0.0380536630306 -0.00992704252972 0.894 1.59041041832e-38
0.0397081701189 -0.00992704252972 0.894 1.66373083813e-38
0.0412238762769 -0.00989373030646 0.891 1.67302130682e-38
0.042872831328 -0.00989373030646 0.891 1.67313074823e-38
0.0446716913837 -0.00992704252972 0.894 1.76539868509e-38
0.046326198472 -0.00992704252972 0.894 1.63650388922e-38
0.0480880449463 -0.00994925067855 0.896 1.76532553731e-38
0.0497462533928 -0.00994925067855 0.896 1.79298226445e-38
0.0515192039415 -0.00997145882739 0.898 1.96787103903e-38
0.0533587789368 -0.0100047710506 0.901 1.92209398132e-38
0.0550262407785 -0.0100047710506 0.901 2.06034987131e-38
0.056819548797 -0.0100269791995 0.903 2.26310234482e-38
0.0586850332993 -0.0100602914227 0.906 2.16212701956e-38
0.0603617485364 -0.0100602914227 0.906 2.00521396155e-38
0.0621754140247 -0.0100824995716 0.908 2.19943645104e-38
0.0642074596432 -0.0101380199437 0.913 2.34723546384e-38
-0.00171187813945 -0.00855939069723 0.925 2.30229105767e-38
0.0 -0.00855939069723 0.925 1.67478680275e-38
0.00170817678131 -0.00854088390653 0.923 1.69289550255e-38
0.00341635356261 -0.00854088390653 0.923 1.3885842031e-38
0.00508011404625 -0.00846685674374 0.915 1.46158848997e-38
0.00672166638105 -0.00840208297631 0.908 1.54438056636e-38
0.00840208297631 -0.00840208297631 0.908 1.42477834113e-38
0.0100824995716 -0.00840208297631 0.908 1.32357908838e-38
0.0117370066599 -0.00838357618561 0.906 1.36042160721e-38
0.013413721897 -0.00838357618561 0.906 1.38797239619e-38
0.0150404687992 -0.00835581599956 0.903 1.43381811753e-38
0.0166746184177 -0.00833730920887 0.901 1.4246711418e-38
0.0183420802595 -0.00833730920887 0.901 1.47058874975e-38
0.0200095421013 -0.00833730920887 0.901 1.35113113852e-38
0.0216048274593 -0.00830954902282 0.898 1.36964088994e-38
0.0232667372639 -0.00830954902282 0.898 1.37846514663e-38
0.0248731266964 -0.00829104223213 0.896 1.65476561081e-38
0.0265313351428 -0.00829104223213 0.896 1.41570745591e-38
0.0281895435892 -0.00829104223213 0.896 1.28670391929e-38
0.0298477520357 -0.00829104223213 0.896 1.40637452788e-38
0.0315059604821 -0.00829104223213 0.896 1.3418780845e-38
0.0331641689285 -0.00829104223213 0.896 1.35106079334e-38
0.0348223773749 -0.00829104223213 0.896 1.52583297989e-38
0.0364805858214 -0.00829104223213 0.896 1.34194674813e-38
0.0381387942678 -0.00829104223213 0.896 1.59977067167e-38
0.0397970027142 -0.00829104223213 0.896 1.59926494305e-38
0.0414552111606 -0.00829104223213 0.896 1.70064272124e-38
0.0431134196071 -0.00829104223213 0.896 1.65479826107e-38
0.0447716280535 -0.00829104223213 0.896 1.68256456975e-38
0.0464298364999 -0.00829104223213 0.896 1.71000843965e-38
0.0480880449463 -0.00829104223213 0.896 1.79280528045e-38
0.0498572941369 -0.00830954902282 0.898 1.79294947407e-38
0.051691317095 -0.00833730920887 0.901 1.83897694382e-38
0.0534772223972 -0.00835581599956 0.903 1.99548488644e-38
0.0551483855971 -0.00835581599956 0.903 2.00496242847e-38
0.0570083180621 -0.00838357618561 0.906 2.07003816864e-38
0.0588145808341 -0.00840208297631 0.908 2.03283817856e-38
0.0604949974294 -0.00840208297631 0.908 2.14361278399e-38
0.0623123642758 -0.008420589767 0.91 2.29138236952e-38
0.0643481112525 -0.00846685674374 0.915 2.3476695861e-38
-0.001726683572 -0.00690673428801 0.933 2.28381661898e-38
0.0 -0.00690673428801 0.933 1.65642124495e-38
0.001726683572 -0.00690673428801 0.933 1.68374866695e-38
0.00342375627889 -0.00684751255778 0.925 1.56393540617e-38
0.00513563441834 -0.00684751255778 0.925 1.53598959116e-38
0.0067364718136 -0.0067364718136 0.91 1.46183904214e-38
0.008420589767 -0.0067364718136 0.91 1.42521568638e-38
0.0100824995716 -0.00672166638105 0.908 1.36989326379e-38
0.0117629161668 -0.00672166638105 0.908 1.43381811753e-38
0.0134433327621 -0.00672166638105 0.908 1.36006217416e-38
0.0150904371341 -0.00670686094849 0.906 1.37850101987e-38
0.0167671523712 -0.00670686094849 0.906 1.5163978972e-38
0.0184438676083 -0.00670686094849 0.906 1.47040826251e-38
0.020053958399 -0.00668465279965 0.903 1.44343452824e-38
0.0217251215989 -0.00668465279965 0.903 1.36949767724e-38
0.0233962847988 -0.00668465279965 0.903 1.49806765212e-38
0.0250674479987 -0.00668465279965 0.903 1.52533075452e-38
0.0267386111986 -0.00668465279965 0.903 1.52572479965e-38
0.0283468513102 -0.00666984736709 0.901 1.42470799595e-38
0.0299143764822 -0.00664763921826 0.898 1.39723273696e-38
0.0315762862867 -0.00664763921826 0.898 1.37879192943e-38
0.0333492368355 -0.00666984736709 0.901 1.39708686179e-38
0.0350166986772 -0.00666984736709 0.901 1.47998823946e-38
0.0365620157004 -0.00664763921826 0.898 1.3603135671e-38
0.038223925505 -0.00664763921826 0.898 1.5720762496e-38
0.0398858353096 -0.00664763921826 0.898 1.69139036786e-38
0.0415477451141 -0.00664763921826 0.898 1.60852360227e-38
0.0432096549187 -0.00664763921826 0.898 1.68220737877e-38
0.0448715647232 -0.00664763921826 0.898 1.70986648812e-38
0.0465334745278 -0.00664763921826 0.898 1.71933520197e-38
0.0481953843324 -0.00664763921826 0.898 1.73777474833e-38
0.0500238552532 -0.00666984736709 0.901 1.83908078003e-38
0.0518060591973 -0.00668465279965 0.903 1.77469013469e-38
0.0536548875879 -0.00670686094849 0.906 1.87628329244e-38
0.055331602825 -0.00670686094849 0.906 2.06996768332e-38
0.0571341642389 -0.00672166638105 0.908 1.97809323107e-38
0.0588145808341 -0.00672166638105 0.908 2.03323222369e-38
0.0606282463224 -0.0067364718136 0.91 2.19932518794e-38
0.0625177896526 -0.00675867996244 0.913 2.23588506488e-38
0.0643481112525 -0.006773485395 0.915 2.34759811988e-38
-0.001726683572 -0.00518005071601 0.933 2.21002536289e-38
0.0 -0.00518005071601 0.933 1.78560078466e-38
0.001726683572 -0.00518005071601 0.933 1.50886998172e-38
0.00345336714401 -0.00518005071601 0.933 1.63775959278e-38
0.00513563441834 -0.00513563441834 0.925 1.50815139587e-38
0.00684751255778 -0.00513563441834 0.925 1.40612789935e-38
0.00846685674374 -0.00508011404625 0.915 1.37882864345e-38
0.0101047077204 -0.0050523538602 0.91 1.38818777576e-38
0.0117888256738 -0.0050523538602 0.91 1.43410482319e-38
0.0134729436272 -0.0050523538602 0.91 1.40623103492e-38
0.0151237493574 -0.00504124978578 0.908 1.4798433452e-38
0.0168041659526 -0.00504124978578 0.908 1.44300418948e-38
0.0184845825479 -0.00504124978578 0.908 1.42445464119e-38
0.0201649991431 -0.00504124978578 0.908 1.31400093311e-38
0.0217972980826 -0.00503014571137 0.906 1.45186249772e-38
0.0234740133197 -0.00503014571137 0.906 1.47973852807e-38
0.0251507285568 -0.00503014571137 0.906 1.45204242444e-38
0.026827443794 -0.00503014571137 0.906 1.50717833421e-38
0.0284097743985 -0.00501348959974 0.903 1.4889188547e-38
0.0300143131519 -0.00500238552532 0.901 1.49821002404e-38
0.0316817749937 -0.00500238552532 0.901 1.46147680649e-38
0.0334232639983 -0.00501348959974 0.903 1.47987879805e-38
0.0350944271982 -0.00501348959974 0.903 1.49824589728e-38
0.036684160519 -0.00500238552532 0.901 1.46154757206e-38
0.0383516223608 -0.00500238552532 0.901 1.5994092768e-38
0.0400190842026 -0.00500238552532 0.901 1.65436932361e-38
0.0416865460443 -0.00500238552532 0.901 1.61778156083e-38
0.0433540078861 -0.00500238552532 0.901 1.66373237955e-38
0.0450214697279 -0.00500238552532 0.901 1.70972327541e-38
0.0466889315697 -0.00500238552532 0.901 1.71919325044e-38
0.0484637327975 -0.00501348959974 0.903 1.76536113029e-38
0.0503014571137 -0.00503014571137 0.906 1.78391011806e-38
0.0519781723508 -0.00503014571137 0.906 2.06096293939e-38
0.0537733310484 -0.00504124978578 0.908 1.66470151757e-38
0.0554537476436 -0.00504124978578 0.908 1.97788191526e-38
0.0571341642389 -0.00504124978578 0.908 1.95043566315e-38
0.058944128369 -0.0050523538602 0.91 1.97798911459e-38
0.0608281196619 -0.00506900997183 0.913 2.04234486761e-38
0.0626547399037 -0.00508011404625 0.915 2.34673421938e-38
0.0643481112525 -0.00508011404625 0.915 2.34716511865e-38
-0.001726683572 -0.00345336714401 0.933 2.11797196482e-38
0.0 -0.00345336714401 0.933 1.65688465435e-38
0.00173038493014 -0.00346076986028 0.935 1.67456791993e-38
0.00345336714401 -0.00345336714401 0.933 1.50850998814e-38
0.00515229052996 -0.00343486035331 0.928 1.56336017315e-38
0.00686972070662 -0.00343486035331 0.928 1.49871505201e-38
0.00858715088327 -0.00343486035331 0.928 1.37886199435e-38
0.0101935403157 -0.00339784677192 0.918 1.44328977411e-38
0.0118924637017 -0.00339784677192 0.918 1.29584907333e-38
0.0135173599249 -0.00337933998122 0.913 1.38779218921e-38
0.0151570615806 -0.0033682359068 0.91 1.37864451283e-38
0.016841179534 -0.0033682359068 0.91 1.44303768051e-38
0.0185252974874 -0.0033682359068 0.91 1.43385343025e-38
0.0202094154408 -0.0033682359068 0.91 1.35984693471e-38
0.0218454157384 -0.00336083319052 0.908 1.4611547881e-38
0.0235258323337 -0.00336083319052 0.908 1.44285761366e-38
0.0252062489289 -0.00336083319052 0.908 1.38786519686e-38
0.0268866655242 -0.00336083319052 0.908 1.42463905207e-38
0.0285041590311 -0.00335343047424 0.906 1.43374651118e-38
0.0301808742682 -0.00335343047424 0.906 1.58107973236e-38
0.0318575895053 -0.00335343047424 0.906 1.56235151852e-38
0.0335343047424 -0.00335343047424 0.906 1.61748910984e-38
0.0350944271982 -0.00334232639983 0.903 1.59919389722e-38
0.0367655903981 -0.00334232639983 0.903 1.58096987056e-38
0.038436753598 -0.00334232639983 0.903 1.66376615085e-38
0.0401079167979 -0.00334232639983 0.903 1.66380174383e-38
0.0417790799978 -0.00334232639983 0.903 1.6268155919e-38
0.0434502431977 -0.00334232639983 0.903 1.6452562593e-38
0.0451214063976 -0.00334232639983 0.903 1.69146169396e-38
0.0467925695976 -0.00334232639983 0.903 1.75628211754e-38
0.0486247418765 -0.00335343047424 0.906 1.73777474833e-38
0.0503014571137 -0.00335343047424 0.906 1.83036498384e-38
0.0520929144531 -0.00336083319052 0.908 1.59937592589e-38
0.0537733310484 -0.00336083319052 0.908 1.79356058033e-38
0.0554537476436 -0.00336083319052 0.908 1.88561425866e-38
0.0572600104156 -0.0033682359068 0.91 1.9319243703e-38
0.0591384496713 -0.00337933998122 0.913 2.07943948003e-38
0.060961368555 -0.0033867426975 0.915 2.16180079727e-38
0.0626547399037 -0.0033867426975 0.915 2.34662463784e-38
0.0645590886664 -0.00339784677192 0.918 2.34684197923e-38
0.0 -0.00173038493014 0.935 1.72156480796e-38
0.00173038493014 -0.00173038493014 0.935 1.58237088877e-38
0.00345336714401 -0.001726683572 0.933 1.61928767642e-38
0.00516339460438 -0.00172113153479 0.93 1.45312142426e-38
0.00688452613918 -0.00172113153479 0.93 1.46198099367e-38
0.00858715088327 -0.00171743017665 0.928 1.46172890008e-38
0.0103045810599 -0.00171743017665 0.928 1.41541626609e-38
0.0119831469761 -0.00171187813945 0.925 1.37864591413e-38
0.0135913870877 -0.00169892338596 0.918 1.41555849789e-38
0.0152403421387 -0.00169337134875 0.915 1.24092714183e-38
0.016841179534 -0.0016841179534 0.91 1.33297871822e-38
0.0185252974874 -0.0016841179534 0.91 1.37878814592e-38
0.0202094154408 -0.0016841179534 0.91 1.42485022774e-38
0.0218935333942 -0.0016841179534 0.91 1.37854053649e-38
0.0235776513476 -0.0016841179534 0.91 1.48888298146e-38
0.0252062489289 -0.00168041659526 0.908 1.53490890978e-38
0.0268866655242 -0.00168041659526 0.908 1.47987893818e-38
0.0285670821194 -0.00168041659526 0.908 1.50732308834e-38
0.0302474987147 -0.00168041659526 0.908 1.54398848305e-38
0.03192791531 -0.00168041659526 0.908 1.58986615399e-38
0.0336083319052 -0.00168041659526 0.908 1.62670867283e-38
0.0352110199796 -0.00167671523712 0.906 1.60845059462e-38
0.0368877352167 -0.00167671523712 0.906 1.58108127379e-38
0.0385644504538 -0.00167671523712 0.906 1.59933668954e-38
0.0402411656909 -0.00167671523712 0.906 1.5534548147e-38
0.041917880928 -0.00167671523712 0.906 1.64536205734e-38
0.0435945961652 -0.00167671523712 0.906 1.64536429941e-38
0.0452713114023 -0.00167671523712 0.906 1.64557869808e-38
0.0469480266394 -0.00167671523712 0.906 1.71944029935e-38
0.0487320812626 -0.00168041659526 0.908 1.7013261345e-38
0.0504124978578 -0.00168041659526 0.908 1.61838762242e-38
0.0522076565554 -0.0016841179534 0.91 1.8298614973e-38
0.0538917745088 -0.0016841179534 0.91 1.87675216691e-38
0.0555758924622 -0.0016841179534 0.91 1.86753246379e-38
0.0575746258575 -0.00169337134875 0.915 1.79331142946e-38
0.0592679972062 -0.00169337134875 0.915 2.15272304569e-38
0.0611612418945 -0.00169892338596 0.918 2.34562298969e-38
0.0628601652804 -0.00169892338596 0.918 2.34665995056e-38
0.00173038493014 0.0 0.935 1.63787337821e-38
0.00345336714401 0.0 0.933 1.47166494697e-38
0.00516339460438 0.0 0.93 1.46223294714e-38
0.00688452613918 0.0 0.93 1.48978219469e-38
0.00863341786002 0.0 0.933 1.47084084334e-38
0.010360101432 0.0 0.933 1.50760993414e-38
0.0119831469761 0.0 0.925 1.43385343025e-38
0.0136950251156 0.0 0.925 1.47044413575e-38
0.0153236226969 0.0 0.92 1.36024154036e-38
0.017026247441 0.0 0.92 1.32361552214e-38
0.0186881572455 0.0 0.918 1.40641040112e-38
0.020320456185 0.0 0.915 1.36042132695e-38
0.0219657098779 0.0 0.913 1.35120148371e-38
0.0236553798685 0.0 0.913 1.46165519178e-38
0.025261769301 0.0 0.91 1.46143995234e-38
0.0269458872544 0.0 0.91 1.51668474299e-38
0.0285670821194 0.0 0.908 1.58086295149e-38
0.0302474987147 0.0 0.908 1.54430839949e-38
0.0319982411146 0.0 0.91 1.57175016745e-38
0.033682359068 0.0 0.91 1.58075463112e-38
0.0353664770214 0.0 0.91 1.56235151852e-38
0.0370505949748 0.0 0.91 1.6454346446e-38
0.0387347129282 0.0 0.91 1.57167842097e-38
0.0404188308816 0.0 0.91 1.5441286129e-38
0.0422417497652 0.0 0.913 1.66373139865e-38
0.0439314197559 0.0 0.913 1.70050175061e-38
0.0456210897465 0.0 0.913 1.59973591947e-38
0.0471553026952 0.0 0.91 1.78419682373e-38
0.0488394206486 0.0 0.91 1.48916996739e-38
0.0508011404625 0.0 0.915 1.7750122932e-38
0.0526666249647 0.0 0.918 1.77504732567e-38
0.0544839918111 0.0 0.92 1.85820317914e-38
0.0563698337831 0.0 0.923 1.8582072429e-38
0.0580780105644 0.0 0.923 1.87635910269e-38
0.0599157348806 0.0 0.925 2.30884422994e-38
0.06162761302 0.0 0.925 2.34569235397e-38
0.0633394911595 0.0 0.925 2.34680386391e-38
0.00173038493014 0.00173038493014 0.935 1.68429475296e-38
0.00346076986028 0.00173038493014 0.935 1.61003476253e-38
0.00518005071601 0.001726683572 0.933 1.39791068516e-38
0.00690673428801 0.001726683572 0.933 1.42503463862e-38
0.00865192465071 0.00173038493014 0.935 1.47998823946e-38
0.0103823095809 0.00173038493014 0.935 1.50732308834e-38
0.0120220112366 0.00171743017665 0.928 1.56238823254e-38
0.0137394414132 0.00171743017665 0.928 1.58082609734e-38
0.015406903255 0.00171187813945 0.925 1.46115296641e-38
0.0171187813945 0.00171187813945 0.925 1.48881151524e-38
0.0187899445944 0.00170817678131 0.923 1.54423609249e-38
0.0204314969292 0.0017026247441 0.92 1.37828578042e-38
0.0220860040175 0.00169892338596 0.918 1.45193354355e-38
0.0237071988825 0.00169337134875 0.915 1.40608754196e-38
0.0254005702312 0.00169337134875 0.915 1.4061234152e-38
0.0270347198498 0.00168966999061 0.913 1.46151169882e-38
0.0286300052078 0.0016841179534 0.91 1.48931374061e-38
0.0303141231612 0.0016841179534 0.91 1.47065937519e-38
0.0319982411146 0.0016841179534 0.91 1.5900455202e-38
0.0337933998122 0.00168966999061 0.913 1.56235137839e-38
0.0354830698028 0.00168966999061 0.913 1.52540236087e-38
0.0371727397934 0.00168966999061 0.913 1.55298846257e-38
0.038862409784 0.00168966999061 0.913 1.68209793736e-38
0.04064091237 0.00169337134875 0.915 1.64543772745e-38
0.042473084649 0.00169892338596 0.918 1.72812190386e-38
0.0441720080349 0.00169892338596 0.918 1.6636945445e-38
0.0458709314209 0.00169892338596 0.918 1.64565128534e-38
0.0476734928347 0.0017026247441 0.92 1.57196666806e-38
0.0493761175788 0.0017026247441 0.92 1.78419149879e-38
0.0513563441834 0.00171187813945 0.925 1.76582776268e-38
0.0530682223228 0.00171187813945 0.925 1.87653538604e-38
0.0547801004623 0.00171187813945 0.925 1.59998731241e-38
0.0566751958296 0.00171743017665 0.928 1.87657224018e-38
0.0583926260063 0.00171743017665 0.928 2.14314867394e-38
0.0602396037178 0.00172113153479 0.93 2.34583150291e-38
0.0619607352526 0.00172113153479 0.93 2.34611848883e-38
0.0636818667874 0.00172113153479 0.93 2.34647736137e-38
0.00347927665098 0.00347927665098 0.94 1.63761918267e-38
0.00521891497647 0.00347927665098 0.94 1.49007086217e-38
0.00695855330196 0.00347927665098 0.94 1.44339949578e-38
0.00867968483676 0.0034718739347 0.938 1.40644837631e-38
0.0104156218041 0.0034718739347 0.938 1.51686480985e-38
0.012086785004 0.00345336714401 0.933 1.47952286824e-38
0.013813468576 0.00345336714401 0.933 1.52522271441e-38
0.0154901838131 0.00344226306959 0.93 1.58965217572e-38
0.0171743017665 0.00343486035331 0.928 1.58046764519e-38
0.0188917319432 0.00343486035331 0.928 1.56224375867e-38
0.0205425376733 0.00342375627889 0.925 1.56238725163e-38
0.022206298157 0.00341635356261 0.923 1.54387707982e-38
0.0238367464174 0.00340524948819 0.92 1.58075491138e-38
0.0254838507894 0.00339784677192 0.918 1.57139255608e-38
0.0271827741753 0.00339784677192 0.918 1.43400210802e-38
0.0287873129287 0.0033867426975 0.915 1.46122541354e-38
0.0304806842775 0.0033867426975 0.915 1.52576207419e-38
0.0321740556262 0.0033867426975 0.915 1.5346963328e-38
0.033867426975 0.0033867426975 0.915 1.61730918312e-38
0.0355607983237 0.0033867426975 0.915 1.59000992722e-38
0.0372541696725 0.0033867426975 0.915 1.60845059462e-38
0.0389475410212 0.0033867426975 0.915 1.62692503331e-38
0.040774161263 0.00339784677192 0.918 1.59944430926e-38
0.0425656186024 0.00340524948819 0.92 1.92194894693e-38
0.0442682433465 0.00340524948819 0.92 1.59973535895e-38
0.0459708680906 0.00340524948819 0.92 1.6733475291e-38
0.0478289498766 0.00341635356261 0.923 1.59051593609e-38
0.0496444660439 0.00342375627889 0.925 1.73838417303e-38
0.0515229052996 0.00343486035331 0.928 1.77479719389e-38
0.0532403354763 0.00343486035331 0.928 1.7934144249e-38
0.0552538743041 0.00345336714401 0.933 1.82993562599e-38
0.0571027026947 0.00346076986028 0.935 2.16162241198e-38
0.0588330876248 0.00346076986028 0.935 2.30852081025e-38
0.060563472555 0.00346076986028 0.935 2.34564961437e-38
0.0631599752897 0.0035088875161 0.948 2.34615562324e-38
0.00350148479982 0.00525222719973 0.946 1.50843838179e-38
0.00525222719973 0.00525222719973 0.946 1.54499419496e-38
0.00695855330196 0.00521891497647 0.94 1.45272639823e-38
0.00867968483676 0.00520781090205 0.938 1.39737034447e-38
0.0104156218041 0.00520781090205 0.938 1.37864451283e-38
0.012112694511 0.00519115479043 0.935 1.52536606724e-38
0.013813468576 0.00518005071601 0.933 1.59872684444e-38
0.015540152148 0.00518005071601 0.933 1.52529670297e-38
0.0172113153479 0.00516339460438 0.93 1.60823423414e-38
0.0189324468827 0.00516339460438 0.93 1.5158955317e-38
0.0206535784175 0.00516339460438 0.93 1.60783864758e-38
0.0223265922965 0.00515229052996 0.928 1.61749037101e-38
0.0240440224732 0.00515229052996 0.928 1.58979440751e-38
0.0256781720917 0.00513563441834 0.925 1.58983028075e-38
0.0273900502311 0.00513563441834 0.925 1.51618251762e-38
0.0289446206497 0.00510787423229 0.92 1.59901453102e-38
0.0306472453938 0.00510787423229 0.92 1.56224375867e-38
0.0323498701378 0.00510787423229 0.92 1.62688845942e-38
0.0339784677192 0.00509677015787 0.918 1.6453261841e-38
0.0356773911051 0.00509677015787 0.918 1.63599984217e-38
0.0373763144911 0.00509677015787 0.918 1.61770519007e-38
0.0391603691142 0.00510787423229 0.92 1.57167968213e-38
0.0408629938583 0.00510787423229 0.92 1.65483385405e-38
0.0427044195327 0.00512453034392 0.923 1.60873589899e-38
0.044412596314 0.00512453034392 0.923 1.66387559226e-38
0.0461207730953 0.00512453034392 0.923 1.68260212455e-38
0.0479325879045 0.00513563441834 0.925 1.67370472008e-38
0.049805475123 0.00515229052996 0.928 1.67352507361e-38
0.0516339460438 0.00516339460438 0.93 1.86663367096e-38
0.0533550775786 0.00516339460438 0.93 1.94024542072e-38
0.0553723177646 0.00519115479043 0.935 2.06031329742e-38
0.0571027026947 0.00519115479043 0.935 2.3175265351e-38
0.0588330876248 0.00519115479043 0.935 2.30801858489e-38
0.0614055315317 0.00526333127414 0.948 2.30848563766e-38
0.0631599752897 0.00526333127414 0.948 2.1614394024e-38
0.00353109566493 0.00706219132986 0.954 1.57304566788e-38
0.00527998738577 0.00703998318103 0.951 1.56314633501e-38
0.00700296959964 0.00700296959964 0.946 1.50782671501e-38
0.0087259518135 0.0069807614508 0.943 1.47080370893e-38
0.0104378299529 0.00695855330196 0.94 1.41530696481e-38
0.0121515587715 0.00694374786941 0.938 1.54366141999e-38
0.0138430794411 0.00692153972057 0.935 1.54344618055e-38
0.015540152148 0.00690673428801 0.933 1.53451374361e-38
0.01726683572 0.00690673428801 0.933 1.57128381532e-38
0.018993519292 0.00690673428801 0.933 1.56217201218e-38
0.020720202864 0.00690673428801 0.933 1.60805430741e-38
0.0223747099523 0.00688452613918 0.93 1.56203258299e-38
0.0240958414871 0.00688452613918 0.93 1.70900272774e-38
0.0257614526498 0.00686972070662 0.928 1.61741680284e-38
0.0274788828265 0.00686972070662 0.928 1.70064272124e-38
0.0291963130031 0.00686972070662 0.928 1.67312822589e-38
0.03081380651 0.00684751255778 0.925 1.65451127514e-38
0.0324553588448 0.00683270712523 0.923 1.57153899177e-38
0.0340524948819 0.00681049897639 0.92 1.62678055944e-38
0.035755119626 0.00681049897639 0.92 1.58990230749e-38
0.0375798891887 0.00683270712523 0.923 1.58086295149e-38
0.03928806597 0.00683270712523 0.923 1.63621508161e-38
0.0409962427514 0.00683270712523 0.923 1.60887897156e-38
