# .PCD v0.7 - Point Cloud Data file format
VERSION 0.7
FIELDS x y z rgb
SIZE 4 4 4 4
TYPE F F F F
COUNT 1 1 1 1
WIDTH 852
HEIGHT 1
VIEWPOINT 0 0 0 1 0 0 0
POINTS 852
DATA ascii
-0.0180163607432 -0.127752376179 0.885 1.59371033607e-38
-0.0163229893945 -0.127319317277 0.882 2.38772290011e-39
-0.0146573782318 -0.127030611342 0.88 1.63076515162e-38
-0.0130287806505 -0.127030611342 0.88 3.76525534248e-39
-0.0113742735622 -0.126741905407 0.878 9.65206955345e-39
-0.00974937733903 -0.126741905407 0.878 2.8469003809e-39
-0.00812448111586 -0.126741905407 0.878 7.34683969264e-39
-0.00647737674385 -0.126308846505 0.875 9.82639808891e-39
-0.00485803255789 -0.126308846505 0.875 1.06529175543e-38
-0.00323868837192 -0.126308846505 0.875 1.09284268454e-38
-0.00161934418596 -0.126308846505 0.875 1.08365885466e-38
0.0 -0.126308846505 0.875 1.06529175543e-38
0.00161934418596 -0.126308846505 0.875 1.20416127403e-38
0.00323868837192 -0.126308846505 0.875 1.71338963272e-38
0.00485803255789 -0.126308846505 0.875 1.70380433083e-38
0.00647737674385 -0.126308846505 0.875 1.18737259738e-38
0.00809672092981 -0.126308846505 0.875 1.1875848941e-38
0.00971606511577 -0.126308846505 0.875 1.36311840611e-38
0.0113742735622 -0.126741905407 0.878 1.37237300155e-38
0.0129991697854 -0.126741905407 0.878 1.19720284624e-38
0.0146240660085 -0.126741905407 0.878 1.45535089012e-38
0.0162489622317 -0.126741905407 0.878 1.46442023391e-38
0.0178738584549 -0.126741905407 0.878 1.53785443915e-38
0.0194987546781 -0.126741905407 0.878 1.5751317809e-38
0.021171768557 -0.127030611342 0.88 1.38126662252e-38
0.0228003661383 -0.127030611342 0.88 1.34384746937e-38
0.0244289637197 -0.127030611342 0.88 1.61179255133e-38
0.0262648373568 -0.128041082114 0.887 1.38094040024e-38
0.0279693127799 -0.128329788049 0.889 1.75004087431e-38
0.0296145664729 -0.128329788049 0.889 1.93428990224e-38
0.0313301459705 -0.128618493984 0.891 1.27063214694e-38
0.0329791010215 -0.128618493984 0.891 6.44426895696e-39
0.0346280560726 -0.128618493984 0.891 1.4268975248e-38
-0.0331641689285 -0.127682050375 0.896 1.50018305228e-38
-0.0314356346774 -0.127397045798 0.894 7.62736843481e-39
-0.0297811275891 -0.127397045798 0.894 1.01019045774e-39
-0.0279693127799 -0.126684534356 0.889 9.76218498808e-39
-0.0262648373568 -0.126399529779 0.887 1.35199770149e-38
-0.024623285022 -0.126399529779 0.887 6.71654685377e-39
-0.0229817326872 -0.126399529779 0.887 1.51823570013e-38
-0.0213401803524 -0.126399529779 0.887 1.19676718255e-38
-0.0196542117199 -0.126114525203 0.885 1.22453307084e-38
-0.0180163607432 -0.126114525203 0.885 1.52859563981e-38
-0.0163229893945 -0.125687018338 0.882 3.12240686937e-39
-0.0146573782318 -0.125402013761 0.88 1.64027310183e-38
-0.0130287806505 -0.125402013761 0.88 1.92854541932e-39
-0.0113742735622 -0.125117009184 0.878 0.0
-0.00974937733903 -0.125117009184 0.878 4.40810381558e-39
-0.00812448111586 -0.125117009184 0.878 7.98968816575e-39
-0.00649958489268 -0.125117009184 0.878 9.82639808891e-39
-0.00487468866951 -0.125117009184 0.878 1.01937400735e-38
-0.00324979244634 -0.125117009184 0.878 1.07447530505e-38
-0.00162489622317 -0.125117009184 0.878 1.08365885466e-38
0.0 -0.125117009184 0.878 1.05610820582e-38
0.00162489622317 -0.125117009184 0.878 1.37014914089e-38
0.00324979244634 -0.125117009184 0.878 1.69502267361e-38
0.00487468866951 -0.125117009184 0.878 1.71292061812e-38
0.00649958489268 -0.125117009184 0.878 1.27049271774e-38
0.00812448111586 -0.125117009184 0.878 1.54751344934e-38
0.00974937733903 -0.125117009184 0.878 1.50165777878e-38
0.0113742735622 -0.125117009184 0.878 1.37248412452e-38
0.0129991697854 -0.125117009184 0.878 1.36329763218e-38
0.0146240660085 -0.125117009184 0.878 1.04954340277e-38
0.0162489622317 -0.125117009184 0.878 1.27020447065e-38
0.0179145733944 -0.125402013761 0.88 1.20577416856e-38
0.0195431709757 -0.125402013761 0.88 1.21513652386e-38
0.021171768557 -0.125402013761 0.88 1.65778442809e-38
0.0228521851523 -0.125687018338 0.882 1.51033517939e-38
0.0245677646499 -0.126114525203 0.885 1.93414346655e-38
0.0262056156265 -0.126114525203 0.885 1.68479123301e-38
0.0279693127799 -0.126684534356 0.889 1.97092040462e-38
0.0296145664729 -0.126684534356 0.889 8.37604296794e-39
0.0313301459705 -0.126969538933 0.891 9.57492667169e-39
0.0329791010215 -0.126969538933 0.891 1.43651743876e-38
0.0346280560726 -0.126969538933 0.891 1.67542467381e-38
0.0364805858214 -0.127682050375 0.896 2.09941541003e-38
-0.0331641689285 -0.126023841928 0.896 1.46348472706e-38
-0.0315059604821 -0.126023841928 0.896 7.62665097e-39
-0.0297811275891 -0.12574253871 0.894 8.55756156582e-39
-0.0279693127799 -0.125039280663 0.889 9.57205681244e-39
-0.0262648373568 -0.124757977445 0.887 1.41653520292e-38
-0.024623285022 -0.124757977445 0.887 3.85816703586e-39
-0.0229817326872 -0.124757977445 0.887 1.62847571019e-38
-0.0213401803524 -0.124757977445 0.887 1.18736839349e-38
-0.0196986280176 -0.124757977445 0.887 9.57098061522e-39
-0.0180570756828 -0.124757977445 0.887 1.27066661888e-38
-0.0163785097666 -0.124476674226 0.885 1.65303893084e-39
-0.014690690455 -0.124054719398 0.882 1.6117614425e-38
-0.0130583915156 -0.124054719398 0.882 9.75752146679e-39
-0.0114001830692 -0.12377341618 0.88 2.47955839627e-39
-0.00977158548786 -0.12377341618 0.88 6.42848473106e-39
-0.00814298790655 -0.12377341618 0.88 8.44886564654e-39
-0.00649958489268 -0.123492112961 0.878 9.73456259275e-39
-0.00487468866951 -0.123492112961 0.878 1.01937400735e-38
-0.00324979244634 -0.123492112961 0.878 1.07447530505e-38
-0.00162489622317 -0.123492112961 0.878 1.06529175543e-38
0.0 -0.123492112961 0.878 1.0469246562e-38
0.00162489622317 -0.123492112961 0.878 1.59113068573e-38
0.00324979244634 -0.123492112961 0.878 1.63062866515e-38
0.00487468866951 -0.123492112961 0.878 1.63966451791e-38
0.00649958489268 -0.123492112961 0.878 1.0307507292e-38
0.00812448111586 -0.123492112961 0.878 1.29825300084e-38
0.00974937733903 -0.123492112961 0.878 1.02160025022e-38
0.0113742735622 -0.123492112961 0.878 1.51027534395e-38
0.0129991697854 -0.123492112961 0.878 1.4924382158e-38
0.0146240660085 -0.123492112961 0.878 1.34482347375e-38
0.0162489622317 -0.123492112961 0.878 1.53799667095e-38
0.0179145733944 -0.12377341618 0.88 1.43669288133e-38
0.0195431709757 -0.12377341618 0.88 1.61203735817e-38
0.0212198862128 -0.124054719398 0.882 1.08656458716e-38
0.0229299136732 -0.124476674226 0.885 1.16853648356e-38
0.0245677646499 -0.124476674226 0.885 1.85081595402e-38
0.0262056156265 -0.124476674226 0.885 1.17797128599e-38
0.0279693127799 -0.125039280663 0.889 1.15838281501e-38
0.0296811909194 -0.125320583882 0.891 1.39094903439e-38
0.0313301459705 -0.125320583882 0.891 1.28939889649e-38
0.0330901417657 -0.12574253871 0.894 1.38072880417e-38
0.034744648854 -0.12574253871 0.894 1.60156153111e-38
0.0364805858214 -0.126023841928 0.896 2.12689641435e-38
-0.0331641689285 -0.124365633482 0.896 1.48196056705e-38
-0.0315059604821 -0.124365633482 0.896 3.94892633479e-39
-0.0297811275891 -0.124088031621 0.894 1.03964659224e-38
-0.0279693127799 -0.12339402697 0.889 9.10965073998e-39
-0.0262648373568 -0.12311642511 0.887 1.48092963177e-38
-0.024623285022 -0.12311642511 0.887 6.71439445933e-39
-0.0230335517011 -0.12339402697 0.889 1.55514744311e-38
-0.0213401803524 -0.12311642511 0.887 1.07673531921e-38
-0.0196986280176 -0.12311642511 0.887 1.19386145005e-39
-0.0180570756828 -0.12311642511 0.887 0.0
-0.016415523348 -0.12311642511 0.887 0.0
-0.0147406587899 -0.122838823249 0.885 1.00356301665e-38
-0.0130583915156 -0.122422420459 0.882 1.7040586665e-38
-0.0114001830692 -0.122144818598 0.88 3.85709083864e-39
-0.00977158548786 -0.122144818598 0.88 6.88910414797e-39
-0.00814298790655 -0.122144818598 0.88 8.99987862348e-39
-0.00651439032524 -0.122144818598 0.88 1.01019045774e-38
-0.00488579274393 -0.122144818598 0.88 1.0469246562e-38
-0.00325719516262 -0.122144818598 0.88 1.08365885466e-38
-0.00162859758131 -0.122144818598 0.88 1.11120950351e-38
0.0 -0.122144818598 0.88 1.02855755697e-38
0.00162859758131 -0.122144818598 0.88 1.88601278794e-38
0.00325719516262 -0.122144818598 0.88 8.56550412551e-39
0.00488579274393 -0.122144818598 0.88 1.36373133405e-38
0.00651439032524 -0.122144818598 0.88 1.46514092171e-38
0.00814298790655 -0.122144818598 0.88 1.25277077633e-38
0.00977158548786 -0.122144818598 0.88 1.41865480697e-38
0.0114001830692 -0.122144818598 0.88 1.19734227544e-38
0.0130287806505 -0.122144818598 0.88 1.32637720115e-38
0.0146573782318 -0.122144818598 0.88 5.88357020503e-39
0.0162859758131 -0.122144818598 0.88 1.23307188303e-38
0.0179145733944 -0.122144818598 0.88 1.2516532408e-38
0.0195875872734 -0.122422420459 0.882 1.19680627878e-38
0.0212920626966 -0.122838823249 0.885 1.38220563262e-38
0.0229817326872 -0.12311642511 0.887 6.53648140241e-39
0.024623285022 -0.12311642511 0.887 6.42848473106e-39
0.0262648373568 -0.12311642511 0.887 1.71991590005e-38
0.0279693127799 -0.12339402697 0.889 1.92483001657e-38
0.0297811275891 -0.124088031621 0.894 1.35364086407e-38
0.0314356346774 -0.124088031621 0.894 1.47356791029e-38
0.0330901417657 -0.124088031621 0.894 1.22442615177e-38
0.034744648854 -0.124088031621 0.894 1.60152621839e-38
0.0363991559423 -0.124088031621 0.894 2.07171846563e-38
-0.0315059604821 -0.122707425035 0.896 5.51012976948e-39
-0.0298477520357 -0.122707425035 0.896 9.1835496158e-41
-0.0279693127799 -0.121748773277 0.889 1.05890631859e-38
-0.0262648373568 -0.121474872775 0.887 7.43975839251e-39
-0.024623285022 -0.121474872775 0.887 1.36300546145e-38
-0.0230335517011 -0.121748773277 0.889 1.04014461371e-38
-0.0213882980082 -0.121748773277 0.889 1.42729213045e-38
-0.0197430443153 -0.121748773277 0.889 6.06114274643e-39
-0.0180570756828 -0.121474872775 0.887 1.32512640214e-38
-0.016415523348 -0.121474872775 0.887 1.19386145005e-39
-0.0147406587899 -0.121200972273 0.885 0.0
-0.0131028078133 -0.121200972273 0.885 1.78735478995e-38
-0.0114260925761 -0.120790121519 0.882 3.12240686937e-39
-0.00977158548786 -0.120516221017 0.88 5.14278778485e-39
-0.00814298790655 -0.120516221017 0.88 8.81620763117e-39
-0.00651439032524 -0.120516221017 0.88 1.01937400735e-38
-0.00488579274393 -0.120516221017 0.88 1.06529175543e-38
-0.00325719516262 -0.120516221017 0.88 1.09284240428e-38
-0.00162859758131 -0.120516221017 0.88 1.1020259539e-38
0.0 -0.120516221017 0.88 1.01937400735e-38
0.00162859758131 -0.120516221017 0.88 2.06075190384e-38
0.00325719516262 -0.120516221017 0.88 1.05908792687e-38
0.00488579274393 -0.120516221017 0.88 9.76193135305e-39
0.00651439032524 -0.120516221017 0.88 9.20583306398e-39
0.00814298790655 -0.120516221017 0.88 1.03143316155e-38
0.00977158548786 -0.120516221017 0.88 1.06870125473e-38
0.0114001830692 -0.120516221017 0.88 1.19802975247e-38
0.0130287806505 -0.120516221017 0.88 1.00470605581e-38
0.0146573782318 -0.120516221017 0.88 1.27189359582e-38
0.0162859758131 -0.120516221017 0.88 8.10555873316e-39
0.0179145733944 -0.120516221017 0.88 6.70401083771e-39
0.0196542117199 -0.121200972273 0.885 7.71418167727e-39
0.0213401803524 -0.121474872775 0.887 1.10367612297e-38
0.0229817326872 -0.121474872775 0.887 1.5019799373e-38
0.0246788053941 -0.121748773277 0.889 1.3263821057e-38
0.026324059087 -0.121748773277 0.889 1.62983707165e-38
0.0280322358683 -0.12202267378 0.891 1.7311475875e-38
0.0297811275891 -0.122433524533 0.894 1.68557876274e-38
0.0314356346774 -0.122433524533 0.894 1.27081193353e-38
0.0331641689285 -0.122707425035 0.896 1.30725676386e-38
0.034744648854 -0.122433524533 0.894 1.77691273418e-38
0.0363991559423 -0.122433524533 0.894 2.16398766366e-38
-0.0297811275891 -0.120779017445 0.894 6.2530645841e-39
-0.0279693127799 -0.120103519584 0.889 1.09513829168e-38
-0.0262648373568 -0.11983332044 0.887 1.56120343469e-39
-0.024623285022 -0.11983332044 0.887 6.98741364303e-39
-0.0230335517011 -0.120103519584 0.889 1.19386145005e-39
-0.0213882980082 -0.120103519584 0.889 1.27070921836e-38
-0.0197430443153 -0.120103519584 0.889 1.48217566636e-38
-0.0180977906223 -0.120103519584 0.889 1.39008807661e-38
-0.016415523348 -0.11983332044 0.887 9.66389230859e-39
-0.0147739710132 -0.11983332044 0.887 2.57139389242e-39
-0.0131028078133 -0.119563121296 0.885 1.75008193235e-38
-0.0114260925761 -0.11915782258 0.882 4.40810381558e-39
-0.00977158548786 -0.118887623436 0.88 4.5917748079e-39
-0.00814298790655 -0.118887623436 0.88 8.90804312733e-39
-0.00651439032524 -0.118887623436 0.88 1.01019045774e-38
-0.00488579274393 -0.118887623436 0.88 1.08365885466e-38
-0.00325719516262 -0.118887623436 0.88 1.09284240428e-38
-0.00162859758131 -0.118887623436 0.88 1.08365885466e-38
0.0 -0.118887623436 0.88 1.0469246562e-38
0.00162859758131 -0.118887623436 0.88 1.95062385753e-38
0.0032645978789 -0.11915782258 0.882 4.59500339956e-39
0.00489689681835 -0.11915782258 0.882 6.97949770801e-39
0.00651439032524 -0.118887623436 0.88 7.25500419648e-39
0.00814298790655 -0.118887623436 0.88 6.79582671569e-39
0.0097937936367 -0.11915782258 0.882 7.07133320417e-39
0.0114260925761 -0.11915782258 0.882 6.52032022722e-39
0.0130583915156 -0.11915782258 0.882 8.08367605634e-39
0.014690690455 -0.11915782258 0.882 8.46756317194e-39
0.0163785097666 -0.119563121296 0.885 1.31784441454e-38
0.0180163607432 -0.119563121296 0.885 1.50209386286e-38
0.0196986280176 -0.11983332044 0.887 1.47367875299e-38
0.0213401803524 -0.11983332044 0.887 1.6388048213e-38
0.0229817326872 -0.11983332044 0.887 1.16907374139e-38
0.0246788053941 -0.120103519584 0.889 1.657713102e-38
0.0263832808172 -0.120373718729 0.891 1.57455500645e-38
0.0281266205009 -0.120779017445 0.894 1.8506749834e-38
0.0298477520357 -0.121049216589 0.896 1.40860035036e-38
0.0315059604821 -0.121049216589 0.896 1.47378034713e-38
0.0331641689285 -0.121049216589 0.896 1.49189633368e-38
0.0348223773749 -0.121049216589 0.896 1.50047059872e-38
-0.0297811275891 -0.119124510357 0.894 1.35278523123e-38
-0.0279693127799 -0.118458265892 0.889 9.2879407462e-39
-0.026324059087 -0.118458265892 0.889 3.76525534248e-39
-0.0246788053941 -0.118458265892 0.889 2.57139389242e-39
-0.0230335517011 -0.118458265892 0.889 2.11221641163e-39
-0.0213882980082 -0.118458265892 0.889 1.37753244237e-39
-0.0197430443153 -0.118458265892 0.889 8.82593264251e-39
-0.0180977906223 -0.118458265892 0.889 3.30607786169e-39
-0.0164525369294 -0.118458265892 0.889 1.2339736186e-38
-0.0147739710132 -0.118191768105 0.887 1.3538207908e-38
-0.0131324186784 -0.118191768105 0.887 1.675928861e-38
-0.0114649568366 -0.117925270319 0.885 3.58158435016e-39
-0.0097937936367 -0.11752552364 0.882 3.58158435016e-39
-0.00816149469725 -0.11752552364 0.882 8.63253663885e-39
-0.0065291957578 -0.11752552364 0.882 1.01937400735e-38
-0.00489689681835 -0.11752552364 0.882 1.06529217582e-38
-0.00325719516262 -0.117259025854 0.88 1.07447530505e-38
-0.00162859758131 -0.117259025854 0.88 1.09284240428e-38
0.0 -0.11752552364 0.882 1.0469246562e-38
0.00163229893945 -0.11752552364 0.882 2.01483485641e-38
0.0032645978789 -0.11752552364 0.882 1.41882884824e-38
0.00489689681835 -0.11752552364 0.882 1.47403804592e-38
0.0065291957578 -0.11752552364 0.882 1.5384673671e-38
0.00816149469725 -0.11752552364 0.882 1.51073651127e-38
0.0097937936367 -0.11752552364 0.882 1.58420644963e-38
0.0114260925761 -0.11752552364 0.882 1.58406575926e-38
0.0130583915156 -0.11752552364 0.882 1.52852781696e-38
0.014690690455 -0.11752552364 0.882 1.45462627868e-38
0.0163785097666 -0.117925270319 0.885 1.05826060026e-38
0.0180570756828 -0.118191768105 0.887 1.46428164549e-38
0.0196986280176 -0.118191768105 0.887 1.46449422247e-38
0.0213401803524 -0.118191768105 0.887 1.54696287917e-38
0.0230335517011 -0.118458265892 0.889 1.7958187728e-38
0.0246788053941 -0.118458265892 0.889 1.86032082137e-38
0.0263832808172 -0.118724763678 0.891 1.74976369747e-38
0.0281266205009 -0.119124510357 0.894 1.58373799555e-38
0.0298477520357 -0.119391008143 0.896 1.63018865744e-38
0.0315059604821 -0.119391008143 0.896 1.13309218033e-38
0.0332381960913 -0.119657505929 0.898 1.44630550853e-38
0.0349001058959 -0.119657505929 0.898 1.60188775339e-38
-0.0317521007983 -0.118652587194 0.903 5.05095228869e-39
-0.0300143131519 -0.118389790766 0.901 6.61215572338e-39
-0.0280322358683 -0.117075808626 0.891 2.66322938858e-39
-0.026324059087 -0.116813012199 0.889 4.5917748079e-39
-0.0246788053941 -0.116813012199 0.889 6.3366492349e-39
-0.0230853707151 -0.117075808626 0.891 5.23462328101e-39
-0.021436415664 -0.117075808626 0.891 3.94892633479e-39
-0.0197874606129 -0.117075808626 0.891 2.75506488474e-39
-0.0180977906223 -0.116813012199 0.889 1.01019045774e-39
-0.0164525369294 -0.116813012199 0.889 0.0
-0.0148072832364 -0.116813012199 0.889 1.04032622199e-38
-0.0131324186784 -0.116550215771 0.887 1.2148831691e-38
-0.0114908663436 -0.116550215771 0.887 1.28569694621e-39
-0.00982710585995 -0.116287419343 0.885 3.94892633479e-39
-0.00816149469725 -0.115893224701 0.882 8.44886564654e-39
-0.0065291957578 -0.115893224701 0.882 1.01937400735e-38
-0.00489689681835 -0.115893224701 0.882 1.07447530505e-38
-0.0032645978789 -0.115893224701 0.882 1.09284240428e-38
-0.00163229893945 -0.115893224701 0.882 1.09284240428e-38
0.0 -0.115893224701 0.882 1.03774110659e-38
0.00163229893945 -0.115893224701 0.882 2.12539730525e-38
0.0032645978789 -0.115893224701 0.882 1.21575183401e-38
0.00491355292998 -0.116287419343 0.885 1.32627546688e-38
0.0065291957578 -0.115893224701 0.882 1.23400360638e-38
0.00816149469725 -0.115893224701 0.882 1.49190334017e-38
0.0097937936367 -0.115893224701 0.882 1.60260675963e-38
0.0114260925761 -0.115893224701 0.882 1.50130016741e-38
0.0131028078133 -0.116287419343 0.885 1.46392193218e-38
0.0147406587899 -0.116287419343 0.885 1.44547930296e-38
0.016415523348 -0.116550215771 0.887 1.51938224254e-38
0.0180570756828 -0.116550215771 0.887 1.76856057494e-38
0.0196986280176 -0.116550215771 0.887 1.17804345286e-38
0.0213401803524 -0.116550215771 0.887 1.75875849219e-38
0.0230335517011 -0.116813012199 0.889 1.87872225242e-38
0.0246788053941 -0.116813012199 0.889 1.57454828022e-38
0.0264721134126 -0.117470003268 0.894 1.71312955172e-38
0.0281266205009 -0.117470003268 0.894 1.01223523246e-38
0.0299143764822 -0.117995596124 0.898 1.65784902795e-38
0.0315762862867 -0.117995596124 0.898 1.00427137302e-38
0.0332381960913 -0.117995596124 0.898 1.16950982547e-38
0.0350166986772 -0.118389790766 0.901 1.85993112027e-38
-0.0317521007983 -0.116981423994 0.903 6.34095682638e-39
-0.0300143131519 -0.116722328924 0.901 2.47955839627e-39
-0.0281895435892 -0.11607459125 0.896 1.37753244237e-39
-0.0263832808172 -0.115426853575 0.891 5.96930725027e-39
-0.0247343257662 -0.115426853575 0.891 7.16316870032e-39
-0.023163099236 -0.11581549618 0.894 7.07133320417e-39
-0.0215085921477 -0.11581549618 0.894 7.07133320417e-39
-0.0197874606129 -0.115426853575 0.891 6.70399121953e-39
-0.0180977906223 -0.115167758506 0.889 6.42848473106e-39
-0.0164525369294 -0.115167758506 0.889 5.60196526564e-39
-0.0148072832364 -0.115167758506 0.889 3.39791335785e-39
-0.0131620295435 -0.115167758506 0.889 1.92854541932e-39
-0.0115167758506 -0.115167758506 0.889 1.56120343469e-39
-0.00984931400879 -0.114908663436 0.887 5.96930725027e-39
-0.00818925488329 -0.114649568366 0.885 9.1835496158e-39
-0.0065291957578 -0.114260925761 0.882 9.91823358506e-39
-0.00489689681835 -0.114260925761 0.882 1.06529175543e-38
-0.0032645978789 -0.114260925761 0.882 1.08365885466e-38
-0.00163229893945 -0.114260925761 0.882 1.12039305313e-38
0.0 -0.114649568366 0.885 9.82639808891e-39
0.00163785097666 -0.114649568366 0.885 2.16213248462e-38
0.00327570195332 -0.114649568366 0.885 1.26126979164e-38
0.00491355292998 -0.114649568366 0.885 1.49165152684e-38
0.00655140390664 -0.114649568366 0.885 1.46381080921e-38
0.00818925488329 -0.114649568366 0.885 1.47303219388e-38
0.00982710585995 -0.114649568366 0.885 1.37168958829e-38
0.0114649568366 -0.114649568366 0.885 1.39920506455e-38
0.0131028078133 -0.114649568366 0.885 1.54675212388e-38
0.0147406587899 -0.114649568366 0.885 1.16910891398e-38
0.016415523348 -0.114908663436 0.887 1.22442643203e-38
0.0180570756828 -0.114908663436 0.887 1.70380867486e-38
0.0196986280176 -0.114908663436 0.887 1.59302944515e-38
0.0213882980082 -0.115167758506 0.889 1.53760262582e-38
0.0230335517011 -0.115167758506 0.889 1.52910333024e-38
0.0246788053941 -0.115167758506 0.889 1.27999310094e-38
0.0264721134126 -0.11581549618 0.894 1.54725028549e-38
0.0281895435892 -0.11607459125 0.896 1.25176492429e-38
0.0299143764822 -0.11633368632 0.898 1.63937122614e-38
0.0315762862867 -0.11633368632 0.898 1.23360900073e-38
0.0332381960913 -0.11633368632 0.898 1.40827693068e-38
0.0350166986772 -0.116722328924 0.901 1.74932789365e-38
-0.0317521007983 -0.115310260794 0.903 1.20541851901e-38
-0.0300143131519 -0.115054867082 0.901 4.77544580022e-39
-0.0281895435892 -0.114416382803 0.896 4.49993931174e-39
-0.0263832808172 -0.113777898524 0.891 7.25500419648e-39
-0.0247343257662 -0.113777898524 0.891 7.89785266959e-39
-0.023163099236 -0.114160989092 0.894 7.98968816575e-39
-0.0215085921477 -0.114160989092 0.894 7.89785266959e-39
-0.0198540850594 -0.114160989092 0.894 7.89785266959e-39
-0.0181385055618 -0.113777898524 0.891 7.89785266959e-39
-0.0164895505108 -0.113777898524 0.891 7.98968816575e-39
-0.0148072832364 -0.113522504813 0.889 7.53051068496e-39
-0.0131620295435 -0.113522504813 0.889 6.79582671569e-39
-0.0115167758506 -0.113522504813 0.889 6.42848473106e-39
-0.00987152215763 -0.113522504813 0.889 7.07133320417e-39
-0.00820776167399 -0.113267111101 0.887 8.44886564654e-39
-0.00656620933919 -0.113267111101 0.887 9.64272709659e-39
-0.00492465700439 -0.113267111101 0.887 1.02855755697e-38
-0.00327570195332 -0.113011717389 0.885 1.08365885466e-38
-0.00163785097666 -0.113011717389 0.885 1.12957660274e-38
0.0 -0.113011717389 0.885 9.45905610427e-39
0.00163785097666 -0.113011717389 0.885 2.19915394927e-38
0.0032831046696 -0.113267111101 0.887 1.43640799735e-38
0.00492465700439 -0.113267111101 0.887 1.47310253907e-38
0.00656620933919 -0.113267111101 0.887 1.61132381699e-38
0.00820776167399 -0.113267111101 0.887 1.50105017577e-38
0.00984931400879 -0.113267111101 0.887 1.59309979033e-38
0.0114908663436 -0.113267111101 0.887 1.54686324685e-38
0.0131324186784 -0.113267111101 0.887 1.43669190042e-38
0.0147739710132 -0.113267111101 0.887 1.54743161351e-38
0.016415523348 -0.113267111101 0.887 1.52013235761e-38
0.0180570756828 -0.113267111101 0.887 1.30794143829e-38
0.0196986280176 -0.113267111101 0.887 1.5836997401e-38
0.0213882980082 -0.113522504813 0.889 1.2516532408e-38
0.0230335517011 -0.113522504813 0.889 1.54740625001e-38
0.0247343257662 -0.113777898524 0.891 1.32609511977e-38
0.0264721134126 -0.114160989092 0.894 1.50107988329e-38
0.0281895435892 -0.114416382803 0.896 1.27935522988e-38
0.0299143764822 -0.114671776515 0.898 1.63047578349e-38
0.0315762862867 -0.114671776515 0.898 1.55604497478e-38
0.0332381960913 -0.114671776515 0.898 1.52845116594e-38
0.0350166986772 -0.115054867082 0.901 1.68489534948e-38
-0.0336083319052 -0.114268328478 0.908 1.49099950266e-38
-0.0317521007983 -0.113639097594 0.903 1.13130272219e-38
-0.0300143131519 -0.113387405241 0.901 5.78563625795e-39
-0.0281895435892 -0.112758174357 0.896 6.79582671569e-39
-0.0264721134126 -0.112506482003 0.894 7.62234618111e-39
-0.0248176063243 -0.112506482003 0.894 7.89785266959e-39
-0.023163099236 -0.112506482003 0.894 8.0815236619e-39
-0.0215085921477 -0.112506482003 0.894 1.01937400735e-38
-0.0198540850594 -0.112506482003 0.894 9.82639808891e-39
-0.0181385055618 -0.112128943473 0.891 9.09171411964e-39
-0.0164895505108 -0.112128943473 0.891 8.90804312733e-39
-0.0148405954597 -0.112128943473 0.891 9.09171411964e-39
-0.0131916404086 -0.112128943473 0.891 8.81620763117e-39
-0.0115426853575 -0.112128943473 0.891 8.26519465422e-39
-0.00987152215763 -0.11187725112 0.889 8.26519465422e-39
-0.00822626846469 -0.11187725112 0.889 8.90804312733e-39
-0.00658101477175 -0.11187725112 0.889 1.01019045774e-38
-0.00493576107881 -0.11187725112 0.889 1.06529175543e-38
-0.0032831046696 -0.111625558766 0.887 1.06529175543e-38
-0.0016415523348 -0.111625558766 0.887 1.11120950351e-38
0.0 -0.111625558766 0.887 9.64272709659e-39
0.0016415523348 -0.111625558766 0.887 2.07962487182e-38
0.0032831046696 -0.111625558766 0.887 1.16896542102e-38
0.00492465700439 -0.111625558766 0.887 1.52788462097e-38
0.00656620933919 -0.111625558766 0.887 1.35310570819e-38
0.00820776167399 -0.111625558766 0.887 1.49136412052e-38
0.00984931400879 -0.111625558766 0.887 1.2884233125e-38
0.0114908663436 -0.111625558766 0.887 1.28802870686e-38
0.0131324186784 -0.111625558766 0.887 1.42703849543e-38
0.0147739710132 -0.111625558766 0.887 1.21509938945e-38
0.016415523348 -0.111625558766 0.887 1.16054179556e-38
0.0180570756828 -0.111625558766 0.887 1.29944858869e-38
0.0196986280176 -0.111625558766 0.887 1.36318524804e-38
0.0213882980082 -0.11187725112 0.889 1.30689803146e-38
0.0230335517011 -0.11187725112 0.889 1.55654117457e-38
0.0247343257662 -0.112128943473 0.891 1.24308233887e-38
0.0265313351428 -0.112758174357 0.896 1.45509038873e-38
0.0281895435892 -0.112758174357 0.896 1.58356521545e-38
0.0299143764822 -0.11300986671 0.898 1.52888164483e-38
0.0315762862867 -0.11300986671 0.898 1.86968289641e-38
0.0332381960913 -0.11300986671 0.898 1.10453708074e-38
0.0350166986772 -0.113387405241 0.901 1.93340245993e-38
-0.0336083319052 -0.112587911883 0.908 1.48181595305e-38
-0.0318575895053 -0.112339920887 0.906 1.05739978261e-38
-0.0301808742682 -0.112339920887 0.906 1.23360900073e-38
-0.0284097743985 -0.111967934394 0.903 1.04007286723e-38
-0.0266793894684 -0.111719943399 0.901 6.61215572338e-39
-0.0249286470685 -0.111347956906 0.898 7.98968816575e-39
-0.0232667372639 -0.111347956906 0.898 7.71418167727e-39
-0.0215567098035 -0.11109996591 0.896 1.72863379819e-38
-0.0198540850594 -0.110851974915 0.894 8.99987862348e-39
-0.0181385055618 -0.110479988422 0.891 9.27541173663e-39
-0.0164895505108 -0.110479988422 0.891 9.55089160043e-39
-0.0148405954597 -0.110479988422 0.891 9.55089160043e-39
-0.0131916404086 -0.110479988422 0.891 9.55089160043e-39
-0.0115426853575 -0.110479988422 0.891 9.36722060812e-39
-0.00987152215763 -0.110231997427 0.889 9.73456259275e-39
-0.00822626846469 -0.110231997427 0.889 1.01019045774e-38
-0.00658101477175 -0.110231997427 0.889 1.06529175543e-38
-0.00493576107881 -0.110231997427 0.889 1.07447530505e-38
-0.00329050738588 -0.110231997427 0.889 1.06529175543e-38
-0.00164525369294 -0.110231997427 0.889 1.12039305313e-38
0.0 -0.109984006431 0.887 9.45905610427e-39
0.0016415523348 -0.109984006431 0.887 2.18139809643e-38
0.0032831046696 -0.109984006431 0.887 1.20631296782e-38
0.00492465700439 -0.109984006431 0.887 1.36240346363e-38
0.00656620933919 -0.109984006431 0.887 1.22457482954e-38
0.00820776167399 -0.109984006431 0.887 1.26173432208e-38
0.00984931400879 -0.109984006431 0.887 1.69433687815e-38
0.0114908663436 -0.109984006431 0.887 1.60181908977e-38
0.0131324186784 -0.109984006431 0.887 1.28827981954e-38
0.0147739710132 -0.109984006431 0.887 1.43546772608e-38
0.016415523348 -0.109984006431 0.887 1.13216087737e-38
0.0180977906223 -0.110231997427 0.889 1.07835465972e-38
0.0197430443153 -0.110231997427 0.889 1.30805844672e-38
0.0213882980082 -0.110231997427 0.889 1.3529592725e-38
0.0230853707151 -0.110479988422 0.891 1.63001083266e-38
0.0248176063243 -0.110851974915 0.894 1.15050191245e-38
0.0265313351428 -0.11109996591 0.896 1.43629659412e-38
0.0281895435892 -0.11109996591 0.896 1.99853971709e-38
0.0299143764822 -0.111347956906 0.898 1.75934129222e-38
0.0315762862867 -0.111347956906 0.898 1.81436103434e-38
0.0333492368355 -0.111719943399 0.901 1.0031951758e-38
0.0350166986772 -0.111719943399 0.901 1.97966871093e-38
-0.0372541696725 -0.111762509017 0.915 1.96972846015e-38
-0.0352887485005 -0.110907495287 0.908 2.0435909022e-38
-0.0336083319052 -0.110907495287 0.908 1.44497413486e-38
-0.0318575895053 -0.11066320565 0.906 1.10385548917e-38
-0.0301808742682 -0.11066320565 0.906 1.26088079119e-38
-0.0284097743985 -0.110296771194 0.903 1.16903842867e-38
-0.0266793894684 -0.110052481557 0.901 6.24481373874e-39
-0.0249286470685 -0.109686047101 0.898 6.97949770801e-39
-0.0232667372639 -0.109686047101 0.898 8.35703015038e-39
-0.0216048274593 -0.109686047101 0.898 1.40612817961e-38
-0.0198985013571 -0.109441757464 0.896 9.64272709659e-39
-0.0181995779711 -0.109197467827 0.894 1.2693746217e-38
-0.0165450708829 -0.109197467827 0.894 8.44886564654e-39
-0.0148405954597 -0.108831033371 0.891 1.09284240428e-38
-0.0131916404086 -0.108831033371 0.891 1.01019045774e-38
-0.0115426853575 -0.108831033371 0.891 9.82639808891e-39
-0.00989373030646 -0.108831033371 0.891 1.02855755697e-38
-0.00822626846469 -0.108586743734 0.889 1.02855755697e-38
-0.00658101477175 -0.108586743734 0.889 1.07447530505e-38
-0.00493576107881 -0.108586743734 0.889 1.07447530505e-38
-0.00329050738588 -0.108586743734 0.889 1.08365885466e-38
-0.00164525369294 -0.108586743734 0.889 1.11120950351e-38
0.0 -0.108586743734 0.889 9.1835496158e-39
0.00164525369294 -0.108586743734 0.889 2.10760445813e-38
0.00329050738588 -0.108586743734 0.889 1.28939497286e-38
0.00492465700439 -0.108342454097 0.887 1.49258829486e-38
0.00656620933919 -0.108342454097 0.887 1.04997920659e-38
0.00820776167399 -0.108342454097 0.887 1.36359078382e-38
0.00984931400879 -0.108342454097 0.887 1.32631176051e-38
0.0114908663436 -0.108342454097 0.887 1.40860511478e-38
0.0131324186784 -0.108342454097 0.887 1.1128282835e-38
0.0148072832364 -0.108586743734 0.889 1.88790271918e-38
0.0164525369294 -0.108586743734 0.889 1.1690371675e-38
0.0180977906223 -0.108586743734 0.889 1.47418280005e-38
0.0197430443153 -0.108586743734 0.889 1.31756513576e-38
0.021436415664 -0.108831033371 0.891 1.43629631386e-38
0.0230853707151 -0.108831033371 0.891 1.35303101898e-38
0.0248176063243 -0.109197467827 0.894 1.74082579548e-38
0.0265313351428 -0.109441757464 0.896 1.92510691315e-38
0.0282524666776 -0.109686047101 0.898 1.60228432086e-38
0.0300143131519 -0.110052481557 0.901 1.16896836374e-38
0.0316817749937 -0.110052481557 0.901 1.50987765544e-38
0.0334232639983 -0.110296771194 0.903 1.04954340277e-38
0.0352110199796 -0.11066320565 0.906 2.07169071992e-38
-0.0371727397934 -0.10982854939 0.913 1.91434297912e-38
-0.0352887485005 -0.109227078692 0.908 2.14493364792e-38
-0.0336083319052 -0.109227078692 0.908 1.51880126419e-38
-0.0318575895053 -0.108986490413 0.906 1.15963837844e-38
-0.0301808742682 -0.108986490413 0.906 9.5706330932e-39
-0.0284097743985 -0.108625607994 0.903 1.03835305362e-38
-0.0266793894684 -0.108385019715 0.901 1.55622504163e-38
-0.0249286470685 -0.108024137297 0.898 7.62237280578e-39
-0.0232667372639 -0.108024137297 0.898 1.50918933764e-38
-0.0216048274593 -0.108024137297 0.898 9.64272709659e-39
-0.0198985013571 -0.107783549018 0.896 1.06529609946e-38
-0.0182402929107 -0.107783549018 0.896 7.80601717343e-39
-0.0165820844643 -0.107783549018 0.896 1.44458093051e-38
-0.0148905637946 -0.107542960739 0.894 1.49961510601e-38
-0.0132360567063 -0.107542960739 0.894 1.03774110659e-38
-0.011581549618 -0.107542960739 0.894 1.01019045774e-38
-0.00989373030646 -0.10718207832 0.891 1.01019045774e-38
-0.00824477525538 -0.10718207832 0.891 1.05610820582e-38
-0.00659582020431 -0.10718207832 0.891 1.07447530505e-38
-0.00494686515323 -0.10718207832 0.891 1.0469246562e-38
-0.00329791010215 -0.10718207832 0.891 1.09284240428e-38
-0.00164895505108 -0.10718207832 0.891 1.11120950351e-38
0.0 -0.106941490041 0.889 8.99987862348e-39
0.00164525369294 -0.106941490041 0.889 2.1264041382e-38
0.00329050738588 -0.106941490041 0.889 1.34431830565e-38
0.00493576107881 -0.106941490041 0.889 1.43701938387e-38
0.00658101477175 -0.106941490041 0.889 1.05009032956e-38
0.00822626846469 -0.106941490041 0.889 1.48312112244e-38
0.00987152215763 -0.106941490041 0.889 1.12412821418e-38
0.0115167758506 -0.106941490041 0.889 1.32678469874e-38
0.0131620295435 -0.106941490041 0.889 1.28053512319e-38
0.0148072832364 -0.106941490041 0.889 1.11350651195e-38
0.0164525369294 -0.106941490041 0.889 1.32512163773e-38
0.0181385055618 -0.10718207832 0.891 1.30729277724e-38
0.0197874606129 -0.10718207832 0.891 1.39106422112e-38
0.021436415664 -0.10718207832 0.891 1.35368556549e-38
0.023163099236 -0.107542960739 0.894 1.50965358782e-38
0.0248731266964 -0.107783549018 0.896 1.75893673735e-38
0.026590556873 -0.108024137297 0.898 1.26087504586e-38
0.0282524666776 -0.108024137297 0.898 1.43604169793e-38
0.0300143131519 -0.108385019715 0.901 1.39941834218e-38
0.0316817749937 -0.108385019715 0.901 1.51069573349e-38
0.0334232639983 -0.108625607994 0.903 8.65549551289e-39
0.0352110199796 -0.108986490413 0.906 2.14565994091e-38
-0.0371727397934 -0.108138879399 0.913 1.90497670019e-38
-0.0352887485005 -0.107546662097 0.908 2.08936627836e-38
-0.0336083319052 -0.107546662097 0.908 1.56471901227e-38
-0.0318575895053 -0.107309775176 0.906 5.96930725027e-39
-0.0301808742682 -0.107309775176 0.906 1.26059184344e-38
-0.0284097743985 -0.106954444794 0.903 1.23199736737e-38
-0.0267386111986 -0.106954444794 0.903 1.22428391997e-38
-0.0250119276266 -0.106717557874 0.901 1.60127832869e-38
-0.0233444657848 -0.106717557874 0.901 1.16872271612e-38
-0.0216048274593 -0.106362227492 0.898 1.16806957091e-38
-0.0198985013571 -0.106125340571 0.896 7.7174424988e-39
-0.0182402929107 -0.106125340571 0.896 9.36722060812e-39
-0.0165820844643 -0.106125340571 0.896 9.27538511196e-39
-0.0149238760178 -0.106125340571 0.896 1.22174238495e-38
-0.0132360567063 -0.10588845365 0.894 9.09171411964e-39
-0.011581549618 -0.10588845365 0.894 1.96081704269e-38
-0.00989373030646 -0.105533123269 0.891 9.65815259008e-39
-0.00824477525538 -0.105533123269 0.891 9.73456259275e-39
-0.00659582020431 -0.105533123269 0.891 1.07447530505e-38
-0.00494686515323 -0.105533123269 0.891 1.03774110659e-38
-0.00329791010215 -0.105533123269 0.891 1.07447530505e-38
-0.00164895505108 -0.105533123269 0.891 1.11120950351e-38
0.0 -0.105533123269 0.891 8.90804312733e-39
0.00164895505108 -0.105533123269 0.891 2.08070331112e-38
0.00329050738588 -0.105296236348 0.889 1.21499219012e-38
0.00493576107881 -0.105296236348 0.889 1.33527866939e-38
0.00658101477175 -0.105296236348 0.889 1.19723689779e-38
0.00822626846469 -0.105296236348 0.889 1.3357468432e-38
0.00987152215763 -0.105296236348 0.889 1.28092916832e-38
0.0115167758506 -0.105296236348 0.889 1.31806525918e-38
0.0131620295435 -0.105296236348 0.889 1.19817212439e-38
0.0148405954597 -0.105533123269 0.891 1.24337352869e-38
0.0164895505108 -0.105533123269 0.891 1.07630484032e-38
0.0181385055618 -0.105533123269 0.891 1.64801667715e-38
0.0198540850594 -0.10588845365 0.894 1.52863053214e-38
0.0215085921477 -0.10588845365 0.894 1.80557489297e-38
0.02321491825 -0.106125340571 0.896 1.82373151717e-38
0.0248731266964 -0.106125340571 0.896 1.24258039376e-38
0.026590556873 -0.106362227492 0.898 1.59316985525e-38
0.0282524666776 -0.106362227492 0.898 1.2789886502e-38
0.0300809375984 -0.106954444794 0.903 1.73089255118e-38
0.0317521007983 -0.106954444794 0.903 1.36368537146e-38
0.0335343047424 -0.107309775176 0.906 1.02235148633e-38
0.0352887485005 -0.107546662097 0.908 1.96145267167e-38
-0.0389475410212 -0.106682394971 0.915 1.98849198671e-38
-0.0371727397934 -0.106449209408 0.913 2.08050446687e-38
-0.0354830698028 -0.106449209408 0.913 2.04352055702e-38
-0.0336083319052 -0.105866245501 0.908 1.55546371618e-38
-0.03192791531 -0.105866245501 0.908 9.28973440823e-39
-0.0302474987147 -0.105866245501 0.908 8.72437213501e-39
-0.0285041590311 -0.105633059939 0.906 7.71418167727e-39
-0.0267386111986 -0.105283281595 0.903 1.63791429613e-38
-0.0250119276266 -0.105050096032 0.901 1.03971413482e-38
-0.0233444657848 -0.105050096032 0.901 1.52738113443e-38
-0.0216770039431 -0.105050096032 0.901 7.34683969264e-39
-0.0199429176548 -0.104700317688 0.898 1.39042130539e-38
-0.0182810078502 -0.104700317688 0.898 1.76794904829e-38
-0.0165820844643 -0.104467132125 0.896 6.88766221185e-39
-0.0149238760178 -0.104467132125 0.896 1.35171505959e-38
-0.0132656675714 -0.104467132125 0.896 7.43869620827e-39
-0.011581549618 -0.104233946562 0.894 2.16259939727e-38
-0.00992704252972 -0.104233946562 0.894 6.52857107258e-39
-0.00824477525538 -0.103884168218 0.891 8.54070114269e-39
-0.00659582020431 -0.103884168218 0.891 1.1020259539e-38
-0.00494686515323 -0.103884168218 0.891 1.07447530505e-38
-0.00329791010215 -0.103884168218 0.891 1.09284240428e-38
-0.00164895505108 -0.103884168218 0.891 1.12957660274e-38
0.0 -0.103884168218 0.891 8.81620763117e-39
0.00164895505108 -0.103884168218 0.891 1.96113219472e-38
0.00329791010215 -0.103884168218 0.891 1.09510241844e-38
0.00494686515323 -0.103884168218 0.891 1.60189321845e-38
0.00659582020431 -0.103884168218 0.891 1.12290628192e-38
0.00824477525538 -0.103884168218 0.891 1.36275490928e-38
0.00989373030646 -0.103884168218 0.891 1.43658624251e-38
0.0115426853575 -0.103884168218 0.891 1.4001020357e-38
0.0131916404086 -0.103884168218 0.891 1.55683292491e-38
0.0148905637946 -0.104233946562 0.894 1.67661087296e-38
0.0165450708829 -0.104233946562 0.894 1.77773711807e-38
0.0181995779711 -0.104233946562 0.894 1.74997627445e-38
0.0198985013571 -0.104467132125 0.896 1.7039182564e-38
0.0215567098035 -0.104467132125 0.896 1.62986607853e-38
0.02321491825 -0.104467132125 0.896 1.83273359864e-38
0.0249286470685 -0.104700317688 0.898 1.2699131407e-38
0.026590556873 -0.104700317688 0.898 1.70401550651e-38
0.0283468513102 -0.105050096032 0.901 1.27935705157e-38
0.0300809375984 -0.105283281595 0.903 1.63901739828e-38
0.0317521007983 -0.105283281595 0.903 1.37258207528e-38
0.0335343047424 -0.105633059939 0.906 1.40910285599e-38
0.0352887485005 -0.105866245501 0.908 1.98899939689e-38
-0.0389475410212 -0.104989023622 0.915 1.88675309392e-38
-0.0372541696725 -0.104989023622 0.915 1.87753367106e-38
-0.0354830698028 -0.104759539418 0.913 2.00664146429e-38
-0.033682359068 -0.104415313111 0.91 1.44486651514e-38
-0.0319982411146 -0.104415313111 0.91 1.05797361433e-38
-0.0302474987147 -0.104185828906 0.908 8.72939438871e-39
-0.0285041590311 -0.103956344702 0.906 7.53051068496e-39
-0.0267386111986 -0.103612118395 0.903 1.49122721366e-38
-0.0250674479987 -0.103612118395 0.903 8.83099553386e-39
-0.0233962847988 -0.103612118395 0.903 1.45459699155e-38
-0.0216770039431 -0.10338263419 0.901 1.13176557107e-38
-0.0199429176548 -0.103038407883 0.898 5.69774681827e-39
-0.0182810078502 -0.103038407883 0.898 1.67479100665e-38
-0.0166190980456 -0.103038407883 0.898 8.09372056374e-39
-0.0149238760178 -0.102808923678 0.896 9.745376413e-39
-0.0132656675714 -0.102808923678 0.896 1.4180079676e-38
-0.011607459125 -0.102808923678 0.896 1.8507163217e-38
-0.00992704252972 -0.102579439474 0.894 4.96019298975e-39
-0.00824477525538 -0.102235213167 0.891 8.44886564654e-39
-0.00659582020431 -0.102235213167 0.891 1.06529175543e-38
-0.00494686515323 -0.102235213167 0.891 1.06529175543e-38
-0.00329791010215 -0.102235213167 0.891 1.1020259539e-38
-0.00164895505108 -0.102235213167 0.891 1.16631080121e-38
0.0 -0.102235213167 0.891 8.54070114269e-39
0.00164895505108 -0.102235213167 0.891 1.93365273183e-38
0.00329791010215 -0.102235213167 0.891 1.71302543524e-38
0.00494686515323 -0.102235213167 0.891 1.70391573406e-38
0.00659582020431 -0.102235213167 0.891 1.76856211637e-38
0.00824477525538 -0.102235213167 0.891 1.65796323378e-38
0.00989373030646 -0.102235213167 0.891 1.75915954381e-38
0.0115426853575 -0.102235213167 0.891 1.71302235239e-38
0.0132360567063 -0.102579439474 0.894 1.72217759578e-38
0.0148905637946 -0.102579439474 0.894 1.34431382149e-38
0.0165820844643 -0.102808923678 0.896 1.52856284943e-38
0.0182402929107 -0.102808923678 0.896 1.76837518316e-38
0.0198985013571 -0.102808923678 0.896 1.69462036082e-38
0.0215567098035 -0.102808923678 0.896 1.897305572e-38
0.02321491825 -0.102808923678 0.896 1.90631480009e-38
0.0249286470685 -0.103038407883 0.898 1.36210694887e-38
0.0266793894684 -0.10338263419 0.901 1.4461579518e-38
0.0284097743985 -0.103612118395 0.903 1.37183980749e-38
0.0301808742682 -0.103956344702 0.906 1.49225506609e-38
0.03192791531 -0.104185828906 0.908 1.37197475253e-38
0.0336083319052 -0.104185828906 0.908 1.58377036554e-38
0.0354830698028 -0.104759539418 0.913 1.88761727468e-38
-0.039075237877 -0.103634326543 0.918 1.9051584486e-38
-0.0373763144911 -0.103634326543 0.918 1.86845774117e-38
-0.0355607983237 -0.103295652274 0.915 2.06217394153e-38
-0.0337933998122 -0.103069869427 0.913 1.39887702058e-38
-0.0321037298216 -0.103069869427 0.913 1.02034258485e-38
-0.0303141231612 -0.102731195157 0.91 1.1220432222e-38
-0.0285670821194 -0.102505412311 0.908 8.90804312733e-39
-0.026827443794 -0.102279629464 0.906 1.344028377e-38
-0.0250674479987 -0.101940955195 0.903 1.3257337249e-38
-0.0233962847988 -0.101940955195 0.903 6.06114274643e-39
-0.0217251215989 -0.101940955195 0.903 1.084055282e-38
-0.0200095421013 -0.101715172348 0.901 1.15946559834e-38
-0.0182810078502 -0.101376498078 0.898 1.73103352181e-38
-0.0166190980456 -0.101376498078 0.898 1.37226734365e-38
-0.0149238760178 -0.101150715232 0.896 7.17106081327e-39
-0.0132656675714 -0.101150715232 0.896 1.54660863092e-38
-0.011607459125 -0.101150715232 0.896 1.81376338055e-38
-0.00992704252972 -0.100924932385 0.894 5.32645877716e-39
-0.00827253544143 -0.100924932385 0.894 8.90804312733e-39
-0.00661802835314 -0.100924932385 0.894 1.07447530505e-38
-0.00494686515323 -0.100586258116 0.891 1.08365885466e-38
-0.00329791010215 -0.100586258116 0.891 1.12039305313e-38
-0.00164895505108 -0.100586258116 0.891 1.19386145005e-38
0.0 -0.100586258116 0.891 8.35703015038e-39
0.00164895505108 -0.100586258116 0.891 1.85060491847e-38
0.00329791010215 -0.100586258116 0.891 1.32601846874e-38
0.00494686515323 -0.100586258116 0.891 1.16071457566e-38
0.00659582020431 -0.100586258116 0.891 1.20645618052e-38
0.00827253544143 -0.100924932385 0.894 1.141091913e-38
0.00992704252972 -0.100924932385 0.894 1.33473846883e-38
0.011581549618 -0.100924932385 0.894 1.08566957783e-38
0.0132360567063 -0.100924932385 0.894 1.67563991326e-38
0.0149238760178 -0.101150715232 0.896 1.08584712235e-38
0.0165820844643 -0.101150715232 0.896 1.68515669165e-38
0.0182402929107 -0.101150715232 0.896 1.62140041412e-38
0.0198985013571 -0.101150715232 0.896 1.75933834949e-38
0.0215567098035 -0.101150715232 0.896 1.86021306152e-38
0.0232667372639 -0.101376498078 0.898 1.87865358879e-38
0.0249286470685 -0.101376498078 0.898 1.3536114368e-38
0.0266793894684 -0.101715172348 0.901 1.28935601676e-38
0.0284097743985 -0.101940955195 0.903 1.39045087278e-38
0.0302474987147 -0.102505412311 0.908 1.5474639835e-38
0.03192791531 -0.102505412311 0.908 1.87890273966e-38
0.0336083319052 -0.102505412311 0.908 1.29782392325e-38
0.0354830698028 -0.103069869427 0.913 2.05321628122e-38
-0.0373763144911 -0.101935403157 0.918 1.81306945755e-38
-0.0355607983237 -0.101602280925 0.915 1.96972874041e-38
-0.0337933998122 -0.101380199437 0.913 1.37114700553e-38
-0.0321037298216 -0.101380199437 0.913 9.46479582278e-39
-0.0303141231612 -0.101047077204 0.91 1.28774480379e-38
-0.0285670821194 -0.100824995716 0.908 8.63720016014e-39
-0.026827443794 -0.100602914227 0.906 7.98968816575e-39
-0.0250674479987 -0.100269791995 0.903 8.99987862348e-39
-0.0233962847988 -0.100269791995 0.903 8.35703015038e-39
-0.0217251215989 -0.100269791995 0.903 8.26519465422e-39
-0.0200095421013 -0.100047710506 0.901 6.79582671569e-39
-0.0182810078502 -0.0997145882739 0.898 8.35703155168e-39
-0.0166190980456 -0.0997145882739 0.898 8.90808096238e-39
-0.0149571882411 -0.0997145882739 0.898 9.64272709659e-39
-0.0132656675714 -0.0994925067855 0.896 1.73871039532e-38
-0.011607459125 -0.0994925067855 0.896 1.89670791821e-38
-0.00992704252972 -0.0992704252972 0.894 5.23462328101e-39
-0.00827253544143 -0.0992704252972 0.894 8.99987862348e-39
-0.00661802835314 -0.0992704252972 0.894 1.07447530505e-38
-0.00494686515323 -0.0989373030646 0.891 1.07447530505e-38
-0.00329791010215 -0.0989373030646 0.891 1.1020259539e-38
-0.00164895505108 -0.0989373030646 0.891 1.16631080121e-38
0.0 -0.0989373030646 0.891 7.89785266959e-39
0.00165450708829 -0.0992704252972 0.894 2.02598989284e-38
0.00330901417657 -0.0992704252972 0.894 1.28949950972e-38
0.00496352126486 -0.0992704252972 0.894 1.19828885255e-38
0.00661802835314 -0.0992704252972 0.894 1.29011944417e-38
0.00827253544143 -0.0992704252972 0.894 1.21561310547e-38
0.00992704252972 -0.0992704252972 0.894 1.43719692838e-38
0.011581549618 -0.0992704252972 0.894 1.40925475675e-38
0.0132656675714 -0.0994925067855 0.896 1.21546218562e-38
0.0149238760178 -0.0994925067855 0.896 1.37100351256e-38
0.0165820844643 -0.0994925067855 0.896 1.16821208296e-38
0.0182402929107 -0.0994925067855 0.896 1.57405670472e-38
0.0199429176548 -0.0997145882739 0.898 1.76831030304e-38
0.0216048274593 -0.0997145882739 0.898 1.84159583052e-38
0.0232667372639 -0.0997145882739 0.898 1.89727446318e-38
0.0250119276266 -0.100047710506 0.901 1.16968288583e-38
0.0266793894684 -0.100047710506 0.901 1.18758923813e-38
0.0285041590311 -0.100602914227 0.906 1.78634487414e-38
0.0302474987147 -0.100824995716 0.908 1.98053821663e-38
0.03192791531 -0.100824995716 0.908 1.84198665266e-38
0.0337933998122 -0.101380199437 0.913 1.05811906911e-38
0.0355607983237 -0.101602280925 0.915 2.15420029453e-38
-0.0376613190678 -0.101000810227 0.925 1.93285637391e-38
-0.0355607983237 -0.0999089095762 0.915 2.05277711428e-38
-0.033867426975 -0.0999089095762 0.915 1.45415796474e-38
-0.0321037298216 -0.099690529446 0.913 9.46515455519e-39
-0.030414059831 -0.099690529446 0.913 8.72437213501e-39
-0.0286300052078 -0.0993629592506 0.91 1.27873767765e-38
-0.0268866655242 -0.0991445791204 0.908 9.27538511196e-39
-0.0251507285568 -0.0989261989902 0.906 9.09171411964e-39
-0.0234740133197 -0.0989261989902 0.906 8.90804312733e-39
-0.0217251215989 -0.0985986287949 0.903 8.90804312733e-39
-0.020053958399 -0.0985986287949 0.903 9.27538511196e-39
-0.0183420802595 -0.0983802486646 0.901 8.90804312733e-39
-0.0166746184177 -0.0983802486646 0.901 9.27538511196e-39
-0.0149571882411 -0.0980526784693 0.898 8.99987862348e-39
-0.0132952784365 -0.0980526784693 0.898 1.51712208824e-38
-0.011607459125 -0.0978342983391 0.896 1.78646594633e-38
-0.00994925067855 -0.0978342983391 0.896 9.3852104778e-39
-0.00827253544143 -0.0976159182089 0.894 9.36722060812e-39
-0.00661802835314 -0.0976159182089 0.894 1.08365885466e-38
-0.00496352126486 -0.0976159182089 0.894 1.11120950351e-38
-0.00330901417657 -0.0976159182089 0.894 1.14794370197e-38
-0.00165450708829 -0.0976159182089 0.894 1.17549435082e-38
0.0 -0.0976159182089 0.894 7.71418167727e-39
0.00165450708829 -0.0976159182089 0.894 1.94351955458e-38
0.00330901417657 -0.0976159182089 0.894 1.16968288583e-38
0.00496352126486 -0.0976159182089 0.894 1.22525600072e-38
0.00661802835314 -0.0976159182089 0.894 1.37287648809e-38
0.00827253544143 -0.0976159182089 0.894 1.33596222278e-38
0.00992704252972 -0.0976159182089 0.894 1.40989192716e-38
0.011581549618 -0.0976159182089 0.894 1.26224621641e-38
0.0132656675714 -0.0978342983391 0.896 1.18859354874e-38
0.0149238760178 -0.0978342983391 0.896 1.05808571821e-38
0.0165820844643 -0.0978342983391 0.896 1.33401820142e-38
0.0182810078502 -0.0980526784693 0.898 1.99807700834e-38
0.0199429176548 -0.0980526784693 0.898 1.87868750022e-38
0.0216048274593 -0.0980526784693 0.898 1.79578416073e-38
0.0232667372639 -0.0980526784693 0.898 1.74043273126e-38
0.0250119276266 -0.0983802486646 0.901 1.30747200331e-38
0.0267386111986 -0.0985986287949 0.903 1.82358858473e-38
0.0285041590311 -0.0989261989902 0.906 1.88783657789e-38
0.0302474987147 -0.0991445791204 0.908 1.952448208e-38
0.03192791531 -0.0991445791204 0.908 1.84192051137e-38
-0.0376613190678 -0.0992889320879 0.925 1.89582972446e-38
-0.0358717124074 -0.0990742533158 0.923 2.09858598147e-38
-0.033867426975 -0.0982155382274 0.915 1.42635592294e-38
-0.0321740556262 -0.0982155382274 0.915 8.91055425417e-39
-0.030414059831 -0.0980008594554 0.913 9.55555512172e-39
-0.0286300052078 -0.0976788412972 0.91 1.30585980943e-38
-0.0268866655242 -0.0974641625252 0.908 8.26806451347e-39
-0.0251507285568 -0.0972494837531 0.906 9.27538511196e-39
