# .PCD v0.7 - Point Cloud Data file format
VERSION 0.7
FIELDS x y z rgb
SIZE 4 4 4 4
TYPE F F F F
COUNT 1 1 1 1
WIDTH 840
HEIGHT 1
VIEWPOINT 0 0 0 1 0 0 0
POINTS 840
DATA ascii
0.0101602280925 -0.0728149679962 0.915 1.18467790044e-38
0.0118535994412 -0.0728149679962 0.915 1.12957660274e-38
0.01354697079 -0.0728149679962 0.915 8.90804312733e-39
0.0152903104736 -0.0730537055962 0.918 8.26519465422e-39
0.0169892338596 -0.0730537055962 0.918 1.12039305313e-38
0.0187288721851 -0.0732128639962 0.92 1.12957660274e-38
0.0204314969292 -0.0732128639962 0.92 1.13876015236e-38
0.0221341216733 -0.0732128639962 0.92 1.16631080121e-38
0.0239662939522 -0.0736107599962 0.925 1.18467790044e-38
0.0256781720917 -0.0736107599962 0.925 1.15712725159e-38
0.0273900502311 -0.0736107599962 0.925 1.16631080121e-38
0.0291963130031 -0.0738494975962 0.928 1.31385842106e-38
0.0309137431798 -0.0738494975962 0.928 1.56235348034e-38
0.0326311733564 -0.0738494975962 0.928 1.44314908374e-38
0.0343486035331 -0.0738494975962 0.928 2.34925291324e-38
-0.0397137221561 -0.0725207100241 0.933 2.22874993336e-38
-0.0379870385841 -0.0725207100241 0.933 2.34892977381e-38
-0.0362603550121 -0.0725207100241 0.933 1.17822323945e-38
-0.0344226306959 -0.0722875244614 0.93 1.03817158547e-38
-0.0326311733564 -0.0721320674195 0.928 9.83285527223e-39
-0.03081380651 -0.0718988818567 0.925 8.08511098597e-39
-0.0290390052822 -0.0717434248149 0.923 9.18498454543e-39
-0.0272419959056 -0.0715102392521 0.92 9.55268526247e-39
-0.0254838507894 -0.0713547822102 0.918 1.02855755697e-38
-0.0237849274034 -0.0713547822102 0.918 1.06529175543e-38
-0.0220860040175 -0.0713547822102 0.918 1.07447530505e-38
-0.0203870806315 -0.0713547822102 0.918 1.11120950351e-38
-0.0186881572455 -0.0713547822102 0.918 1.05610820582e-38
-0.0169337134875 -0.0711215966475 0.915 1.00100690812e-38
-0.0152403421387 -0.0711215966475 0.915 8.81620763117e-39
-0.01354697079 -0.0711215966475 0.915 8.99987862348e-39
-0.0118535994412 -0.0711215966475 0.915 1.01937400735e-38
-0.0101602280925 -0.0711215966475 0.915 9.64272709659e-39
-0.00844834995305 -0.0709661396056 0.913 8.99987862348e-39
-0.00675867996244 -0.0709661396056 0.913 9.73456259275e-39
-0.00506900997183 -0.0709661396056 0.913 9.36722060812e-39
-0.00337933998122 -0.0709661396056 0.913 8.54070114269e-39
-0.00168966999061 -0.0709661396056 0.913 9.1835496158e-39
0.0 -0.0709661396056 0.913 9.91823358506e-39
0.00168966999061 -0.0709661396056 0.913 9.1835496158e-39
0.0033867426975 -0.0711215966475 0.915 8.72437213501e-39
0.00508011404625 -0.0711215966475 0.915 1.07447530505e-38
0.006773485395 -0.0711215966475 0.915 1.01019045774e-38
0.00846685674374 -0.0711215966475 0.915 1.01019059787e-38
0.0101602280925 -0.0711215966475 0.915 1.15712725159e-38
0.0118535994412 -0.0711215966475 0.915 1.12039305313e-38
0.0135913870877 -0.0713547822102 0.918 1.01019045774e-38
0.0152903104736 -0.0713547822102 0.918 1.12039305313e-38
0.017026247441 -0.0715102392521 0.92 1.14794370197e-38
0.0187288721851 -0.0715102392521 0.92 1.26732984698e-38
0.0204314969292 -0.0715102392521 0.92 1.2765133966e-38
0.022206298157 -0.0717434248149 0.923 1.05610820582e-38
0.0239662939522 -0.0718988818567 0.925 1.01937400735e-38
0.0257614526498 -0.0721320674195 0.928 1.12039305313e-38
0.0274788828265 -0.0721320674195 0.928 1.26772599406e-38
0.0291963130031 -0.0721320674195 0.928 1.08376647439e-38
0.0309137431798 -0.0721320674195 0.928 1.62700140408e-38
0.0326311733564 -0.0721320674195 0.928 1.43396287166e-38
0.0343486035331 -0.0721320674195 0.928 2.34921872155e-38
0.0360660337097 -0.0721320674195 0.928 2.34846145986e-38
-0.0397988533933 -0.0709457821358 0.935 2.2195319118e-38
-0.0380684684631 -0.0709457821358 0.935 2.34910857949e-38
-0.0362603550121 -0.0707940264521 0.933 1.05836906076e-38
-0.0344226306959 -0.0705663929266 0.93 1.03835095168e-38
-0.0326311733564 -0.0704146372428 0.928 9.37296032662e-39
-0.03081380651 -0.0701870037173 0.925 9.18677820746e-39
-0.0290390052822 -0.0700352480336 0.923 9.1835496158e-39
-0.0273308285009 -0.0700352480336 0.923 9.91823358506e-39
-0.0255393711615 -0.069807614508 0.92 1.11120950351e-38
-0.0237849274034 -0.0696558588243 0.918 1.09284240428e-38
-0.0220860040175 -0.0696558588243 0.918 1.09284240428e-38
-0.0203870806315 -0.0696558588243 0.918 1.09284240428e-38
-0.0186881572455 -0.0696558588243 0.918 1.1020259539e-38
-0.0169892338596 -0.0696558588243 0.918 1.08365885466e-38
-0.0152403421387 -0.0694282252987 0.915 1.00100690812e-38
-0.01354697079 -0.0694282252987 0.915 1.01019045774e-38
-0.0118535994412 -0.0694282252987 0.915 9.55089160043e-39
-0.0101602280925 -0.0694282252987 0.915 8.35703015038e-39
-0.00846685674374 -0.0694282252987 0.915 8.17335915806e-39
-0.006773485395 -0.0694282252987 0.915 9.36722060812e-39
-0.00508011404625 -0.0694282252987 0.915 9.18355802359e-39
-0.00337933998122 -0.069276469615 0.913 9.36722060812e-39
-0.00168966999061 -0.069276469615 0.913 9.1835496158e-39
0.0 -0.0694282252987 0.915 9.27538511196e-39
0.00169337134875 -0.0694282252987 0.915 9.91823358506e-39
0.0033867426975 -0.0694282252987 0.915 9.55089160043e-39
0.00508011404625 -0.0694282252987 0.915 1.06529175543e-38
0.006773485395 -0.0694282252987 0.915 9.73456259275e-39
0.00846685674374 -0.0694282252987 0.915 9.36722060812e-39
0.0101602280925 -0.0694282252987 0.915 1.06529175543e-38
0.0118535994412 -0.0694282252987 0.915 1.11120950351e-38
0.0135913870877 -0.0696558588243 0.918 1.2214120989e-38
0.0152903104736 -0.0696558588243 0.918 1.24896274775e-38
0.017026247441 -0.069807614508 0.92 1.19386145005e-38
0.0187288721851 -0.069807614508 0.92 1.17549435082e-38
0.0204981213757 -0.0700352480336 0.923 1.17549435082e-38
0.022206298157 -0.0700352480336 0.923 1.00100690812e-38
0.0239662939522 -0.0701870037173 0.925 8.35703015038e-39
0.0257614526498 -0.0704146372428 0.928 9.73456259275e-39
0.0274788828265 -0.0704146372428 0.928 1.23070452941e-38
0.0291963130031 -0.0704146372428 0.928 1.38718486645e-38
0.0309137431798 -0.0704146372428 0.928 1.47091090827e-38
0.0326311733564 -0.0704146372428 0.928 1.67367347112e-38
0.0343486035331 -0.0704146372428 0.928 2.349289347e-38
-0.0397988533933 -0.0692153972057 0.935 2.21953009011e-38
-0.0380684684631 -0.0692153972057 0.935 2.34925221259e-38
-0.036338083533 -0.0692153972057 0.935 1.15060210529e-38
-0.0344226306959 -0.0688452613918 0.93 9.46013230149e-39
-0.0326311733564 -0.0686972070662 0.928 9.46265043483e-39
-0.03081380651 -0.0684751255778 0.925 9.45905610427e-39
-0.0290390052822 -0.0683270712523 0.923 1.01937400735e-38
-0.0273308285009 -0.0683270712523 0.923 1.05610820582e-38
-0.0255393711615 -0.0681049897639 0.92 1.11120950351e-38
-0.0237849274034 -0.0679569354383 0.918 1.12957660274e-38
-0.0220860040175 -0.0679569354383 0.918 1.08365885466e-38
-0.0203870806315 -0.0679569354383 0.918 1.11120950351e-38
-0.0186881572455 -0.0679569354383 0.918 1.14794370197e-38
-0.0169892338596 -0.0679569354383 0.918 9.91823358506e-39
-0.0152903104736 -0.0679569354383 0.918 9.1835496158e-39
-0.0135913870877 -0.0679569354383 0.918 8.99987862348e-39
-0.0118535994412 -0.06773485395 0.915 9.1835496158e-39
-0.0101602280925 -0.06773485395 0.915 8.63253663885e-39
-0.00846685674374 -0.06773485395 0.915 9.09171411964e-39
-0.006773485395 -0.06773485395 0.915 9.82639808891e-39
-0.00508011404625 -0.06773485395 0.915 1.02855755697e-38
-0.0033867426975 -0.06773485395 0.915 1.08365885466e-38
-0.00169337134875 -0.06773485395 0.915 1.07447530505e-38
0.0 -0.06773485395 0.915 1.08365885466e-38
0.00169337134875 -0.06773485395 0.915 1.13876015236e-38
0.0033867426975 -0.06773485395 0.915 1.12957660274e-38
0.00508011404625 -0.06773485395 0.915 1.11120950351e-38
0.006773485395 -0.06773485395 0.915 1.08365885466e-38
0.00846685674374 -0.06773485395 0.915 1.09284240428e-38
0.0101602280925 -0.06773485395 0.915 1.11120950351e-38
0.0118924637017 -0.0679569354383 0.918 1.1020259539e-38
0.0135913870877 -0.0679569354383 0.918 1.05610820582e-38
0.0153236226969 -0.0681049897639 0.92 1.01019045774e-38
0.017026247441 -0.0681049897639 0.92 1.13876015236e-38
0.0187899445944 -0.0683270712523 0.923 1.12957660274e-38
0.0204981213757 -0.0683270712523 0.923 1.07447530505e-38
0.0222544158128 -0.0684751255778 0.925 1.08365885466e-38
0.0240440224732 -0.0686972070662 0.928 1.06529175543e-38
0.0257614526498 -0.0686972070662 0.928 1.20326023911e-38
0.0274788828265 -0.0686972070662 0.928 1.40619516168e-38
0.0291963130031 -0.0686972070662 0.928 1.44303697986e-38
0.0309137431798 -0.0686972070662 0.928 1.34176696154e-38
0.0326311733564 -0.0686972070662 0.928 1.79345366125e-38
-0.0381906132817 -0.0677015417267 0.938 2.3487480254e-38
-0.0364546763144 -0.0677015417267 0.938 1.17818834712e-38
-0.0345336714401 -0.0673406593081 0.933 9.00023735589e-39
-0.0327014991611 -0.067124129857 0.93 9.0013247635e-39
-0.0309137431798 -0.0669797768895 0.928 1.02855755697e-38
-0.0291019283706 -0.0667632474384 0.925 1.09298589724e-38
-0.0273308285009 -0.0666188944709 0.923 1.15777296992e-38
-0.0256226517196 -0.0666188944709 0.923 1.08383822087e-38
-0.0238367464174 -0.0664023650198 0.92 1.1020259539e-38
-0.0221341216733 -0.0664023650198 0.92 1.1020259539e-38
-0.0204314969292 -0.0664023650198 0.92 1.1020259539e-38
-0.0187288721851 -0.0664023650198 0.92 1.12039305313e-38
-0.0169892338596 -0.0662580120524 0.918 9.55089160043e-39
-0.0152903104736 -0.0662580120524 0.918 9.36722060812e-39
-0.0135913870877 -0.0662580120524 0.918 8.99987862348e-39
-0.0118924637017 -0.0662580120524 0.918 9.27538511196e-39
-0.0101935403157 -0.0662580120524 0.918 8.81620763117e-39
-0.00849461692979 -0.0662580120524 0.918 9.1835496158e-39
-0.00679569354383 -0.0662580120524 0.918 9.73456259275e-39
-0.00508011404625 -0.0660414826012 0.915 1.0469246562e-38
-0.0033867426975 -0.0660414826012 0.915 9.82639808891e-39
-0.00169337134875 -0.0660414826012 0.915 1.18471377368e-38
0.0 -0.0660414826012 0.915 1.03774110659e-38
0.00169337134875 -0.0660414826012 0.915 1.05610820582e-38
0.0033867426975 -0.0660414826012 0.915 1.00100690812e-38
0.00508011404625 -0.0660414826012 0.915 1.0469246562e-38
0.00679569354383 -0.0662580120524 0.918 1.09284240428e-38
0.00849461692979 -0.0662580120524 0.918 1.1020259539e-38
0.0101935403157 -0.0662580120524 0.918 1.13876015236e-38
0.0118924637017 -0.0662580120524 0.918 1.11120950351e-38
0.0135913870877 -0.0662580120524 0.918 9.64272709659e-39
0.0153236226969 -0.0664023650198 0.92 8.81620763117e-39
0.017026247441 -0.0664023650198 0.92 1.08365885466e-38
0.0187899445944 -0.0666188944709 0.923 1.14794370197e-38
0.0205425376733 -0.0667632474384 0.925 1.14794370197e-38
0.0223265922965 -0.0669797768895 0.928 1.14794370197e-38
0.0240440224732 -0.0669797768895 0.928 1.20304499967e-38
0.0257614526498 -0.0669797768895 0.928 1.35023290621e-38
0.0275381045567 -0.067124129857 0.93 1.42391738336e-38
0.0292592360915 -0.067124129857 0.93 1.32322035597e-38
0.0310803042961 -0.0673406593081 0.933 1.34180269465e-38
0.0328069878681 -0.0673406593081 0.933 1.79373882549e-38
-0.0382720431608 -0.0661062563686 0.94 2.34910899988e-38
-0.0365324048353 -0.0661062563686 0.94 9.93724640263e-39
-0.034718739347 -0.0659656047594 0.938 1.03820745871e-38
-0.0328069878681 -0.0656139757361 0.933 9.7428148394e-39
-0.0309803676263 -0.0654029983222 0.93 1.10249230602e-38
-0.0291963130031 -0.0652623467129 0.928 1.08426869976e-38
-0.0273900502311 -0.0650513692989 0.925 1.37954134385e-38
-0.0256226517196 -0.0649107176896 0.923 9.92110344432e-39
-0.0238367464174 -0.0646997402757 0.92 1.14794370197e-38
-0.0221341216733 -0.0646997402757 0.92 1.09284240428e-38
-0.0204314969292 -0.0646997402757 0.92 1.08365885466e-38
-0.0187288721851 -0.0646997402757 0.92 1.14794370197e-38
-0.017026247441 -0.0646997402757 0.92 9.73456259275e-39
-0.0152903104736 -0.0645590886664 0.918 1.00100690812e-38
-0.0135913870877 -0.0645590886664 0.918 9.36722060812e-39
-0.0118924637017 -0.0645590886664 0.918 8.90804312733e-39
-0.0101935403157 -0.0645590886664 0.918 8.81620763117e-39
-0.00849461692979 -0.0645590886664 0.918 8.17335915806e-39
-0.00679569354383 -0.0645590886664 0.918 8.99987862348e-39
-0.00509677015787 -0.0645590886664 0.918 9.1835496158e-39
-0.0033867426975 -0.0643481112525 0.915 8.35703015038e-39
-0.00169337134875 -0.0643481112525 0.915 1.06529175543e-38
0.0 -0.0643481112525 0.915 1.07447530505e-38
0.00169337134875 -0.0643481112525 0.915 9.91823358506e-39
0.0033867426975 -0.0643481112525 0.915 8.63253663885e-39
0.00509677015787 -0.0645590886664 0.918 8.44886564654e-39
0.00679569354383 -0.0645590886664 0.918 9.45905610427e-39
0.00849461692979 -0.0645590886664 0.918 1.01019045774e-38
0.0101935403157 -0.0645590886664 0.918 1.14794370197e-38
0.0119183732087 -0.0646997402757 0.92 1.07447530505e-38
0.0136209979528 -0.0646997402757 0.92 1.02855755697e-38
0.0153236226969 -0.0646997402757 0.92 1.17581720999e-38
0.0170817678131 -0.0649107176896 0.923 1.18467790044e-38
0.0188306595339 -0.0650513692989 0.925 1.18467790044e-38
0.0205425376733 -0.0650513692989 0.925 1.23977919813e-38
0.0223265922965 -0.0652623467129 0.928 1.25814629736e-38
0.0240958414871 -0.0654029983222 0.93 1.25814629736e-38
0.0258169730219 -0.0654029983222 0.93 1.26732984698e-38
0.0275381045567 -0.0654029983222 0.93 1.47927161542e-38
0.0293536207241 -0.0656139757361 0.933 1.35098652452e-38
0.0310803042961 -0.0656139757361 0.933 1.38746933004e-38
0.0328069878681 -0.0656139757361 0.933 1.90437330107e-38
0.034718739347 -0.0659656047594 0.938 2.34918074637e-38
-0.0401393783421 -0.0645720434199 0.943 2.18261638531e-38
-0.0382720431608 -0.0643666180432 0.94 2.34900124003e-38
-0.0365324048353 -0.0643666180432 0.94 9.93868133225e-39
-0.0347927665098 -0.0643666180432 0.94 1.10288719193e-38
-0.0328069878681 -0.0638872921641 0.933 9.1896592771e-39
-0.0310803042961 -0.0638872921641 0.933 1.01984035948e-38
-0.0292592360915 -0.0636818667874 0.93 1.08383822087e-38
-0.0273900502311 -0.0633394911595 0.925 1.5547835259e-38
-0.0256226517196 -0.0632025409083 0.923 9.92253837395e-39
-0.0239144749383 -0.0632025409083 0.923 1.18467790044e-38
-0.022206298157 -0.0632025409083 0.923 1.17549435082e-38
-0.0204314969292 -0.0629971155316 0.92 1.11120950351e-38
-0.0187288721851 -0.0629971155316 0.92 1.15712725159e-38
-0.017026247441 -0.0629971155316 0.92 1.00100690812e-38
-0.0153236226969 -0.0629971155316 0.92 8.0815236619e-39
-0.0135913870877 -0.0628601652804 0.918 8.0815236619e-39
-0.0118924637017 -0.0628601652804 0.918 8.54070114269e-39
-0.0101935403157 -0.0628601652804 0.918 8.54070114269e-39
-0.00849461692979 -0.0628601652804 0.918 8.81620763117e-39
-0.00679569354383 -0.0628601652804 0.918 9.36722060812e-39
-0.00509677015787 -0.0628601652804 0.918 1.01019045774e-38
-0.00339784677192 -0.0628601652804 0.918 1.0469246562e-38
-0.00169892338596 -0.0628601652804 0.918 1.07447530505e-38
0.0 -0.0628601652804 0.918 1.09284240428e-38
0.00169892338596 -0.0628601652804 0.918 1.08365885466e-38
0.00339784677192 -0.0628601652804 0.918 1.0469246562e-38
0.00509677015787 -0.0628601652804 0.918 1.1020259539e-38
0.00679569354383 -0.0628601652804 0.918 1.14794370197e-38
0.00849461692979 -0.0628601652804 0.918 1.15712725159e-38
0.0101935403157 -0.0628601652804 0.918 1.25814629736e-38
0.0119183732087 -0.0629971155316 0.92 1.14794370197e-38
0.0136654142505 -0.0632025409083 0.923 1.17549435082e-38
0.0153735910318 -0.0632025409083 0.923 1.35026877945e-38
0.0171187813945 -0.0633394911595 0.925 1.31324787532e-38
0.0188306595339 -0.0633394911595 0.925 1.28569694621e-38
0.0206091621199 -0.0635449165362 0.928 1.16631080121e-38
0.0223265922965 -0.0635449165362 0.928 1.07447530505e-38
0.0240958414871 -0.0636818667874 0.93 1.30445879122e-38
0.0258169730219 -0.0636818667874 0.93 1.05610820582e-38
0.027626937152 -0.0638872921641 0.933 1.4247448501e-38
0.0293536207241 -0.0638872921641 0.933 1.2957790084e-38
0.0311469287426 -0.0640242424153 0.935 1.52590612767e-38
0.0329828023797 -0.064229667792 0.938 1.94150392687e-38
0.034718739347 -0.064229667792 0.938 2.34925137181e-38
-0.0401393783421 -0.0628268530572 0.943 2.25644267387e-38
-0.0383941879794 -0.0628268530572 0.943 2.34907214573e-38
-0.0365324048353 -0.0626269797177 0.94 1.00301693064e-38
-0.034718739347 -0.0624937308247 0.938 1.12129030453e-38
-0.0329828023797 -0.0624937308247 0.938 9.74463232351e-39
-0.0310803042961 -0.0621606085921 0.933 9.82855048335e-39
-0.0292592360915 -0.0619607352526 0.93 1.09305764372e-38
-0.0274788828265 -0.0618274863596 0.928 1.14812306818e-38
-0.0256781720917 -0.06162761302 0.925 1.20336785884e-38
-0.0239144749383 -0.061494364127 0.923 1.13876015236e-38
-0.022206298157 -0.061494364127 0.923 1.14794370197e-38
-0.0204981213757 -0.061494364127 0.923 1.15712725159e-38
-0.0187288721851 -0.0612944907875 0.92 1.14794370197e-38
-0.017026247441 -0.0612944907875 0.92 1.05610820582e-38
-0.0153236226969 -0.0612944907875 0.92 8.99987862348e-39
-0.0136209979528 -0.0612944907875 0.92 9.1835496158e-39
-0.0119183732087 -0.0612944907875 0.92 1.02855755697e-38
-0.0102157484646 -0.0612944907875 0.92 9.91823358506e-39
-0.00851312372049 -0.0612944907875 0.92 1.03774110659e-38
-0.00681049897639 -0.0612944907875 0.92 1.01019045774e-38
-0.00510787423229 -0.0612944907875 0.92 9.55089160043e-39
-0.00339784677192 -0.0611612418945 0.918 1.12039305313e-38
-0.00169892338596 -0.0611612418945 0.918 1.14794370197e-38
0.0 -0.0611612418945 0.918 1.14794370197e-38
0.00169892338596 -0.0611612418945 0.918 1.16631080121e-38
0.00339784677192 -0.0611612418945 0.918 1.16631080121e-38
0.00509677015787 -0.0611612418945 0.918 1.23059564852e-38
0.00679569354383 -0.0611612418945 0.918 1.30406404544e-38
0.00849461692979 -0.0611612418945 0.918 1.26733096802e-38
0.0102157484646 -0.0612944907875 0.92 1.31324759506e-38
0.0119572374691 -0.061494364127 0.923 1.31324759506e-38
0.0136654142505 -0.061494364127 0.923 1.32246701792e-38
0.015406903255 -0.06162761302 0.925 1.14794370197e-38
0.0171187813945 -0.06162761302 0.925 1.14794370197e-38
0.0188917319432 -0.0618274863596 0.928 1.14794370197e-38
0.0206091621199 -0.0618274863596 0.928 1.01937400735e-38
0.0223747099523 -0.0619607352526 0.93 8.63253663885e-39
0.0240958414871 -0.0619607352526 0.93 1.13890406571e-38
0.02590025358 -0.0621606085921 0.933 1.09284240428e-38
0.0276861588823 -0.0622938574851 0.935 1.26808458633e-38
0.0294165438124 -0.0622938574851 0.935 1.28627091806e-38
0.0311469287426 -0.0622938574851 0.935 1.44275055446e-38
0.0329828023797 -0.0624937308247 0.938 2.06146544502e-38
0.034718739347 -0.0624937308247 0.938 2.3493240992e-38
-0.0401393783421 -0.0610816626945 0.943 2.25640778154e-38
-0.0383941879794 -0.0610816626945 0.943 2.34910815911e-38
-0.0365324048353 -0.0608873413922 0.94 9.75250621958e-39
-0.034718739347 -0.0607577938573 0.938 1.10260006588e-38
-0.0328773136727 -0.060563472555 0.935 9.46443849167e-39
-0.0310803042961 -0.0604339250201 0.933 1.06550699488e-38
-0.0293536207241 -0.0604339250201 0.933 1.06532762867e-38
-0.0274788828265 -0.0601100561829 0.928 1.12039305313e-38
-0.0256781720917 -0.0599157348806 0.925 1.18467790044e-38
-0.0239144749383 -0.0597861873457 0.923 1.13876029249e-38
-0.022206298157 -0.0597861873457 0.923 1.16631080121e-38
-0.0204981213757 -0.0597861873457 0.923 1.13876015236e-38
-0.0187899445944 -0.0597861873457 0.923 1.12039305313e-38
-0.0170817678131 -0.0597861873457 0.923 1.0469246562e-38
-0.0153236226969 -0.0595918660434 0.92 1.03774110659e-38
-0.0136209979528 -0.0595918660434 0.92 9.27538511196e-39
-0.0119183732087 -0.0595918660434 0.92 9.1835496158e-39
-0.0102157484646 -0.0595918660434 0.92 9.55089160043e-39
-0.00854088390653 -0.0597861873457 0.923 1.01019045774e-38
-0.00681049897639 -0.0595918660434 0.92 1.03774110659e-38
-0.00510787423229 -0.0595918660434 0.92 1.00100690812e-38
-0.00340524948819 -0.0595918660434 0.92 1.13876141353e-38
-0.00169892338596 -0.0594623185085 0.918 1.21222854929e-38
0.0 -0.0594623185085 0.918 1.23977919813e-38
0.00169892338596 -0.0594623185085 0.918 1.2214120989e-38
0.00339784677192 -0.0594623185085 0.918 1.20304499967e-38
0.00509677015787 -0.0594623185085 0.918 1.23059564852e-38
0.00681049897639 -0.0595918660434 0.92 1.17549435082e-38
0.00851312372049 -0.0595918660434 0.92 1.24896274775e-38
0.0102157484646 -0.0595918660434 0.92 1.09284240428e-38
0.0119572374691 -0.0597861873457 0.923 1.15716312483e-38
0.0136950251156 -0.0599157348806 0.925 1.11120950351e-38
0.015406903255 -0.0599157348806 0.925 1.03774110659e-38
0.0171743017665 -0.0601100561829 0.928 9.55089160043e-39
0.0188917319432 -0.0601100561829 0.928 9.64272709659e-39
0.0206091621199 -0.0601100561829 0.928 1.10206182714e-38
0.0223747099523 -0.0602396037178 0.93 1.08365885466e-38
0.024173570008 -0.0604339250201 0.933 1.2308467612e-38
0.0259557739521 -0.060563472555 0.935 1.17553022406e-38
0.0276861588823 -0.060563472555 0.935 1.36010099012e-38
0.0294165438124 -0.060563472555 0.935 1.3598487564e-38
0.0311469287426 -0.060563472555 0.935 1.35077100482e-38
0.0328773136727 -0.060563472555 0.935 2.15380751057e-38
0.034718739347 -0.0607577938573 0.938 2.34907088457e-38
0.0364546763144 -0.0607577938573 0.938 2.32090997024e-38
-0.0401393783421 -0.0593364723318 0.943 2.18261638531e-38
-0.0383941879794 -0.0593364723318 0.943 2.34874830566e-38
-0.0365324048353 -0.0591477030667 0.94 1.07652007977e-38
-0.034718739347 -0.0590218568899 0.938 1.10252817927e-38
-0.0328773136727 -0.0588330876248 0.935 1.00136564053e-38
-0.0311469287426 -0.0588330876248 0.935 1.01940988059e-38
-0.0293536207241 -0.0587072414481 0.933 1.04696052944e-38
-0.0275381045567 -0.058518472183 0.93 1.08365885466e-38
-0.0257614526498 -0.0583926260063 0.928 1.13876015236e-38
-0.0240440224732 -0.0583926260063 0.928 1.15712725159e-38
-0.0223265922965 -0.0583926260063 0.928 1.19386145005e-38
-0.0205425376733 -0.0582038567412 0.925 1.19386145005e-38
-0.0188306595339 -0.0582038567412 0.925 1.12957660274e-38
-0.0171187813945 -0.0582038567412 0.925 1.03774110659e-38
-0.0153735910318 -0.0580780105644 0.923 9.64272709659e-39
-0.0136654142505 -0.0580780105644 0.923 7.53051068496e-39
-0.0119572374691 -0.0580780105644 0.923 7.89785266959e-39
-0.0102490606878 -0.0580780105644 0.923 8.99987862348e-39
-0.00854088390653 -0.0580780105644 0.923 9.73456259275e-39
-0.00683270712523 -0.0580780105644 0.923 1.01019045774e-38
-0.00512453034392 -0.0580780105644 0.923 1.07447530505e-38
-0.00340524948819 -0.0578892412993 0.92 1.08365885466e-38
-0.0017026247441 -0.0578892412993 0.92 1.08365885466e-38
0.0 -0.0578892412993 0.92 1.06529175543e-38
0.0017026247441 -0.0578892412993 0.92 1.08365885466e-38
0.00340524948819 -0.0578892412993 0.92 1.12039305313e-38
0.00510787423229 -0.0578892412993 0.92 1.11120950351e-38
0.00681049897639 -0.0578892412993 0.92 1.08365885466e-38
0.00851312372049 -0.0578892412993 0.92 1.23988681785e-38
0.0102490606878 -0.0580780105644 0.923 9.09171411964e-39
0.0119831469761 -0.0582038567412 0.925 1.08387409411e-38
0.0136950251156 -0.0582038567412 0.925 1.06529175543e-38
0.015406903255 -0.0582038567412 0.925 1.19386145005e-38
0.0171743017665 -0.0583926260063 0.928 1.15712725159e-38
0.0188917319432 -0.0583926260063 0.928 1.12982771543e-38
0.0206535784175 -0.058518472183 0.93 1.21237204225e-38
0.022446886436 -0.0587072414481 0.933 1.28569694621e-38
0.024225389022 -0.0588330876248 0.935 1.13876015236e-38
0.0259557739521 -0.0588330876248 0.935 1.23999471784e-38
0.0276861588823 -0.0588330876248 0.935 1.37785782387e-38
0.0294165438124 -0.0588330876248 0.935 1.52572732198e-38
0.0311469287426 -0.0588330876248 0.935 1.33204517318e-38
0.0328773136727 -0.0588330876248 0.935 2.20905300188e-38
0.034718739347 -0.0590218568899 0.938 2.3490372534e-38
-0.0402670751979 -0.057774499197 0.946 2.26544769806e-38
-0.0383941879794 -0.0575912819691 0.943 2.34903613236e-38
-0.0366489976167 -0.0575912819691 0.943 9.84325851203e-39
-0.034718739347 -0.0572859199226 0.938 1.16720763222e-38
-0.0328773136727 -0.0571027026947 0.935 9.09781397186e-39
-0.0311469287426 -0.0571027026947 0.935 9.82855048335e-39
-0.0293536207241 -0.0569805578761 0.933 1.02862930345e-38
-0.027626937152 -0.0569805578761 0.933 1.06529175543e-38
-0.0258169730219 -0.0567973406482 0.93 1.15712725159e-38
-0.0240440224732 -0.0566751958296 0.928 1.18467790044e-38
-0.0223265922965 -0.0566751958296 0.928 1.17549435082e-38
-0.0206091621199 -0.0566751958296 0.928 1.19386145005e-38
-0.0188306595339 -0.0564919786017 0.925 1.17549435082e-38
-0.0171187813945 -0.0564919786017 0.925 9.36722060812e-39
-0.015406903255 -0.0564919786017 0.925 9.45905610427e-39
-0.0136950251156 -0.0564919786017 0.925 9.1835496158e-39
-0.0119572374691 -0.0563698337831 0.923 9.91823358506e-39
-0.0102490606878 -0.0563698337831 0.923 1.02855755697e-38
-0.00854088390653 -0.0563698337831 0.923 1.01019045774e-38
-0.00683270712523 -0.0563698337831 0.923 9.64272709659e-39
-0.00512453034392 -0.0563698337831 0.923 9.91823358506e-39
-0.00341635356261 -0.0563698337831 0.923 9.64272709659e-39
-0.0017026247441 -0.0561866165552 0.92 8.81620763117e-39
0.0 -0.0561866165552 0.92 8.17335915806e-39
0.00170817678131 -0.0563698337831 0.923 9.45905610427e-39
0.00341635356261 -0.0563698337831 0.923 1.01019045774e-38
0.00512453034392 -0.0563698337831 0.923 1.01019045774e-38
0.00683270712523 -0.0563698337831 0.923 1.07447530505e-38
0.00855939069723 -0.0564919786017 0.925 1.21222854929e-38
0.0102712688367 -0.0564919786017 0.925 1.1020259539e-38
0.0119831469761 -0.0564919786017 0.925 1.2214120989e-38
0.0137394414132 -0.0566751958296 0.928 1.07447530505e-38
0.0154568715899 -0.0566751958296 0.928 1.0469246562e-38
0.0171743017665 -0.0566751958296 0.928 1.22151971862e-38
0.0189324468827 -0.0567973406482 0.93 1.15712725159e-38
0.0206535784175 -0.0567973406482 0.93 1.24896274775e-38
0.0224950040919 -0.0571027026947 0.935 1.30406404544e-38
0.024225389022 -0.0571027026947 0.935 1.20329611235e-38
0.0259557739521 -0.0571027026947 0.935 1.38747045108e-38
0.0277749914776 -0.0572859199226 0.938 1.3872540906e-38
0.029510928445 -0.0572859199226 0.938 1.43349792083e-38
0.0311469287426 -0.0571027026947 0.935 1.46119010082e-38
0.0328773136727 -0.0571027026947 0.935 2.22756401447e-38
0.0347927665098 -0.0574080647412 0.94 2.34903655275e-38
-0.0402670751979 -0.0560237567971 0.946 2.2654474178e-38
-0.038516332798 -0.0560237567971 0.946 2.34910759859e-38
-0.0366489976167 -0.0558460916064 0.943 1.03024359928e-38
-0.0347927665098 -0.0556684264157 0.94 1.1578447164e-38
-0.0329828023797 -0.0555499829552 0.938 9.28078992013e-39
-0.0311469287426 -0.0553723177646 0.935 1.00125872146e-38
-0.0293536207241 -0.0552538743041 0.933 1.01940988059e-38
-0.027626937152 -0.0552538743041 0.933 1.0469246562e-38
-0.02590025358 -0.0552538743041 0.933 1.14794370197e-38
-0.0240958414871 -0.0550762091134 0.93 1.17549435082e-38
-0.0223747099523 -0.0550762091134 0.93 1.21222854929e-38
-0.0206535784175 -0.0550762091134 0.93 1.19386145005e-38
-0.0188917319432 -0.054957765653 0.928 1.230667395e-38
-0.0171187813945 -0.0547801004623 0.925 1.01019045774e-38
-0.015406903255 -0.0547801004623 0.925 9.91823358506e-39
-0.0136950251156 -0.0547801004623 0.925 1.08365885466e-38
-0.0119831469761 -0.0547801004623 0.925 1.06529175543e-38
-0.0102712688367 -0.0547801004623 0.925 1.02855755697e-38
-0.00854088390653 -0.0546616570018 0.923 9.64272709659e-39
-0.00683270712523 -0.0546616570018 0.923 1.05610820582e-38
-0.00512453034392 -0.0546616570018 0.923 1.01937400735e-38
-0.00341635356261 -0.0546616570018 0.923 1.01019045774e-38
-0.00170817678131 -0.0546616570018 0.923 1.03774110659e-38
0.0 -0.0546616570018 0.923 1.03774110659e-38
0.00170817678131 -0.0546616570018 0.923 1.08365885466e-38
0.00341635356261 -0.0546616570018 0.923 1.092950024e-38
0.00512453034392 -0.0546616570018 0.923 1.07447530505e-38
0.00684751255778 -0.0547801004623 0.925 1.08365885466e-38
0.00855939069723 -0.0547801004623 0.925 1.23059564852e-38
0.0102712688367 -0.0547801004623 0.925 1.13876085301e-38
0.0119831469761 -0.0547801004623 0.925 1.28569694621e-38
0.0137394414132 -0.054957765653 0.928 1.20304499967e-38
0.0154568715899 -0.054957765653 0.928 1.03774110659e-38
0.0172113153479 -0.0550762091134 0.93 1.12957660274e-38
0.0189324468827 -0.0550762091134 0.93 1.19386145005e-38
0.020720202864 -0.0552538743041 0.933 1.28569694621e-38
0.0224950040919 -0.0553723177646 0.935 1.33208104642e-38
0.024225389022 -0.0553723177646 0.935 1.3134628345e-38
0.0260390545103 -0.0555499829552 0.938 1.38682361171e-38
0.0278342132079 -0.0556684264157 0.94 1.52529726349e-38
0.0295738515333 -0.0556684264157 0.94 1.37839382054e-38
0.0313134898588 -0.0556684264157 0.94 1.41498410565e-38
0.0330531281843 -0.0556684264157 0.94 2.29206760447e-38
0.0347927665098 -0.0556684264157 0.94 2.34928920687e-38
-0.0383941879794 -0.0541009012437 0.943 2.34878431903e-38
-0.0366489976167 -0.0541009012437 0.943 1.07630624162e-38
-0.0347927665098 -0.0539287880902 0.94 1.09305764372e-38
-0.0329828023797 -0.0538140459879 0.938 1.12100612121e-38
-0.0312468654123 -0.0538140459879 0.938 1.01019045774e-38
-0.0294165438124 -0.0536419328344 0.935 1.01019045774e-38
-0.027626937152 -0.0535271907321 0.933 1.03774110659e-38
-0.02590025358 -0.0535271907321 0.933 1.1020259539e-38
-0.0240958414871 -0.0533550775786 0.93 1.12039305313e-38
-0.0223747099523 -0.0533550775786 0.93 1.16631080121e-38
-0.0206535784175 -0.0533550775786 0.93 1.24896274775e-38
-0.0189324468827 -0.0533550775786 0.93 1.19386145005e-38
-0.0171743017665 -0.0532403354763 0.928 1.12957660274e-38
-0.0154568715899 -0.0532403354763 0.928 1.1020259539e-38
-0.0137394414132 -0.0532403354763 0.928 1.02855755697e-38
-0.0119831469761 -0.0530682223228 0.925 8.81620763117e-39
-0.0102712688367 -0.0530682223228 0.925 8.81620763117e-39
-0.00855939069723 -0.0530682223228 0.925 9.09171411964e-39
-0.00683270712523 -0.0529534802205 0.923 1.11120950351e-38
-0.00512453034392 -0.0529534802205 0.923 1.11120950351e-38
-0.00342375627889 -0.0530682223228 0.925 1.12039305313e-38
-0.00170817678131 -0.0529534802205 0.923 1.17549435082e-38
0.0 -0.0529534802205 0.923 1.18467790044e-38
0.00170817678131 -0.0529534802205 0.923 1.17549435082e-38
0.00341635356261 -0.0529534802205 0.923 1.12957660274e-38
0.00513563441834 -0.0530682223228 0.925 1.12957660274e-38
0.00684751255778 -0.0530682223228 0.925 1.1020259539e-38
0.00855939069723 -0.0530682223228 0.925 1.1020259539e-38
0.0103045810599 -0.0532403354763 0.928 1.06529175543e-38
0.0120220112366 -0.0532403354763 0.928 1.19386145005e-38
0.0137394414132 -0.0532403354763 0.928 1.24896274775e-38
0.0154901838131 -0.0533550775786 0.93 1.02855755697e-38
0.0172113153479 -0.0533550775786 0.93 1.28605693979e-38
0.018993519292 -0.0535271907321 0.933 1.25821804385e-38
0.020720202864 -0.0535271907321 0.933 1.34079824391e-38
0.0224950040919 -0.0536419328344 0.935 1.36849238572e-38
0.024225389022 -0.0536419328344 0.935 1.35916534314e-38
0.0260945748824 -0.0539287880902 0.94 1.43267003369e-38
0.0278342132079 -0.0539287880902 0.94 1.55306133009e-38
0.0295738515333 -0.0539287880902 0.94 1.37853787402e-38
0.0313134898588 -0.0539287880902 0.94 1.31374982043e-38
0.0331586168913 -0.0541009012437 0.943 2.34735037031e-38
0.034903807254 -0.0541009012437 0.943 2.34900124003e-38
-0.0383941879794 -0.052355710881 0.943 2.34892893303e-38
-0.0366489976167 -0.052355710881 0.943 1.07630680214e-38
-0.0347927665098 -0.0521891497647 0.94 1.17560197054e-38
-0.0329828023797 -0.0520781090205 0.938 1.04710472305e-38
-0.0312468654123 -0.0520781090205 0.938 1.05610820582e-38
-0.0294165438124 -0.0519115479043 0.935 1.03774110659e-38
-0.0276861588823 -0.0519115479043 0.935 1.01937400735e-38
-0.02590025358 -0.0518005071601 0.933 1.07447530505e-38
-0.024173570008 -0.0518005071601 0.933 1.12039305313e-38
-0.022446886436 -0.0518005071601 0.933 1.13876015236e-38
-0.020720202864 -0.0518005071601 0.933 1.15712725159e-38
-0.0189324468827 -0.0516339460438 0.93 1.2214120989e-38
-0.0172113153479 -0.0516339460438 0.93 1.13876015236e-38
-0.0154568715899 -0.0515229052996 0.928 1.09284240428e-38
-0.0137394414132 -0.0515229052996 0.928 1.00100690812e-38
-0.0120220112366 -0.0515229052996 0.928 8.90804312733e-39
-0.0102712688367 -0.0513563441834 0.925 8.63253663885e-39
-0.00855939069723 -0.0513563441834 0.925 1.06529175543e-38
-0.00684751255778 -0.0513563441834 0.925 1.1020259539e-38
-0.00513563441834 -0.0513563441834 0.925 1.13876015236e-38
-0.00342375627889 -0.0513563441834 0.925 1.16631080121e-38
-0.00171187813945 -0.0513563441834 0.925 1.12039305313e-38
0.0 -0.0513563441834 0.925 1.12039305313e-38
0.00171187813945 -0.0513563441834 0.925 1.20304499967e-38
0.00342375627889 -0.0513563441834 0.925 1.20304499967e-38
0.00513563441834 -0.0513563441834 0.925 1.19386145005e-38
0.00684751255778 -0.0513563441834 0.925 1.05610820582e-38
0.00855939069723 -0.0513563441834 0.925 1.04696052944e-38
0.0103045810599 -0.0515229052996 0.928 9.64272709659e-39
0.0120220112366 -0.0515229052996 0.928 1.07447530505e-38
0.0137394414132 -0.0515229052996 0.928 1.17549435082e-38
0.0154901838131 -0.0516339460438 0.93 1.13876015236e-38
0.0172113153479 -0.0516339460438 0.93 1.34087069104e-38
0.018993519292 -0.0518005071601 0.933 1.29488049583e-38
0.020720202864 -0.0518005071601 0.933 1.34079824391e-38
0.0224950040919 -0.0519115479043 0.935 1.38682361171e-38
0.0243031175429 -0.0520781090205 0.938 1.41437426056e-38
0.0260945748824 -0.0521891497647 0.94 1.45132369846e-38
0.0278342132079 -0.0521891497647 0.94 1.47012211736e-38
0.0295738515333 -0.0521891497647 0.94 1.34147983548e-38
0.0313134898588 -0.0521891497647 0.94 1.47959195225e-38
0.0331586168913 -0.052355710881 0.943 2.34760092248e-38
0.035088875161 -0.0526333127414 0.948 2.33938440893e-38
-0.0366489976167 -0.0506105205183 0.943 1.04861069851e-38
-0.0347927665098 -0.0504495114392 0.94 1.31410855284e-38
-0.0330531281843 -0.0504495114392 0.94 1.10249230602e-38
-0.0312468654123 -0.0503421720532 0.938 1.07447530505e-38
-0.0294165438124 -0.0501811629741 0.935 1.07447530505e-38
-0.0276861588823 -0.0501811629741 0.935 1.01937400735e-38
-0.0259557739521 -0.0501811629741 0.935 1.05610820582e-38
-0.024173570008 -0.0500738235881 0.933 1.12039305313e-38
-0.022446886436 -0.0500738235881 0.933 1.11120950351e-38
-0.020720202864 -0.0500738235881 0.933 1.15712725159e-38
-0.018993519292 -0.0500738235881 0.933 1.23059564852e-38
-0.0172113153479 -0.049912814509 0.93 1.13876015236e-38
-0.0154901838131 -0.049912814509 0.93 1.05610820582e-38
-0.0137690522784 -0.049912814509 0.93 9.55089160043e-39
-0.0120220112366 -0.049805475123 0.928 9.09171411964e-39
-0.0102712688367 -0.0496444660439 0.925 9.36722060812e-39
-0.00855939069723 -0.0496444660439 0.925 1.0469246562e-38
-0.00684751255778 -0.0496444660439 0.925 1.08365885466e-38
-0.00513563441834 -0.0496444660439 0.925 1.14794370197e-38
-0.00342375627889 -0.0496444660439 0.925 1.13876015236e-38
-0.00171187813945 -0.0496444660439 0.925 1.07447530505e-38
0.0 -0.0496444660439 0.925 1.1020259539e-38
0.00171187813945 -0.0496444660439 0.925 1.18467790044e-38
0.00342375627889 -0.0496444660439 0.925 1.18467790044e-38
0.00513563441834 -0.0496444660439 0.925 1.20304499967e-38
0.00686972070662 -0.049805475123 0.928 1.12957660274e-38
0.00858715088327 -0.049805475123 0.928 1.14794370197e-38
0.0103045810599 -0.049805475123 0.928 1.11120950351e-38
0.0120220112366 -0.049805475123 0.928 1.21222854929e-38
0.0137690522784 -0.049912814509 0.93 1.28569694621e-38
0.0154901838131 -0.049912814509 0.93 1.30406404544e-38
0.01726683572 -0.0500738235881 0.933 1.35916534314e-38
0.0190342342316 -0.0501811629741 0.935 1.36834889275e-38
0.0207646191617 -0.0501811629741 0.935 1.3316156752e-38
0.0224950040919 -0.0501811629741 0.935 1.37760418885e-38
0.0243031175429 -0.0503421720532 0.938 1.38671599199e-38
0.0260945748824 -0.0504495114392 0.94 1.4238447961e-38
0.0279230458032 -0.0506105205183 0.943 1.38703885115e-38
0.0296682361659 -0.0506105205183 0.943 1.46136918676e-38
0.0315133631984 -0.0507715295974 0.946 1.3321527929e-38
0.0333344314029 -0.0508788689834 0.948 2.34824902302e-38
0.035088875161 -0.0508788689834 0.948 2.34889235914e-38
-0.0367655903981 -0.0490207871974 0.946 9.74819442421e-39
-0.034903807254 -0.0488653301556 0.943 1.3228974968e-38
-0.0330531281843 -0.0487098731137 0.94 1.24979007436e-38
-0.0313134898588 -0.0487098731137 0.94 1.12957660274e-38
-0.029510928445 -0.0486062350858 0.938 1.09284240428e-38
-0.0276861588823 -0.048450778044 0.935 1.05610820582e-38
-0.0259557739521 -0.048450778044 0.935 1.09284240428e-38
-0.024173570008 -0.0483471400161 0.933 1.11120950351e-38
-0.022446886436 -0.0483471400161 0.933 1.15712725159e-38
-0.0207646191617 -0.048450778044 0.935 1.17549435082e-38
-0.018993519292 -0.0483471400161 0.933 1.24896274775e-38
-0.01726683572 -0.0483471400161 0.933 1.19386145005e-38
-0.0154901838131 -0.0481916829742 0.93 1.12039305313e-38
-0.0137690522784 -0.0481916829742 0.93 1.09284240428e-38
-0.0120220112366 -0.0480880449463 0.928 1.09284240428e-38
-0.0103045810599 -0.0480880449463 0.928 1.12957660274e-38
-0.00858715088327 -0.0480880449463 0.928 1.1020259539e-38
-0.00686972070662 -0.0480880449463 0.928 1.06529175543e-38
-0.00515229052996 -0.0480880449463 0.928 1.01019045774e-38
-0.00343486035331 -0.0480880449463 0.928 1.15712725159e-38
-0.00171743017665 -0.0480880449463 0.928 1.2214120989e-38
0.0 -0.0480880449463 0.928 1.17549435082e-38
0.00171743017665 -0.0480880449463 0.928 1.19386145005e-38
0.00343486035331 -0.0480880449463 0.928 1.17549435082e-38
0.00515229052996 -0.0480880449463 0.928 1.23977919813e-38
0.00686972070662 -0.0480880449463 0.928 1.2765133966e-38
0.00858715088327 -0.0480880449463 0.928 1.30406404544e-38
0.0103045810599 -0.0480880449463 0.928 1.2765133966e-38
0.0120479207436 -0.0481916829742 0.93 1.33161469429e-38
0.013813468576 -0.0483471400161 0.933 1.34998179352e-38
0.015540152148 -0.0483471400161 0.933 1.36834889275e-38
0.01726683572 -0.0483471400161 0.933 1.34998179352e-38
0.0190342342316 -0.048450778044 0.935 1.36834889275e-38
0.0207646191617 -0.048450778044 0.935 1.3958995416e-38
0.0225671805756 -0.0486062350858 0.938 1.38682361171e-38
0.0243031175429 -0.0486062350858 0.938 1.4606148678e-38
0.0261778554405 -0.0488653301556 0.943 1.41466432934e-38
0.0279230458032 -0.0488653301556 0.943 1.49781597891e-38
0.0297626207984 -0.0490207871974 0.946 1.4984995323e-38
0.0315133631984 -0.0490207871974 0.946 1.30488912998e-38
0.0333344314029 -0.0491244252253 0.948 2.34843021091e-38
0.035088875161 -0.0491244252253 0.948 2.33030903956e-38
-0.0367655903981 -0.0472700447975 0.946 9.5648821643e-39
-0.034903807254 -0.0471201397929 0.943 1.23988681785e-38
-0.0331586168913 -0.0471201397929 0.943 1.24950168714e-38
-0.0313134898588 -0.0469702347883 0.94 1.12961247598e-38
-0.029510928445 -0.0468702981185 0.938 1.12957660274e-38
-0.0277749914776 -0.0468702981185 0.938 1.09284240428e-38
-0.0259557739521 -0.0467203931138 0.935 1.07447530505e-38
-0.024225389022 -0.0467203931138 0.935 1.1020259539e-38
-0.0224950040919 -0.0467203931138 0.935 1.14794370197e-38
-0.0207646191617 -0.0467203931138 0.935 1.15712725159e-38
-0.018993519292 -0.0466204564441 0.933 1.21222854929e-38
-0.01726683572 -0.0466204564441 0.933 1.18467790044e-38
-0.015540152148 -0.0466204564441 0.933 1.20304499967e-38
-0.013813468576 -0.0466204564441 0.933 1.2765133966e-38
-0.0120479207436 -0.0464705514394 0.93 1.0469246562e-38
-0.0103045810599 -0.0463706147697 0.928 9.73456259275e-39
-0.00858715088327 -0.0463706147697 0.928 9.91823358506e-39
-0.00686972070662 -0.0463706147697 0.928 9.36722060812e-39
-0.00515229052996 -0.0463706147697 0.928 8.81620763117e-39
-0.00343486035331 -0.0463706147697 0.928 1.08365885466e-38
-0.00171743017665 -0.0463706147697 0.928 1.17549435082e-38
0.0 -0.0463706147697 0.928 1.23977919813e-38
0.00171743017665 -0.0463706147697 0.928 1.26732984698e-38
0.00343486035331 -0.0463706147697 0.928 1.24896274775e-38
0.00515229052996 -0.0463706147697 0.928 1.2765133966e-38
0.00686972070662 -0.0463706147697 0.928 1.26732984698e-38
0.00858715088327 -0.0463706147697 0.928 1.29488049583e-38
0.0103045810599 -0.0463706147697 0.928 1.28569694621e-38
0.012086785004 -0.0466204564441 0.933 1.33161469429e-38
0.013813468576 -0.0466204564441 0.933 1.34998179352e-38
0.0155734643713 -0.0467203931138 0.935 1.33161469429e-38
0.0173038493014 -0.0467203931138 0.935 1.34079824391e-38
0.0190342342316 -0.0467203931138 0.935 1.36834889275e-38
0.0208312436082 -0.0468702981185 0.938 1.36849238572e-38
0.0225671805756 -0.0468702981185 0.938 1.39615065429e-38
0.0243549365569 -0.0469702347883 0.94 1.39615065429e-38
0.0261778554405 -0.0471201397929 0.943 1.40544182362e-38
0.0280118783985 -0.0472700447975 0.946 1.43306421895e-38
0.0297626207984 -0.0472700447975 0.946 1.48906487e-38
0.0315799876449 -0.0473699814673 0.948 1.40619516168e-38
0.0333344314029 -0.0473699814673 0.948 2.34882523695e-38
0.0351999159051 -0.0475198864719 0.951 2.27488432218e-38
-0.0367655903981 -0.0455193023976 0.946 9.10283482425e-39
-0.0350148479982 -0.0455193023976 0.946 1.25843328329e-38
-0.0332641055983 -0.0455193023976 0.946 1.27723226271e-38
-0.0314134265286 -0.0453749494302 0.943 1.20336785884e-38
-0.0295738515333 -0.0452305964628 0.94 1.16631080121e-38
-0.0277749914776 -0.0451343611511 0.938 1.11120950351e-38
-0.0260390545103 -0.0451343611511 0.938 1.08365885466e-38
-0.024225389022 -0.0449900081837 0.935 1.12957660274e-38
-0.0224950040919 -0.0449900081837 0.935 1.13876015236e-38
-0.0207646191617 -0.0449900081837 0.935 1.16631080121e-38
-0.0190342342316 -0.0449900081837 0.935 1.18467790044e-38
-0.01726683572 -0.0448937728721 0.933 1.19386145005e-38
-0.015540152148 -0.0448937728721 0.933 1.23059564852e-38
-0.013813468576 -0.0448937728721 0.933 1.2214120989e-38
-0.0120479207436 -0.0447494199046 0.93 1.0469246562e-38
-0.0103045810599 -0.044653184593 0.928 8.81620763117e-39
-0.00858715088327 -0.044653184593 0.928 8.99987862348e-39
-0.00686972070662 -0.044653184593 0.928 9.91823358506e-39
-0.00515229052996 -0.044653184593 0.928 1.0469246562e-38
-0.00344226306959 -0.0447494199046 0.93 1.06529175543e-38
-0.00171743017665 -0.044653184593 0.928 1.05610820582e-38
0.0 -0.044653184593 0.928 1.15712725159e-38
0.00171743017665 -0.044653184593 0.928 1.28569694621e-38
0.00344226306959 -0.0447494199046 0.93 1.24896274775e-38
0.00516339460438 -0.0447494199046 0.93 1.32243114468e-38
0.00690673428801 -0.0448937728721 0.933 1.27651353673e-38
0.00863341786002 -0.0448937728721 0.933 1.30406404544e-38
0.010360101432 -0.0448937728721 0.933 1.32243114468e-38
0.012086785004 -0.0448937728721 0.933 1.29488049583e-38
0.0138430794411 -0.0449900081837 0.935 1.34079824391e-38
0.0155734643713 -0.0449900081837 0.935 1.36834889275e-38
0.0173038493014 -0.0449900081837 0.935 1.36834889275e-38
0.0190342342316 -0.0449900081837 0.935 1.41430251407e-38
0.0208312436082 -0.0451343611511 0.938 1.37771180857e-38
0.0225671805756 -0.0451343611511 0.938 1.39600716132e-38
0.0243549365569 -0.0452305964628 0.94 1.44224776857e-38
0.0262611359986 -0.0455193023976 0.946 1.40540595038e-38
0.0280118783985 -0.0455193023976 0.946 1.60834367555e-38
0.0298255438868 -0.0456155377093 0.948 1.34187514178e-38
0.0315799876449 -0.0456155377093 0.948 1.49821002404e-38
0.0333344314029 -0.0456155377093 0.948 2.34896690822e-38
0.0353109566493 -0.0459042436441 0.954 2.2932518418e-38
-0.0350148479982 -0.0437685599977 0.946 1.36910363211e-38
-0.0332641055983 -0.0437685599977 0.946 1.17581903168e-38
-0.0314134265286 -0.0436297590675 0.943 1.23988681785e-38
-0.0295738515333 -0.0434909581373 0.94 1.15712725159e-38
-0.0278342132079 -0.0434909581373 0.94 1.14794370197e-38
-0.0260390545103 -0.0433984241838 0.938 1.12957660274e-38
-0.024225389022 -0.0432596232536 0.935 1.16631080121e-38
-0.0224950040919 -0.0432596232536 0.935 1.15712725159e-38
-0.0208312436082 -0.0433984241838 0.938 1.15712725159e-38
-0.0190342342316 -0.0432596232536 0.935 1.12957660274e-38
-0.0173038493014 -0.0432596232536 0.935 1.13876015236e-38
-0.0155734643713 -0.0432596232536 0.935 1.11120950351e-38
-0.0138430794411 -0.0432596232536 0.935 1.1020259539e-38
-0.012086785004 -0.0431670893001 0.933 1.12039305313e-38
-0.0103267892088 -0.0430282883699 0.93 1.06529175543e-38
-0.00860565767397 -0.0430282883699 0.93 1.09284240428e-38
-0.00688452613918 -0.0430282883699 0.93 1.12039305313e-38
-0.00516339460438 -0.0430282883699 0.93 1.08365885466e-38
-0.00344226306959 -0.0430282883699 0.93 1.09284240428e-38
-0.00172113153479 -0.0430282883699 0.93 1.05610820582e-38
0.0 -0.0430282883699 0.93 1.18467790044e-38
0.00172113153479 -0.0430282883699 0.93 1.23059564852e-38
0.00344226306959 -0.0430282883699 0.93 1.26732984698e-38
0.00516339460438 -0.0430282883699 0.93 1.30406404544e-38
0.00690673428801 -0.0431670893001 0.933 1.28569694621e-38
0.00865192465071 -0.0432596232536 0.935 1.37753244237e-38
0.0103823095809 -0.0432596232536 0.935 1.34079824391e-38
0.012112694511 -0.0432596232536 0.935 1.34079824391e-38
0.0138430794411 -0.0432596232536 0.935 1.34079824391e-38
0.0155734643713 -0.0432596232536 0.935 1.33161469429e-38
0.0173038493014 -0.0432596232536 0.935 1.35916534314e-38
0.0190953066409 -0.0433984241838 0.938 1.35916534314e-38
0.0208312436082 -0.0433984241838 0.938 1.43263374006e-38
0.0226152982314 -0.0434909581373 0.94 1.46018438891e-38
0.0244326650778 -0.0436297590675 0.943 1.43274135979e-38
0.0262611359986 -0.0437685599977 0.946 1.45161068439e-38
0.0280711001288 -0.0438610939512 0.948 1.54387862125e-38
0.0298255438868 -0.0438610939512 0.948 1.4614787683e-38
0.0317798609844 -0.0441386958117 0.954 1.48866774202e-38
0.0336157346215 -0.0442312297651 0.956 2.34889516174e-38
-0.0370765044818 -0.0423731479792 0.954 7.25823278814e-39
-0.035088875161 -0.0421066501932 0.948 1.23109787389e-38
-0.0332641055983 -0.0420178175978 0.946 1.19397047107e-38
-0.0314134265286 -0.0418845687048 0.943 1.30427928489e-38
-0.0296682361659 -0.0418845687048 0.943 1.28601980538e-38
-0.0278342132079 -0.0417513198118 0.94 1.11120950351e-38
-0.0260390545103 -0.0416624872164 0.938 1.12957660274e-38
-0.0243031175429 -0.0416624872164 0.938 1.12957660274e-38
-0.0225671805756 -0.0416624872164 0.938 1.15712725159e-38
-0.0208312436082 -0.0416624872164 0.938 1.15712725159e-38
-0.0190953066409 -0.0416624872164 0.938 1.19386145005e-38
-0.0173038493014 -0.0415292383234 0.935 1.19386145005e-38
-0.0155734643713 -0.0415292383234 0.935 1.09284240428e-38
-0.0138430794411 -0.0415292383234 0.935 1.13876015236e-38
-0.012112694511 -0.0415292383234 0.935 1.16631080121e-38
-0.010360101432 -0.0414404057281 0.933 1.13876015236e-38
-0.00860565767397 -0.0413071568351 0.93 1.11120950351e-38
-0.00688452613918 -0.0413071568351 0.93 1.12039305313e-38
-0.00516339460438 -0.0413071568351 0.93 1.0469246562e-38
-0.00344226306959 -0.0413071568351 0.93 1.03774110659e-38
-0.00172113153479 -0.0413071568351 0.93 1.02855755697e-38
0.0 -0.0413071568351 0.93 1.13876015236e-38
0.00172113153479 -0.0413071568351 0.93 1.12039305313e-38
0.00345336714401 -0.0414404057281 0.933 1.12039305313e-38
0.00518005071601 -0.0414404057281 0.933 1.20304499967e-38
0.00690673428801 -0.0414404057281 0.933 1.26732984698e-38
0.00865192465071 -0.0415292383234 0.935 1.30406404544e-38
0.0103823095809 -0.0415292383234 0.935 1.32243114468e-38
0.012112694511 -0.0415292383234 0.935 1.34998179352e-38
0.0138430794411 -0.0415292383234 0.935 1.37753244237e-38
0.0156234327062 -0.0416624872164 0.938 1.33161469429e-38
0.0173593696735 -0.0416624872164 0.938 1.37753244237e-38
0.0191360215804 -0.0417513198118 0.94 1.38671599199e-38
0.0208756599059 -0.0417513198118 0.94 1.47855148814e-38
0.0226152982314 -0.0417513198118 0.94 1.47862323463e-38
0.0245103935987 -0.0420178175978 0.946 1.4144101338e-38
0.0263166563707 -0.0421066501932 0.948 1.45164655763e-38
0.0280711001288 -0.0421066501932 0.948 1.41494823241e-38
0.0299199285194 -0.0422398990862 0.951 1.34115781709e-38
0.0317798609844 -0.0423731479792 0.954 1.9402847972e-38
0.0336157346215 -0.0424619805745 0.956 2.34907452794e-38
-0.0370765044818 -0.0406076001467 0.954 6.88909714148e-39
-0.035088875161 -0.0403522064351 0.948 1.16670540685e-38
-0.0333344314029 -0.0403522064351 0.948 1.20351233271e-38
-0.0314134265286 -0.0401393783421 0.943 1.25836153681e-38
-0.0296682361659 -0.0401393783421 0.943 1.18467790044e-38
-0.0278342132079 -0.0400116814863 0.94 1.06529231595e-38
-0.0260945748824 -0.0400116814863 0.94 1.12039305313e-38
-0.0243031175429 -0.0399265502491 0.938 1.14794370197e-38
