# .PCD v0.7 - Point Cloud Data file format
VERSION 0.7
FIELDS x y z rgb
SIZE 4 4 4 4
TYPE F F F F
COUNT 1 1 1 1
WIDTH 840
HEIGHT 1
VIEWPOINT 0 0 0 1 0 0 0
POINTS 840
DATA ascii
0.0324553588448 -0.0768679551588 0.923 1.14794370197e-38
0.0341635356261 -0.0768679551588 0.923 2.24621992131e-38
-0.0379870385841 -0.0759740771681 0.933 2.22857014676e-38
-0.0362603550121 -0.0759740771681 0.933 2.34871257255e-38
-0.0344226306959 -0.0757297875309 0.93 1.97092614994e-38
-0.0326311733564 -0.0755669277728 0.928 1.17735975934e-38
-0.03081380651 -0.0753226381356 0.925 1.4174239064e-38
-0.0290390052822 -0.0751597783775 0.923 1.24243381794e-38
-0.0272419959056 -0.0749154887403 0.92 8.17335915806e-39
-0.0254838507894 -0.0747526289822 0.918 9.45905610427e-39
-0.0237849274034 -0.0747526289822 0.918 8.26519465422e-39
-0.0220860040175 -0.0747526289822 0.918 8.44886564654e-39
-0.0203870806315 -0.0747526289822 0.918 8.63253663885e-39
-0.0186270848362 -0.074508339345 0.915 8.44886564654e-39
-0.0169337134875 -0.074508339345 0.915 8.81620763117e-39
-0.0152070299155 -0.0743454795868 0.913 9.27538511196e-39
-0.0135173599249 -0.0743454795868 0.913 9.64272709659e-39
-0.0117888256738 -0.0741011899496 0.91 1.03774110659e-38
-0.0101047077204 -0.0741011899496 0.91 1.07447530505e-38
-0.008420589767 -0.0741011899496 0.91 1.12039305313e-38
-0.0067364718136 -0.0741011899496 0.91 1.16631080121e-38
-0.00504124978578 -0.0739383301915 0.908 1.16631080121e-38
-0.00336083319052 -0.0739383301915 0.908 1.17549435082e-38
-0.00168041659526 -0.0739383301915 0.908 1.17549435082e-38
0.0 -0.0739383301915 0.908 1.14794370197e-38
0.00168041659526 -0.0739383301915 0.908 1.2214120989e-38
0.00336083319052 -0.0739383301915 0.908 9.1835496158e-39
0.00504124978578 -0.0739383301915 0.908 9.36758354442e-39
0.00672166638105 -0.0739383301915 0.908 8.17335915806e-39
0.00840208297631 -0.0739383301915 0.908 8.81620763117e-39
0.0100824995716 -0.0739383301915 0.908 9.73456259275e-39
0.0117629161668 -0.0739383301915 0.908 1.1020259539e-38
0.0134729436272 -0.0741011899496 0.91 1.06529175543e-38
0.0151570615806 -0.0741011899496 0.91 1.01019045774e-38
0.0168966999061 -0.0743454795868 0.913 1.02855755697e-38
0.0185863698967 -0.0743454795868 0.913 1.01019045774e-38
0.020320456185 -0.074508339345 0.915 1.08365885466e-38
0.0220138275337 -0.074508339345 0.915 1.24899974203e-38
0.0237849274034 -0.0747526289822 0.918 1.11120950351e-38
0.0254838507894 -0.0747526289822 0.918 9.45905610427e-39
0.0271827741753 -0.0747526289822 0.918 1.16631080121e-38
0.0289446206497 -0.0749154887403 0.92 1.20304499967e-38
0.0306472453938 -0.0749154887403 0.92 1.54412889316e-38
0.0325256846495 -0.0753226381356 0.925 1.45189767031e-38
0.0342375627889 -0.0753226381356 0.925 2.25554738428e-38
-0.0361437622307 -0.0740086559961 0.93 2.34842432545e-38
-0.0344226306959 -0.0740086559961 0.93 1.99837001985e-38
-0.0326311733564 -0.0738494975962 0.928 1.1775046536e-38
-0.03081380651 -0.0736107599962 0.925 1.38990941106e-38
-0.0290390052822 -0.0734516015962 0.923 7.720997593e-39
-0.0272419959056 -0.0732128639962 0.92 8.99987862348e-39
-0.0254838507894 -0.0730537055962 0.918 8.81620763117e-39
-0.0237849274034 -0.0730537055962 0.918 8.17335915806e-39
-0.0220860040175 -0.0730537055962 0.918 8.0815236619e-39
-0.0203870806315 -0.0730537055962 0.918 7.89785266959e-39
-0.0186881572455 -0.0730537055962 0.918 8.0815236619e-39
-0.0169337134875 -0.0728149679962 0.915 8.44886564654e-39
-0.0152403421387 -0.0728149679962 0.915 8.54070114269e-39
-0.0135173599249 -0.0726558095962 0.913 9.45905610427e-39
-0.0118276899343 -0.0726558095962 0.913 9.73456259275e-39
-0.0101380199437 -0.0726558095962 0.913 1.05610820582e-38
-0.00844834995305 -0.0726558095962 0.913 1.1020259539e-38
-0.0067364718136 -0.0724170719962 0.91 1.14794370197e-38
-0.0050523538602 -0.0724170719962 0.91 1.17549435082e-38
-0.0033682359068 -0.0724170719962 0.91 1.17549435082e-38
-0.00168041659526 -0.0722579135962 0.908 1.17549435082e-38
0.0 -0.0722579135962 0.908 1.14794370197e-38
0.00168041659526 -0.0722579135962 0.908 1.21222854929e-38
0.0033682359068 -0.0724170719962 0.91 9.36722060812e-39
0.0050523538602 -0.0724170719962 0.91 1.02870104993e-38
0.0067364718136 -0.0724170719962 0.91 8.44886564654e-39
0.008420589767 -0.0724170719962 0.91 8.35703015038e-39
0.0101047077204 -0.0724170719962 0.91 8.35703015038e-39
0.0117888256738 -0.0724170719962 0.91 1.06529175543e-38
0.0135173599249 -0.0726558095962 0.913 9.64272709659e-39
0.0152070299155 -0.0726558095962 0.913 9.73456259275e-39
0.0168966999061 -0.0726558095962 0.913 1.06529175543e-38
0.0185863698967 -0.0726558095962 0.913 1.05610820582e-38
0.020320456185 -0.0728149679962 0.915 9.64272709659e-39
0.0220138275337 -0.0728149679962 0.915 1.12039305313e-38
0.0237849274034 -0.0730537055962 0.918 1.23059564852e-38
0.0254838507894 -0.0730537055962 0.918 9.45905610427e-39
0.0271827741753 -0.0730537055962 0.918 1.12957660274e-38
0.0289446206497 -0.0732128639962 0.92 1.31324759506e-38
0.0306472453938 -0.0732128639962 0.92 1.16631080121e-38
0.0325256846495 -0.0736107599962 0.925 1.44325880541e-38
0.0342375627889 -0.0736107599962 0.925 2.34778098933e-38
-0.0361437622307 -0.0722875244614 0.93 2.3486048127e-38
-0.0344226306959 -0.0722875244614 0.93 1.95223759284e-38
-0.0327014991611 -0.0722875244614 0.93 1.26962587451e-38
-0.03081380651 -0.0718988818567 0.925 1.19648019662e-38
-0.0290390052822 -0.0717434248149 0.923 7.71525787449e-39
-0.0273308285009 -0.0717434248149 0.923 8.99987862348e-39
-0.0255393711615 -0.0715102392521 0.92 8.35703015038e-39
-0.0238367464174 -0.0715102392521 0.92 7.4386751888e-39
-0.0221341216733 -0.0715102392521 0.92 7.62234618111e-39
-0.0203870806315 -0.0713547822102 0.918 7.53051068496e-39
-0.0186881572455 -0.0713547822102 0.918 8.26519465422e-39
-0.0169892338596 -0.0713547822102 0.918 8.17335915806e-39
-0.0152403421387 -0.0711215966475 0.915 8.72437213501e-39
-0.01354697079 -0.0711215966475 0.915 8.99987862348e-39
-0.0118535994412 -0.0711215966475 0.915 9.82639808891e-39
-0.0101380199437 -0.0709661396056 0.913 1.05610820582e-38
-0.00844834995305 -0.0709661396056 0.913 1.07447530505e-38
-0.00675867996244 -0.0709661396056 0.913 1.12957660274e-38
-0.00506900997183 -0.0709661396056 0.913 1.14794370197e-38
-0.0033682359068 -0.0707329540428 0.91 1.14794370197e-38
-0.0016841179534 -0.0707329540428 0.91 1.17549435082e-38
0.0 -0.0707329540428 0.91 1.19386145005e-38
0.0016841179534 -0.0707329540428 0.91 1.15712725159e-38
0.00337933998122 -0.0709661396056 0.913 1.01937400735e-38
0.00506900997183 -0.0709661396056 0.913 1.02855755697e-38
0.0067364718136 -0.0707329540428 0.91 9.82639808891e-39
0.008420589767 -0.0707329540428 0.91 1.03774110659e-38
0.0101380199437 -0.0709661396056 0.913 9.45905610427e-39
0.0118276899343 -0.0709661396056 0.913 1.07447530505e-38
0.0135173599249 -0.0709661396056 0.913 9.55089160043e-39
0.0152403421387 -0.0711215966475 0.915 9.55089160043e-39
0.0169337134875 -0.0711215966475 0.915 1.02855755697e-38
0.0186270848362 -0.0711215966475 0.915 1.12957660274e-38
0.020320456185 -0.0711215966475 0.915 1.03774110659e-38
0.0220860040175 -0.0713547822102 0.918 1.01019045774e-38
0.0237849274034 -0.0713547822102 0.918 1.13876015236e-38
0.0255393711615 -0.0715102392521 0.92 1.05610820582e-38
0.0272419959056 -0.0715102392521 0.92 1.06529175543e-38
0.0291019283706 -0.0718988818567 0.925 1.22141223903e-38
0.03081380651 -0.0718988818567 0.925 1.38736353201e-38
0.0325256846495 -0.0718988818567 0.925 1.27820041982e-38
0.0342375627889 -0.0718988818567 0.925 2.34774497596e-38
-0.0361437622307 -0.0705663929266 0.93 2.28392381831e-38
-0.0344226306959 -0.0705663929266 0.93 2.0631222002e-38
-0.0327014991611 -0.0705663929266 0.93 1.25136681539e-38
-0.0309137431798 -0.0704146372428 0.928 9.66030498453e-39
-0.0291019283706 -0.0701870037173 0.925 7.99291675741e-39
-0.0273308285009 -0.0700352480336 0.923 8.81620763117e-39
-0.0255393711615 -0.069807614508 0.92 8.44886564654e-39
-0.0238367464174 -0.069807614508 0.92 8.0815236619e-39
-0.0221341216733 -0.069807614508 0.92 8.0815236619e-39
-0.0203870806315 -0.0696558588243 0.918 7.53051068496e-39
-0.0186881572455 -0.0696558588243 0.918 7.80601717343e-39
-0.0169892338596 -0.0696558588243 0.918 7.80601717343e-39
-0.0152903104736 -0.0696558588243 0.918 8.44886564654e-39
-0.01354697079 -0.0694282252987 0.915 9.09171411964e-39
-0.0118535994412 -0.0694282252987 0.915 9.82639808891e-39
-0.0101602280925 -0.0694282252987 0.915 1.06529175543e-38
-0.00846685674374 -0.0694282252987 0.915 1.06529175543e-38
-0.006773485395 -0.0694282252987 0.915 1.12039305313e-38
-0.00506900997183 -0.069276469615 0.913 1.16631080121e-38
-0.00337933998122 -0.069276469615 0.913 1.15712725159e-38
-0.0016841179534 -0.0690488360894 0.91 1.17549435082e-38
0.0 -0.0690488360894 0.91 1.15712725159e-38
0.00168966999061 -0.069276469615 0.913 1.13876015236e-38
0.00337933998122 -0.069276469615 0.913 1.08365885466e-38
0.00506900997183 -0.069276469615 0.913 1.07447530505e-38
0.00675867996244 -0.069276469615 0.913 1.06529175543e-38
0.00844834995305 -0.069276469615 0.913 1.12039305313e-38
0.0101380199437 -0.069276469615 0.913 1.08365885466e-38
0.0118276899343 -0.069276469615 0.913 1.01937400735e-38
0.0135173599249 -0.069276469615 0.913 9.73456259275e-39
0.0152403421387 -0.0694282252987 0.915 9.55089160043e-39
0.0169337134875 -0.0694282252987 0.915 1.01937400735e-38
0.0186881572455 -0.0696558588243 0.918 1.1020259539e-38
0.0203870806315 -0.0696558588243 0.918 1.15712725159e-38
0.0220860040175 -0.0696558588243 0.918 1.13876015236e-38
0.0238367464174 -0.069807614508 0.92 1.14794370197e-38
0.0256226517196 -0.0700352480336 0.923 1.1020259539e-38
0.0273308285009 -0.0700352480336 0.923 1.20304499967e-38
0.0290390052822 -0.0700352480336 0.923 1.13876015236e-38
0.0307471820635 -0.0700352480336 0.923 1.60009297032e-38
0.0324553588448 -0.0700352480336 0.923 1.43478725554e-38
0.0341635356261 -0.0700352480336 0.923 2.34821328991e-38
-0.0362603550121 -0.0690673428801 0.933 2.34867487762e-38
-0.0344226306959 -0.0688452613918 0.93 1.97089083722e-38
-0.0327014991611 -0.0688452613918 0.93 1.26054980449e-38
-0.0309137431798 -0.0686972070662 0.928 9.19502905282e-39
-0.0291019283706 -0.0684751255778 0.925 8.36492226333e-39
-0.0273900502311 -0.0684751255778 0.925 8.44886564654e-39
-0.0256226517196 -0.0683270712523 0.923 8.35738888278e-39
-0.0239144749383 -0.0683270712523 0.923 7.80601717343e-39
-0.022206298157 -0.0683270712523 0.923 7.4386751888e-39
-0.0204314969292 -0.0681049897639 0.92 7.4386751888e-39
-0.0186881572455 -0.0679569354383 0.918 7.4386751888e-39
-0.0169892338596 -0.0679569354383 0.918 7.89785266959e-39
-0.0152903104736 -0.0679569354383 0.918 8.26519465422e-39
-0.0135913870877 -0.0679569354383 0.918 8.90804312733e-39
-0.0118924637017 -0.0679569354383 0.918 9.73456259275e-39
-0.0101935403157 -0.0679569354383 0.918 1.11120950351e-38
-0.00846685674374 -0.06773485395 0.915 1.1020259539e-38
-0.006773485395 -0.06773485395 0.915 1.15712725159e-38
-0.00508011404625 -0.06773485395 0.915 1.17549435082e-38
-0.0033867426975 -0.06773485395 0.915 1.2214120989e-38
-0.00168966999061 -0.0675867996244 0.913 1.2214120989e-38
0.0 -0.0675867996244 0.913 1.20304499967e-38
0.00168966999061 -0.0675867996244 0.913 1.16631080121e-38
0.00337933998122 -0.0675867996244 0.913 1.09284240428e-38
0.00506900997183 -0.0675867996244 0.913 1.0469246562e-38
0.00675867996244 -0.0675867996244 0.913 1.0469246562e-38
0.00844834995305 -0.0675867996244 0.913 1.07447530505e-38
0.0101380199437 -0.0675867996244 0.913 1.08365885466e-38
0.0118276899343 -0.0675867996244 0.913 1.11120950351e-38
0.01354697079 -0.06773485395 0.915 1.06529175543e-38
0.0152903104736 -0.0679569354383 0.918 1.07447530505e-38
0.0169892338596 -0.0679569354383 0.918 1.05610820582e-38
0.0186881572455 -0.0679569354383 0.918 1.05610820582e-38
0.0203870806315 -0.0679569354383 0.918 1.08365885466e-38
0.0220860040175 -0.0679569354383 0.918 1.13876015236e-38
0.0238367464174 -0.0681049897639 0.92 1.17549435082e-38
0.0256226517196 -0.0683270712523 0.923 9.55089160043e-39
0.0273308285009 -0.0683270712523 0.923 1.39687148222e-38
0.0290390052822 -0.0683270712523 0.923 1.19386145005e-38
0.0307471820635 -0.0683270712523 0.923 1.63661375102e-38
0.0324553588448 -0.0683270712523 0.923 1.24982370553e-38
0.0342375627889 -0.0684751255778 0.925 2.34853755037e-38
-0.0362603550121 -0.0673406593081 0.933 2.34853208531e-38
-0.0345336714401 -0.0673406593081 0.933 1.98018228682e-38
-0.0327014991611 -0.067124129857 0.93 1.17750437334e-38
-0.0309803676263 -0.067124129857 0.93 8.91772890231e-39
-0.0291963130031 -0.0669797768895 0.928 8.91524720273e-39
-0.0273900502311 -0.0667632474384 0.925 7.71418167727e-39
-0.0256226517196 -0.0666188944709 0.923 7.71418167727e-39
-0.0239144749383 -0.0666188944709 0.923 7.4386751888e-39
-0.022206298157 -0.0666188944709 0.923 7.89785266959e-39
-0.0204314969292 -0.0664023650198 0.92 7.25500419648e-39
-0.0187288721851 -0.0664023650198 0.92 7.62234618111e-39
-0.017026247441 -0.0664023650198 0.92 8.35703015038e-39
-0.0152903104736 -0.0662580120524 0.918 8.54070114269e-39
-0.0135913870877 -0.0662580120524 0.918 9.27538511196e-39
-0.0118924637017 -0.0662580120524 0.918 1.06529175543e-38
-0.0101935403157 -0.0662580120524 0.918 1.35141672315e-38
-0.00849461692979 -0.0662580120524 0.918 1.12039305313e-38
-0.00679569354383 -0.0662580120524 0.918 1.23059564852e-38
-0.00508011404625 -0.0660414826012 0.915 1.23977919813e-38
-0.0033867426975 -0.0660414826012 0.915 1.24896274775e-38
-0.00168966999061 -0.0658971296338 0.913 1.23059564852e-38
0.0 -0.0658971296338 0.913 1.2214120989e-38
0.00169337134875 -0.0660414826012 0.915 1.19386145005e-38
0.00337933998122 -0.0658971296338 0.913 1.09284240428e-38
0.00506900997183 -0.0658971296338 0.913 9.73456259275e-39
0.006773485395 -0.0660414826012 0.915 9.27538511196e-39
0.00846685674374 -0.0660414826012 0.915 8.99987862348e-39
0.0101602280925 -0.0660414826012 0.915 9.91823358506e-39
0.0118535994412 -0.0660414826012 0.915 1.08365885466e-38
0.01354697079 -0.0660414826012 0.915 1.1020259539e-38
0.0152903104736 -0.0662580120524 0.918 1.09284240428e-38
0.0169892338596 -0.0662580120524 0.918 1.1020259539e-38
0.0187288721851 -0.0664023650198 0.92 1.19404081626e-38
0.0204314969292 -0.0664023650198 0.92 1.09284240428e-38
0.0221341216733 -0.0664023650198 0.92 1.09284240428e-38
0.0239662939522 -0.0667632474384 0.925 1.19386145005e-38
0.0257614526498 -0.0669797768895 0.928 1.19386145005e-38
0.0273900502311 -0.0667632474384 0.925 1.2214120989e-38
0.0291019283706 -0.0667632474384 0.925 1.7095790818e-38
0.03081380651 -0.0667632474384 0.925 1.36960445618e-38
0.0325256846495 -0.0667632474384 0.925 1.42535147221e-38
0.0342375627889 -0.0667632474384 0.925 2.34871733696e-38
-0.0362603550121 -0.0656139757361 0.933 2.31168998686e-38
-0.0345336714401 -0.0656139757361 0.933 2.03553707941e-38
-0.0328069878681 -0.0656139757361 0.933 1.19601748787e-38
-0.0309803676263 -0.0654029983222 0.93 9.00992313088e-39
-0.0291963130031 -0.0652623467129 0.928 9.28689677884e-39
-0.0274788828265 -0.0652623467129 0.928 7.53158688218e-39
-0.0256781720917 -0.0650513692989 0.925 6.97949770801e-39
-0.0239662939522 -0.0650513692989 0.925 7.25500419648e-39
-0.0222544158128 -0.0650513692989 0.925 7.89785266959e-39
-0.0204981213757 -0.0649107176896 0.923 8.0815236619e-39
-0.0187288721851 -0.0646997402757 0.92 8.54070114269e-39
-0.017026247441 -0.0646997402757 0.92 9.1835496158e-39
-0.0153236226969 -0.0646997402757 0.92 9.36722060812e-39
-0.0135913870877 -0.0645590886664 0.918 9.45905610427e-39
-0.0118924637017 -0.0645590886664 0.918 1.08365885466e-38
-0.0101935403157 -0.0645590886664 0.918 1.13876015236e-38
-0.00849461692979 -0.0645590886664 0.918 1.20304499967e-38
-0.00679569354383 -0.0645590886664 0.918 1.25814629736e-38
-0.00508011404625 -0.0643481112525 0.915 1.26732984698e-38
-0.0033867426975 -0.0643481112525 0.915 1.26732984698e-38
-0.00169337134875 -0.0643481112525 0.915 1.23059564852e-38
0.0 -0.0643481112525 0.915 1.2214120989e-38
0.00169337134875 -0.0643481112525 0.915 1.24896274775e-38
0.0033867426975 -0.0643481112525 0.915 1.11120950351e-38
0.00508011404625 -0.0643481112525 0.915 1.01937400735e-38
0.006773485395 -0.0643481112525 0.915 1.01019045774e-38
0.00846685674374 -0.0643481112525 0.915 1.03774110659e-38
0.0101602280925 -0.0643481112525 0.915 1.0469246562e-38
0.0118535994412 -0.0643481112525 0.915 1.07447530505e-38
0.0135913870877 -0.0645590886664 0.918 1.01937400735e-38
0.0152903104736 -0.0645590886664 0.918 1.01019045774e-38
0.017026247441 -0.0646997402757 0.92 1.02855755697e-38
0.0187288721851 -0.0646997402757 0.92 1.12039305313e-38
0.0204981213757 -0.0649107176896 0.923 1.26732984698e-38
0.022206298157 -0.0649107176896 0.923 1.2214120989e-38
0.0239662939522 -0.0650513692989 0.925 1.32243114468e-38
0.0257614526498 -0.0652623467129 0.928 1.41426664083e-38
0.0274788828265 -0.0652623467129 0.928 1.51571840757e-38
0.0291019283706 -0.0650513692989 0.925 1.36928159701e-38
0.03081380651 -0.0650513692989 0.925 1.32347146865e-38
0.0325256846495 -0.0650513692989 0.925 1.49907406467e-38
0.0342375627889 -0.0650513692989 0.925 2.34860901659e-38
-0.038516332798 -0.0647774687966 0.946 2.30239853726e-38
-0.0366489976167 -0.0645720434199 0.943 2.34874956683e-38
-0.034718739347 -0.064229667792 0.938 1.94330571643e-38
-0.0328069878681 -0.0638872921641 0.933 1.22367505579e-38
-0.0310803042961 -0.0638872921641 0.933 9.46981807648e-39
-0.0292592360915 -0.0636818667874 0.93 7.62522725076e-39
-0.0274788828265 -0.0635449165362 0.928 7.44082758324e-39
-0.0256781720917 -0.0633394911595 0.925 6.24624866837e-39
-0.0239662939522 -0.0633394911595 0.925 7.4386751888e-39
-0.0222544158128 -0.0633394911595 0.925 7.98968816575e-39
-0.0204981213757 -0.0632025409083 0.923 8.63253663885e-39
-0.0187899445944 -0.0632025409083 0.923 8.99987862348e-39
-0.0170817678131 -0.0632025409083 0.923 1.12975596895e-38
-0.0153236226969 -0.0629971155316 0.92 1.00100690812e-38
-0.0136209979528 -0.0629971155316 0.92 1.06529175543e-38
-0.0118924637017 -0.0628601652804 0.918 1.12957660274e-38
-0.0101935403157 -0.0628601652804 0.918 1.2215914651e-38
-0.00849461692979 -0.0628601652804 0.918 1.28569694621e-38
-0.00679569354383 -0.0628601652804 0.918 1.28569694621e-38
-0.00509677015787 -0.0628601652804 0.918 1.23977919813e-38
-0.0033867426975 -0.0626547399037 0.915 1.26732984698e-38
-0.00169337134875 -0.0626547399037 0.915 1.26732984698e-38
0.0 -0.0626547399037 0.915 1.24896274775e-38
0.00169337134875 -0.0626547399037 0.915 1.25814629736e-38
0.0033867426975 -0.0626547399037 0.915 1.1020259539e-38
0.00508011404625 -0.0626547399037 0.915 1.0469246562e-38
0.006773485395 -0.0626547399037 0.915 1.03774110659e-38
0.00846685674374 -0.0626547399037 0.915 1.12039305313e-38
0.0101935403157 -0.0628601652804 0.918 1.08365885466e-38
0.0118924637017 -0.0628601652804 0.918 1.11120950351e-38
0.0135913870877 -0.0628601652804 0.918 1.08365885466e-38
0.0152903104736 -0.0628601652804 0.918 9.55089160043e-39
0.017026247441 -0.0629971155316 0.92 1.20322436587e-38
0.0187288721851 -0.0629971155316 0.92 1.12957660274e-38
0.0204981213757 -0.0632025409083 0.923 1.34079824391e-38
0.022206298157 -0.0632025409083 0.923 1.36834889275e-38
0.0239662939522 -0.0633394911595 0.925 1.35916534314e-38
0.0257614526498 -0.0635449165362 0.928 1.46961905121e-38
0.0274788828265 -0.0635449165362 0.928 1.35023290621e-38
0.0291963130031 -0.0635449165362 0.928 1.03774110659e-38
0.0309137431798 -0.0635449165362 0.928 1.55403369109e-38
0.0326311733564 -0.0635449165362 0.928 1.35148874989e-38
0.0343486035331 -0.0635449165362 0.928 2.34914725533e-38
-0.038516332798 -0.0630267263967 0.946 2.293286594e-38
-0.0366489976167 -0.0628268530572 0.943 2.33916888923e-38
-0.0347927665098 -0.0626269797177 0.94 1.96159910736e-38
-0.0329828023797 -0.0624937308247 0.938 1.21431059854e-38
-0.0310803042961 -0.0621606085921 0.933 9.28650581657e-39
-0.0292592360915 -0.0619607352526 0.93 7.62632586875e-39
-0.0275381045567 -0.0619607352526 0.93 7.34899208708e-39
-0.0256781720917 -0.06162761302 0.925 6.79582671569e-39
-0.0239662939522 -0.06162761302 0.925 7.16316870032e-39
-0.0223265922965 -0.0618274863596 0.928 7.98968816575e-39
-0.0205425376733 -0.06162761302 0.925 8.72437213501e-39
-0.0188306595339 -0.06162761302 0.925 1.00100690812e-38
-0.0170817678131 -0.061494364127 0.923 1.03774110659e-38
-0.0153735910318 -0.061494364127 0.923 1.11120950351e-38
-0.0136209979528 -0.0612944907875 0.92 1.14794370197e-38
-0.0119183732087 -0.0612944907875 0.92 1.21222854929e-38
-0.0102157484646 -0.0612944907875 0.92 1.2765133966e-38
-0.00851312372049 -0.0612944907875 0.92 1.38700297791e-38
-0.00681049897639 -0.0612944907875 0.92 1.28569694621e-38
-0.00509677015787 -0.0611612418945 0.918 1.28569694621e-38
-0.00339784677192 -0.0611612418945 0.918 1.2765133966e-38
-0.00169892338596 -0.0611612418945 0.918 1.25814629736e-38
0.0 -0.0611612418945 0.918 1.24896274775e-38
0.00169892338596 -0.0611612418945 0.918 1.24896274775e-38
0.00339784677192 -0.0611612418945 0.918 1.00100690812e-38
0.00509677015787 -0.0611612418945 0.918 8.81620763117e-39
0.00679569354383 -0.0611612418945 0.918 9.09171411964e-39
0.00849461692979 -0.0611612418945 0.918 1.03774110659e-38
0.0101935403157 -0.0611612418945 0.918 9.73456259275e-39
0.0118924637017 -0.0611612418945 0.918 1.1020259539e-38
0.0135913870877 -0.0611612418945 0.918 1.05610820582e-38
0.0153236226969 -0.0612944907875 0.92 1.06529175543e-38
0.017026247441 -0.0612944907875 0.92 1.25814629736e-38
0.0187899445944 -0.061494364127 0.923 1.34079824391e-38
0.0205425376733 -0.06162761302 0.925 1.26732984698e-38
0.0222544158128 -0.06162761302 0.925 1.17549435082e-38
0.0239662939522 -0.06162761302 0.925 1.19386145005e-38
0.0257614526498 -0.0618274863596 0.928 1.29488105635e-38
0.0274788828265 -0.0618274863596 0.928 1.38782806245e-38
0.0291963130031 -0.0618274863596 0.928 1.23152905342e-38
0.0309137431798 -0.0618274863596 0.928 1.47106014655e-38
0.0326311733564 -0.0618274863596 0.928 1.61834964723e-38
0.0343486035331 -0.0618274863596 0.928 2.34911110183e-38
-0.038516332798 -0.0612759839968 0.946 2.26562762478e-38
-0.0366489976167 -0.0610816626945 0.943 2.34856809868e-38
-0.034903807254 -0.0610816626945 0.943 2.05375928438e-38
-0.0330531281843 -0.0608873413922 0.94 1.11285967258e-38
-0.0311469287426 -0.060563472555 0.935 9.65707639286e-39
-0.0293536207241 -0.0604339250201 0.933 7.4447834488e-39
-0.0275381045567 -0.0602396037178 0.93 7.71597533931e-39
-0.0257614526498 -0.0601100561829 0.928 7.62234618111e-39
-0.0240440224732 -0.0601100561829 0.928 7.62234618111e-39
-0.0223265922965 -0.0601100561829 0.928 8.44886564654e-39
-0.0205425376733 -0.0599157348806 0.925 8.90804312733e-39
-0.0188306595339 -0.0599157348806 0.925 1.03774110659e-38
-0.0171187813945 -0.0599157348806 0.925 1.1020259539e-38
-0.015406903255 -0.0599157348806 0.925 1.17549435082e-38
-0.0136654142505 -0.0597861873457 0.923 1.23988681785e-38
-0.0119572374691 -0.0597861873457 0.923 1.29488049583e-38
-0.0102157484646 -0.0595918660434 0.92 1.50775230606e-38
-0.00851312372049 -0.0595918660434 0.92 1.39719097827e-38
-0.00681049897639 -0.0595918660434 0.92 1.29488049583e-38
-0.00509677015787 -0.0594623185085 0.918 1.32243114468e-38
-0.00339784677192 -0.0594623185085 0.918 1.35927296286e-38
-0.00169892338596 -0.0594623185085 0.918 1.25814629736e-38
0.0 -0.0594623185085 0.918 1.23977919813e-38
0.00169892338596 -0.0594623185085 0.918 1.26732984698e-38
0.00339784677192 -0.0594623185085 0.918 1.07447530505e-38
0.00509677015787 -0.0594623185085 0.918 1.01019045774e-38
0.00679569354383 -0.0594623185085 0.918 1.06529175543e-38
0.00849461692979 -0.0594623185085 0.918 1.15712725159e-38
0.0101935403157 -0.0594623185085 0.918 1.09284240428e-38
0.0119183732087 -0.0595918660434 0.92 1.12957660274e-38
0.0136209979528 -0.0595918660434 0.92 1.06529175543e-38
0.0153236226969 -0.0595918660434 0.92 1.12039305313e-38
0.0170817678131 -0.0597861873457 0.923 1.09284240428e-38
0.0188306595339 -0.0599157348806 0.925 1.0469246562e-38
0.0205425376733 -0.0599157348806 0.925 1.21226442253e-38
0.0222544158128 -0.0599157348806 0.925 1.08365885466e-38
0.0240440224732 -0.0601100561829 0.928 1.05621582554e-38
0.0258169730219 -0.0602396037178 0.93 1.36896097992e-38
0.0275381045567 -0.0602396037178 0.93 1.23124136685e-38
0.0292592360915 -0.0602396037178 0.93 1.26837143213e-38
0.0309803676263 -0.0602396037178 0.93 1.47087811788e-38
0.0327014991611 -0.0602396037178 0.93 1.71969239295e-38
0.0346076986028 -0.060563472555 0.935 2.34932648141e-38
0.036338083533 -0.060563472555 0.935 2.34878529994e-38
-0.038516332798 -0.0595252415969 0.946 2.25626568987e-38
-0.0367655903981 -0.0595252415969 0.946 2.34860383179e-38
-0.034903807254 -0.0593364723318 0.943 2.05383173151e-38
-0.0331586168913 -0.0593364723318 0.943 1.07594652831e-38
-0.0312468654123 -0.0590218568899 0.938 9.38013497476e-39
-0.0294165438124 -0.0588330876248 0.935 7.62880336444e-39
-0.027626937152 -0.0587072414481 0.933 7.80816956787e-39
-0.0258169730219 -0.058518472183 0.93 7.4390339212e-39
-0.0240958414871 -0.058518472183 0.93 7.71418167727e-39
-0.0223747099523 -0.058518472183 0.93 8.35703015038e-39
-0.0206091621199 -0.0583926260063 0.928 9.09171411964e-39
-0.0188917319432 -0.0583926260063 0.928 1.02855755697e-38
-0.0171187813945 -0.0582038567412 0.925 1.1020259539e-38
-0.015406903255 -0.0582038567412 0.925 1.15712725159e-38
-0.0136950251156 -0.0582038567412 0.925 1.21265902817e-38
-0.0119831469761 -0.0582038567412 0.925 1.2765133966e-38
-0.0102490606878 -0.0580780105644 0.923 1.82132492719e-38
-0.00851312372049 -0.0578892412993 0.92 1.40741947615e-38
-0.00681049897639 -0.0578892412993 0.92 1.21226442253e-38
-0.00510787423229 -0.0578892412993 0.92 1.31324759506e-38
-0.00339784677192 -0.0577633951226 0.918 1.28569694621e-38
-0.00169892338596 -0.0577633951226 0.918 1.30406404544e-38
0.0 -0.0577633951226 0.918 1.26732984698e-38
0.00169892338596 -0.0577633951226 0.918 1.34998179352e-38
0.00340524948819 -0.0578892412993 0.92 1.08365885466e-38
0.00509677015787 -0.0577633951226 0.918 1.0469246562e-38
0.00679569354383 -0.0577633951226 0.918 1.07447530505e-38
0.00849461692979 -0.0577633951226 0.918 1.06529175543e-38
0.0102157484646 -0.0578892412993 0.92 1.09284240428e-38
0.0119183732087 -0.0578892412993 0.92 1.09284240428e-38
0.0136654142505 -0.0580780105644 0.923 1.09284240428e-38
0.0153735910318 -0.0580780105644 0.923 1.12957660274e-38
0.0170817678131 -0.0580780105644 0.923 9.36722060812e-39
0.0188306595339 -0.0582038567412 0.925 8.90804312733e-39
0.0205425376733 -0.0582038567412 0.925 1.1572352917e-38
0.0222544158128 -0.0582038567412 0.925 1.20340373208e-38
0.0240440224732 -0.0583926260063 0.928 1.22173495807e-38
0.02590025358 -0.0587072414481 0.933 1.42427527498e-38
0.027626937152 -0.0587072414481 0.933 1.29545446768e-38
0.0293536207241 -0.0587072414481 0.933 1.3421982812e-38
0.0311469287426 -0.0588330876248 0.935 1.55374656504e-38
0.0328773136727 -0.0588330876248 0.935 1.71936897326e-38
0.0346076986028 -0.0588330876248 0.935 2.34918424961e-38
0.036338083533 -0.0588330876248 0.935 2.3487855802e-38
-0.0383941879794 -0.0575912819691 0.943 2.34839041403e-38
-0.0366489976167 -0.0575912819691 0.943 2.34842488597e-38
-0.034903807254 -0.0575912819691 0.943 2.09063921788e-38
-0.0330531281843 -0.0574080647412 0.94 1.02073873193e-38
-0.0312468654123 -0.0572859199226 0.938 8.73477537481e-39
-0.0294165438124 -0.0571027026947 0.935 8.27346231516e-39
-0.027626937152 -0.0569805578761 0.933 7.71669280412e-39
-0.0258169730219 -0.0567973406482 0.93 7.62234618111e-39
-0.0240958414871 -0.0567973406482 0.93 7.71418167727e-39
-0.0223747099523 -0.0567973406482 0.93 8.54070114269e-39
-0.0206091621199 -0.0566751958296 0.928 9.27538511196e-39
-0.0188917319432 -0.0566751958296 0.928 1.05610820582e-38
-0.0171743017665 -0.0566751958296 0.928 1.01019045774e-38
-0.0154568715899 -0.0566751958296 0.928 1.05610820582e-38
-0.0136950251156 -0.0564919786017 0.925 1.29549034092e-38
-0.0119831469761 -0.0564919786017 0.925 1.25814629736e-38
-0.0102490606878 -0.0563698337831 0.923 1.4796635586e-38
-0.00854088390653 -0.0563698337831 0.923 1.19418430922e-38
-0.00683270712523 -0.0563698337831 0.923 1.49785129163e-38
-0.00512453034392 -0.0563698337831 0.923 1.29488049583e-38
-0.00340524948819 -0.0561866165552 0.92 1.30406404544e-38
-0.0017026247441 -0.0561866165552 0.92 1.30406404544e-38
0.0 -0.0561866165552 0.92 1.29488049583e-38
0.0017026247441 -0.0561866165552 0.92 1.33161469429e-38
0.00340524948819 -0.0561866165552 0.92 9.55089160043e-39
0.00510787423229 -0.0561866165552 0.92 9.36793807293e-39
0.00681049897639 -0.0561866165552 0.92 7.98968816575e-39
0.00851312372049 -0.0561866165552 0.92 8.17335915806e-39
0.0102490606878 -0.0563698337831 0.923 8.81620763117e-39
0.0119572374691 -0.0563698337831 0.923 9.45905610427e-39
0.0136654142505 -0.0563698337831 0.923 1.03774110659e-38
0.0153735910318 -0.0563698337831 0.923 1.1020259539e-38
0.0171187813945 -0.0564919786017 0.925 1.15712725159e-38
0.0188306595339 -0.0564919786017 0.925 1.2214120989e-38
0.0205425376733 -0.0564919786017 0.925 1.16631080121e-38
0.0223265922965 -0.0566751958296 0.928 1.2214120989e-38
0.0240958414871 -0.0567973406482 0.93 1.3411212432e-38
0.02590025358 -0.0569805578761 0.933 1.30449452433e-38
0.0276861588823 -0.0571027026947 0.935 1.28634392571e-38
0.0294165438124 -0.0571027026947 0.935 1.35080898001e-38
0.0311469287426 -0.0571027026947 0.935 1.71926513705e-38
0.0328773136727 -0.0571027026947 0.935 1.7471773209e-38
0.0346076986028 -0.0571027026947 0.935 2.34925459479e-38
-0.0383941879794 -0.0558460916064 0.943 2.27456062223e-38
-0.0366489976167 -0.0558460916064 0.943 2.3114380334e-38
-0.034903807254 -0.0558460916064 0.943 2.18290575345e-38
-0.0330531281843 -0.0556684264157 0.94 1.11300400633e-38
-0.0312468654123 -0.0555499829552 0.938 8.27668249903e-39
-0.0294165438124 -0.0553723177646 0.935 8.36958578462e-39
-0.027626937152 -0.0552538743041 0.933 7.07276813379e-39
-0.02590025358 -0.0552538743041 0.933 7.71418167727e-39
-0.024173570008 -0.0552538743041 0.933 7.71418167727e-39
-0.022446886436 -0.0552538743041 0.933 8.72437213501e-39
-0.0206535784175 -0.0550762091134 0.93 9.45905610427e-39
-0.0189324468827 -0.0550762091134 0.93 1.06529175543e-38
-0.0171743017665 -0.054957765653 0.928 9.64272709659e-39
-0.0154568715899 -0.054957765653 0.928 1.03774110659e-38
-0.0137394414132 -0.054957765653 0.928 1.17549435082e-38
-0.0119831469761 -0.0547801004623 0.925 1.23063152176e-38
-0.0102712688367 -0.0547801004623 0.925 1.2765133966e-38
-0.00855939069723 -0.0547801004623 0.925 1.28569694621e-38
-0.00684751255778 -0.0547801004623 0.925 1.29488049583e-38
-0.00512453034392 -0.0546616570018 0.923 1.31324759506e-38
-0.00341635356261 -0.0546616570018 0.923 1.32243114468e-38
-0.0017026247441 -0.0544839918111 0.92 1.31324759506e-38
0.0 -0.0544839918111 0.92 1.33161469429e-38
0.0017026247441 -0.0544839918111 0.92 1.32243114468e-38
0.00341635356261 -0.0546616570018 0.923 1.12957660274e-38
0.00512453034392 -0.0546616570018 0.923 1.1020259539e-38
0.00683270712523 -0.0546616570018 0.923 1.00100690812e-38
0.00854088390653 -0.0546616570018 0.923 1.08373060115e-38
0.0102490606878 -0.0546616570018 0.923 1.06529175543e-38
0.0119572374691 -0.0546616570018 0.923 1.0469246562e-38
0.0136950251156 -0.0547801004623 0.925 1.14794370197e-38
0.015406903255 -0.0547801004623 0.925 1.09284240428e-38
0.0171187813945 -0.0547801004623 0.925 1.23977919813e-38
0.0188306595339 -0.0547801004623 0.925 1.24896274775e-38
0.0206091621199 -0.054957765653 0.928 1.27658514308e-38
0.0223265922965 -0.054957765653 0.928 1.13876015236e-38
0.024173570008 -0.0552538743041 0.933 1.24957259284e-38
0.0259557739521 -0.0553723177646 0.935 1.20311674615e-38
0.0276861588823 -0.0553723177646 0.935 1.38736479317e-38
0.0294165438124 -0.0553723177646 0.935 1.55345789755e-38
0.0311469287426 -0.0553723177646 0.935 1.64601029801e-38
0.0328773136727 -0.0553723177646 0.935 1.68281862516e-38
0.0346076986028 -0.0553723177646 0.935 2.34953877812e-38
-0.0383941879794 -0.0541009012437 0.943 2.33916944975e-38
-0.0366489976167 -0.0541009012437 0.943 2.34842432545e-38
-0.034903807254 -0.0541009012437 0.943 2.15521021034e-38
-0.0330531281843 -0.0539287880902 0.94 1.00233421803e-38
-0.0312468654123 -0.0538140459879 0.938 8.54966945286e-39
-0.0294165438124 -0.0536419328344 0.935 8.17874855196e-39
-0.0276861588823 -0.0536419328344 0.935 7.71669280412e-39
-0.02590025358 -0.0535271907321 0.933 7.53086941736e-39
-0.024173570008 -0.0535271907321 0.933 8.0815236619e-39
-0.0224950040919 -0.0536419328344 0.935 8.44886564654e-39
-0.020720202864 -0.0535271907321 0.933 9.1835496158e-39
-0.0189324468827 -0.0533550775786 0.93 1.02855755697e-38
-0.0172113153479 -0.0533550775786 0.93 1.03774110659e-38
-0.0154568715899 -0.0532403354763 0.928 1.12039305313e-38
-0.0137394414132 -0.0532403354763 0.928 1.14794370197e-38
-0.0120220112366 -0.0532403354763 0.928 1.18467790044e-38
-0.0102712688367 -0.0530682223228 0.925 1.24896274775e-38
-0.00855939069723 -0.0530682223228 0.925 1.28569694621e-38
-0.00684751255778 -0.0530682223228 0.925 1.28569694621e-38
-0.00513563441834 -0.0530682223228 0.925 1.34079824391e-38
-0.00342375627889 -0.0530682223228 0.925 1.32243114468e-38
-0.00170817678131 -0.0529534802205 0.923 1.36834889275e-38
0.0 -0.0529534802205 0.923 1.32243114468e-38
0.00170817678131 -0.0529534802205 0.923 1.26732984698e-38
0.00341635356261 -0.0529534802205 0.923 1.19386145005e-38
0.00512453034392 -0.0529534802205 0.923 1.17549435082e-38
0.00683270712523 -0.0529534802205 0.923 1.19386145005e-38
0.00854088390653 -0.0529534802205 0.923 1.17549435082e-38
0.0102712688367 -0.0530682223228 0.925 1.16631080121e-38
0.0119831469761 -0.0530682223228 0.925 1.23059564852e-38
0.0136950251156 -0.0530682223228 0.925 1.19386145005e-38
0.015406903255 -0.0530682223228 0.925 9.64272709659e-39
0.0171187813945 -0.0530682223228 0.925 1.0836599757e-38
0.0188917319432 -0.0532403354763 0.928 1.17549435082e-38
0.0206091621199 -0.0532403354763 0.928 1.25814629736e-38
0.0223747099523 -0.0533550775786 0.93 1.31382310834e-38
0.024225389022 -0.0536419328344 0.935 1.1387960256e-38
0.0259557739521 -0.0536419328344 0.935 1.31342696126e-38
0.0276861588823 -0.0536419328344 0.935 1.61749317361e-38
0.029510928445 -0.0538140459879 0.938 1.54423609249e-38
0.0311469287426 -0.0536419328344 0.935 1.59076382579e-38
0.0328773136727 -0.0536419328344 0.935 1.79359561279e-38
0.0346076986028 -0.0536419328344 0.935 2.34925291324e-38
-0.0383941879794 -0.052355710881 0.943 2.25633771661e-38
-0.0366489976167 -0.052355710881 0.943 2.32058570977e-38
-0.034903807254 -0.052355710881 0.943 2.21971155826e-38
-0.0331586168913 -0.052355710881 0.943 1.18658128414e-38
-0.0312468654123 -0.0520781090205 0.938 9.28794775269e-39
-0.029510928445 -0.0520781090205 0.938 8.54464719917e-39
-0.0276861588823 -0.0519115479043 0.935 8.1751528201e-39
-0.0259557739521 -0.0519115479043 0.935 7.80601717343e-39
-0.024225389022 -0.0519115479043 0.935 8.44886564654e-39
-0.0224950040919 -0.0519115479043 0.935 8.44886564654e-39
-0.020720202864 -0.0518005071601 0.933 9.36722060812e-39
-0.018993519292 -0.0518005071601 0.933 1.03774110659e-38
-0.01726683572 -0.0518005071601 0.933 1.07447530505e-38
-0.0154568715899 -0.0515229052996 0.928 1.11120950351e-38
-0.0137394414132 -0.0515229052996 0.928 1.15712725159e-38
-0.0120220112366 -0.0515229052996 0.928 1.16631080121e-38
-0.0102712688367 -0.0513563441834 0.925 1.21222854929e-38
-0.00855939069723 -0.0513563441834 0.925 1.28569694621e-38
-0.00684751255778 -0.0513563441834 0.925 1.30406404544e-38
-0.00513563441834 -0.0513563441834 0.925 1.29488049583e-38
-0.00342375627889 -0.0513563441834 0.925 1.34998179352e-38
-0.00170817678131 -0.0512453034392 0.923 1.34998179352e-38
0.0 -0.0512453034392 0.923 1.32243114468e-38
0.00170817678131 -0.0512453034392 0.923 1.29491636907e-38
0.00341635356261 -0.0512453034392 0.923 1.12039305313e-38
0.00512453034392 -0.0512453034392 0.923 1.05610820582e-38
0.00683270712523 -0.0512453034392 0.923 1.1020259539e-38
0.00855939069723 -0.0513563441834 0.925 1.12957660274e-38
0.0102712688367 -0.0513563441834 0.925 1.13876015236e-38
0.0119831469761 -0.0513563441834 0.925 1.26732984698e-38
0.0136950251156 -0.0513563441834 0.925 1.23059564852e-38
0.015406903255 -0.0513563441834 0.925 1.12039305313e-38
0.0171187813945 -0.0513563441834 0.925 1.01937400735e-38
0.0188917319432 -0.0515229052996 0.928 1.11120950351e-38
0.0206091621199 -0.0515229052996 0.928 1.32243142493e-38
0.0224950040919 -0.0519115479043 0.935 1.25814629736e-38
0.024225389022 -0.0519115479043 0.935 1.34086999039e-38
0.0259557739521 -0.0519115479043 0.935 1.41451775352e-38
0.0277749914776 -0.0520781090205 0.938 1.61731184559e-38
0.029510928445 -0.0520781090205 0.938 1.52583297989e-38
0.0311469287426 -0.0519115479043 0.935 1.6550500744e-38
0.0328773136727 -0.0519115479043 0.935 1.9038363235e-38
0.0346076986028 -0.0519115479043 0.935 2.34921633935e-38
-0.0383941879794 -0.0506105205183 0.943 2.24708143961e-38
-0.0366489976167 -0.0506105205183 0.943 2.31161781999e-38
-0.034903807254 -0.0506105205183 0.943 2.26584398526e-38
-0.0331586168913 -0.0506105205183 0.943 1.20494978467e-38
-0.0312468654123 -0.0503421720532 0.938 8.73298171277e-39
-0.029510928445 -0.0503421720532 0.938 9.64918427991e-39
-0.0276861588823 -0.0501811629741 0.935 8.91055425417e-39
-0.0259557739521 -0.0501811629741 0.935 8.72437213501e-39
-0.024225389022 -0.0501811629741 0.935 8.0815236619e-39
-0.0224950040919 -0.0501811629741 0.935 8.81620763117e-39
-0.0207646191617 -0.0501811629741 0.935 9.45905610427e-39
-0.0190342342316 -0.0501811629741 0.935 1.02855755697e-38
-0.01726683572 -0.0500738235881 0.933 1.0469246562e-38
-0.0154901838131 -0.049912814509 0.93 1.07447530505e-38
-0.0137690522784 -0.049912814509 0.93 1.12957660274e-38
-0.0120220112366 -0.049805475123 0.928 1.14794370197e-38
-0.0103045810599 -0.049805475123 0.928 1.21222854929e-38
-0.00855939069723 -0.0496444660439 0.925 1.25814629736e-38
-0.00684751255778 -0.0496444660439 0.925 1.29488049583e-38
-0.00513563441834 -0.0496444660439 0.925 1.29488049583e-38
-0.00342375627889 -0.0496444660439 0.925 1.37753244237e-38
-0.00171187813945 -0.0496444660439 0.925 1.36834889275e-38
0.0 -0.0496444660439 0.925 1.34998179352e-38
0.00171187813945 -0.0496444660439 0.925 1.19386145005e-38
0.00342375627889 -0.0496444660439 0.925 1.1020259539e-38
0.00513563441834 -0.0496444660439 0.925 9.82639808891e-39
0.00684751255778 -0.0496444660439 0.925 1.01937400735e-38
0.00855939069723 -0.0496444660439 0.925 1.0469246562e-38
0.0102712688367 -0.0496444660439 0.925 1.06529175543e-38
0.0119831469761 -0.0496444660439 0.925 1.14794370197e-38
0.0136950251156 -0.0496444660439 0.925 1.14794370197e-38
0.0154568715899 -0.049805475123 0.928 1.15712725159e-38
0.0171743017665 -0.049805475123 0.928 1.23977919813e-38
0.0188917319432 -0.049805475123 0.928 1.24896274775e-38
0.0206535784175 -0.049912814509 0.93 1.33172231401e-38
0.0224950040919 -0.0501811629741 0.935 1.40508309122e-38
0.024225389022 -0.0501811629741 0.935 1.39600716132e-38
0.0259557739521 -0.0501811629741 0.935 1.43263374006e-38
0.0277749914776 -0.0503421720532 0.938 1.58025296627e-38
0.029510928445 -0.0503421720532 0.938 1.55302601737e-38
0.0312468654123 -0.0503421720532 0.938 1.70997312693e-38
0.0331586168913 -0.0506105205183 0.943 1.88532461026e-38
0.034903807254 -0.0506105205183 0.943 2.34935941192e-38
-0.0366489976167 -0.0488653301556 0.943 2.31168872569e-38
-0.034903807254 -0.0488653301556 0.943 2.14591806009e-38
-0.0331586168913 -0.0488653301556 0.943 1.35228202495e-38
-0.0313134898588 -0.0487098731137 0.94 9.47340540055e-39
-0.029510928445 -0.0486062350858 0.938 1.04789379422e-38
-0.0276861588823 -0.048450778044 0.935 9.73779118441e-39
-0.0259557739521 -0.048450778044 0.935 8.99987862348e-39
-0.024225389022 -0.048450778044 0.935 8.72437213501e-39
-0.0224950040919 -0.048450778044 0.935 9.09171411964e-39
-0.0207646191617 -0.048450778044 0.935 1.00100690812e-38
-0.0190342342316 -0.048450778044 0.935 1.01019045774e-38
-0.0173038493014 -0.048450778044 0.935 1.00100690812e-38
-0.015540152148 -0.0483471400161 0.933 1.03774110659e-38
-0.0137690522784 -0.0481916829742 0.93 1.1020259539e-38
-0.0120220112366 -0.0480880449463 0.928 1.15712725159e-38
-0.0103045810599 -0.0480880449463 0.928 1.16631080121e-38
-0.00858715088327 -0.0480880449463 0.928 1.2214120989e-38
-0.00686972070662 -0.0480880449463 0.928 1.2765133966e-38
-0.00515229052996 -0.0480880449463 0.928 1.32243114468e-38
-0.00343486035331 -0.0480880449463 0.928 1.31324759506e-38
-0.00171187813945 -0.0479325879045 0.925 1.33161469429e-38
0.0 -0.0479325879045 0.925 1.34079824391e-38
0.00171187813945 -0.0479325879045 0.925 1.25814629736e-38
0.00342375627889 -0.0479325879045 0.925 1.05610820582e-38
0.00513563441834 -0.0479325879045 0.925 9.27538511196e-39
0.00684751255778 -0.0479325879045 0.925 9.55089160043e-39
0.00858715088327 -0.0480880449463 0.928 1.05610820582e-38
0.0103045810599 -0.0480880449463 0.928 1.06529175543e-38
0.0120220112366 -0.0480880449463 0.928 1.12039305313e-38
0.0137394414132 -0.0480880449463 0.928 1.11120950351e-38
0.0154568715899 -0.0480880449463 0.928 1.21222854929e-38
0.0171743017665 -0.0480880449463 0.928 1.30406404544e-38
0.0188917319432 -0.0480880449463 0.928 1.32243114468e-38
0.0206535784175 -0.0481916829742 0.93 1.35916534314e-38
0.0224950040919 -0.048450778044 0.935 1.44181728968e-38
0.024225389022 -0.048450778044 0.935 1.43263374006e-38
0.0260390545103 -0.0486062350858 0.938 1.49760017895e-38
0.0277749914776 -0.0486062350858 0.938 1.52504488963e-38
0.0295738515333 -0.0487098731137 0.94 1.70979348047e-38
0.0314134265286 -0.0488653301556 0.943 1.65483385405e-38
0.0331586168913 -0.0488653301556 0.943 1.95015147982e-38
0.034903807254 -0.0488653301556 0.943 2.34925249285e-38
-0.0350148479982 -0.0472700447975 0.946 2.20116537309e-38
-0.0331586168913 -0.0471201397929 0.943 1.24175600988e-38
-0.0313134898588 -0.0469702347883 0.94 9.28650581657e-39
-0.0295738515333 -0.0469702347883 0.94 9.92576696561e-39
-0.0277749914776 -0.0468702981185 0.938 1.01019045774e-38
-0.0259557739521 -0.0467203931138 0.935 1.06529175543e-38
-0.024225389022 -0.0467203931138 0.935 1.0469246562e-38
-0.0224950040919 -0.0467203931138 0.935 1.05610820582e-38
-0.0207646191617 -0.0467203931138 0.935 1.03774110659e-38
-0.0190342342316 -0.0467203931138 0.935 1.05610820582e-38
-0.0173038493014 -0.0467203931138 0.935 1.03774110659e-38
-0.015540152148 -0.0466204564441 0.933 1.03774110659e-38
-0.013813468576 -0.0466204564441 0.933 1.11120950351e-38
-0.0120479207436 -0.0464705514394 0.93 1.12957660274e-38
-0.0103045810599 -0.0463706147697 0.928 1.16631080121e-38
-0.00858715088327 -0.0463706147697 0.928 1.19386145005e-38
-0.00686972070662 -0.0463706147697 0.928 1.26732984698e-38
-0.00515229052996 -0.0463706147697 0.928 1.26732984698e-38
-0.00343486035331 -0.0463706147697 0.928 1.31324759506e-38
-0.00171743017665 -0.0463706147697 0.928 1.30406404544e-38
0.0 -0.0463706147697 0.928 1.29488049583e-38
0.00171743017665 -0.0463706147697 0.928 1.30406404544e-38
0.00343486035331 -0.0463706147697 0.928 1.24896274775e-38
0.00515229052996 -0.0463706147697 0.928 1.12957660274e-38
0.00686972070662 -0.0463706147697 0.928 1.18478552016e-38
0.00858715088327 -0.0463706147697 0.928 1.14794370197e-38
0.0103045810599 -0.0463706147697 0.928 1.08365885466e-38
0.0120220112366 -0.0463706147697 0.928 1.0469246562e-38
0.0137394414132 -0.0463706147697 0.928 1.08365885466e-38
0.0154568715899 -0.0463706147697 0.928 1.09284240428e-38
0.0171743017665 -0.0463706147697 0.928 1.19386145005e-38
0.0189324468827 -0.0464705514394 0.93 1.25814629736e-38
0.0206535784175 -0.0464705514394 0.93 1.34998179352e-38
0.0224950040919 -0.0467203931138 0.935 1.36834889275e-38
0.024225389022 -0.0467203931138 0.935 1.41430251407e-38
0.0260390545103 -0.0468702981185 0.938 1.45132369846e-38
0.0277749914776 -0.0468702981185 0.938 1.55270147664e-38
0.0295738515333 -0.0469702347883 0.94 1.58071847762e-38
0.0314134265286 -0.0471201397929 0.943 1.75581786736e-38
0.0332641055983 -0.0472700447975 0.946 1.95029469252e-38
0.035088875161 -0.0473699814673 0.948 2.34889207888e-38
-0.0350148479982 -0.0455193023976 0.946 2.20123571827e-38
-0.0332641055983 -0.0455193023976 0.946 1.27895838216e-38
-0.0314134265286 -0.0453749494302 0.943 9.74640076217e-39
-0.0295738515333 -0.0452305964628 0.94 1.00194241498e-38
-0.0278342132079 -0.0452305964628 0.94 1.00100690812e-38
-0.0260390545103 -0.0451343611511 0.938 1.12957660274e-38
-0.0243031175429 -0.0451343611511 0.938 1.17549435082e-38
-0.0225671805756 -0.0451343611511 0.938 1.17549435082e-38
-0.0208312436082 -0.0451343611511 0.938 1.14794370197e-38
-0.0190342342316 -0.0449900081837 0.935 1.08365885466e-38
-0.0173038493014 -0.0449900081837 0.935 1.09284240428e-38
-0.0155734643713 -0.0449900081837 0.935 1.08365885466e-38
-0.013813468576 -0.0448937728721 0.933 1.08365885466e-38
-0.0120479207436 -0.0447494199046 0.93 1.12039305313e-38
-0.0103267892088 -0.0447494199046 0.93 1.16631080121e-38
-0.00860565767397 -0.0447494199046 0.93 1.15712725159e-38
-0.00688452613918 -0.0447494199046 0.93 1.2214120989e-38
-0.00516339460438 -0.0447494199046 0.93 1.26732984698e-38
-0.00344226306959 -0.0447494199046 0.93 1.28569694621e-38
-0.00171743017665 -0.044653184593 0.928 1.31324759506e-38
0.0 -0.044653184593 0.928 1.33161469429e-38
0.00171743017665 -0.044653184593 0.928 1.36834889275e-38
0.00343486035331 -0.044653184593 0.928 1.34998179352e-38
0.00515229052996 -0.044653184593 0.928 1.34998179352e-38
0.00686972070662 -0.044653184593 0.928 1.34079824391e-38
0.00858715088327 -0.044653184593 0.928 1.17549435082e-38
0.0103045810599 -0.044653184593 0.928 1.14794370197e-38
0.0120220112366 -0.044653184593 0.928 1.0469246562e-38
0.0137394414132 -0.044653184593 0.928 1.15712753185e-38
0.0154568715899 -0.044653184593 0.928 1.092950024e-38
0.0172113153479 -0.0447494199046 0.93 9.91823358506e-39
0.0189324468827 -0.0447494199046 0.93 1.18467790044e-38
0.020720202864 -0.0448937728721 0.933 1.31324759506e-38
0.0224950040919 -0.0449900081837 0.935 1.24896274775e-38
0.024225389022 -0.0449900081837 0.935 1.44232091635e-38
0.0260390545103 -0.0451343611511 0.938 1.39622240077e-38
0.0277749914776 -0.0451343611511 0.938 1.61724248131e-38
0.0295738515333 -0.0452305964628 0.94 1.56246039941e-38
0.0315133631984 -0.0455193023976 0.946 1.71872605753e-38
0.0333344314029 -0.0456155377093 0.948 2.03326963836e-38
0.035088875161 -0.0456155377093 0.948 2.34907200561e-38
-0.0332641055983 -0.0437685599977 0.946 1.35296557834e-38
-0.0314134265286 -0.0436297590675 0.943 8.54823452324e-39
-0.0296682361659 -0.0436297590675 0.943 9.73922611404e-39
-0.0278342132079 -0.0434909581373 0.94 9.36865553774e-39
-0.0260390545103 -0.0433984241838 0.938 1.14808719494e-38
-0.0243031175429 -0.0433984241838 0.938 1.24896274775e-38
-0.0225671805756 -0.0433984241838 0.938 1.2765133966e-38
-0.0208312436082 -0.0433984241838 0.938 1.23977919813e-38
-0.0190342342316 -0.0432596232536 0.935 1.2214120989e-38
-0.0173038493014 -0.0432596232536 0.935 1.16631080121e-38
-0.0155734643713 -0.0432596232536 0.935 1.14794370197e-38
-0.0138430794411 -0.0432596232536 0.935 1.16631080121e-38
-0.012086785004 -0.0431670893001 0.933 1.13876015236e-38
-0.0103267892088 -0.0430282883699 0.93 1.13876015236e-38
-0.00860565767397 -0.0430282883699 0.93 1.16631080121e-38
-0.00688452613918 -0.0430282883699 0.93 1.2214120989e-38
-0.00516339460438 -0.0430282883699 0.93 1.24896274775e-38
-0.00344226306959 -0.0430282883699 0.93 1.2765133966e-38
-0.00172113153479 -0.0430282883699 0.93 1.33161469429e-38
0.0 -0.0430282883699 0.93 1.32243114468e-38
0.00172113153479 -0.0430282883699 0.93 1.32243114468e-38
0.00344226306959 -0.0430282883699 0.93 1.34998179352e-38
0.00516339460438 -0.0430282883699 0.93 1.38671599199e-38
0.00688452613918 -0.0430282883699 0.93 1.2765133966e-38
0.00860565767397 -0.0430282883699 0.93 1.17549435082e-38
0.0103267892088 -0.0430282883699 0.93 1.1020259539e-38
0.0120479207436 -0.0430282883699 0.93 1.12039305313e-38
0.0137690522784 -0.0430282883699 0.93 1.26732984698e-38
0.0154901838131 -0.0430282883699 0.93 1.20304499967e-38
0.0172113153479 -0.0430282883699 0.93 1.05610820582e-38
