# .PCD v0.7 - Point Cloud Data file format
VERSION 0.7
FIELDS x y z rgb
SIZE 4 4 4 4
TYPE F F F F
COUNT 1 1 1 1
WIDTH 848
HEIGHT 1
VIEWPOINT 0 0 0 1 0 0 0
POINTS 848
DATA ascii
0.0580298929086 -0.0290149464543 0.871 2.34906668067e-38
0.0596418343783 -0.0290149464543 0.871 2.34834641326e-38
0.061253775848 -0.0290149464543 0.871 2.34910773872e-38
0.0161564282782 -0.027465928073 0.873 1.04714129694e-38
0.0175481389386 -0.027119851087 0.862 1.01937400735e-38
0.0191434242967 -0.027119851087 0.862 9.92220626621e-39
0.020425944892 -0.0267108510126 0.849 1.72173786832e-38
0.0219971714221 -0.0267108510126 0.849 1.9153081935e-38
0.0235683979523 -0.0267108510126 0.849 2.11785103276e-38
0.0251396244824 -0.0267108510126 0.849 5.41829427332e-39
0.0266479279242 -0.0266479279242 0.847 1.2964597592e-38
0.0282154530962 -0.0266479279242 0.847 1.58122070299e-38
0.0297126524636 -0.0265850048358 0.845 1.58997377372e-38
0.0312764762774 -0.0265850048358 0.845 1.64500486636e-38
0.0328403000913 -0.0265850048358 0.845 1.63589320335e-38
0.0344041239052 -0.0265850048358 0.845 1.74631117832e-38
0.0360530789563 -0.0266479279242 0.847 1.29488049583e-38
0.0377094367236 -0.0267108510126 0.849 2.34662659965e-38
0.0392806632538 -0.0267108510126 0.849 1.89745481029e-38
0.0409481250955 -0.0267737741009 0.851 1.98932169553e-38
0.0425230529838 -0.0267737741009 0.851 1.97034601238e-38
0.0440979808721 -0.0267737741009 0.851 2.12736781115e-38
0.0456729087604 -0.0267737741009 0.851 1.91545953374e-38
0.047414397765 -0.0268681587335 0.854 2.0995561004e-38
0.0493391039974 -0.0270569279986 0.86 1.89701844595e-38
0.0510491314578 -0.027119851087 0.862 2.15465669744e-38
0.0526444168159 -0.027119851087 0.862 2.00697189047e-38
0.0545543176158 -0.0272771588079 0.867 2.34891702199e-38
0.0561588563692 -0.0272771588079 0.867 2.34881248513e-38
0.0580298929086 -0.0274030049846 0.871 2.34866969282e-38
0.0597787846294 -0.027465928073 0.873 2.34967792706e-38
0.0613944274573 -0.027465928073 0.873 1.95161976035e-38
0.0129251426226 -0.0258502852452 0.873 1.43310009219e-38
0.0145407854504 -0.0258502852452 0.873 1.79251969583e-38
0.0161564282782 -0.0258502852452 0.873 1.45229409765e-38
0.0175481389386 -0.0255245657289 0.862 1.51675648948e-38
0.0191434242967 -0.0255245657289 0.862 1.37868066633e-38
0.0207387096547 -0.0255245657289 0.862 1.10216944686e-38
0.0222821759988 -0.0254653439987 0.86 1.02855755697e-38
0.0237627192546 -0.0253469005382 0.856 1.07494165718e-38
0.025287678808 -0.025287678808 0.854 9.27574384436e-39
0.0268681587335 -0.025287678808 0.854 1.26898001605e-38
0.0283487019892 -0.0251988462126 0.851 1.50739511508e-38
0.0299236298775 -0.0251988462126 0.851 1.58975853427e-38
0.0314985577658 -0.0251988462126 0.851 1.71879514154e-38
0.0330734856541 -0.0251988462126 0.851 1.63578390207e-38
0.0346484135424 -0.0251988462126 0.851 1.90268249434e-38
0.0363510382865 -0.025287678808 0.854 1.35916534314e-38
0.037931518212 -0.025287678808 0.854 2.34630402075e-38
0.039604532091 -0.0253469005382 0.856 1.90656913576e-38
0.0411887133746 -0.0253469005382 0.856 2.04438964232e-38
0.042872831328 -0.0254061222684 0.858 1.82276392058e-38
0.0444607139698 -0.0254061222684 0.858 1.84152576559e-38
0.0460485966116 -0.0254061222684 0.858 2.05364760089e-38
0.0477475199975 -0.0254653439987 0.86 1.94308164881e-38
0.0494538460997 -0.0255245657289 0.862 2.04456844801e-38
0.0511675749183 -0.0255837874591 0.864 2.10871134378e-38
0.0527665616345 -0.0255837874591 0.864 2.34867599866e-38
0.0546801637925 -0.0257318417847 0.869 2.28405904361e-38
0.0564179514389 -0.0257910635149 0.871 2.34945876398e-38
0.0580298929086 -0.0257910635149 0.871 2.34949729969e-38
0.0599157348806 -0.0259095069754 0.875 2.34813523758e-38
0.0615350790666 -0.0259095069754 0.875 1.9047683271e-38
0.00492465700439 -0.024623285022 0.887 1.91434844419e-38
0.0065291957578 -0.0244844840917 0.882 1.34198346215e-38
0.00814298790655 -0.0244289637197 0.88 2.17145350162e-38
0.00974937733903 -0.0243734433476 0.878 1.5091882166e-38
0.0113354093017 -0.0242901627894 0.875 1.71130954528e-38
0.0129251426226 -0.0242346424173 0.873 1.72037468517e-38
0.0145074732272 -0.0241791220453 0.871 1.88592828964e-38
0.0160824011154 -0.0241236016732 0.869 1.5819034156e-38
0.0176499262875 -0.0240680813011 0.867 1.75671918253e-38
0.0191434242967 -0.0239292803708 0.862 1.44221189533e-38
0.0207387096547 -0.0239292803708 0.862 1.59847573176e-38
0.0222821759988 -0.0238737599988 0.86 1.54391253267e-38
0.0238182396267 -0.0238182396267 0.858 1.49846113672e-38
0.0253469005382 -0.0237627192546 0.856 1.44303697986e-38
0.0269310818219 -0.0237627192546 0.856 1.46136946702e-38
0.0285152631055 -0.0237627192546 0.856 1.58068442607e-38
0.0300291185845 -0.0237071988825 0.854 1.6356408295e-38
0.03160959851 -0.0237071988825 0.854 1.69088562016e-38
0.0331900784355 -0.0237071988825 0.854 1.65407953508e-38
0.034770558361 -0.0237071988825 0.854 1.66319203887e-38
0.0364361695237 -0.0237627192546 0.856 1.36834889275e-38
0.0380203508073 -0.0237627192546 0.856 2.34601717495e-38
0.0396970660444 -0.0238182396267 0.858 1.79589682513e-38
0.0412849486862 -0.0238182396267 0.858 2.03506624312e-38
0.0429727679978 -0.0238737599988 0.86 1.94333402266e-38
0.0446679900256 -0.0239292803708 0.862 2.04466864085e-38
0.0462632753836 -0.0239292803708 0.862 1.777348538e-38
0.0479696014859 -0.0239848007429 0.864 2.13679995111e-38
0.0497407013555 -0.0240680813011 0.867 2.34877549085e-38
0.0514636835694 -0.0241236016732 0.869 2.08101580068e-38
0.0531940684996 -0.0241791220453 0.871 2.06218361048e-38
0.054931856146 -0.0242346424173 0.873 2.34885340304e-38
0.0565474989738 -0.0242346424173 0.873 2.34921073415e-38
0.0582963906946 -0.0242901627894 0.875 2.34946464943e-38
0.0601211602573 -0.0243734433476 0.878 1.66559596638e-38
0.0617460564805 -0.0243734433476 0.878 2.29166332986e-38
0.00329791010215 -0.0230853707151 0.891 1.85881456566e-38
0.00492465700439 -0.0229817326872 0.887 1.68342959129e-38
0.0065291957578 -0.0228521851523 0.882 1.77561989622e-38
0.00814298790655 -0.0228003661383 0.88 1.9872735577e-38
0.00974937733903 -0.0227485471244 0.878 2.03481288836e-38
0.0113354093017 -0.0226708186035 0.875 1.67539440576e-38
0.0129251426226 -0.0226189995895 0.873 2.20926375717e-38
0.0145074732272 -0.0225671805756 0.871 1.15852756915e-38
0.0160824011154 -0.0225153615616 0.869 1.7111237331e-38
0.0176499262875 -0.0224635425477 0.867 1.68292134034e-38
0.0191878405943 -0.0223858140267 0.864 2.04240890695e-38
0.0207387096547 -0.0223339950128 0.862 1.94117798484e-38
0.0223339950128 -0.0223339950128 0.862 1.5443788848e-38
0.0238737599988 -0.0222821759988 0.86 1.54283633545e-38
0.0254653439987 -0.0222821759988 0.86 1.63553320978e-38
0.0269940049102 -0.0222303569849 0.858 1.58032387197e-38
0.028581887552 -0.0222303569849 0.858 1.63574971039e-38
0.0301697701938 -0.0222303569849 0.858 1.60816220739e-38
0.0317576528356 -0.0222303569849 0.858 1.67255565534e-38
0.0332678069564 -0.0221785379709 0.856 1.6634062974e-38
0.03485198824 -0.0221785379709 0.856 1.67280508646e-38
0.0365213007609 -0.0222303569849 0.858 1.37778355505e-38
0.0381091834027 -0.0222303569849 0.858 2.32732483435e-38
0.0396970660444 -0.0222303569849 0.858 1.96206209638e-38
0.0412849486862 -0.0222303569849 0.858 1.74014784728e-38
0.0429727679978 -0.0222821759988 0.86 1.97084949892e-38
0.0446679900256 -0.0223339950128 0.862 1.85106776736e-38
0.0465316238487 -0.0224635425477 0.867 2.15570767129e-38
0.0481361626021 -0.0224635425477 0.867 2.10020924561e-38
0.0498554434579 -0.0225153615616 0.869 2.10895895322e-38
0.0514636835694 -0.0225153615616 0.869 1.80432311305e-38
0.0531940684996 -0.0225671805756 0.871 2.34869926021e-38
0.054931856146 -0.0226189995895 0.873 2.34917486091e-38
0.0566770465087 -0.0226708186035 0.875 2.34920681052e-38
0.0584962640342 -0.0227485471244 0.878 1.87768276922e-38
0.0602581105085 -0.0228003661383 0.88 1.91369389767e-38
0.062238337113 -0.0229299136732 0.885 2.24585474293e-38
0.0638761880897 -0.0229299136732 0.885 2.34723896708e-38
0.00329791010215 -0.021436415664 0.891 1.82208050732e-38
0.00493576107881 -0.0213882980082 0.889 1.65605872903e-38
0.00655140390664 -0.0212920626966 0.885 1.82171771115e-38
0.00814298790655 -0.021171768557 0.88 1.59140870334e-38
0.00977158548786 -0.021171768557 0.88 1.67352255128e-38
0.0113742735622 -0.0211236509012 0.878 2.13547208069e-38
0.0129547534877 -0.0210514744175 0.875 1.97027342512e-38
0.0145407854504 -0.0210033567617 0.873 1.23256867675e-38
0.0161194146968 -0.0209552391059 0.871 2.21859626481e-38
0.017690641227 -0.0209071214501 0.869 1.93264744031e-38
0.0192544650409 -0.0208590037943 0.867 1.6377991094e-38
0.0208590037943 -0.0208590037943 0.867 1.68188115649e-38
0.0224635425477 -0.0208590037943 0.867 1.89432332861e-38
0.0239292803708 -0.0207387096547 0.862 1.43266961331e-38
0.0255245657289 -0.0207387096547 0.862 2.26367799823e-38
0.0270569279986 -0.0206905919989 0.86 1.4898874322e-38
0.0286485119985 -0.0206905919989 0.86 1.57099682939e-38
0.0302400959984 -0.0206905919989 0.86 1.68199073803e-38
0.0318316799983 -0.0206905919989 0.86 1.60834367555e-38
0.0334232639983 -0.0206905919989 0.86 1.63596354854e-38
0.0350148479982 -0.0206905919989 0.86 1.64511094465e-38
0.0366064319981 -0.0206905919989 0.86 1.52525844752e-38
0.038198015998 -0.0206905919989 0.86 2.26372326017e-38
0.0398821339514 -0.0207387096547 0.862 2.09077234123e-38
0.0414774193095 -0.0207387096547 0.862 2.27473158064e-38
0.0431726413373 -0.0207868273105 0.864 2.24739939423e-38
0.0449270850953 -0.0208590037943 0.867 2.03562830394e-38
0.0466389632348 -0.0209071214501 0.869 1.79578668307e-38
0.0482472033463 -0.0209071214501 0.869 1.82323111349e-38
0.0499701855602 -0.0209552391059 0.871 2.12711613795e-38
0.0515821270299 -0.0209552391059 0.871 2.34884121175e-38
0.0533162133182 -0.0210033567617 0.873 2.34910647755e-38
0.0552464715878 -0.0211236509012 0.878 2.34888563291e-38
0.056871367811 -0.0211236509012 0.878 1.67535306746e-38
0.0586295129272 -0.021171768557 0.88 1.83997438806e-38
0.0603950607596 -0.0212198862128 0.882 2.06139453932e-38
0.062238337113 -0.0212920626966 0.885 2.22745261124e-38
0.0638761880897 -0.0212920626966 0.885 2.31021441958e-38
0.00329791010215 -0.0197874606129 0.891 1.87753675392e-38
0.00493576107881 -0.0197430443153 0.889 1.66506277232e-38
0.00655140390664 -0.0196542117199 0.885 1.55456702529e-38
0.00816149469725 -0.0195875872734 0.882 1.96069036531e-38
0.00977158548786 -0.0195431709757 0.88 1.32390194754e-38
0.0113742735622 -0.0194987546781 0.878 1.54359163533e-38
0.0129991697854 -0.0194987546781 0.878 1.29502398879e-38
0.0145740976737 -0.0194321302315 0.875 1.47880260083e-38
0.0161564282782 -0.0193877139339 0.873 2.11681561332e-38
0.0177313561665 -0.0193432976362 0.871 1.4705518956e-38
0.0193432976362 -0.0193432976362 0.871 2.13597752904e-38
0.0209552391059 -0.0193432976362 0.871 2.19046898165e-38
0.0225153615616 -0.0192988813385 0.869 1.9788488112e-38
0.0240680813011 -0.0192544650409 0.867 1.66556667924e-38
0.0256726200545 -0.0192544650409 0.867 2.34842951026e-38
0.0271827741753 -0.0191878405943 0.864 1.83205803265e-38
0.0287817608915 -0.0191878405943 0.864 1.47855148814e-38
0.0303104218031 -0.0191434242967 0.862 1.71883199569e-38
0.0319057071611 -0.0191434242967 0.862 1.58968720818e-38
0.0335009925192 -0.0191434242967 0.862 1.65436624075e-38
0.0350962778772 -0.0191434242967 0.862 1.67258984702e-38
0.0366915632353 -0.0191434242967 0.862 1.4053342039e-38
0.0383756811887 -0.0191878405943 0.864 2.28169421232e-38
0.0399746679049 -0.0191878405943 0.864 2.10902957867e-38
0.0417180075885 -0.0192544650409 0.867 1.68400034015e-38
0.0434224830117 -0.0192988813385 0.869 2.14541205121e-38
0.0450307231232 -0.0192988813385 0.869 1.74003644405e-38
0.0466389632348 -0.0192988813385 0.869 2.00740825481e-38
0.0483582440905 -0.0193432976362 0.871 1.96134309014e-38
0.0500849276625 -0.0193877139339 0.873 2.29339575515e-38
0.0517005704903 -0.0193877139339 0.873 1.93368257949e-38
0.0534383581368 -0.0194321302315 0.875 2.26522713368e-38
0.0553723177646 -0.0195431709757 0.88 1.79492754698e-38
0.0571304628807 -0.0195875872734 0.882 1.66537932564e-38
0.0589626351597 -0.0196542117199 0.885 1.93206730275e-38
0.0608743866387 -0.0197430443153 0.889 2.18128641294e-38
0.0626602919409 -0.0197874606129 0.891 2.08934119511e-38
0.064309246992 -0.0197874606129 0.891 2.3472357441e-38
0.00166190980456 -0.0182810078502 0.898 2.03449072984e-38
0.00329791010215 -0.0181385055618 0.891 1.84055340459e-38
0.00494686515323 -0.0181385055618 0.891 1.84062557146e-38
0.00656620933919 -0.0180570756828 0.887 1.51801289368e-38
0.00818925488329 -0.0180163607432 0.885 1.56375043477e-38
0.0097937936367 -0.0179552883339 0.882 1.91409116579e-38
0.0114001830692 -0.0179145733944 0.88 1.36034916008e-38
0.0129991697854 -0.0178738584549 0.878 1.61766861618e-38
0.0146240660085 -0.0178738584549 0.878 1.39640176697e-38
0.0162489622317 -0.0178738584549 0.878 1.46018438891e-38
0.0178127860456 -0.0178127860456 0.875 1.52446923622e-38
0.0194321302315 -0.0178127860456 0.875 1.77472684871e-38
0.0210514744175 -0.0178127860456 0.875 1.80260315932e-38
0.0226189995895 -0.0177720711061 0.873 1.89547841894e-38
0.0241791220453 -0.0177313561665 0.871 2.21001961756e-38
0.0257318417847 -0.017690641227 0.869 2.34874494254e-38
0.0273400818963 -0.017690641227 0.869 1.35271096241e-38
0.0288816975613 -0.0176499262875 0.867 1.54290822207e-38
0.0304862363147 -0.0176499262875 0.867 1.663047565e-38
0.0320907750681 -0.0176499262875 0.867 1.69981805709e-38
0.0336953138215 -0.0176499262875 0.867 1.69052688775e-38
0.0352998525749 -0.0176499262875 0.867 1.84697149168e-38
0.0369043913283 -0.0176499262875 0.867 1.37753244237e-38
0.0385089300817 -0.0176499262875 0.867 2.29955824541e-38
0.0402060027886 -0.017690641227 0.869 2.26619991507e-38
0.0418142429001 -0.017690641227 0.869 1.97073837595e-38
0.0435224196815 -0.0177313561665 0.871 1.88765693143e-38
0.0451343611511 -0.0177313561665 0.871 1.9889238669e-38
0.0467463026208 -0.0177313561665 0.871 1.98914443128e-38
0.0484692848347 -0.0177720711061 0.873 2.00744090507e-38
0.0500849276625 -0.0177720711061 0.873 1.93375698844e-38
0.0518190139508 -0.0178127860456 0.875 2.09985205463e-38
0.0537437201832 -0.0179145733944 0.88 1.64734111116e-38
0.0554981639413 -0.0179552883339 0.882 1.6828854671e-38
0.0574543317179 -0.0180570756828 0.887 1.78463010521e-38
0.0592291329458 -0.0180977906223 0.889 2.04270205858e-38
0.0608743866387 -0.0180977906223 0.889 2.16291917358e-38
0.0628712693549 -0.0181995779711 0.894 1.9783464457e-38
0.0645257764432 -0.0181995779711 0.894 2.3476320313e-38
0.0 -0.0166190980456 0.898 2.16407006001e-38
0.00166190980456 -0.0166190980456 0.898 1.97917265128e-38
0.00331641689285 -0.0165820844643 0.896 1.86824936809e-38
0.00497462533928 -0.0165820844643 0.896 1.79427790501e-38
0.00659582020431 -0.0164895505108 0.891 1.81274926085e-38
0.00820776167399 -0.016415523348 0.887 1.54509747066e-38
0.00982710585995 -0.0163785097666 0.885 1.81213857498e-38
0.0114260925761 -0.0163229893945 0.882 1.77554604779e-38
0.0130287806505 -0.0162859758131 0.88 1.47934069944e-38
0.0146573782318 -0.0162859758131 0.88 1.61777581551e-38
0.0162859758131 -0.0162859758131 0.88 1.58975937505e-38
0.0178738584549 -0.0162489622317 0.878 1.56224586061e-38
0.0194987546781 -0.0162489622317 0.878 1.44224860935e-38
0.0211236509012 -0.0162489622317 0.878 1.57038712443e-38
0.0226708186035 -0.0161934418596 0.875 1.46018438891e-38
0.0242901627894 -0.0161934418596 0.875 1.74555840078e-38
0.0258502852452 -0.0161564282782 0.873 2.22773749521e-38
0.0274030049846 -0.0161194146968 0.871 1.95173088332e-38
0.0290149464543 -0.0161194146968 0.871 1.46997778362e-38
0.030626887924 -0.0161194146968 0.871 1.71832949006e-38
0.0322388293937 -0.0161194146968 0.871 1.72758352499e-38
0.0338507708634 -0.0161194146968 0.871 1.7464204796e-38
0.035462712333 -0.0161194146968 0.871 1.82871033062e-38
0.0370746538027 -0.0161194146968 0.871 1.43306421895e-38
0.0386865952724 -0.0161194146968 0.871 2.22655409866e-38
0.0402985367421 -0.0161194146968 0.871 1.81447636121e-38
0.0420067135234 -0.0161564282782 0.873 1.68486578208e-38
0.043722293021 -0.0161934418596 0.875 2.18250344066e-38
0.045237999179 -0.0161564282782 0.873 1.93336014071e-38
0.0468536420069 -0.0161564282782 0.873 1.90602739378e-38
0.0485803255789 -0.0161934418596 0.875 2.15505901023e-38
0.0503717829183 -0.0162489622317 0.878 2.09037787572e-38
0.0521151226019 -0.0162859758131 0.88 1.26001170588e-38
0.0538658650018 -0.0163229893945 0.882 1.75650282205e-38
0.0558127793831 -0.016415523348 0.887 1.82136178134e-38
0.0575838792528 -0.0164525369294 0.889 1.86749687081e-38
0.0593623818388 -0.0164895505108 0.891 1.99660998898e-38
0.0610113368898 -0.0164895505108 0.891 2.18131920332e-38
0.0628712693549 -0.0165450708829 0.894 1.98745628702e-38
0.0645257764432 -0.0165450708829 0.894 2.34777622492e-38
0.00167116319991 -0.0150404687992 0.903 1.95151410245e-38
0.00332381960913 -0.0149571882411 0.898 1.9884604575e-38
0.00497462533928 -0.0149238760178 0.896 1.85917175663e-38
0.00661802835314 -0.0148905637946 0.894 1.9237395261e-38
0.00822626846469 -0.0148072832364 0.889 1.75786054013e-38
0.00984931400879 -0.0147739710132 0.887 1.78487505219e-38
0.0114649568366 -0.0147406587899 0.885 2.10759198657e-38
0.0130583915156 -0.014690690455 0.882 1.49817485145e-38
0.014690690455 -0.014690690455 0.882 1.63596480971e-38
0.0162859758131 -0.0146573782318 0.88 1.61734659779e-38
0.0179145733944 -0.0146573782318 0.88 1.50689246932e-38
0.0194987546781 -0.0146240660085 0.878 1.58961532157e-38
0.0211236509012 -0.0146240660085 0.878 1.65368689125e-38
0.0227485471244 -0.0146240660085 0.878 1.58039758027e-38
0.0243734433476 -0.0146240660085 0.878 1.52511495456e-38
0.0259095069754 -0.0145740976737 0.875 1.4510008393e-38
0.0275288511614 -0.0145740976737 0.875 1.49691858738e-38
0.0290815709008 -0.0145407854504 0.873 1.7365877084e-38
0.0306972137286 -0.0145407854504 0.873 1.64482395873e-38
0.0323128565565 -0.0145407854504 0.873 1.6632269312e-38
0.0339284993843 -0.0145407854504 0.873 1.70957515817e-38
0.0355441422121 -0.0145407854504 0.873 1.70042762192e-38
0.0371597850399 -0.0145407854504 0.873 1.45161068439e-38
0.0388642604631 -0.0145740976737 0.875 2.1808152964e-38
0.0404836046491 -0.0145740976737 0.875 1.99883258847e-38
0.042102948835 -0.0145740976737 0.875 1.86010558193e-38
0.0438721980256 -0.0146240660085 0.878 2.01669550051e-38
0.0453416372069 -0.0145740976737 0.875 1.9983289618e-38
0.0469609813929 -0.0145740976737 0.875 1.91532332753e-38
0.0487468866951 -0.0146240660085 0.878 1.33355184929e-38
0.0504865250206 -0.0146573782318 0.88 1.64618896356e-38
0.0522335660624 -0.014690690455 0.882 1.67370472008e-38
0.0541712270483 -0.0147739710132 0.887 1.77515872889e-38
0.0560644717366 -0.0148405954597 0.891 1.77544417339e-38
0.05790774809 -0.0148905637946 0.894 2.04263549691e-38
0.0596955040713 -0.0149238760178 0.896 1.86799909618e-38
0.0613537125177 -0.0149238760178 0.896 2.07961786533e-38
0.0631525725735 -0.0149571882411 0.898 2.07940052394e-38
0.064814482378 -0.0149571882411 0.898 2.34842516623e-38
0.00167116319991 -0.0133693055993 0.903 1.98832032765e-38
0.00334232639983 -0.0133693055993 0.903 1.97016174163e-38
0.00498572941369 -0.0132952784365 0.898 1.83172816699e-38
0.00661802835314 -0.0132360567063 0.894 1.86842509091e-38
0.00824477525538 -0.0131916404086 0.891 1.8592025852e-38
0.00987152215763 -0.0131620295435 0.889 1.90501257343e-38
0.0114908663436 -0.0131324186784 0.887 1.81278247162e-38
0.0131028078133 -0.0131028078133 0.885 1.70118081985e-38
0.0147406587899 -0.0131028078133 0.885 1.58986615399e-38
0.0163229893945 -0.0130583915156 0.882 1.67244747509e-38
0.0179552883339 -0.0130583915156 0.882 1.56227963191e-38
0.0195875872734 -0.0130583915156 0.882 1.62652860598e-38
0.021171768557 -0.0130287806505 0.88 1.62652860598e-38
0.0227485471244 -0.0129991697854 0.878 1.58976231778e-38
0.0243734433476 -0.0129991697854 0.878 1.62656447922e-38
0.0259095069754 -0.0129547534877 0.875 1.6908505877e-38
0.0275288511614 -0.0129547534877 0.875 1.66344581402e-38
0.0291481953473 -0.0129547534877 0.875 1.75513543501e-38
0.0307675395333 -0.0129547534877 0.875 1.6726991483e-38
0.0323868837192 -0.0129547534877 0.875 1.67258984702e-38
0.0340062279052 -0.0129547534877 0.875 1.70024839585e-38
0.0356255720912 -0.0129547534877 0.875 1.75542256106e-38
0.0373726131329 -0.0129991697854 0.878 1.50649674264e-38
0.0389975093561 -0.0129991697854 0.878 2.18052732956e-38
0.0406224055793 -0.0129991697854 0.878 2.30322292115e-38
0.0422473018025 -0.0129991697854 0.878 1.86939324802e-38
0.0438721980256 -0.0129991697854 0.878 1.57397430837e-38
0.0454970942488 -0.0129991697854 0.878 1.25043355062e-38
0.047121990472 -0.0129991697854 0.878 1.4981741508e-38
0.0488579274393 -0.0130287806505 0.88 1.71940792936e-38
0.0506012671229 -0.0130583915156 0.882 1.6739583551e-38
0.0525296747135 -0.0131324186784 0.887 1.77519278045e-38
0.0542933718669 -0.0131620295435 0.889 1.73842144757e-38
0.0562532410017 -0.0132360567063 0.894 1.77519432187e-38
0.05790774809 -0.0132360567063 0.894 1.97806128146e-38
0.0596955040713 -0.0132656675714 0.896 1.92310137478e-38
0.0613537125177 -0.0132656675714 0.896 1.95976326625e-38
0.0631525725735 -0.0132952784365 0.898 2.19006891094e-38
0.064814482378 -0.0132952784365 0.898 2.34813341589e-38
0.00166746184177 -0.0116722328924 0.901 1.94222419428e-38
0.00333492368355 -0.0116722328924 0.901 1.83158117078e-38
0.00500238552532 -0.0116722328924 0.901 2.05303271112e-38
0.0066328337857 -0.011607459125 0.896 1.94236306296e-38
0.00827253544143 -0.011581549618 0.894 1.9330295744e-38
0.00989373030646 -0.0115426853575 0.891 2.07117742429e-38
0.0115167758506 -0.0115167758506 0.889 1.84995219365e-38
0.0131620295435 -0.0115167758506 0.889 1.63693184578e-38
0.0147739710132 -0.0114908663436 0.887 1.80248755219e-38
0.016415523348 -0.0114908663436 0.887 1.6356783843e-38
0.0180570756828 -0.0114908663436 0.887 1.5896877687e-38
0.0196542117199 -0.0114649568366 0.885 1.64475221225e-38
0.021171768557 -0.0114001830692 0.88 1.62649343338e-38
0.0228003661383 -0.0114001830692 0.88 1.62652860598e-38
0.0244289637197 -0.0114001830692 0.88 1.63578390207e-38
0.0259983395707 -0.0113742735622 0.878 1.70017973222e-38
0.0276232357939 -0.0113742735622 0.878 1.663264486e-38
0.0292481320171 -0.0113742735622 0.878 1.67251880119e-38
0.0308730282403 -0.0113742735622 0.878 1.68177423741e-38
0.0324979244634 -0.0113742735622 0.878 1.58035974521e-38
0.0341228206866 -0.0113742735622 0.878 1.79183614244e-38
0.0357477169098 -0.0113742735622 0.878 1.68152354512e-38
0.0373726131329 -0.0113742735622 0.878 1.87466759531e-38
0.0389975093561 -0.0113742735622 0.878 1.30406404544e-38
0.0407149395328 -0.0114001830692 0.88 1.36006217416e-38
0.0423435371141 -0.0114001830692 0.88 1.28573281945e-38
0.0439721346954 -0.0114001830692 0.88 1.59904970361e-38
0.0456007322767 -0.0114001830692 0.88 1.64551101536e-38
0.047229329858 -0.0114001830692 0.88 1.66437977945e-38
0.0488579274393 -0.0114001830692 0.88 1.66441509217e-38
0.0510028644811 -0.0115167758506 0.889 1.6827835927e-38
0.052648118174 -0.0115167758506 0.889 1.7472829788e-38
0.0544155166855 -0.0115426853575 0.891 1.79348869372e-38
0.0563790871785 -0.011607459125 0.896 1.8489157933e-38
0.0580372956249 -0.011607459125 0.896 1.92281452899e-38
0.0596955040713 -0.011607459125 0.896 1.92303130986e-38
0.0613537125177 -0.011607459125 0.896 2.14400963171e-38
0.00337933998122 -0.0101380199437 0.913 1.85939077958e-38
0.00506900997183 -0.0101380199437 0.913 1.47159684387e-38
0.00664763921826 -0.00997145882739 0.898 1.65594508373e-38
0.00829104223213 -0.00994925067855 0.896 1.58183054808e-38
0.00992704252972 -0.00992704252972 0.894 1.70164843314e-38
0.011581549618 -0.00992704252972 0.894 1.68335181922e-38
0.0131916404086 -0.00989373030646 0.891 1.74752904681e-38
0.0148072832364 -0.00987152215763 0.889 1.7749362027e-38
0.0164525369294 -0.00987152215763 0.889 1.70997340719e-38
0.0180570756828 -0.00984931400879 0.887 1.59008139344e-38
0.0196986280176 -0.00984931400879 0.887 1.68159403043e-38
0.0212198862128 -0.0097937936367 0.882 1.65404338158e-38
0.0228521851523 -0.0097937936367 0.882 1.64482395873e-38
0.0244844840917 -0.0097937936367 0.882 1.61734505636e-38
0.026057561301 -0.00977158548786 0.88 1.61734841948e-38
0.0276861588823 -0.00977158548786 0.88 1.65411512806e-38
0.0293147564636 -0.00977158548786 0.88 1.61723743664e-38
0.0309433540449 -0.00977158548786 0.88 1.69088562016e-38
0.0325719516262 -0.00977158548786 0.88 1.69081345329e-38
0.0342005492075 -0.00977158548786 0.88 1.79190648762e-38
0.0358291467888 -0.00977158548786 0.88 1.77357358007e-38
0.0374577443701 -0.00977158548786 0.88 1.81992418925e-38
0.0390863419515 -0.00977158548786 0.88 1.47026476955e-38
0.0408074734862 -0.0097937936367 0.882 1.56300172101e-38
0.0424397724257 -0.0097937936367 0.882 1.55378187776e-38
0.0440720713651 -0.0097937936367 0.882 1.6548730904e-38
0.0457043703046 -0.0097937936367 0.882 1.64558108029e-38
0.047336669244 -0.0097937936367 0.882 1.6550153222e-38
0.0492465700439 -0.00984931400879 0.887 1.70100369572e-38
0.0511176065834 -0.00989373030646 0.891 1.7101899078e-38
0.0529442268251 -0.00992704252972 0.894 1.85788368309e-38
0.0545987339134 -0.00992704252972 0.894 1.75682357927e-38
0.0563790871785 -0.00994925067855 0.896 1.82129171642e-38
0.0580372956249 -0.00994925067855 0.896 1.97798939485e-38
0.0598287529643 -0.00997145882739 0.898 1.87668182172e-38
0.0625177896526 -0.0101380199437 0.913 2.21773082288e-38
0.0642074596432 -0.0101380199437 0.913 2.31014155206e-38
0.0660414826012 -0.0101602280925 0.915 2.34816998978e-38
0.00337933998122 -0.00844834995305 0.913 1.56450923789e-38
0.00506900997183 -0.00844834995305 0.913 1.61017349108e-38
0.00664763921826 -0.00830954902282 0.898 1.28752830317e-38
0.00830954902282 -0.00830954902282 0.898 1.52651793458e-38
0.00997145882739 -0.00830954902282 0.898 1.47073238284e-38
0.011607459125 -0.00829104223213 0.896 1.60916960086e-38
0.0132360567063 -0.00827253544143 0.894 1.64615126863e-38
0.0148405954597 -0.00824477525538 0.891 1.77540311535e-38
0.0164895505108 -0.00824477525538 0.891 1.61831363386e-38
0.0181385055618 -0.00824477525538 0.891 1.68234736848e-38
0.0197430443153 -0.00822626846469 0.889 1.66358916685e-38
0.0213401803524 -0.00820776167399 0.887 1.68180926987e-38
0.0229299136732 -0.00818925488329 0.885 1.65422316818e-38
0.0245677646499 -0.00818925488329 0.885 1.60823381375e-38
0.0262648373568 -0.00820776167399 0.887 1.62663958881e-38
0.0279063896916 -0.00820776167399 0.887 1.6725906878e-38
0.0294813175799 -0.00818925488329 0.885 1.70039258946e-38
0.0311191685565 -0.00818925488329 0.885 1.70035699648e-38
0.0327570195332 -0.00818925488329 0.885 1.74613097133e-38
0.0343948705098 -0.00818925488329 0.885 1.7091142711e-38
0.0360327214865 -0.00818925488329 0.885 1.77343260945e-38
0.0376705724632 -0.00818925488329 0.885 1.80163205948e-38
0.0393084234398 -0.00818925488329 0.885 1.57157276306e-38
0.0409462744165 -0.00818925488329 0.885 1.51697411113e-38
0.0425841253931 -0.00818925488329 0.885 1.64597498529e-38
0.0442219763698 -0.00818925488329 0.885 1.59973297674e-38
0.0459634653743 -0.00820776167399 0.887 1.61802664793e-38
0.0476050177091 -0.00820776167399 0.887 1.67341787428e-38
0.0493576107881 -0.00822626846469 0.889 1.81192361579e-38
0.0514044618392 -0.00829104223213 0.896 1.68296085695e-38
0.0530626702856 -0.00829104223213 0.896 1.78416151101e-38
0.0548430235506 -0.00830954902282 0.898 1.82114738267e-38
0.0565049333552 -0.00830954902282 0.898 1.86746183835e-38
0.0581668431598 -0.00830954902282 0.898 1.82122081071e-38
0.0601618751969 -0.00835581599956 0.903 2.07035696404e-38
0.0625177896526 -0.00844834995305 0.913 2.19925638419e-38
0.0642074596432 -0.00844834995305 0.913 2.31911322535e-38
0.0660414826012 -0.00846685674374 0.915 2.3477714605e-38
0.00339784677192 -0.00679569354383 0.918 1.66592218867e-38
0.00509677015787 -0.00679569354383 0.918 1.36157319429e-38
0.00679569354383 -0.00679569354383 0.918 1.43525542936e-38
0.00838357618561 -0.00670686094849 0.906 1.37035989618e-38
0.0100047710506 -0.00666984736709 0.901 1.47109069486e-38
0.011633368632 -0.00664763921826 0.898 1.48031081837e-38
0.0132952784365 -0.00664763921826 0.898 1.48013047125e-38
0.0149238760178 -0.0066328337857 0.896 1.46183455798e-38
0.0165450708829 -0.00661802835314 0.894 1.57218218776e-38
0.0181995779711 -0.00661802835314 0.894 1.58129244947e-38
0.0197874606129 -0.00659582020431 0.891 1.65468909992e-38
0.0213882980082 -0.00658101477175 0.889 1.67276921322e-38
0.0230335517011 -0.00658101477175 0.889 1.62674384542e-38
0.0246788053941 -0.00658101477175 0.889 1.69106540675e-38
0.026324059087 -0.00658101477175 0.889 1.64493452118e-38
0.0279693127799 -0.00658101477175 0.889 1.7001054634e-38
0.0295479420264 -0.00656620933919 0.887 1.74605880446e-38
0.0311894943612 -0.00656620933919 0.887 1.69092499664e-38
0.032831046696 -0.00656620933919 0.887 1.75531564199e-38
0.0344725990308 -0.00656620933919 0.887 1.69999952524e-38
0.0361141513656 -0.00656620933919 0.887 1.70921782706e-38
0.0377557037004 -0.00656620933919 0.887 1.79205124175e-38
0.0393972560352 -0.00656620933919 0.887 1.61763386397e-38
0.04103880837 -0.00656620933919 0.887 1.48953024122e-38
0.0426803607048 -0.00656620933919 0.887 1.56296122348e-38
0.0444218497093 -0.00658101477175 0.889 1.65480092353e-38
0.0460671034023 -0.00658101477175 0.889 1.58122602792e-38
0.0478196964812 -0.00659582020431 0.891 1.73791726039e-38
0.0497462533928 -0.0066328337857 0.896 1.7194761726e-38
0.0515192039415 -0.00664763921826 0.898 1.66455508188e-38
0.0531811137461 -0.00664763921826 0.898 1.8211489241e-38
0.0550262407785 -0.00666984736709 0.901 1.82128961447e-38
0.0566937026203 -0.00666984736709 0.901 1.78419836516e-38
0.0588145808341 -0.00672166638105 0.908 2.01454492776e-38
0.0606282463224 -0.0067364718136 0.91 1.99663927611e-38
0.0625177896526 -0.00675867996244 0.913 2.12567560312e-38
0.0643481112525 -0.006773485395 0.915 2.34716848177e-38
0.0660414826012 -0.006773485395 0.915 2.34828111275e-38
0.00341635356261 -0.00512453034392 0.923 1.73974959826e-38
0.00509677015787 -0.00509677015787 0.918 1.47249759852e-38
0.00679569354383 -0.00509677015787 0.918 1.30646895387e-38
0.00844834995305 -0.00506900997183 0.913 1.23224777941e-38
0.0100824995716 -0.00504124978578 0.908 1.47152257505e-38
0.0116981423994 -0.00501348959974 0.903 1.3976573304e-38
0.0133396947342 -0.00500238552532 0.901 1.44314487985e-38
0.0149571882411 -0.00498572941369 0.898 1.45257940202e-38
0.0165820844643 -0.00497462533928 0.896 1.45239989568e-38
0.0182402929107 -0.00497462533928 0.896 1.51715109512e-38
0.0198985013571 -0.00497462533928 0.896 1.54423539184e-38
0.0215085921477 -0.00496352126486 0.894 1.58104133679e-38
0.023163099236 -0.00496352126486 0.894 1.5440201524e-38
0.0247343257662 -0.00494686515323 0.891 1.65429449427e-38
0.0263832808172 -0.00494686515323 0.891 1.68184514312e-38
0.0280322358683 -0.00494686515323 0.891 1.68180926987e-38
0.0296145664729 -0.00493576107881 0.889 1.67237460757e-38
0.0312598201658 -0.00493576107881 0.889 1.72751177851e-38
0.0329050738588 -0.00493576107881 0.889 1.6818455635e-38
0.0345503275517 -0.00493576107881 0.889 1.70932502639e-38
0.0361955812446 -0.00493576107881 0.889 1.755457033e-38
0.0378408349376 -0.00493576107881 0.889 1.80152107664e-38
0.0394860886305 -0.00493576107881 0.889 1.58079414774e-38
0.0411313423234 -0.00493576107881 0.889 1.55381536879e-38
0.042872831328 -0.00494686515323 0.891 1.52586927352e-38
0.0447716280535 -0.00497462533928 0.896 1.67323962912e-38
0.0464298364999 -0.00497462533928 0.896 1.56292731206e-38
0.0480880449463 -0.00497462533928 0.896 1.71011409756e-38
0.0498572941369 -0.00498572941369 0.898 1.75621541573e-38
0.0515192039415 -0.00498572941369 0.898 1.73831635019e-38
0.0534772223972 -0.00501348959974 0.903 1.68311205706e-38
0.0551483855971 -0.00501348959974 0.903 1.8395510558e-38
0.0570083180621 -0.00503014571137 0.906 1.8852895778e-38
0.0588145808341 -0.00504124978578 0.908 1.89490192475e-38
0.0608281196619 -0.00506900997183 0.913 2.03330523134e-38
0.0626547399037 -0.00508011404625 0.915 2.21755131655e-38
0.0645590886664 -0.00509677015787 0.918 2.34705679828e-38
0.00341635356261 -0.00341635356261 0.923 1.60174734328e-38
0.00510787423229 -0.00340524948819 0.92 1.49993754479e-38
0.00681049897639 -0.00340524948819 0.92 1.2696319001e-38
0.00849461692979 -0.00339784677192 0.918 1.26040785296e-38
0.0101602280925 -0.0033867426975 0.915 1.26898001605e-38
0.0117629161668 -0.00336083319052 0.908 1.54581801833e-38
0.013413721897 -0.00335343047424 0.906 1.33297899848e-38
0.015007156576 -0.00333492368355 0.901 1.42510035952e-38
0.0166190980456 -0.00332381960913 0.898 1.4159168099e-38
0.0182810078502 -0.00332381960913 0.898 1.39740677823e-38
0.0199429176548 -0.00332381960913 0.898 1.4524408136e-38
0.0215567098035 -0.00331641689285 0.896 1.53541127528e-38
0.02321491825 -0.00331641689285 0.896 1.56267423755e-38
0.0248731266964 -0.00331641689285 0.896 1.60862785887e-38
0.0264721134126 -0.00330901417657 0.894 1.62692377214e-38
0.0281266205009 -0.00330901417657 0.894 1.63600012243e-38
0.0297811275891 -0.00330901417657 0.894 1.74649068465e-38
0.0314356346774 -0.00330901417657 0.894 1.76492756855e-38
0.0329791010215 -0.00329791010215 0.891 1.64500332493e-38
0.0346280560726 -0.00329791010215 0.891 1.70921642576e-38
0.0362770111237 -0.00329791010215 0.891 1.70921642576e-38
0.0379259661748 -0.00329791010215 0.891 1.94881688316e-38
0.0397970027142 -0.00331641689285 0.896 1.58089826421e-38
0.0414552111606 -0.00331641689285 0.896 1.61785008433e-38
0.0431134196071 -0.00331641689285 0.896 1.55360012935e-38
0.0447716280535 -0.00331641689285 0.896 1.59973563921e-38
0.0464298364999 -0.00331641689285 0.896 1.62749928542e-38
0.0480880449463 -0.00331641689285 0.896 1.673453187e-38
0.0498572941369 -0.00332381960913 0.898 1.70129110203e-38
0.0518060591973 -0.00334232639983 0.903 1.70140054344e-38
0.0536548875879 -0.00335343047424 0.906 1.78423367788e-38
0.055331602825 -0.00335343047424 0.906 1.83922735585e-38
0.0571341642389 -0.00336083319052 0.908 1.89436718925e-38
0.058944128369 -0.0033682359068 0.91 1.86760421027e-38
0.060961368555 -0.0033867426975 0.915 2.07029236418e-38
0.0626547399037 -0.0033867426975 0.915 2.34648184552e-38
0.0650513692989 -0.00342375627889 0.925 2.34676911171e-38
0.00342375627889 -0.00171187813945 0.925 1.92443176755e-38
0.00513563441834 -0.00171187813945 0.925 1.38951956982e-38
0.00684751255778 -0.00171187813945 0.925 1.32501948307e-38
0.00855939069723 -0.00171187813945 0.925 1.22313905913e-38
0.0101935403157 -0.00169892338596 0.918 1.25072417992e-38
0.0118535994412 -0.00169337134875 0.915 1.22292129735e-38
0.0135173599249 -0.00168966999061 0.913 1.32390264819e-38
0.0152070299155 -0.00168966999061 0.913 1.34194674813e-38
0.0166746184177 -0.00166746184177 0.901 1.34176682141e-38
0.0183420802595 -0.00166746184177 0.901 1.34241380091e-38
0.0200095421013 -0.00166746184177 0.901 1.42488764241e-38
0.0216048274593 -0.00166190980456 0.898 1.43399762386e-38
0.0232667372639 -0.00166190980456 0.898 1.49842526348e-38
0.0249286470685 -0.00166190980456 0.898 1.61777553525e-38
0.026590556873 -0.00166190980456 0.898 1.62692377214e-38
0.0281895435892 -0.00165820844643 0.896 1.64493297975e-38
0.0298477520357 -0.00165820844643 0.896 1.71822257099e-38
0.0315059604821 -0.00165820844643 0.896 1.71836452252e-38
0.0331641689285 -0.00165820844643 0.896 1.72758408551e-38
0.0348223773749 -0.00165820844643 0.896 1.73684106317e-38
0.0364805858214 -0.00165820844643 0.896 1.76442534318e-38
0.0381387942678 -0.00165820844643 0.896 1.73684106317e-38
0.0397970027142 -0.00165820844643 0.896 1.6727339005e-38
0.0414552111606 -0.00165820844643 0.896 1.68209639593e-38
0.0432096549187 -0.00166190980456 0.898 1.59966109013e-38
0.0448715647232 -0.00166190980456 0.898 1.57254316225e-38
0.0465334745278 -0.00166190980456 0.898 1.65551698705e-38
0.0481953843324 -0.00166190980456 0.898 1.69207378113e-38
0.0503014571137 -0.00167671523712 0.906 1.70136144722e-38
0.0519781723508 -0.00167671523712 0.906 1.66430747244e-38
0.0537733310484 -0.00168041659526 0.908 1.76568707231e-38
0.0554537476436 -0.00168041659526 0.908 1.8485890105e-38
0.0575746258575 -0.00169337134875 0.915 1.88528831663e-38
0.0592679972062 -0.00169337134875 0.915 2.18042195192e-38
0.0611612418945 -0.00169892338596 0.918 1.97788219552e-38
0.0632025409083 -0.00170817678131 0.923 2.34648212578e-38
0.0650513692989 -0.00171187813945 0.925 2.31900238264e-38
0.00515229052996 0.0 0.928 1.49082714295e-38
0.00686972070662 0.0 0.928 1.2879223483e-38
0.00855939069723 0.0 0.925 1.29671577643e-38
0.0102490606878 0.0 0.923 1.204518465e-38
0.0118924637017 0.0 0.918 1.27827118539e-38
0.01354697079 0.0 0.915 1.27809181919e-38
0.0152403421387 0.0 0.915 1.40651844123e-38
0.0169337134875 0.0 0.915 1.43407217294e-38
0.0185863698967 0.0 0.913 1.47087461464e-38
0.0202094154408 0.0 0.91 1.46158442621e-38
0.0217251215989 0.0 0.903 1.4430728531e-38
0.0233444657848 0.0 0.901 1.53501596898e-38
0.0250119276266 0.0 0.901 1.63635787392e-38
0.026590556873 0.0 0.898 1.76539420093e-38
0.0282524666776 0.0 0.898 1.66372915657e-38
0.0299143764822 0.0 0.898 1.74595090448e-38
0.0315762862867 0.0 0.898 1.8565836985e-38
0.0333492368355 0.0 0.901 1.76449708966e-38
0.0350944271982 0.0 0.903 1.75535193562e-38
0.0367655903981 0.0 0.903 1.74609593887e-38
0.0385644504538 0.0 0.906 1.7921566194e-38
0.0402411656909 0.0 0.906 1.61756071619e-38
0.041917880928 0.0 0.906 1.69138742514e-38
0.0434502431977 0.0 0.903 1.66401838457e-38
0.0450214697279 0.0 0.901 1.57207835155e-38
0.0466889315697 0.0 0.901 1.6180668652e-38
0.0486247418765 0.0 0.906 1.64561667327e-38
0.0504124978578 0.0 0.908 1.72873146869e-38
0.0522076565554 0.0 0.91 1.66452145072e-38
0.0540694396995 0.0 0.913 1.77490691556e-38
0.0558812545087 0.0 0.915 1.83951237996e-38
0.0577633951226 0.0 0.918 1.99595586285e-38
0.0595918660434 0.0 0.92 2.10638112457e-38
0.061494364127 0.0 0.923 2.13414589182e-38
0.0632025409083 0.0 0.923 2.28212188862e-38
0.0650513692989 0.0 0.925 2.34702330725e-38
0.0682789535964 0.0 0.946 2.34810076564e-38
0.00518005071601 0.001726683572 0.933 1.65681206709e-38
0.00690673428801 0.001726683572 0.933 1.3249083601e-38
0.00860565767397 0.00172113153479 0.93 1.36139621029e-38
0.0102712688367 0.00171187813945 0.925 1.22317437185e-38
0.0119183732087 0.0017026247441 0.92 1.21387899862e-38
0.0135913870877 0.00169892338596 0.918 1.30546310183e-38
0.0152903104736 0.00169892338596 0.918 1.3972272719e-38
0.0169892338596 0.00169892338596 0.918 1.47991467129e-38
0.0186270848362 0.00169337134875 0.915 1.59940899654e-38
0.0202760398873 0.00168966999061 0.913 1.59004902344e-38
0.0218935333942 0.0016841179534 0.91 1.64564904326e-38
0.0235258323337 0.00168041659526 0.908 1.66390852277e-38
0.0251507285568 0.00167671523712 0.906 1.70067859448e-38
0.0266793894684 0.00166746184177 0.901 1.74645284959e-38
0.0283468513102 0.00166746184177 0.901 1.78318704806e-38
0.0300143131519 0.00166746184177 0.901 1.75513515475e-38
0.0316817749937 0.00166746184177 0.901 1.85654838578e-38
0.0334232639983 0.00167116319991 0.903 1.82885508475e-38
0.0352110199796 0.00167671523712 0.906 1.7188663275e-38
0.0368877352167 0.00167671523712 0.906 1.75506480956e-38
0.038649581691 0.00168041659526 0.908 1.83796927009e-38
0.0403299982863 0.00168041659526 0.908 1.56224614087e-38
0.0420104148815 0.00168041659526 0.908 1.60870240795e-38
0.0436908314768 0.00168041659526 0.908 1.64540115356e-38
0.0454711847418 0.0016841179534 0.91 1.61817686713e-38
0.0471553026952 0.0016841179534 0.91 1.70115041167e-38
0.0491077691137 0.00169337134875 0.915 1.59083809461e-38
0.0509677015787 0.00169892338596 0.918 1.70143193253e-38
0.0526666249647 0.00169892338596 0.918 1.64622385589e-38
0.0544839918111 0.0017026247441 0.92 1.83004436675e-38
0.0563698337831 0.00170817678131 0.923 1.83007813805e-38
0.0582038567412 0.00171187813945 0.925 2.0605338618e-38
0.0601100561829 0.00171743017665 0.928 2.02390363969e-38
0.0618274863596 0.00171743017665 0.928 2.19896953839e-38
0.0636818667874 0.00172113153479 0.93 2.1993254682e-38
0.0663172337826 0.0017451903627 0.943 2.34680624612e-38
0.0682789535964 0.00175074239991 0.946 2.34835089742e-38
0.00692153972057 0.00346076986028 0.935 1.44462016687e-38
0.00863341786002 0.00345336714401 0.933 1.37029235359e-38
0.0103267892088 0.00344226306959 0.93 1.26905386448e-38
0.0120220112366 0.00343486035331 0.928 1.25054215125e-38
0.0136654142505 0.00341635356261 0.923 1.31457560561e-38
0.0153236226969 0.00340524948819 0.92 1.31403862804e-38
0.017026247441 0.00340524948819 0.92 1.49838939024e-38
0.0186881572455 0.00339784677192 0.918 1.50714246097e-38
0.0203870806315 0.00339784677192 0.918 1.61770378877e-38
0.0220138275337 0.0033867426975 0.915 1.61781140849e-38
0.0237071988825 0.0033867426975 0.915 1.82006473948e-38
0.0253450498591 0.00337933998122 0.913 1.84804586722e-38
0.026827443794 0.00335343047424 0.906 1.95878656122e-38
0.0285041590311 0.00335343047424 0.906 1.89435892159e-38
0.0301808742682 0.00335343047424 0.906 1.8020922459e-38
0.0318575895053 0.00335343047424 0.906 1.77400349844e-38
0.0335343047424 0.00335343047424 0.906 1.85679893794e-38
0.0352887485005 0.00336083319052 0.908 1.75534941328e-38
0.0369691650957 0.00336083319052 0.908 1.8292496904e-38
0.038649581691 0.00336083319052 0.908 1.93985109533e-38
0.0403299982863 0.00336083319052 0.908 1.54416420588e-38
0.042102948835 0.0033682359068 0.91 1.55396208474e-38
0.0439314197559 0.00337933998122 0.913 1.57211156232e-38
0.0457210264162 0.0033867426975 0.915 1.59026398263e-38
0.0475698548068 0.00339784677192 0.918 1.68256456975e-38
0.0493761175788 0.00340524948819 0.92 1.60924569137e-38
0.0510787423229 0.00340524948819 0.92 1.71976736242e-38
0.0529534802205 0.00341635356261 0.923 1.74731829152e-38
0.0547801004623 0.00342375627889 0.925 1.66434250491e-38
0.0564919786017 0.00342375627889 0.925 2.05120443702e-38
0.0583926260063 0.00343486035331 0.928 1.94978700209e-38
0.0602396037178 0.00344226306959 0.93 2.10662957479e-38
0.0619607352526 0.00344226306959 0.93 2.1622351998e-38
0.0643666180432 0.00347927665098 0.94 2.29116292618e-38
0.0663172337826 0.0034903807254 0.943 2.34691386584e-38
0.0682789535964 0.00350148479982 0.946 2.34878572033e-38
0.00694374786941 0.00520781090205 0.938 1.43540186505e-38
0.00865192465071 0.00519115479043 0.935 1.48092360618e-38
0.010360101432 0.00518005071601 0.933 1.49878819979e-38
0.0120220112366 0.00515229052996 0.928 1.31450315848e-38
0.0136950251156 0.00513563441834 0.925 1.38790387269e-38
0.0153735910318 0.00512453034392 0.923 1.38786827971e-38
0.0170817678131 0.00512453034392 0.923 1.44318229451e-38
0.0187288721851 0.00510787423229 0.92 1.44278726848e-38
0.0204314969292 0.00510787423229 0.92 1.58993790048e-38
0.0221341216733 0.00510787423229 0.92 1.54376903971e-38
0.0237849274034 0.00509677015787 0.918 1.78322348182e-38
0.0254838507894 0.00509677015787 0.918 1.77400349844e-38
0.02709394158 0.00508011404625 0.915 2.17955370739e-38
0.0286300052078 0.0050523538602 0.91 1.97748590831e-38
0.0302474987147 0.00504124978578 0.908 1.96807773055e-38
0.03192791531 0.00504124978578 0.908 1.83836009223e-38
0.033682359068 0.0050523538602 0.91 1.83832674133e-38
0.0353664770214 0.0050523538602 0.91 1.87509485121e-38
0.0370505949748 0.0050523538602 0.91 1.80151841418e-38
0.0387347129282 0.0050523538602 0.91 1.89360488289e-38
0.0404188308816 0.0050523538602 0.91 1.64464459252e-38
0.0422417497652 0.00506900997183 0.913 1.63639640963e-38
0.0440276550675 0.00508011404625 0.915 1.60891568558e-38
0.0458709314209 0.00509677015787 0.918 1.75661044177e-38
0.0476734928347 0.00510787423229 0.92 1.64611595591e-38
0.0495371266579 0.00512453034392 0.923 1.67345472843e-38
0.0512453034392 0.00512453034392 0.923 1.80249147583e-38
0.0530682223228 0.00513563441834 0.925 1.69189399453e-38
0.0547801004623 0.00513563441834 0.925 1.81189054515e-38
0.0566751958296 0.00515229052996 0.928 1.8852895778e-38
0.0583926260063 0.00515229052996 0.928 2.06982096737e-38
0.0602396037178 0.00516339460438 0.93 2.00535843542e-38
0.0619607352526 0.00516339460438 0.93 2.1253576485e-38
0.0645720434199 0.0052355710881 0.943 2.34684155884e-38
0.0665282111965 0.00525222719973 0.946 2.34691092311e-38
0.00694374786941 0.00694374786941 0.938 1.28785228338e-38
0.00865192465071 0.00692153972057 0.935 1.47152285531e-38
0.0103823095809 0.00692153972057 0.935 1.46154911349e-38
0.0120479207436 0.00688452613918 0.93 1.49831820428e-38
0.0137394414132 0.00686972070662 0.928 1.40619544194e-38
0.0153735910318 0.00683270712523 0.923 1.36942565049e-38
0.0170817678131 0.00683270712523 0.923 1.40626858972e-38
0.0187899445944 0.00683270712523 0.923 1.45204214419e-38
0.0204981213757 0.00683270712523 0.923 1.49803261965e-38
0.022206298157 0.00683270712523 0.923 1.56238725163e-38
0.0239144749383 0.00683270712523 0.923 1.68195346349e-38
0.0255393711615 0.00681049897639 0.92 1.72779876443e-38
0.0272419959056 0.00681049897639 0.92 1.76421024386e-38
0.0288816975613 0.00679569354383 0.918 1.76424597697e-38
0.0303141231612 0.0067364718136 0.91 1.82899717641e-38
0.0319982411146 0.0067364718136 0.91 1.87466381181e-38
0.0337933998122 0.00675867996244 0.913 1.90225033389e-38
0.0354830698028 0.00675867996244 0.913 1.85611972858e-38
0.0371727397934 0.00675867996244 0.913 1.82903711342e-38
0.038862409784 0.00675867996244 0.913 2.08714381899e-38
0.04064091237 0.006773485395 0.915 1.62642154677e-38
0.0423342837187 0.006773485395 0.915 1.61792070977e-38
0.0441720080349 0.00679569354383 0.918 1.793016316e-38
0.0461207730953 0.00683270712523 0.923 1.63628724848e-38
0.0479325879045 0.00684751255778 0.925 1.58097169225e-38
0.0496444660439 0.00684751255778 0.925 1.77447531563e-38
0.0513563441834 0.00684751255778 0.925 1.59033432781e-38
0.0532403354763 0.00686972070662 0.928 1.7567176411e-38
0.054957765653 0.00686972070662 0.928 1.83043504877e-38
0.0566751958296 0.00686972070662 0.928 1.84848181117e-38
0.058518472183 0.00688452613918 0.93 1.94986029e-38
0.0604339250201 0.00690673428801 0.933 2.05142149815e-38
0.0626269797177 0.00695855330196 0.94 2.10637776145e-38
0.0645720434199 0.0069807614508 0.943 2.34633765191e-38
0.00694374786941 0.00867968483676 0.938 1.30614693548e-38
0.00867968483676 0.00867968483676 0.938 1.40691570935e-38
0.0103823095809 0.00865192465071 0.935 1.47091118853e-38
0.012086785004 0.00863341786002 0.933 1.53483702317e-38
0.0137690522784 0.00860565767397 0.93 1.59000964696e-38
0.0153735910318 0.00854088390653 0.923 1.55280909637e-38
0.0170817678131 0.00854088390653 0.923 1.4336381908e-38
0.0187899445944 0.00854088390653 0.923 1.46133233261e-38
0.0204981213757 0.00854088390653 0.923 1.51643447109e-38
0.022206298157 0.00854088390653 0.923 1.56249515161e-38
0.0239144749383 0.00854088390653 0.923 1.5809695903e-38
0.0256226517196 0.00854088390653 0.923 1.64507507141e-38
0.0273308285009 0.00854088390653 0.923 1.69070681447e-38
0.0290390052822 0.00854088390653 0.923 1.81052315811e-38
0.0307471820635 0.00854088390653 0.923 1.7739676252e-38
0.0322795443332 0.00849461692979 0.918 1.81974188032e-38
0.0339784677192 0.00849461692979 0.918 1.89328202372e-38
0.0356773911051 0.00849461692979 0.918 1.88388323466e-38
0.0373763144911 0.00849461692979 0.918 1.85636845906e-38
0.039075237877 0.00849461692979 0.918 2.02249743668e-38
0.040774161263 0.00849461692979 0.918 1.65447386047e-38
0.042473084649 0.00849461692979 0.918 1.61799259638e-38
0.0441720080349 0.00849461692979 0.918 1.72833868473e-38
0.046220709765 0.00855939069723 0.925 1.86594997744e-38
0.0480880449463 0.00858715088327 0.928 1.68210017944e-38
0.049805475123 0.00858715088327 0.928 1.70090027989e-38
0.0515229052996 0.00858715088327 0.928 1.59955697365e-38
0.0533550775786 0.00860565767397 0.93 1.86724099371e-38
0.0550762091134 0.00860565767397 0.93 1.94968036328e-38
0.0569805578761 0.00863341786002 0.933 2.09712022328e-38
0.0588330876248 0.00865192465071 0.935 2.08779402148e-38
0.0608873413922 0.00869819162745 0.94 2.14340048727e-38
0.0626269797177 0.00869819162745 0.94 2.17077148965e-38
0.0645720434199 0.0087259518135 0.943 2.34630149841e-38
0.00865192465071 0.0103823095809 0.935 1.30553933247e-38
0.0103823095809 0.0103823095809 0.935 1.42524553404e-38
0.012086785004 0.010360101432 0.933 1.71004347211e-38
