# .PCD v0.7 - Point Cloud Data file format
VERSION 0.7
FIELDS x y z rgb
SIZE 4 4 4 4
TYPE F F F F
COUNT 1 1 1 1
WIDTH 854
HEIGHT 1
VIEWPOINT 0 0 0 1 0 0 0
POINTS 854
DATA ascii
0.00312764762774 -0.176712090968 0.845 1.03103281058e-38
0.00470257551603 -0.177130344437 0.847 1.10525706789e-38
0.00627010068805 -0.177130344437 0.847 1.12387275747e-38
0.00785613265075 -0.177548597907 0.849 1.36307552637e-38
0.0094273591809 -0.177548597907 0.849 1.0309662489e-38
0.0109985857111 -0.177548597907 0.849 1.6486333886e-38
0.0125698122412 -0.177548597907 0.849 1.76812603229e-38
0.0141743509946 -0.177966851377 0.851 1.60249689783e-38
0.0157492788829 -0.177966851377 0.851 1.67629291834e-38
0.0173242067712 -0.177966851377 0.851 1.70388098186e-38
0.0188991346595 -0.177966851377 0.851 1.74083280197e-38
0.0204740625478 -0.177966851377 0.851 8.0815236619e-39
0.022126718957 -0.178594231581 0.854 1.07447530505e-38
0.0237627192546 -0.179012485051 0.856 1.11120950351e-38
0.0253469005382 -0.179012485051 0.856 1.06529175543e-38
0.0269940049102 -0.179430738521 0.858 1.06529175543e-38
0.0286485119985 -0.179848991991 0.86 1.08365885466e-38
0.0303104218031 -0.18026724546 0.862 1.18467790044e-38
0.0319057071611 -0.18026724546 0.862 1.34998179352e-38
0.0334232639983 -0.179848991991 0.86 1.35023290621e-38
0.0350148479982 -0.179848991991 0.86 1.30528373563e-38
-0.0318316799983 -0.178257407991 0.86 1.00201850548e-38
-0.0302400959984 -0.178257407991 0.86 1.0865685108e-38
-0.028581887552 -0.177842855879 0.858 8.83952523761e-39
-0.0269940049102 -0.177842855879 0.858 9.48380864035e-39
-0.0254061222684 -0.177842855879 0.858 1.09603568322e-38
-0.0238182396267 -0.177842855879 0.858 9.57707906613e-39
-0.0222303569849 -0.177842855879 0.858 9.38910328493e-39
-0.0206424743431 -0.177842855879 0.858 1.1784718298e-38
-0.0190101754037 -0.177428303768 0.856 1.22471299756e-38
-0.0173852791805 -0.177013751656 0.854 1.38159102311e-38
-0.015804799255 -0.177013751656 0.854 1.38148564547e-38
-0.0141743509946 -0.176391923488 0.851 1.35357037876e-38
-0.0125994231063 -0.176391923488 0.851 1.16928870057e-38
-0.011024495218 -0.176391923488 0.851 1.46456638934e-38
-0.00944956732974 -0.176391923488 0.851 1.49201432301e-38
-0.00785613265075 -0.175977371377 0.849 1.56555026252e-38
-0.0062849061206 -0.175977371377 0.849 1.56555474668e-38
-0.00471367959045 -0.175977371377 0.849 1.66685629422e-38
-0.00313505034402 -0.175562819265 0.847 1.58391918344e-38
-0.00156382381387 -0.175148267154 0.845 1.62083204746e-38
0.0 -0.175148267154 0.845 1.67625886679e-38
0.00156382381387 -0.175148267154 0.845 1.59317742227e-38
0.00313505034402 -0.175562819265 0.847 1.63923670149e-38
0.00470257551603 -0.175562819265 0.847 1.62076170228e-38
0.0062849061206 -0.175977371377 0.849 1.61168563225e-38
0.00785613265075 -0.175977371377 0.849 1.63005357226e-38
0.0094273591809 -0.175977371377 0.849 1.61158025461e-38
0.011024495218 -0.176391923488 0.851 1.66692860122e-38
0.0125994231063 -0.176391923488 0.851 1.60239544382e-38
0.0141743509946 -0.176391923488 0.851 1.63001307474e-38
0.0157492788829 -0.176391923488 0.851 1.6022117336e-38
0.0173242067712 -0.176391923488 0.851 1.66667650763e-38
0.0188991346595 -0.176391923488 0.851 1.74983558408e-38
0.0205462390315 -0.177013751656 0.854 9.09171411964e-39
0.022126718957 -0.177013751656 0.854 1.09284240428e-38
0.0237627192546 -0.177428303768 0.856 1.16631080121e-38
0.0254061222684 -0.177842855879 0.858 1.16631080121e-38
0.0270569279986 -0.178257407991 0.86 1.18467790044e-38
0.0286485119985 -0.178257407991 0.86 1.2214120989e-38
0.0303104218031 -0.178671960102 0.862 1.2214120989e-38
0.0319057071611 -0.178671960102 0.862 1.34998179352e-38
0.0334232639983 -0.178257407991 0.86 1.28569694621e-38
0.0350148479982 -0.178257407991 0.86 1.42495854812e-38
-0.0319057071611 -0.177076674744 0.862 1.04825631013e-38
-0.0303104218031 -0.177076674744 0.862 6.6236351604e-39
-0.0286485119985 -0.176665823991 0.86 1.08646313315e-38
-0.0270569279986 -0.176665823991 0.86 1.07749524337e-38
-0.0254061222684 -0.176254973237 0.858 9.01710338421e-39
-0.0238182396267 -0.176254973237 0.858 9.75357541031e-39
-0.0222821759988 -0.176665823991 0.86 1.19705683094e-38
-0.0206424743431 -0.176254973237 0.858 1.14217287464e-38
-0.0190545917013 -0.176254973237 0.858 1.09600065076e-38
-0.01742599412 -0.175844122484 0.856 1.13287722115e-38
-0.015804799255 -0.17543327173 0.854 9.94014008396e-39
-0.0142243193295 -0.17543327173 0.854 1.05847626009e-38
-0.0125994231063 -0.1748169956 0.851 1.26141076227e-38
-0.011024495218 -0.1748169956 0.851 9.20401557987e-39
-0.00944956732974 -0.1748169956 0.851 1.41850388713e-38
-0.00787463944145 -0.1748169956 0.851 1.35378575833e-38
-0.00629971155316 -0.1748169956 0.851 1.54736126833e-38
-0.00471367959045 -0.174406144847 0.849 1.556365732e-38
-0.0031424530603 -0.174406144847 0.849 1.61161248447e-38
-0.00156752517201 -0.173995294093 0.847 1.53789535707e-38
0.0 -0.173995294093 0.847 1.56565592043e-38
0.00156752517201 -0.173995294093 0.847 1.52870928512e-38
0.0031424530603 -0.174406144847 0.849 1.58388176877e-38
0.00471367959045 -0.174406144847 0.849 1.65778288666e-38
0.00629971155316 -0.1748169956 0.851 1.51041309159e-38
0.00787463944145 -0.1748169956 0.851 1.58402610251e-38
0.00944956732974 -0.1748169956 0.851 1.55629510655e-38
0.011024495218 -0.1748169956 0.851 1.6023563476e-38
0.0125994231063 -0.1748169956 0.851 1.58391918344e-38
0.0141743509946 -0.1748169956 0.851 1.60239264123e-38
0.0157492788829 -0.1748169956 0.851 1.60232285656e-38
0.0173242067712 -0.1748169956 0.851 1.63916229254e-38
0.0188991346595 -0.1748169956 0.851 1.71306523212e-38
0.0205462390315 -0.17543327173 0.854 9.27538511196e-39
0.0221785379709 -0.175844122484 0.856 1.14794370197e-38
0.0238182396267 -0.176254973237 0.858 1.23059564852e-38
0.0254653439987 -0.176665823991 0.86 1.18467790044e-38
0.027119851087 -0.177076674744 0.862 1.19386145005e-38
0.028715136445 -0.177076674744 0.862 1.23059564852e-38
0.0303104218031 -0.177076674744 0.862 1.2214120989e-38
0.0319057071611 -0.177076674744 0.862 1.28569694621e-38
0.0335009925192 -0.177076674744 0.862 1.37767635572e-38
-0.0303807476077 -0.175888538782 0.864 1.07756376686e-38
-0.028715136445 -0.175481389386 0.862 9.11682538812e-39
-0.0270569279986 -0.175074239991 0.86 7.17680053178e-39
-0.0254653439987 -0.175074239991 0.86 1.243010172e-38
-0.0238737599988 -0.175074239991 0.86 1.24301045226e-38
-0.0222821759988 -0.175074239991 0.86 1.18805054558e-38
-0.0206905919989 -0.175074239991 0.86 1.05890631859e-38
-0.0190545917013 -0.174667090596 0.858 8.74410241739e-39
-0.01742599412 -0.1742599412 0.856 1.10421632353e-38
-0.0158418128364 -0.1742599412 0.856 1.22425014868e-38
-0.0142243193295 -0.173852791805 0.854 1.50115849614e-38
-0.012643839404 -0.173852791805 0.854 1.46449254091e-38
-0.011024495218 -0.173242067712 0.851 1.00398761009e-38
-0.00944956732974 -0.173242067712 0.851 1.44634208242e-38
-0.00787463944145 -0.173242067712 0.851 1.00312356945e-38
-0.00629971155316 -0.173242067712 0.851 1.6296635909e-38
-0.00472478366487 -0.173242067712 0.851 1.60245976342e-38
-0.00314985577658 -0.173242067712 0.851 1.58402456109e-38
-0.00157492788829 -0.173242067712 0.851 1.51044966548e-38
0.0 -0.173242067712 0.851 1.64856178225e-38
0.00157492788829 -0.173242067712 0.851 1.56555222434e-38
0.00314985577658 -0.173242067712 0.851 1.60246186537e-38
0.00472478366487 -0.173242067712 0.851 1.63937683134e-38
0.00629971155316 -0.173242067712 0.851 1.54725434925e-38
0.0079023996275 -0.173852791805 0.854 1.62094190926e-38
0.00948287955299 -0.173852791805 0.854 1.65767148344e-38
0.0110633594785 -0.173852791805 0.854 1.60235606734e-38
0.0125994231063 -0.173242067712 0.851 1.5929254688e-38
0.0141743509946 -0.173242067712 0.851 1.60221145334e-38
0.0157492788829 -0.173242067712 0.851 1.60213956672e-38
0.0173242067712 -0.173242067712 0.851 1.64841688799e-38
0.0188991346595 -0.173242067712 0.851 1.67625788588e-38
0.0205462390315 -0.173852791805 0.854 9.55089160043e-39
0.0221785379709 -0.1742599412 0.856 1.18467790044e-38
0.0238182396267 -0.174667090596 0.858 1.2214120989e-38
0.0254653439987 -0.175074239991 0.86 1.20304499967e-38
0.027119851087 -0.175481389386 0.862 1.2214120989e-38
0.028715136445 -0.175481389386 0.862 1.23059564852e-38
0.0303104218031 -0.175481389386 0.862 1.21222854929e-38
0.0319057071611 -0.175481389386 0.862 1.32243114468e-38
0.0335009925192 -0.175481389386 0.862 1.42380948338e-38
-0.0303807476077 -0.174289552065 0.864 7.82251886415e-39
-0.028715136445 -0.173886104028 0.862 9.94337708341e-39
-0.027119851087 -0.173886104028 0.862 9.11541147797e-39
-0.0254653439987 -0.173482655991 0.86 1.26151894251e-38
-0.0238737599988 -0.173482655991 0.86 8.18483859508e-39
-0.0222821759988 -0.173482655991 0.86 1.31611983652e-38
-0.0206905919989 -0.173482655991 0.86 1.13198095065e-38
-0.0190545917013 -0.173079207954 0.858 1.2983631429e-38
-0.01742599412 -0.172675759917 0.856 1.49211563689e-38
-0.0158418128364 -0.172675759917 0.856 1.29843348808e-38
-0.0142243193295 -0.172272311879 0.854 1.24311765159e-38
-0.012643839404 -0.172272311879 0.854 1.49207864261e-38
-0.011024495218 -0.171667139824 0.851 8.55686652178e-39
-0.00944956732974 -0.171667139824 0.851 1.47335659448e-38
-0.00787463944145 -0.171667139824 0.851 1.22413902571e-38
-0.00629971155316 -0.171667139824 0.851 1.07659336768e-38
-0.00472478366487 -0.171667139824 0.851 1.15038308234e-38
-0.00314985577658 -0.171667139824 0.851 1.24298116512e-38
-0.00157492788829 -0.171667139824 0.851 1.32591841603e-38
0.0 -0.171667139824 0.851 1.3349928045e-38
0.00157492788829 -0.171667139824 0.851 1.30769382886e-38
0.00314985577658 -0.171667139824 0.851 1.09536081788e-38
0.00472478366487 -0.171667139824 0.851 1.31673738875e-38
0.006321919702 -0.172272311879 0.854 9.57067373085e-39
0.0079023996275 -0.172272311879 0.854 1.30708622584e-38
0.00948287955299 -0.172272311879 0.854 1.29821670721e-38
0.0110633594785 -0.172272311879 0.854 1.60250082147e-38
0.012643839404 -0.172272311879 0.854 1.63905481295e-38
0.0142243193295 -0.172272311879 0.854 1.61132437751e-38
0.015804799255 -0.172272311879 0.854 1.61139626412e-38
0.0173852791805 -0.172272311879 0.854 1.73139323513e-38
0.018965759106 -0.172272311879 0.854 1.54714841109e-38
0.0206424743431 -0.173079207954 0.858 9.73456259275e-39
0.0222303569849 -0.173079207954 0.858 1.20304499967e-38
0.0238737599988 -0.173482655991 0.86 1.21222854929e-38
0.0254653439987 -0.173482655991 0.86 1.21222854929e-38
0.0271827741753 -0.174289552065 0.864 1.20304499967e-38
0.0287817608915 -0.174289552065 0.864 1.23977919813e-38
0.0303807476077 -0.174289552065 0.864 1.2214120989e-38
0.0319797343239 -0.174289552065 0.864 1.31324759506e-38
0.0335787210401 -0.174289552065 0.864 1.34079824391e-38
-0.0303807476077 -0.172690565349 0.864 3.76525534248e-39
-0.0287817608915 -0.172690565349 0.864 9.94093742278e-39
-0.027119851087 -0.17229081867 0.862 9.11897778256e-39
-0.0254653439987 -0.171891071991 0.86 1.01241459866e-38
-0.0238737599988 -0.171891071991 0.86 1.27066689914e-38
-0.0222821759988 -0.171891071991 0.86 1.43658329979e-38
-0.0206905919989 -0.171891071991 0.86 1.04932956463e-38
-0.019099007999 -0.171891071991 0.86 1.11372301257e-38
-0.0174667090596 -0.171491325312 0.858 1.09531765789e-38
-0.0158418128364 -0.171091578633 0.856 1.06755541297e-38
-0.0142243193295 -0.170691831954 0.854 1.14152869774e-38
-0.012643839404 -0.170691831954 0.854 1.29857922312e-38
-0.0110633594785 -0.170691831954 0.854 1.39098813061e-38
-0.00948287955299 -0.170691831954 0.854 1.45549158048e-38
-0.00787463944145 -0.170092211935 0.851 1.42772373038e-38
-0.00629971155316 -0.170092211935 0.851 1.53843079321e-38
-0.00472478366487 -0.170092211935 0.851 1.22486223585e-38
-0.00314985577658 -0.170092211935 0.851 1.38162605557e-38
-0.00157492788829 -0.170092211935 0.851 1.59338817755e-38
0.0 -0.170092211935 0.851 1.24318925795e-38
0.00157492788829 -0.170092211935 0.851 1.3263107796e-38
0.003160959851 -0.170691831954 0.854 1.23386697978e-38
0.0047414397765 -0.170691831954 0.854 1.36286449082e-38
0.006321919702 -0.170691831954 0.854 1.36308113157e-38
0.0079023996275 -0.170691831954 0.854 1.50115555341e-38
0.00948287955299 -0.170691831954 0.854 1.37193943981e-38
0.0110633594785 -0.170691831954 0.854 1.66671728541e-38
0.012643839404 -0.170691831954 0.854 1.60224900813e-38
0.0142576315527 -0.171091578633 0.856 1.58388148851e-38
0.0158418128364 -0.171091578633 0.856 1.61157563032e-38
0.01742599412 -0.171091578633 0.856 1.79592989577e-38
0.0190545917013 -0.171491325312 0.858 1.48250328994e-38
0.0206424743431 -0.171491325312 0.858 9.64272709659e-39
0.0222821759988 -0.171891071991 0.86 1.19386145005e-38
0.0238737599988 -0.171891071991 0.86 1.23059564852e-38
0.0255245657289 -0.17229081867 0.862 1.2214120989e-38
0.0271827741753 -0.172690565349 0.864 1.2214120989e-38
0.0287817608915 -0.172690565349 0.864 1.26732984698e-38
0.0303807476077 -0.172690565349 0.864 1.24896274775e-38
0.0319797343239 -0.172690565349 0.864 1.29488049583e-38
0.0336953138215 -0.173290185368 0.867 1.12957660274e-38
-0.0340062279052 -0.173269827898 0.875 5.78563625795e-39
-0.0323868837192 -0.173269827898 0.875 8.54720036497e-39
-0.0305565621193 -0.172081691935 0.869 9.30160480752e-39
-0.0287817608915 -0.171091578633 0.864 2.57139389242e-39
-0.027119851087 -0.170695533312 0.862 5.33219849567e-39
-0.0254653439987 -0.170299487991 0.86 1.05927121671e-38
-0.0238737599988 -0.170299487991 0.86 9.3930591505e-39
-0.0223339950128 -0.170695533312 0.862 1.1599612376e-38
-0.0206905919989 -0.170299487991 0.86 1.24300778979e-38
-0.019099007999 -0.170299487991 0.86 1.22464097082e-38
-0.0174667090596 -0.16990344267 0.858 1.48289635416e-38
-0.0158418128364 -0.169507397349 0.856 1.28031806206e-38
-0.0142576315527 -0.169507397349 0.856 1.33549685156e-38
-0.0126734502691 -0.169507397349 0.856 9.75716273438e-39
-0.0110633594785 -0.169111352028 0.854 1.3813449551e-38
-0.00948287955299 -0.169111352028 0.854 9.66676216785e-39
-0.0079023996275 -0.169111352028 0.854 1.15992536436e-38
-0.006321919702 -0.169111352028 0.854 1.14148890086e-38
-0.0047414397765 -0.169111352028 0.854 1.11361609349e-38
-0.003160959851 -0.169111352028 0.854 1.28871029843e-38
-0.0015804799255 -0.169111352028 0.854 1.69437625463e-38
0.0 -0.169111352028 0.854 9.75501033994e-39
0.0015804799255 -0.169111352028 0.854 1.76755640446e-38
0.003160959851 -0.169111352028 0.854 1.61164653603e-38
0.0047414397765 -0.169111352028 0.854 1.58399008914e-38
0.006321919702 -0.169111352028 0.854 1.62086609901e-38
0.0079023996275 -0.169111352028 0.854 1.60242655265e-38
0.00948287955299 -0.169111352028 0.854 1.72217367214e-38
0.0110633594785 -0.169111352028 0.854 1.63898600919e-38
0.0126734502691 -0.169507397349 0.856 1.63912669956e-38
0.0142576315527 -0.169507397349 0.856 1.58402456109e-38
0.0158418128364 -0.169507397349 0.856 1.57483610693e-38
0.01742599412 -0.169507397349 0.856 1.74969111021e-38
0.0190545917013 -0.16990344267 0.858 1.35353786864e-38
0.0206424743431 -0.16990344267 0.858 9.73456259275e-39
0.0222821759988 -0.170299487991 0.86 1.24896274775e-38
0.0238737599988 -0.170299487991 0.86 1.24896274775e-38
0.0255245657289 -0.170695533312 0.862 1.25814629736e-38
0.0271827741753 -0.171091578633 0.864 1.2214120989e-38
0.0288816975613 -0.171685646614 0.867 1.23059564852e-38
0.0304862363147 -0.171685646614 0.867 1.25814629736e-38
0.0320907750681 -0.171685646614 0.867 1.31324759506e-38
0.0336953138215 -0.171685646614 0.867 1.01937400735e-38
-0.0340062279052 -0.171650483712 0.875 5.41829427332e-39
-0.0323128565565 -0.171258139749 0.873 1.06691067555e-38
-0.030626887924 -0.170865795786 0.871 7.09034602173e-39
-0.0288816975613 -0.170081107861 0.867 8.93315439581e-39
-0.0271827741753 -0.169492591917 0.864 1.01281228716e-38
-0.0255245657289 -0.169100247954 0.862 2.66323219118e-39
-0.0239292803708 -0.169100247954 0.862 5.05095228869e-39
-0.0223339950128 -0.169100247954 0.862 9.56389424888e-39
-0.0207387096547 -0.169100247954 0.862 1.11486857406e-38
-0.019099007999 -0.168707903991 0.86 1.10539803852e-38
-0.0175074239991 -0.168707903991 0.86 1.17869057249e-38
-0.0158788264178 -0.168315560028 0.858 9.47771018943e-39
-0.0142576315527 -0.167923216066 0.856 1.10457295398e-38
-0.0126734502691 -0.167923216066 0.856 1.52866850733e-38
-0.0110892689855 -0.167923216066 0.856 1.16932415342e-38
-0.00948287955299 -0.167530872103 0.854 1.43676799092e-38
-0.0079023996275 -0.167530872103 0.854 1.48275216055e-38
-0.006321919702 -0.167530872103 0.854 1.42775876284e-38
-0.0047414397765 -0.167530872103 0.854 1.67643515013e-38
-0.003160959851 -0.167530872103 0.854 1.25241330509e-38
-0.0015804799255 -0.167530872103 0.854 1.50148471842e-38
0.0 -0.167530872103 0.854 1.42714989865e-38
0.0015804799255 -0.167530872103 0.854 1.66660588219e-38
0.003160959851 -0.167530872103 0.854 1.60235466604e-38
0.0047414397765 -0.167530872103 0.854 1.59310007059e-38
0.006321919702 -0.167530872103 0.854 1.61157591058e-38
0.00792090641819 -0.167923216066 0.856 1.61161094304e-38
0.00950508770183 -0.167923216066 0.856 1.61157591058e-38
0.0110892689855 -0.167923216066 0.856 1.63912669956e-38
0.0126734502691 -0.167923216066 0.856 1.65760169877e-38
0.014290943776 -0.168315560028 0.858 1.63923642123e-38
0.0158788264178 -0.168315560028 0.858 1.67610892785e-38
0.0174667090596 -0.168315560028 0.858 1.76833959018e-38
0.0190545917013 -0.168315560028 0.858 1.3075123607e-38
0.0206905919989 -0.168707903991 0.86 1.00100690812e-38
0.0222821759988 -0.168707903991 0.86 1.29488049583e-38
0.0239292803708 -0.169100247954 0.862 1.29488049583e-38
0.0255245657289 -0.169100247954 0.862 1.24896274775e-38
0.0271827741753 -0.169492591917 0.864 1.24896274775e-38
0.0288816975613 -0.170081107861 0.867 1.25814629736e-38
0.0304862363147 -0.170081107861 0.867 1.28569694621e-38
0.0320907750681 -0.170081107861 0.867 1.30406404544e-38
0.0337730423424 -0.170473451824 0.869 9.36722060812e-39
-0.0356255720912 -0.170031139526 0.875 1.63941971107e-38
-0.0340062279052 -0.170031139526 0.875 4.77544580022e-39
-0.0322388293937 -0.169253854317 0.871 1.01159357789e-38
-0.030626887924 -0.169253854317 0.871 7.919376614e-39
-0.0288816975613 -0.168476569108 0.867 9.94729091002e-39
-0.0271827741753 -0.167893605201 0.864 1.14166588485e-38
-0.0255837874591 -0.167893605201 0.864 9.01745651142e-39
-0.0239848007429 -0.167893605201 0.864 1.381089078e-38
-0.0223339950128 -0.167504962596 0.862 9.01964253702e-39
-0.0207387096547 -0.167504962596 0.862 3.489748854e-39
-0.019099007999 -0.167116319991 0.86 4.40810381558e-39
-0.0175074239991 -0.167116319991 0.86 5.96930725027e-39
-0.0158788264178 -0.166727677387 0.858 1.0212850982e-38
-0.0142576315527 -0.166339034782 0.856 1.15146096112e-38
-0.0126734502691 -0.166339034782 0.856 1.42804588889e-38
-0.0110892689855 -0.166339034782 0.856 9.02823529921e-39
-0.00950508770183 -0.166339034782 0.856 1.16986309281e-38
-0.00792090641819 -0.166339034782 0.856 1.26173824572e-38
-0.00633672513455 -0.166339034782 0.856 1.11393811188e-38
-0.00475254385092 -0.166339034782 0.856 1.67607908019e-38
-0.003160959851 -0.165950392177 0.854 1.12344325949e-38
-0.0015804799255 -0.165950392177 0.854 1.60286431829e-38
0.0 -0.165950392177 0.854 1.72228871874e-38
0.0015804799255 -0.165950392177 0.854 1.63927341551e-38
0.00316836256728 -0.166339034782 0.856 1.63005385252e-38
0.00475254385092 -0.166339034782 0.856 1.61179283159e-38
0.00633672513455 -0.166339034782 0.856 1.68558450807e-38
0.00792090641819 -0.166339034782 0.856 1.62104784742e-38
0.00950508770183 -0.166339034782 0.856 1.6855860495e-38
0.0111151784924 -0.166727677387 0.858 1.68576583609e-38
0.0127030611342 -0.166727677387 0.858 1.69509273854e-38
0.014290943776 -0.166727677387 0.858 1.62130050154e-38
0.0158788264178 -0.166727677387 0.858 1.49247745215e-38
0.0174667090596 -0.166727677387 0.858 1.43762824805e-38
0.019099007999 -0.167116319991 0.86 1.13302337658e-38
0.0206905919989 -0.167116319991 0.86 1.07447530505e-38
0.0223339950128 -0.167504962596 0.862 1.33161469429e-38
0.0239292803708 -0.167504962596 0.862 1.28569694621e-38
0.0255837874591 -0.167893605201 0.864 1.26732984698e-38
0.0272771588079 -0.168476569108 0.867 1.24896274775e-38
0.0288816975613 -0.168476569108 0.867 1.25814629736e-38
0.0305565621193 -0.168865211712 0.869 1.29488049583e-38
0.0321648022309 -0.168865211712 0.869 1.2765133966e-38
0.0337730423424 -0.168865211712 0.869 8.63253663885e-39
-0.0356255720912 -0.16841179534 0.875 1.59332413821e-38
-0.0340062279052 -0.16841179534 0.875 5.05095228869e-39
-0.0322388293937 -0.167641912847 0.871 1.32505871943e-38
-0.030626887924 -0.167641912847 0.871 3.40293561154e-39
-0.0289483220078 -0.167256971601 0.869 8.00762478609e-39
-0.0272771588079 -0.166872030354 0.867 1.05905009181e-38
-0.0255837874591 -0.166294618484 0.864 1.09571506613e-38
-0.0239848007429 -0.166294618484 0.864 1.33530963808e-38
-0.0223858140267 -0.166294618484 0.864 7.26074391499e-39
-0.0207387096547 -0.165909677238 0.862 1.13198010987e-38
-0.0191434242967 -0.165909677238 0.862 1.24293618344e-38
-0.0175074239991 -0.165524735991 0.86 1.09643281121e-38
-0.0158788264178 -0.165139794745 0.858 7.00534045429e-39
-0.014290943776 -0.165139794745 0.858 4.59645794737e-39
-0.0127030611342 -0.165139794745 0.858 4.77544580022e-39
-0.0111151784924 -0.165139794745 0.858 3.85709083864e-39
-0.00950508770183 -0.164754853498 0.856 5.60196526564e-39
-0.00792090641819 -0.164754853498 0.856 6.24481373874e-39
-0.00633672513455 -0.164754853498 0.856 7.43871862905e-39
-0.00475254385092 -0.164754853498 0.856 8.45352916782e-39
-0.003160959851 -0.164369912252 0.854 9.29517565017e-39
-0.0015804799255 -0.164369912252 0.854 9.57783296471e-39
0.0 -0.164754853498 0.856 9.67178862544e-39
0.00158418128364 -0.164754853498 0.856 8.7502008683e-39
0.00316836256728 -0.164754853498 0.856 1.01316793671e-38
0.00475254385092 -0.164754853498 0.856 9.39627793307e-39
0.00633672513455 -0.164754853498 0.856 8.19775296173e-39
0.00793941320889 -0.165139794745 0.858 7.36262391854e-39
0.00952729585067 -0.165139794745 0.858 5.23462328101e-39
0.0111151784924 -0.165139794745 0.858 5.78563625795e-39
0.0127030611342 -0.165139794745 0.858 4.68361030406e-39
0.014290943776 -0.165139794745 0.858 3.94892633479e-39
0.0158788264178 -0.165139794745 0.858 2.93873587706e-39
0.0175074239991 -0.165524735991 0.86 1.83670992316e-39
0.019099007999 -0.165524735991 0.86 1.06838526192e-38
0.0206905919989 -0.165524735991 0.86 1.1020259539e-38
0.0223339950128 -0.165909677238 0.862 1.34079824391e-38
0.0239292803708 -0.165909677238 0.862 1.34998179352e-38
0.0256726200545 -0.166872030354 0.867 1.28569694621e-38
0.0273400818963 -0.167256971601 0.869 1.25814629736e-38
0.0289483220078 -0.167256971601 0.869 1.24896274775e-38
0.0305565621193 -0.167256971601 0.869 1.28569694621e-38
0.0321648022309 -0.167256971601 0.869 1.15712725159e-38
0.0338507708634 -0.167641912847 0.871 1.24993482849e-38
-0.0356255720912 -0.166792451154 0.875 1.57499109054e-38
-0.0340062279052 -0.166792451154 0.875 5.51012976948e-39
-0.0322388293937 -0.166029971377 0.871 1.32473796221e-38
-0.030626887924 -0.166029971377 0.871 9.76077808442e-39
-0.0289483220078 -0.165648731489 0.869 1.08685157309e-38
-0.0272771588079 -0.165267491601 0.867 4.7797505891e-39
-0.0255837874591 -0.164695631768 0.864 6.89519559239e-39
-0.0239848007429 -0.164695631768 0.864 6.43458318198e-39
-0.0223858140267 -0.164695631768 0.864 1.28039625451e-38
-0.0207387096547 -0.16431439188 0.862 1.11429460221e-38
-0.0191434242967 -0.16431439188 0.862 1.261702933e-38
-0.0175481389386 -0.16431439188 0.862 6.5300060022e-39
-0.0159158399992 -0.163933151991 0.86 8.37640870684e-39
-0.0143242559993 -0.163933151991 0.86 8.46178001318e-39
-0.0127030611342 -0.163551912103 0.858 1.27009208651e-38
-0.0111151784924 -0.163551912103 0.858 1.1042908726e-38
-0.00952729585067 -0.163551912103 0.858 1.22443189709e-38
-0.00793941320889 -0.163551912103 0.858 1.25277484009e-38
-0.00633672513455 -0.163170672215 0.856 1.47396573892e-38
-0.00475254385092 -0.163170672215 0.856 1.18830376021e-38
-0.00316836256728 -0.163170672215 0.856 1.04129507975e-38
-0.00158418128364 -0.163170672215 0.856 1.01363751183e-38
0.0 -0.163170672215 0.856 9.2147593352e-39
0.00158418128364 -0.163170672215 0.856 9.1211315783e-39
0.00316836256728 -0.163170672215 0.856 9.39914779233e-39
0.00475254385092 -0.163170672215 0.856 7.55705688306e-39
0.00633672513455 -0.163170672215 0.856 9.67644794283e-39
0.00793941320889 -0.163551912103 0.858 1.3267718068e-38
0.00952729585067 -0.163551912103 0.858 1.46474029048e-38
0.0111151784924 -0.163551912103 0.858 1.58431154701e-38
0.0127326719993 -0.163933151991 0.86 1.67629263808e-38
0.0143242559993 -0.163933151991 0.86 1.68551416288e-38
0.0159158399992 -0.163933151991 0.86 1.79618381105e-38
0.0175074239991 -0.163933151991 0.86 1.85142776093e-38
0.019099007999 -0.163933151991 0.86 8.18914338396e-39
0.0207387096547 -0.16431439188 0.862 1.23999471784e-38
0.0223339950128 -0.16431439188 0.862 1.37753244237e-38
0.0239848007429 -0.164695631768 0.864 1.34998179352e-38
0.0256726200545 -0.165267491601 0.867 1.28569694621e-38
0.0273400818963 -0.165648731489 0.869 1.23977919813e-38
0.0289483220078 -0.165648731489 0.869 1.25814629736e-38
0.0305565621193 -0.165648731489 0.869 1.29488049583e-38
0.0322388293937 -0.166029971377 0.871 1.11120950351e-38
0.0338507708634 -0.166029971377 0.871 2.11592550854e-38
0.0355441422121 -0.166411211266 0.873 1.74065413642e-38
-0.0356255720912 -0.165173106968 0.875 1.48279504028e-38
-0.0340062279052 -0.165173106968 0.875 5.32645877716e-39
-0.0322388293937 -0.164418029908 0.871 1.08473897552e-38
-0.030626887924 -0.164418029908 0.871 8.64688593513e-39
-0.0289483220078 -0.164040491378 0.869 1.0128120069e-38
-0.0273400818963 -0.164040491378 0.869 1.11422958196e-38
-0.0256726200545 -0.163662952847 0.867 1.17872294248e-38
-0.0240680813011 -0.163662952847 0.867 9.02212003271e-39
-0.0224635425477 -0.163662952847 0.867 5.33291596049e-39
-0.0207868273105 -0.163096645052 0.864 6.99097714503e-39
-0.0191434242967 -0.162719106522 0.862 1.12348403728e-38
-0.0175481389386 -0.162719106522 0.862 1.15106467391e-38
-0.0159158399992 -0.162341567992 0.86 1.23429465607e-38
-0.0143242559993 -0.162341567992 0.86 1.29861453585e-38
-0.0127326719993 -0.162341567992 0.86 1.2429754198e-38
-0.0111410879994 -0.162341567992 0.86 1.28910756654e-38
-0.0095495039995 -0.162341567992 0.86 1.24318799678e-38
-0.00795791999959 -0.162341567992 0.86 1.0958557565e-38
-0.00635153056711 -0.161964029461 0.858 1.39984643886e-38
-0.00476364792533 -0.161964029461 0.858 1.0488618112e-38
-0.00317576528356 -0.161964029461 0.858 1.021705768e-38
-0.00158788264178 -0.161964029461 0.858 1.11386958839e-38
0.0 -0.161586490931 0.856 8.37209691147e-39
0.00158418128364 -0.161586490931 0.856 1.12304767294e-38
0.00316836256728 -0.161586490931 0.856 1.09531765789e-38
0.00475254385092 -0.161586490931 0.856 8.18914338396e-39
0.00633672513455 -0.161586490931 0.856 1.15088530771e-38
0.00793941320889 -0.161964029461 0.858 1.63041482701e-38
0.00952729585067 -0.161964029461 0.858 1.59349775909e-38
0.0111410879994 -0.162341567992 0.86 1.56583584715e-38
0.0127326719993 -0.162341567992 0.86 1.62086581875e-38
0.0143242559993 -0.162341567992 0.86 1.51930797372e-38
0.0159158399992 -0.162341567992 0.86 1.36243247051e-38
0.0175074239991 -0.162341567992 0.86 1.61125403233e-38
0.0191434242967 -0.162719106522 0.862 6.16194655276e-39
0.0207387096547 -0.162719106522 0.862 1.46169414788e-38
0.0223858140267 -0.163096645052 0.864 1.35001766676e-38
0.0240680813011 -0.163662952847 0.867 1.36834889275e-38
0.0256726200545 -0.163662952847 0.867 1.35916534314e-38
0.0273400818963 -0.164040491378 0.869 1.24896274775e-38
0.0289483220078 -0.164040491378 0.869 1.26732984698e-38
0.030626887924 -0.164418029908 0.871 1.25814629736e-38
0.0322388293937 -0.164418029908 0.871 9.73456259275e-39
0.0338507708634 -0.164418029908 0.871 2.14459789681e-38
0.0355441422121 -0.164795568438 0.873 1.758948228e-38
-0.0356255720912 -0.163553762782 0.875 1.639457406e-38
-0.0340062279052 -0.163553762782 0.875 5.41829427332e-39
-0.0323128565565 -0.16317992561 0.873 1.26952778362e-38
-0.0306972137286 -0.16317992561 0.873 5.51012976948e-39
-0.0290149464543 -0.162806088438 0.871 1.01263600382e-38
-0.0273400818963 -0.162432251266 0.869 8.1023301415e-39
-0.0256726200545 -0.162058414094 0.867 1.04900530416e-38
-0.0240680813011 -0.162058414094 0.867 1.16010473057e-38
-0.0224635425477 -0.162058414094 0.867 1.21556812379e-38
-0.0208590037943 -0.162058414094 0.867 1.23378836694e-38
-0.0191878405943 -0.161497658336 0.864 1.22489334468e-38
-0.0175481389386 -0.161123821164 0.862 7.36728743983e-39
-0.0159528535806 -0.161123821164 0.862 5.42367525942e-39
-0.0143575682225 -0.161123821164 0.862 9.20079959989e-39
-0.0127622828645 -0.161123821164 0.862 1.21542743342e-38
-0.0111669975064 -0.161123821164 0.862 9.94083793059e-39
-0.0095495039995 -0.160749983992 0.86 1.19659552349e-38
-0.00795791999959 -0.160749983992 0.86 1.5564713899e-38
-0.00636633599967 -0.160749983992 0.86 1.61157745201e-38
-0.00477475199975 -0.160749983992 0.86 1.63937907341e-38
-0.00318316799983 -0.160749983992 0.86 1.62101225444e-38
-0.00159158399992 -0.160749983992 0.86 1.55665538039e-38
0.0 -0.16037614682 0.858 1.53821597416e-38
0.00158788264178 -0.16037614682 0.858 1.6027526348e-38
0.00317576528356 -0.16037614682 0.858 1.46456512817e-38
0.00476364792533 -0.16037614682 0.858 1.63037432948e-38
0.00635153056711 -0.16037614682 0.858 1.56562214913e-38
0.00795791999959 -0.160749983992 0.86 1.51041281133e-38
0.0095495039995 -0.160749983992 0.86 1.57502163884e-38
0.0111410879994 -0.160749983992 0.86 1.60260619911e-38
0.0127326719993 -0.160749983992 0.86 1.61171814238e-38
0.0143242559993 -0.160749983992 0.86 1.61164751693e-38
0.0159158399992 -0.160749983992 0.86 1.62998000409e-38
0.0175481389386 -0.161123821164 0.862 1.84209777563e-38
0.0191434242967 -0.161123821164 0.862 4.41240860447e-39
0.0207868273105 -0.161497658336 0.864 1.57286686219e-38
0.0224635425477 -0.162058414094 0.867 1.2861274251e-38
0.0240680813011 -0.162058414094 0.867 1.46965492445e-38
0.0257318417847 -0.162432251266 0.869 1.33161469429e-38
0.0273400818963 -0.162432251266 0.869 1.34998179352e-38
0.0290149464543 -0.162806088438 0.871 1.35005354e-38
0.030626887924 -0.162806088438 0.871 1.25814629736e-38
0.0322388293937 -0.162806088438 0.871 8.44886564654e-39
0.0338507708634 -0.162806088438 0.871 2.04460628307e-38
-0.0357477169098 -0.162489622317 0.878 1.62090869849e-38
-0.0340062279052 -0.161934418596 0.875 5.6938007618e-39
-0.0323128565565 -0.161564282782 0.873 1.11304814723e-38
-0.0306972137286 -0.161564282782 0.873 1.19698256212e-38
-0.0290149464543 -0.161194146968 0.871 9.48560230238e-39
-0.0274030049846 -0.161194146968 0.871 4.7801093215e-39
-0.0257318417847 -0.160824011154 0.869 1.33370725329e-38
-0.0241236016732 -0.160824011154 0.869 1.06801812172e-38
-0.0225153615616 -0.160824011154 0.869 1.12333465886e-38
-0.0209071214501 -0.160824011154 0.869 1.08613410827e-38
-0.0191878405943 -0.15989867162 0.864 1.12315963669e-38
-0.0175888538782 -0.15989867162 0.864 1.3446767578e-38
-0.0159528535806 -0.159528535806 0.862 1.28028933544e-38
-0.0143575682225 -0.159528535806 0.862 1.14177602691e-38
-0.0127622828645 -0.159528535806 0.862 1.35382499469e-38
-0.0111669975064 -0.159528535806 0.862 1.3169460421e-38
-0.0095495039995 -0.159158399992 0.86 1.1602522873e-38
-0.00795791999959 -0.159158399992 0.86 1.44619802894e-38
-0.00636633599967 -0.159158399992 0.86 1.5104849782e-38
-0.00477475199975 -0.159158399992 0.86 1.48296922168e-38
-0.00318316799983 -0.159158399992 0.86 1.56580081469e-38
-0.00159158399992 -0.159158399992 0.86 1.63934376069e-38
0.0 -0.159158399992 0.86 1.55632887785e-38
0.00159158399992 -0.159158399992 0.86 1.60239166032e-38
0.00318316799983 -0.159158399992 0.86 1.58402456109e-38
0.00477475199975 -0.159158399992 0.86 1.55640496835e-38
0.00636633599967 -0.159158399992 0.86 1.63937879315e-38
0.00795791999959 -0.159158399992 0.86 1.68540458134e-38
0.0095495039995 -0.159158399992 0.86 1.55640076446e-38
0.0111669975064 -0.159528535806 0.862 1.57484017069e-38
0.0127622828645 -0.159528535806 0.862 1.57484017069e-38
0.0143575682225 -0.159528535806 0.862 1.53810611236e-38
0.0159528535806 -0.159528535806 0.862 1.49157837906e-38
0.0175481389386 -0.159528535806 0.862 1.6296556035e-38
0.0191878405943 -0.15989867162 0.864 2.57139389242e-39
0.0208590037943 -0.16045387534 0.867 1.51833911596e-38
0.0224635425477 -0.16045387534 0.867 1.40651802084e-38
0.0240680813011 -0.16045387534 0.867 1.43281310627e-38
0.0257318417847 -0.160824011154 0.869 1.34079824391e-38
0.0274030049846 -0.161194146968 0.871 1.38671599199e-38
0.0290149464543 -0.161194146968 0.871 1.36834889275e-38
0.030626887924 -0.161194146968 0.871 1.18467790044e-38
0.0323128565565 -0.161564282782 0.873 1.56289592297e-38
0.0339284993843 -0.161564282782 0.873 1.77749259149e-38
-0.0357477169098 -0.160864726094 0.878 1.53807710548e-38
-0.0340062279052 -0.16031507441 0.875 5.14278778485e-39
-0.0323128565565 -0.159948639954 0.873 9.46876850393e-39
-0.0306972137286 -0.159948639954 0.873 9.38838582012e-39
-0.0290815709008 -0.159948639954 0.873 1.27109877933e-38
-0.0274030049846 -0.159582205499 0.871 1.38141291808e-38
-0.0257318417847 -0.159215771043 0.869 1.35342562463e-38
-0.0241236016732 -0.159215771043 0.869 6.24588993596e-39
-0.0225153615616 -0.159215771043 0.869 8.7344166424e-39
-0.0209071214501 -0.159215771043 0.869 1.09561291147e-38
-0.0192988813385 -0.159215771043 0.869 1.02296539519e-38
-0.0176499262875 -0.158849336587 0.867 9.02570735678e-39
-0.016045387534 -0.158849336587 0.867 1.19684033033e-38
-0.0143908804458 -0.158299684903 0.864 1.3076545925e-38
-0.0127918937296 -0.158299684903 0.864 1.02220911441e-38
-0.0111929070134 -0.158299684903 0.864 1.24315688795e-38
-0.00957171214834 -0.157933250448 0.862 1.38166473141e-38
-0.00797642679028 -0.157933250448 0.862 1.39116791721e-38
-0.00638114143223 -0.157933250448 0.862 1.33596334382e-38
-0.00478585607417 -0.157933250448 0.862 1.40950082476e-38
-0.00319057071611 -0.157933250448 0.862 1.33552557817e-38
-0.00159528535806 -0.157933250448 0.862 1.55640076446e-38
0.0 -0.157933250448 0.862 1.31644073387e-38
0.00159528535806 -0.157933250448 0.862 1.5012282808e-38
0.00319057071611 -0.157933250448 0.862 1.40913816871e-38
0.00478585607417 -0.157933250448 0.862 1.31709093636e-38
0.00638114143223 -0.157933250448 0.862 1.40939348529e-38
0.00797642679028 -0.157933250448 0.862 1.25258720623e-38
0.00957171214834 -0.157933250448 0.862 1.56587634467e-38
0.0111669975064 -0.157933250448 0.862 1.72246051794e-38
0.0127622828645 -0.157933250448 0.862 1.58402638277e-38
0.0143575682225 -0.157933250448 0.862 1.58413176042e-38
0.0159528535806 -0.157933250448 0.862 1.73128505488e-38
0.0175888538782 -0.158299684903 0.864 1.8696180163e-38
0.0192544650409 -0.158849336587 0.867 1.92854541932e-39
0.0208590037943 -0.158849336587 0.867 1.55597168687e-38
0.0224635425477 -0.158849336587 0.867 1.52687274335e-38
0.0241236016732 -0.159215771043 0.869 1.45254338865e-38
0.0257910635149 -0.159582205499 0.871 1.38671599199e-38
0.0274030049846 -0.159582205499 0.871 1.42345019045e-38
0.0290149464543 -0.159582205499 0.871 1.3958995416e-38
0.0306972137286 -0.159948639954 0.873 1.12039305313e-38
0.0323128565565 -0.159948639954 0.873 2.22670081461e-38
0.0340062279052 -0.16031507441 0.875 1.41774634518e-38
-0.0340062279052 -0.158695730224 0.875 5.23462328101e-39
-0.0323128565565 -0.158332997127 0.873 1.27885300451e-38
-0.0306972137286 -0.158332997127 0.873 3.76776646933e-39
-0.0290815709008 -0.158332997127 0.873 1.02156619867e-38
-0.0274030049846 -0.157970264029 0.871 8.56581241117e-39
-0.0257910635149 -0.157970264029 0.871 1.28932056391e-38
-0.0241791220453 -0.157970264029 0.871 1.45505619705e-38
-0.0225671805756 -0.157970264029 0.871 1.48286104144e-38
-0.0209552391059 -0.157970264029 0.871 1.17893818193e-38
-0.0192988813385 -0.157607530931 0.869 7.36764617224e-39
-0.017690641227 -0.157607530931 0.869 4.13295605952e-39
-0.0160824011154 -0.157607530931 0.869 1.03024598149e-38
-0.0144408487806 -0.157244797834 0.867 1.11390307942e-38
-0.0128363100272 -0.157244797834 0.867 9.95201048325e-39
-0.0111929070134 -0.156700698187 0.864 9.30955297241e-39
-0.00957171214834 -0.15633796509 0.862 1.22557857963e-38
-0.00797642679028 -0.15633796509 0.862 1.03146370985e-38
-0.00638114143223 -0.15633796509 0.862 9.66855582988e-39
-0.00478585607417 -0.15633796509 0.862 1.44619957037e-38
-0.00319057071611 -0.15633796509 0.862 9.84577524407e-39
-0.00159528535806 -0.15633796509 0.862 1.81436523824e-38
0.0 -0.15633796509 0.862 1.08620739618e-38
0.00159528535806 -0.15633796509 0.862 1.23386249563e-38
0.00319057071611 -0.15633796509 0.862 1.29828845369e-38
0.00478585607417 -0.15633796509 0.862 1.11397314434e-38
0.00638114143223 -0.15633796509 0.862 1.48303634388e-38
0.00797642679028 -0.15633796509 0.862 1.0495463455e-38
0.00959392029717 -0.156700698187 0.864 1.69502491569e-38
0.0111929070134 -0.156700698187 0.864 1.5935686648e-38
0.0127918937296 -0.156700698187 0.864 1.55676257972e-38
0.0143908804458 -0.156700698187 0.864 1.45552661295e-38
0.015989867162 -0.156700698187 0.864 1.31740889098e-38
0.0176499262875 -0.157244797834 0.867 1.45556164541e-38
0.0192544650409 -0.157244797834 0.867 7.34683969264e-40
0.0208590037943 -0.157244797834 0.867 1.5746603841e-38
0.0225153615616 -0.157607530931 0.869 1.57311335059e-38
0.0241791220453 -0.157970264029 0.871 1.60973992933e-38
0.0257910635149 -0.157970264029 0.871 1.32264638412e-38
0.0274030049846 -0.157970264029 0.871 1.43263374006e-38
0.0290815709008 -0.158332997127 0.873 1.54333856082e-38
0.0307675395333 -0.158695730224 0.875 9.64272709659e-39
0.0324979244634 -0.159239829871 0.878 1.87840443793e-38
0.0342005492075 -0.159602562968 0.88 6.61215572338e-39
-0.0340062279052 -0.157076386038 0.875 4.95911679253e-39
-0.0323868837192 -0.157076386038 0.875 1.41678967872e-38
-0.0307675395333 -0.157076386038 0.875 9.57604630916e-39
-0.0290815709008 -0.156717354299 0.873 7.45303709676e-39
-0.027465928073 -0.156717354299 0.873 4.87804326858e-39
-0.0257910635149 -0.156358322559 0.871 9.57709728301e-39
-0.0241791220453 -0.156358322559 0.871 1.05879869887e-38
-0.0225671805756 -0.156358322559 0.871 1.16910891398e-38
-0.0209552391059 -0.156358322559 0.871 1.40910285599e-38
-0.0193432976362 -0.156358322559 0.871 1.55669069311e-38
-0.017690641227 -0.15599929082 0.869 8.92849087452e-39
-0.0160824011154 -0.15599929082 0.869 1.27052620878e-38
-0.0144408487806 -0.15564025908 0.867 1.07735329183e-38
-0.0128363100272 -0.15564025908 0.867 6.26751056997e-39
-0.0112317712738 -0.15564025908 0.867 9.21520494811e-39
-0.00959392029717 -0.155101711471 0.864 7.36656997502e-39
-0.00797642679028 -0.154742679731 0.862 9.10319355666e-39
-0.00638114143223 -0.154742679731 0.862 8.54787579083e-39
-0.00478585607417 -0.154742679731 0.862 1.02974137391e-38
-0.00319057071611 -0.154742679731 0.862 9.83467976283e-39
-0.00159528535806 -0.154742679731 0.862 8.91415138733e-39
0.0 -0.154742679731 0.862 1.05686154387e-38
0.00159528535806 -0.154742679731 0.862 9.74748676848e-39
0.00319057071611 -0.154742679731 0.862 9.92612569801e-39
0.00478585607417 -0.154742679731 0.862 1.11236137085e-38
0.00639594686478 -0.155101711471 0.864 1.02952613447e-38
0.00799493358098 -0.155101711471 0.864 1.06597334701e-38
0.00959392029717 -0.155101711471 0.864 9.37116666459e-39
0.0111929070134 -0.155101711471 0.864 9.28542961935e-39
0.0127918937296 -0.155101711471 0.864 1.08573950262e-38
0.0143908804458 -0.155101711471 0.864 9.58030765779e-39
0.015989867162 -0.155101711471 0.864 9.21956298633e-39
0.0176499262875 -0.15564025908 0.867 1.41933401634e-38
0.0192544650409 -0.15564025908 0.867 6.42848473106e-40
0.0208590037943 -0.15564025908 0.867 1.59267365547e-38
0.0225153615616 -0.15599929082 0.869 1.63775693031e-38
0.0241791220453 -0.156358322559 0.871 1.59140870334e-38
0.0257910635149 -0.156358322559 0.871 1.5077881793e-38
0.0274030049846 -0.156358322559 0.871 1.42345019045e-38
0.0291481953473 -0.157076386038 0.875 1.54366141999e-38
0.0308730282403 -0.157614933648 0.878 8.72437213501e-39
0.0325719516262 -0.157973965387 0.88 1.34468502546e-38
0.0342005492075 -0.157973965387 0.88 6.79582671569e-39
-0.0341228206866 -0.155990037424 0.878 6.06114274643e-39
-0.0324979244634 -0.155990037424 0.878 1.37072423378e-38
-0.0307675395333 -0.155457041852 0.875 8.47038959095e-39
-0.0291481953473 -0.155457041852 0.875 1.05927065619e-38
-0.027465928073 -0.155101711471 0.873 1.1602522873e-38
-0.0258502852452 -0.155101711471 0.873 7.54701237567e-39
-0.0242346424173 -0.155101711471 0.873 8.73692776925e-39
-0.0226189995895 -0.155101711471 0.873 7.16496236236e-39
-0.0209552391059 -0.15474638109 0.871 1.18812789726e-38
-0.0193432976362 -0.15474638109 0.871 1.13294980841e-38
-0.017690641227 -0.154391050708 0.869 1.21553281106e-38
-0.0160824011154 -0.154391050708 0.869 1.34431830565e-38
-0.0144741610039 -0.154391050708 0.869 1.28917693082e-38
-0.0128659208924 -0.154391050708 0.869 1.05926561152e-38
-0.0112317712738 -0.154035720327 0.867 9.48314442487e-39
-0.00959392029717 -0.153502724755 0.864 1.04040385393e-38
-0.00799493358098 -0.153502724755 0.864 9.65673727864e-39
-0.00639594686478 -0.153502724755 0.864 1.21438094373e-38
-0.00478585607417 -0.153147394373 0.862 1.22403336781e-38
-0.00319057071611 -0.153147394373 0.862 1.41757034209e-38
-0.00159528535806 -0.153147394373 0.862 9.84074738518e-39
0.0 -0.153502724755 0.864 1.80468478819e-38
0.0015989867162 -0.153502724755 0.864 8.55218057971e-39
0.00319797343239 -0.153502724755 0.864 1.26062295227e-38
0.00479696014859 -0.153502724755 0.864 1.55604175179e-38
0.00639594686478 -0.153502724755 0.864 1.09481543252e-38
0.00799493358098 -0.153502724755 0.864 1.28784934065e-38
0.00959392029717 -0.153502724755 0.864 1.40820406316e-38
0.0111929070134 -0.153502724755 0.864 1.01205586625e-38
0.0127918937296 -0.153502724755 0.864 1.19608559098e-38
0.0143908804458 -0.153502724755 0.864 1.29821796838e-38
0.016045387534 -0.154035720327 0.867 1.14170259887e-38
0.0176499262875 -0.154035720327 0.867 1.83303319625e-38
0.0192544650409 -0.154035720327 0.867 2.02038091548e-39
0.0209071214501 -0.154391050708 0.869 1.51862582163e-38
0.0225153615616 -0.154391050708 0.869 1.7302381448e-38
0.0241791220453 -0.15474638109 0.871 1.57325684356e-38
0.0258502852452 -0.155101711471 0.873 1.66491297351e-38
0.027465928073 -0.155101711471 0.873 1.33190168022e-38
0.0292481320171 -0.155990037424 0.878 1.4698701639e-38
0.0309433540449 -0.156345367806 0.88 1.39705154907e-38
0.0325719516262 -0.156345367806 0.88 9.76221161275e-39
0.0342005492075 -0.156345367806 0.88 8.54862268291e-39
0.0360327214865 -0.157233693759 0.885 1.86057978133e-38
-0.0342005492075 -0.154716770224 0.88 6.06114274643e-39
-0.0324979244634 -0.154365141201 0.878 1.18701694783e-38
-0.0308730282403 -0.154365141201 0.878 8.65657171011e-39
-0.0291481953473 -0.153837697666 0.875 7.2718646196e-39
-0.027465928073 -0.153486068643 0.873 9.29942018322e-39
-0.0258502852452 -0.153486068643 0.873 1.22486195559e-38
-0.0242346424173 -0.153486068643 0.873 1.1232690781e-38
-0.0226189995895 -0.153486068643 0.873 1.20623953978e-38
-0.0210033567617 -0.153486068643 0.873 7.91686688845e-39
-0.0193432976362 -0.15313443962 0.871 7.45123082304e-39
-0.0177313561665 -0.15313443962 0.871 6.89519559239e-39
-0.0160824011154 -0.152782810597 0.869 1.54692784671e-38
-0.0144741610039 -0.152782810597 0.869 1.19676718255e-38
-0.0128659208924 -0.152782810597 0.869 1.16982637879e-38
-0.0112576807808 -0.152782810597 0.869 1.40968061135e-38
-0.00962723252043 -0.152431181573 0.867 1.19763290474e-38
-0.00802269376702 -0.152431181573 0.867 1.34496388385e-38
-0.00641815501362 -0.152431181573 0.867 1.38108487411e-38
-0.00479696014859 -0.151903738039 0.864 1.39952582177e-38
-0.00319797343239 -0.151903738039 0.864 1.45463034245e-38
-0.0015989867162 -0.151903738039 0.864 1.49122090782e-38
0.0 -0.151903738039 0.864 1.52816782339e-38
0.0015989867162 -0.151903738039 0.864 1.44523071261e-38
0.00319797343239 -0.151903738039 0.864 1.48221644415e-38
0.00479696014859 -0.151903738039 0.864 1.46392025062e-38
0.00639594686478 -0.151903738039 0.864 1.5099812114e-38
0.00799493358098 -0.151903738039 0.864 1.44562728008e-38
0.00959392029717 -0.151903738039 0.864 1.55608280984e-38
0.0111929070134 -0.151903738039 0.864 1.63008538174e-38
0.0128363100272 -0.152431181573 0.867 1.28042400022e-38
0.0144408487806 -0.152431181573 0.867 9.94909998634e-39
0.0160824011154 -0.152782810597 0.869 1.26127315476e-38
0.017690641227 -0.152782810597 0.869 1.84181275152e-38
0.0192988813385 -0.152782810597 0.869 2.29588740395e-39
0.0209071214501 -0.152782810597 0.869 1.44511930938e-38
0.0225671805756 -0.15313443962 0.871 1.74814071359e-38
0.0242346424173 -0.153486068643 0.873 1.62868492405e-38
0.0258502852452 -0.153486068643 0.873 1.51754570077e-38
0.027465928073 -0.153486068643 0.873 1.62738956375e-38
0.0292481320171 -0.154365141201 0.878 1.16631080121e-38
0.0309433540449 -0.154716770224 0.88 1.9869237936e-38
0.0325719516262 -0.154716770224 0.88 8.56153284566e-39
0.0342005492075 -0.154716770224 0.88 1.16825510283e-38
0.0358291467888 -0.154716770224 0.88 1.72239591808e-38
-0.0360327214865 -0.153957991806 0.885 1.31705113948e-38
-0.0342782777284 -0.153436100308 0.882 6.61215572338e-39
-0.032645978789 -0.153436100308 0.882 1.16865012886e-38
-0.0308730282403 -0.152740244978 0.878 9.20758468706e-39
-0.0291481953473 -0.15221835348 0.875 1.12358983531e-38
-0.0275288511614 -0.15221835348 0.875 1.08652899418e-38
-0.0259095069754 -0.15221835348 0.875 8.74123255813e-39
-0.0242901627894 -0.15221835348 0.875 1.03142867739e-38
-0.0226189995895 -0.151870425815 0.873 1.07705817838e-38
-0.0210033567617 -0.151870425815 0.873 1.32591841603e-38
-0.0193432976362 -0.15152249815 0.871 1.16943177315e-38
-0.0177313561665 -0.15152249815 0.871 1.15074405683e-38
-0.0161194146968 -0.15152249815 0.871 1.57447709426e-38
-0.0144741610039 -0.151174570485 0.869 1.2247155199e-38
-0.0128659208924 -0.151174570485 0.869 1.06852034709e-38
-0.0112576807808 -0.151174570485 0.869 5.05418088035e-39
-0.00964944066926 -0.151174570485 0.869 7.44979589341e-39
-0.00802269376702 -0.15082664282 0.867 1.35378996223e-38
-0.00641815501362 -0.15082664282 0.867 1.61111081962e-38
-0.00481361626021 -0.15082664282 0.867 1.18733252025e-38
-0.00320907750681 -0.15082664282 0.867 1.7041323748e-38
-0.0016045387534 -0.15082664282 0.867 1.74075517004e-38
0.0 -0.15082664282 0.867 1.69458911187e-38
0.0016045387534 -0.15082664282 0.867 1.6116112233e-38
0.00320907750681 -0.15082664282 0.867 1.71302837797e-38
0.00481361626021 -0.15082664282 0.867 1.6946254055e-38
0.00641815501362 -0.15082664282 0.867 1.62086581875e-38
0.00802269376702 -0.15082664282 0.867 1.74072041783e-38
0.00962723252043 -0.15082664282 0.867 1.63930676641e-38
0.0112317712738 -0.15082664282 0.867 1.83291156354e-38
0.0128659208924 -0.151174570485 0.869 9.85258555461e-39
0.0144741610039 -0.151174570485 0.869 6.71909021049e-39
0.0160824011154 -0.151174570485 0.869 1.51020387773e-38
0.017690641227 -0.151174570485 0.869 1.78667109643e-38
0.0192988813385 -0.151174570485 0.869 2.8469003809e-39
0.0209552391059 -0.15152249815 0.871 1.4542319533e-38
0.0225671805756 -0.15152249815 0.871 1.6652725467e-38
0.0242346424173 -0.151870425815 0.873 1.77604925407e-38
0.0259095069754 -0.15221835348 0.875 1.62835814125e-38
0.0276232357939 -0.152740244978 0.878 1.74749317357e-38
0.0293147564636 -0.153088172643 0.88 9.91823358506e-39
0.0309433540449 -0.153088172643 0.88 2.29113335878e-38
0.0325719516262 -0.153088172643 0.88 7.9154501757e-39
0.0341228206866 -0.152740244978 0.878 1.17729487922e-38
0.0357477169098 -0.152740244978 0.878 1.8144486155e-38
-0.0360327214865 -0.152320140829 0.885 1.43630458152e-38
-0.0342782777284 -0.151803801369 0.882 5.6938007618e-39
-0.032645978789 -0.151803801369 0.882 8.18236670459e-39
-0.0310136798495 -0.151803801369 0.882 1.1413078531e-38
-0.0292481320171 -0.151115348755 0.878 8.64796213235e-39
-0.0275288511614 -0.150599009294 0.875 1.15067006827e-38
-0.0259095069754 -0.150599009294 0.875 1.09517416492e-38
-0.0242901627894 -0.150599009294 0.875 1.13241058876e-38
-0.0226189995895 -0.150254782988 0.873 1.28914287927e-38
-0.0210033567617 -0.150254782988 0.873 9.47878638665e-39
