# .PCD v0.7 - Point Cloud Data file format
VERSION 0.7
FIELDS x y z rgb
SIZE 4 4 4 4
TYPE F F F F
COUNT 1 1 1 1
WIDTH 853
HEIGHT 1
VIEWPOINT 0 0 0 1 0 0 0
POINTS 853
DATA ascii
-0.00778210548797 -0.189883373906 0.841 1.47328652955e-38
-0.00621087895782 -0.189431808213 0.839 1.5100225497e-38
-0.00465815921836 -0.189431808213 0.839 1.52831846297e-38
-0.00310543947891 -0.189431808213 0.839 1.62973561764e-38
-0.00154901838131 -0.18898024252 0.837 1.63916803786e-38
0.0 -0.18898024252 0.837 1.73143611486e-38
0.00154901838131 -0.18898024252 0.837 1.72206997605e-38
0.00309803676263 -0.18898024252 0.837 1.71281762268e-38
0.00464705514394 -0.18898024252 0.837 1.77746022149e-38
0.00619607352526 -0.18898024252 0.837 1.69441479034e-38
0.00774509190657 -0.18898024252 0.837 1.69452423175e-38
0.00929411028789 -0.18898024252 0.837 1.67604853189e-38
0.0108690381762 -0.189431808213 0.839 1.55601274491e-38
0.0124217579156 -0.189431808213 0.839 1.57455921035e-38
0.0140077898783 -0.189883373906 0.841 1.56533950723e-38
0.0155642109759 -0.189883373906 0.841 1.52828160882e-38
0.0171206320735 -0.189883373906 0.841 1.56519447284e-38
0.0186770531711 -0.189883373906 0.841 1.62973141375e-38
0.0202334742687 -0.189883373906 0.841 1.61151004956e-38
0.0217898953663 -0.189883373906 0.841 1.71285391631e-38
0.023401836836 -0.190334939599 0.843 1.72210753085e-38
0.025021181022 -0.190786505292 0.845 1.75869837648e-38
0.0266479279242 -0.191238070985 0.847 1.52817328845e-38
0.0282820775427 -0.191689636678 0.849 1.55551023928e-38
0.0299236298775 -0.192141202371 0.851 1.55547100293e-38
0.03160959851 -0.192818550911 0.854 9.92217964154e-39
0.0331900784355 -0.192818550911 0.854 1.02855755697e-38
0.034770558361 -0.192818550911 0.854 1.07447530505e-38
0.0364361695237 -0.193270116604 0.856 1.3342387658e-38
0.0381091834027 -0.193721682297 0.858 1.68515444957e-38
0.0396970660444 -0.193721682297 0.858 1.53782473163e-38
-0.0334232639983 -0.19258166399 0.86 4.5917748079e-40
-0.0318316799983 -0.19258166399 0.86 6.7151497592e-39
-0.0300994443891 -0.19168593532 0.856 6.52032022722e-39
-0.0283487019892 -0.190566274483 0.851 6.70399121953e-39
-0.0265850048358 -0.189222681479 0.845 6.97949770801e-39
-0.025021181022 -0.189222681479 0.845 7.98968816575e-39
-0.023401836836 -0.188774817144 0.843 7.53051068496e-39
-0.0218417143803 -0.188774817144 0.843 7.80601717343e-39
-0.0202815919245 -0.188774817144 0.843 7.98968816575e-39
-0.0187214694688 -0.188774817144 0.843 8.54070114269e-39
-0.0171613470131 -0.188774817144 0.843 9.09171411964e-39
-0.0155642109759 -0.188326952809 0.841 1.10277929195e-38
-0.0140077898783 -0.188326952809 0.841 1.12179210951e-38
-0.0124513687807 -0.188326952809 0.841 1.04814518716e-38
-0.0108949476832 -0.188326952809 0.841 1.12208315921e-38
-0.00933852658556 -0.188326952809 0.841 1.28828780694e-38
-0.00778210548797 -0.188326952809 0.841 1.44502023758e-38
-0.00621087895782 -0.187879088474 0.839 1.54657640106e-38
-0.00465815921836 -0.187879088474 0.839 1.62054940556e-38
-0.00310543947891 -0.187879088474 0.839 1.62058597945e-38
-0.00154901838131 -0.187431224139 0.837 1.69459457693e-38
0.0 -0.187431224139 0.837 1.59317742227e-38
0.00154901838131 -0.187431224139 0.837 1.63009322901e-38
0.00309803676263 -0.187431224139 0.837 1.6300560946e-38
0.00464705514394 -0.187431224139 0.837 1.59318008473e-38
0.00619607352526 -0.187431224139 0.837 1.57473871668e-38
0.00774509190657 -0.187431224139 0.837 1.61161668837e-38
0.00929411028789 -0.187431224139 0.837 1.62994791436e-38
0.0108690381762 -0.187879088474 0.839 1.70381287875e-38
0.0124217579156 -0.187879088474 0.839 1.65771464343e-38
0.0139744776551 -0.187879088474 0.839 1.61147445657e-38
0.0155642109759 -0.188326952809 0.841 1.64817250154e-38
0.0171206320735 -0.188326952809 0.841 1.51906162545e-38
0.0186770531711 -0.188326952809 0.841 1.44501967706e-38
0.0202334742687 -0.188326952809 0.841 1.38930573168e-38
0.0217898953663 -0.188326952809 0.841 1.40788793022e-38
0.023401836836 -0.188774817144 0.843 1.39870185827e-38
0.0250804027522 -0.189670545813 0.847 1.30614651509e-38
0.0266479279242 -0.189670545813 0.847 1.07461879801e-38
0.0282820775427 -0.190118410148 0.849 1.09284240428e-38
0.0299236298775 -0.190566274483 0.851 9.82639808891e-39
0.03160959851 -0.191238070985 0.854 7.53051068496e-39
0.0331900784355 -0.191238070985 0.854 1.34155438456e-38
0.034770558361 -0.191238070985 0.854 2.18228834134e-38
0.0364361695237 -0.19168593532 0.856 1.04028810667e-38
0.0381091834027 -0.192133799655 0.858 1.62976896855e-38
0.0396970660444 -0.192133799655 0.858 1.5747392772e-38
-0.0334232639983 -0.19099007999 0.86 1.744874427e-39
-0.0318316799983 -0.19099007999 0.86 6.71440426842e-39
-0.0301697701938 -0.190545917013 0.858 6.24481373874e-39
-0.028448638659 -0.18965759106 0.854 6.42848473106e-39
-0.0266479279242 -0.188103020641 0.847 6.97949770801e-39
-0.025021181022 -0.187658857665 0.845 7.71418167727e-39
-0.023401836836 -0.187214694688 0.843 7.80601717343e-39
-0.0218417143803 -0.187214694688 0.843 7.98968816575e-39
-0.0202815919245 -0.187214694688 0.843 8.54070114269e-39
-0.0187214694688 -0.187214694688 0.843 9.36722060812e-39
-0.0171613470131 -0.187214694688 0.843 8.99987862348e-39
-0.0155642109759 -0.186770531711 0.841 8.81620763117e-39
-0.0140077898783 -0.186770531711 0.841 8.99987862348e-39
-0.0124513687807 -0.186770531711 0.841 8.17335915806e-39
-0.0108949476832 -0.186770531711 0.841 8.17335915806e-39
-0.00933852658556 -0.186770531711 0.841 8.90804312733e-39
-0.00776359869727 -0.186326368734 0.839 1.01937400735e-38
-0.00621087895782 -0.186326368734 0.839 1.27715939519e-38
-0.00465815921836 -0.186326368734 0.839 1.12128988414e-38
-0.00310543947891 -0.186326368734 0.839 1.22281311711e-38
-0.00154901838131 -0.185882205758 0.837 1.10313858488e-38
0.0 -0.185882205758 0.837 1.24168594495e-38
0.00154901838131 -0.185882205758 0.837 1.12200875026e-38
0.00309803676263 -0.185882205758 0.837 1.13119328078e-38
0.00464705514394 -0.185882205758 0.837 1.18658380648e-38
0.00619607352526 -0.185882205758 0.837 1.076092964e-38
0.00774509190657 -0.185882205758 0.837 1.18658128414e-38
0.00931631843672 -0.186326368734 0.839 1.14977519907e-38
0.0108690381762 -0.186326368734 0.839 1.21402515405e-38
0.0124217579156 -0.186326368734 0.839 1.18639981599e-38
0.0139744776551 -0.186326368734 0.839 1.29689135912e-38
0.0155642109759 -0.186770531711 0.841 1.21373522539e-38
0.0171206320735 -0.186770531711 0.841 1.26872890337e-38
0.0186770531711 -0.186770531711 0.841 1.01937400735e-38
0.0202815919245 -0.187214694688 0.843 1.06529175543e-38
0.0218417143803 -0.187214694688 0.843 1.03774110659e-38
0.0234573572081 -0.187658857665 0.845 1.01937400735e-38
0.0250804027522 -0.188103020641 0.847 9.73456259275e-39
0.0267108510126 -0.188547183618 0.849 8.72437213501e-39
0.0282820775427 -0.188547183618 0.849 8.35703015038e-39
0.0299236298775 -0.188991346595 0.851 9.73456259275e-39
0.03160959851 -0.18965759106 0.854 1.81336106776e-38
0.0331900784355 -0.18965759106 0.854 1.97077943399e-38
0.034770558361 -0.18965759106 0.854 1.98889233768e-38
0.0364361695237 -0.190101754037 0.856 9.38587469327e-39
0.0381091834027 -0.190545917013 0.858 1.70356274698e-38
0.0396970660444 -0.190545917013 0.858 1.57473899694e-38
-0.0350148479982 -0.18939849599 0.86 4.40810381558e-39
-0.0334232639983 -0.18939849599 0.86 1.28569694621e-39
-0.0318316799983 -0.18939849599 0.86 6.53220323819e-39
-0.0301697701938 -0.188958034372 0.858 6.06114274643e-39
-0.0285152631055 -0.188517572753 0.856 6.61215572338e-39
-0.0267108510126 -0.186975957088 0.849 7.07133320417e-39
-0.0250804027522 -0.186535495469 0.847 8.0815236619e-39
-0.0234573572081 -0.186095033851 0.845 7.98968816575e-39
-0.0218935333942 -0.186095033851 0.845 8.35703015038e-39
-0.0203297095803 -0.186095033851 0.845 8.81620763117e-39
-0.0187214694688 -0.185654572232 0.843 9.09171411964e-39
-0.0171613470131 -0.185654572232 0.843 8.90804312733e-39
-0.0156012245573 -0.185654572232 0.843 9.09171411964e-39
-0.0140077898783 -0.185214110614 0.841 9.27538511196e-39
-0.0124513687807 -0.185214110614 0.841 9.36722060812e-39
-0.0108949476832 -0.185214110614 0.841 9.27538511196e-39
-0.00933852658556 -0.185214110614 0.841 9.09171411964e-39
-0.00776359869727 -0.184773648995 0.839 9.27538511196e-39
-0.00621087895782 -0.184773648995 0.839 9.36722060812e-39
-0.00465815921836 -0.184773648995 0.839 1.00100690812e-38
-0.00310543947891 -0.184773648995 0.839 1.00100690812e-38
-0.00154901838131 -0.184333187376 0.837 9.45905610427e-39
0.0 -0.184333187376 0.837 9.73456259275e-39
0.00154901838131 -0.184333187376 0.837 9.45905610427e-39
0.00309803676263 -0.184333187376 0.837 9.27538511196e-39
0.00464705514394 -0.184333187376 0.837 8.54070114269e-39
0.00619607352526 -0.184333187376 0.837 8.72437213501e-39
0.00774509190657 -0.184333187376 0.837 8.90804312733e-39
0.00931631843672 -0.184773648995 0.839 9.09171411964e-39
0.0108690381762 -0.184773648995 0.839 9.09171411964e-39
0.0124217579156 -0.184773648995 0.839 9.09171411964e-39
0.0139744776551 -0.184773648995 0.839 9.09171411964e-39
0.0155642109759 -0.185214110614 0.841 9.09171411964e-39
0.0171206320735 -0.185214110614 0.841 8.81620763117e-39
0.0187214694688 -0.185654572232 0.843 9.09171411964e-39
0.0202815919245 -0.185654572232 0.843 8.99987862348e-39
0.0218935333942 -0.186095033851 0.845 8.0815236619e-39
0.0235128775802 -0.186535495469 0.847 8.35703015038e-39
0.0251396244824 -0.186975957088 0.849 1.06529175543e-38
0.0267108510126 -0.186975957088 0.849 1.36150439053e-38
0.0283487019892 -0.187416418707 0.851 1.74982563487e-38
0.0299236298775 -0.187416418707 0.851 1.8788381398e-38
0.03160959851 -0.188077111134 0.854 1.86025229788e-38
0.0332678069564 -0.188517572753 0.856 1.92471440945e-38
0.03485198824 -0.188517572753 0.856 1.84184596229e-38
0.0365213007609 -0.188958034372 0.858 8.65119072401e-39
0.0381091834027 -0.188958034372 0.858 1.64824691049e-38
0.0396970660444 -0.188958034372 0.858 1.58381408606e-38
-0.0350148479982 -0.18780691199 0.86 8.74844784392e-39
-0.0334232639983 -0.18780691199 0.86 1.01019045774e-39
-0.0318316799983 -0.18780691199 0.86 6.98705771322e-39
-0.0301697701938 -0.18737015173 0.858 6.97949770801e-39
-0.0285152631055 -0.186933391469 0.856 6.70399121953e-39
-0.0267737741009 -0.185841490818 0.851 7.07133320417e-39
-0.0251396244824 -0.185404730558 0.849 7.98968816575e-39
-0.0235128775802 -0.184967970297 0.847 8.26519465422e-39
-0.0219453524082 -0.184967970297 0.847 8.44886564654e-39
-0.0203297095803 -0.184531210037 0.845 8.54070114269e-39
-0.0187658857665 -0.184531210037 0.845 8.54070114269e-39
-0.0172020619526 -0.184531210037 0.845 8.54070114269e-39
-0.0156012245573 -0.184094449776 0.843 8.54070114269e-39
-0.0140411021016 -0.184094449776 0.843 9.55089160043e-39
-0.0124513687807 -0.183657689516 0.841 9.55089160043e-39
-0.0108949476832 -0.183657689516 0.841 7.62234618111e-39
-0.00933852658556 -0.183657689516 0.841 7.25500419648e-39
-0.00778210548797 -0.183657689516 0.841 6.88766221185e-39
-0.00621087895782 -0.183220929256 0.839 6.88766221185e-39
-0.00465815921836 -0.183220929256 0.839 7.53051068496e-39
-0.00310543947891 -0.183220929256 0.839 7.89785266959e-39
-0.00155271973945 -0.183220929256 0.839 8.35703015038e-39
0.0 -0.183220929256 0.839 9.73456259275e-39
0.00154901838131 -0.182784168995 0.837 9.73456259275e-39
0.00309803676263 -0.182784168995 0.837 9.73456259275e-39
0.00464705514394 -0.182784168995 0.837 9.09171411964e-39
0.00619607352526 -0.182784168995 0.837 9.36722060812e-39
0.00774509190657 -0.182784168995 0.837 8.81620763117e-39
0.00931631843672 -0.183220929256 0.839 8.72437213501e-39
0.0108690381762 -0.183220929256 0.839 7.80601717343e-39
0.0124217579156 -0.183220929256 0.839 6.97949770801e-39
0.0139744776551 -0.183220929256 0.839 6.88766221185e-39
0.0155642109759 -0.183657689516 0.841 6.61215572338e-39
0.0171613470131 -0.184094449776 0.843 7.34683969264e-39
0.0187214694688 -0.184094449776 0.843 8.35703015038e-39
0.0202815919245 -0.184094449776 0.843 1.5628974644e-38
0.0218935333942 -0.184531210037 0.845 1.57451240698e-38
0.0235128775802 -0.184967970297 0.847 1.52010405138e-38
0.0251396244824 -0.185404730558 0.849 1.16057668789e-38
0.0267108510126 -0.185404730558 0.849 1.70401522625e-38
0.0283487019892 -0.185841490818 0.851 1.84217246483e-38
0.0300291185845 -0.186496631209 0.854 1.83273780253e-38
0.0316836256728 -0.186933391469 0.856 1.81437098356e-38
0.0332678069564 -0.186933391469 0.856 1.48235405166e-38
0.0349334181191 -0.18737015173 0.858 1.11361301064e-38
0.0365213007609 -0.18737015173 0.858 7.36123803436e-39
0.038198015998 -0.18780691199 0.86 1.5565868569e-38
0.0397895999979 -0.18780691199 0.86 1.6944873776e-38
-0.0350148479982 -0.18621532799 0.86 4.5917748079e-40
-0.0334232639983 -0.18621532799 0.86 9.1835496158e-41
-0.0318316799983 -0.18621532799 0.86 6.71224206489e-39
-0.0301697701938 -0.185782269088 0.858 6.79582671569e-39
-0.0285152631055 -0.185349210186 0.856 6.24481373874e-39
-0.0268681587335 -0.184916151283 0.854 7.16316870032e-39
-0.0251988462126 -0.18426656293 0.851 7.80601717343e-39
-0.0235683979523 -0.183833504028 0.849 8.17335915806e-39
-0.0219971714221 -0.183833504028 0.849 8.17335915806e-39
-0.0203778272361 -0.183400445125 0.847 8.44886564654e-39
-0.0187658857665 -0.182967386223 0.845 8.44886564654e-39
-0.0172020619526 -0.182967386223 0.845 8.44886564654e-39
-0.0156012245573 -0.182534327321 0.843 8.81620763117e-39
-0.0140411021016 -0.182534327321 0.843 9.45905610427e-39
-0.0124809796459 -0.182534327321 0.843 1.00100690812e-38
-0.0109208571901 -0.182534327321 0.843 5.51012976948e-39
-0.0093607347344 -0.182534327321 0.843 1.65778765108e-38
-0.00778210548797 -0.182101268418 0.841 1.47342876135e-38
-0.00622568439037 -0.182101268418 0.841 1.36311490286e-38
-0.00466926329278 -0.182101268418 0.841 1.32595078603e-38
-0.00310543947891 -0.181668209516 0.839 1.23360900073e-38
-0.00155271973945 -0.181668209516 0.839 1.15031133586e-38
0.0 -0.181668209516 0.839 1.13090489356e-38
0.00155271973945 -0.181668209516 0.839 1.11189291677e-38
0.00309803676263 -0.181235150614 0.837 1.09330959719e-38
0.00464705514394 -0.181235150614 0.837 1.13015057459e-38
0.00619607352526 -0.181235150614 0.837 1.16699239278e-38
0.00774509190657 -0.181235150614 0.837 1.33355703409e-38
0.00931631843672 -0.181668209516 0.839 1.24229032498e-38
0.0108949476832 -0.182101268418 0.841 1.46377171298e-38
0.0124513687807 -0.182101268418 0.841 1.39023381165e-38
0.0140077898783 -0.182101268418 0.841 1.63955857975e-38
0.0155642109759 -0.182101268418 0.841 1.4280496724e-38
0.0171613470131 -0.182534327321 0.843 1.51106329407e-38
0.0187658857665 -0.182967386223 0.845 1.19720578897e-38
0.0203297095803 -0.182967386223 0.845 1.49204529171e-38
0.0218935333942 -0.182967386223 0.845 1.05851171294e-38
0.0235128775802 -0.183400445125 0.847 3.0305881888e-39
0.0251396244824 -0.183833504028 0.849 6.45334376582e-39
0.0267108510126 -0.183833504028 0.849 1.6017117503e-38
0.0283487019892 -0.18426656293 0.851 1.90681506364e-38
0.0300291185845 -0.184916151283 0.854 1.4828613217e-38
0.0316836256728 -0.185349210186 0.856 9.29403919711e-39
0.0332678069564 -0.185349210186 0.856 7.35042701671e-39
0.0349334181191 -0.185782269088 0.858 1.85099546035e-38
0.0365213007609 -0.185782269088 0.858 5.88787499391e-39
0.038198015998 -0.18621532799 0.86 1.61204884881e-38
-0.0350148479982 -0.18462374399 0.86 1.83670992316e-40
-0.0334232639983 -0.18462374399 0.86 1.01019746423e-39
-0.0318316799983 -0.18462374399 0.86 6.8069474203e-39
-0.0301697701938 -0.184194386446 0.858 6.61215572338e-39
-0.028581887552 -0.184194386446 0.858 6.61215572338e-39
-0.0269310818219 -0.183765028902 0.856 7.16316870032e-39
-0.025287678808 -0.183335671358 0.854 7.98968816575e-39
-0.0236239183244 -0.182691635042 0.851 8.17335915806e-39
-0.0220489904361 -0.182691635042 0.851 8.17335915806e-39
-0.020425944892 -0.182262277497 0.849 8.26519465422e-39
-0.0188103020641 -0.181832919953 0.847 8.35703015038e-39
-0.0172427768921 -0.181832919953 0.847 8.17335915806e-39
-0.0156382381387 -0.181403562409 0.845 8.81620763117e-39
-0.0140744143248 -0.181403562409 0.845 9.45905610427e-39
-0.0124809796459 -0.180974204865 0.843 9.55089160043e-39
-0.0109208571901 -0.180974204865 0.843 5.60196526564e-39
-0.0093607347344 -0.180974204865 0.843 1.40881965357e-38
-0.00780061227866 -0.180974204865 0.843 8.17335915806e-39
-0.00622568439037 -0.180544847321 0.841 1.2141301113e-38
-0.00466926329278 -0.180544847321 0.841 1.50068527765e-38
-0.00311284219519 -0.180544847321 0.841 1.29760686212e-38
-0.00155271973945 -0.180115489777 0.839 7.16819095402e-39
0.0 -0.180115489777 0.839 1.23375291409e-38
0.00155271973945 -0.180115489777 0.839 1.06755541297e-38
0.00310543947891 -0.180115489777 0.839 1.14142177866e-38
0.00464705514394 -0.179686132233 0.837 1.03053394832e-38
0.00619607352526 -0.179686132233 0.837 1.48045669354e-38
0.00774509190657 -0.179686132233 0.837 1.3251266824e-38
0.00931631843672 -0.180115489777 0.839 8.73054065085e-39
0.0108949476832 -0.180544847321 0.841 1.39952554151e-38
0.0124513687807 -0.180544847321 0.841 5.14278778485e-39
0.0140077898783 -0.180544847321 0.841 1.67493323844e-38
0.0156012245573 -0.180974204865 0.843 5.79890935701e-39
0.0171613470131 -0.180974204865 0.843 1.47235452594e-38
0.0187658857665 -0.181403562409 0.845 3.67341984632e-39
0.0203297095803 -0.181403562409 0.845 1.06633474188e-38
0.0219453524082 -0.181832919953 0.847 1.49089916969e-38
0.0235128775802 -0.181832919953 0.847 1.26155873938e-38
0.0251396244824 -0.182262277497 0.849 1.33657122709e-38
0.0267108510126 -0.182262277497 0.849 9.76082292597e-39
0.0283487019892 -0.182691635042 0.851 9.56559962911e-39
0.0300291185845 -0.183335671358 0.854 1.24344779751e-38
0.0316836256728 -0.183765028902 0.856 8.00726605368e-39
0.0333455354773 -0.184194386446 0.858 1.89716362047e-38
0.0349334181191 -0.184194386446 0.858 2.06304134527e-38
0.0366064319981 -0.18462374399 0.86 4.68361030406e-39
-0.0350962778772 -0.183457816176 0.862 0.0
-0.0335009925192 -0.183457816176 0.862 5.42984097267e-39
-0.0318316799983 -0.18303215999 0.86 6.25449951373e-39
-0.0302400959984 -0.18303215999 0.86 6.06114274643e-39
-0.028581887552 -0.182606503804 0.858 6.61215572338e-39
-0.0269310818219 -0.182180847618 0.856 7.34683969264e-39
-0.025287678808 -0.181755191432 0.854 7.98968816575e-39
-0.0236239183244 -0.181116707153 0.851 7.89785266959e-39
-0.0220489904361 -0.181116707153 0.851 7.98968816575e-39
-0.0204740625478 -0.181116707153 0.851 8.17335915806e-39
-0.0188547183618 -0.180691050967 0.849 8.44886564654e-39
-0.0172427768921 -0.180265394781 0.847 8.54070114269e-39
-0.0156752517201 -0.180265394781 0.847 8.81620763117e-39
-0.0140744143248 -0.179839738595 0.845 9.55089160043e-39
-0.012510590511 -0.179839738595 0.845 9.36722060812e-39
-0.0109208571901 -0.179414082409 0.843 5.41829427332e-39
-0.0093607347344 -0.179414082409 0.843 1.42744220951e-38
-0.00780061227866 -0.179414082409 0.843 1.22395909899e-38
-0.00624048982293 -0.179414082409 0.843 1.40838342936e-38
-0.0046803673672 -0.179414082409 0.843 8.5514631149e-39
-0.00311284219519 -0.178988426223 0.841 1.91474375048e-38
-0.00155642109759 -0.178988426223 0.841 7.81785954675e-39
0.0 -0.178562770037 0.839 5.52593781746e-39
0.00155271973945 -0.178562770037 0.839 2.84833531053e-39
0.00310543947891 -0.178562770037 0.839 4.20389539297e-44
0.00465815921836 -0.178562770037 0.839 1.28021324493e-38
0.00621087895782 -0.178562770037 0.839 1.92385513323e-38
0.00776359869727 -0.178562770037 0.839 8.18340366545e-39
0.00933852658556 -0.178988426223 0.841 1.09510241844e-38
0.0109208571901 -0.179414082409 0.843 1.20587982646e-38
0.0124809796459 -0.179414082409 0.843 1.13237471552e-38
0.0140411021016 -0.179414082409 0.843 1.48271488601e-38
0.0156382381387 -0.179839738595 0.845 1.10486498458e-38
0.0172020619526 -0.179839738595 0.845 1.68490263623e-38
0.0187658857665 -0.179839738595 0.845 1.89687074909e-38
0.0203778272361 -0.180265394781 0.847 1.50998247257e-38
0.0219453524082 -0.180265394781 0.847 1.38058699276e-38
0.0235683979523 -0.180691050967 0.849 1.18730379363e-38
0.0251988462126 -0.181116707153 0.851 4.23269768161e-39
0.0267737741009 -0.181116707153 0.851 1.2860696916e-39
0.028448638659 -0.181755191432 0.854 1.27856489755e-38
0.0300994443891 -0.182180847618 0.856 1.47303639778e-38
0.0317576528356 -0.182606503804 0.858 1.9434116546e-38
0.0333455354773 -0.182606503804 0.858 1.89705978425e-38
0.0349334181191 -0.182606503804 0.858 1.93389319465e-38
0.0366064319981 -0.18303215999 0.86 8.46106254837e-39
-0.0350962778772 -0.181862530818 0.862 3.67348991124e-40
-0.0335009925192 -0.181862530818 0.862 6.90605985939e-39
-0.0318316799983 -0.181440575991 0.86 5.60878118137e-39
-0.0302400959984 -0.181440575991 0.86 6.24481373874e-39
-0.028581887552 -0.181018621163 0.858 6.70399121953e-39
-0.0269310818219 -0.180596666335 0.856 7.16316870032e-39
-0.0253469005382 -0.180596666335 0.856 7.98968816575e-39
-0.0237071988825 -0.180174711507 0.854 7.89785266959e-39
-0.022126718957 -0.180174711507 0.854 8.17335915806e-39
-0.0205462390315 -0.180174711507 0.854 8.17335915806e-39
-0.0188991346595 -0.179541779265 0.851 8.72437213501e-39
-0.0172834918317 -0.179119824437 0.849 8.54070114269e-39
-0.0156752517201 -0.178697869609 0.847 8.17335915806e-39
-0.0140744143248 -0.178275914781 0.845 8.99987862348e-39
-0.012510590511 -0.178275914781 0.845 8.81620763117e-39
-0.0109467666971 -0.178275914781 0.845 4.95911679253e-39
-0.00938294288323 -0.178275914781 0.845 1.48264874472e-38
-0.00780061227866 -0.177853959954 0.843 9.29045187305e-39
-0.00624048982293 -0.177853959954 0.843 1.26137544955e-38
-0.0046803673672 -0.177853959954 0.843 9.48452610516e-39
-0.00311284219519 -0.177432005126 0.841 1.47331931994e-38
-0.00155642109759 -0.177432005126 0.841 1.16915403579e-38
0.0 -0.177010050298 0.839 1.57559575082e-38
0.00155271973945 -0.177010050298 0.839 1.26224173226e-38
0.00310543947891 -0.177010050298 0.839 1.29933508352e-38
0.00465815921836 -0.177010050298 0.839 1.51996055841e-38
0.00622568439037 -0.177432005126 0.841 1.73082262639e-38
0.00778210548797 -0.177432005126 0.841 1.29850887794e-38
0.0093607347344 -0.177853959954 0.843 1.3272150375e-38
0.0109208571901 -0.177853959954 0.843 1.42740297316e-38
0.0124809796459 -0.177853959954 0.843 9.47847529839e-39
0.0140744143248 -0.178275914781 0.845 7.62737404e-39
0.0156382381387 -0.178275914781 0.845 1.24214823332e-38
0.0172020619526 -0.178275914781 0.845 3.12240686937e-39
0.0188103020641 -0.178697869609 0.847 1.99804505873e-38
0.0203778272361 -0.178697869609 0.847 8.2745216968e-39
0.0219971714221 -0.179119824437 0.849 1.25043831503e-38
0.0236239183244 -0.179541779265 0.851 1.14019508199e-38
0.0251988462126 -0.179541779265 0.851 1.31687807912e-38
0.0268681587335 -0.180174711507 0.854 1.71374444149e-38
0.0285152631055 -0.180596666335 0.856 1.85142776093e-38
0.0301697701938 -0.181018621163 0.858 1.90631311853e-38
0.0318316799983 -0.181440575991 0.86 1.77702203546e-38
0.0334232639983 -0.181440575991 0.86 1.83244661271e-38
0.0350148479982 -0.181440575991 0.86 1.96155538685e-38
-0.0350962778772 -0.18026724546 0.862 1.00348538472e-38
-0.0335009925192 -0.18026724546 0.862 7.36334278465e-39
-0.0318316799983 -0.179848991991 0.86 5.51407582596e-39
-0.0302400959984 -0.179848991991 0.86 6.88766221185e-39
-0.028581887552 -0.179430738521 0.858 6.97949770801e-39
-0.0269310818219 -0.179012485051 0.856 7.07133320417e-39
-0.0253469005382 -0.179012485051 0.856 7.98968816575e-39
-0.0237071988825 -0.178594231581 0.854 7.89785266959e-39
-0.022126718957 -0.178594231581 0.854 7.89785266959e-39
-0.0205462390315 -0.178594231581 0.854 8.17335915806e-39
-0.0188991346595 -0.177966851377 0.851 8.72437213501e-39
-0.0173242067712 -0.177966851377 0.851 8.54070114269e-39
-0.0157122653015 -0.177548597907 0.849 8.81620763117e-39
-0.0141077265481 -0.177130344437 0.847 9.36722060812e-39
-0.012510590511 -0.176712090968 0.845 8.63253663885e-39
-0.0109467666971 -0.176712090968 0.845 4.95911679253e-39
-0.00938294288323 -0.176712090968 0.845 1.39063234093e-38
-0.00781911906936 -0.176712090968 0.845 7.44298137898e-39
-0.00624048982293 -0.176293837498 0.843 2.29588740395e-39
-0.0046803673672 -0.176293837498 0.843 3.67341984632e-40
-0.00312024491147 -0.176293837498 0.843 1.325451083e-38
-0.00156012245573 -0.176293837498 0.843 1.11329141264e-38
0.0 -0.175875584028 0.841 8.6400700194e-39
0.00155642109759 -0.175875584028 0.841 7.89785266959e-39
0.00311284219519 -0.175875584028 0.841 1.05675588597e-38
0.00466926329278 -0.175875584028 0.841 6.06114274643e-39
0.00622568439037 -0.175875584028 0.841 1.42593469263e-38
0.00778210548797 -0.175875584028 0.841 1.744874427e-39
0.0093607347344 -0.176293837498 0.843 3.12312433419e-39
0.0109208571901 -0.176293837498 0.843 1.34411848049e-38
0.012510590511 -0.176712090968 0.845 1.19386145005e-39
0.0140744143248 -0.176712090968 0.845 8.928873429e-39
0.0156752517201 -0.177130344437 0.847 1.20559298067e-38
0.0172427768921 -0.177130344437 0.847 9.48022131628e-39
0.0188103020641 -0.177130344437 0.847 1.78663592384e-38
0.0203778272361 -0.177130344437 0.847 1.61157198695e-38
0.0219971714221 -0.177548597907 0.849 1.83270122864e-38
0.0236239183244 -0.177966851377 0.851 1.84170695348e-38
0.025287678808 -0.178594231581 0.854 1.81444188926e-38
0.0269310818219 -0.179012485051 0.856 1.74983039928e-38
0.028581887552 -0.179430738521 0.858 1.79560395375e-38
0.0302400959984 -0.179848991991 0.86 1.79556864103e-38
0.0318316799983 -0.179848991991 0.86 1.80486065114e-38
0.0334232639983 -0.179848991991 0.86 1.8046491952e-38
0.0350148479982 -0.179848991991 0.86 1.80475317155e-38
-0.0350962778772 -0.178671960102 0.862 1.35390234637e-38
-0.0335009925192 -0.178671960102 0.862 1.12334096471e-38
-0.0318316799983 -0.178257407991 0.86 5.14278778485e-39
-0.0302400959984 -0.178257407991 0.86 6.61215572338e-39
-0.028581887552 -0.177842855879 0.858 6.3366492349e-39
-0.0269940049102 -0.177842855879 0.858 7.07133320417e-39
-0.0253469005382 -0.177428303768 0.856 7.80601717343e-39
-0.0237071988825 -0.177013751656 0.854 7.80601717343e-39
-0.022126718957 -0.177013751656 0.854 7.89785266959e-39
-0.0205462390315 -0.177013751656 0.854 7.89785266959e-39
-0.0188991346595 -0.176391923488 0.851 8.26519465422e-39
-0.0173242067712 -0.176391923488 0.851 8.54070114269e-39
-0.0157122653015 -0.175977371377 0.849 9.1835496158e-39
-0.0141077265481 -0.175562819265 0.847 9.36722060812e-39
-0.0125402013761 -0.175562819265 0.847 8.81620763117e-39
-0.0109467666971 -0.175148267154 0.845 4.68361030406e-39
-0.00938294288323 -0.175148267154 0.845 1.4550972551e-38
-0.00781911906936 -0.175148267154 0.845 1.48271894978e-38
-0.00625529525549 -0.175148267154 0.845 1.47403776566e-38
-0.00469147144162 -0.175148267154 0.845 1.32674392096e-38
-0.00312024491147 -0.174733715042 0.843 1.63052300725e-38
-0.00156012245573 -0.174733715042 0.843 1.10478819343e-38
0.0 -0.17431916293 0.841 1.6395175217e-38
0.00155642109759 -0.17431916293 0.841 1.49150256881e-38
0.00311284219519 -0.17431916293 0.841 1.44529699403e-38
0.00466926329278 -0.17431916293 0.841 1.32580673255e-38
0.00624048982293 -0.174733715042 0.843 1.29832937161e-38
0.00780061227866 -0.174733715042 0.843 1.58391497955e-38
0.0093607347344 -0.174733715042 0.843 1.48303928661e-38
0.0109208571901 -0.174733715042 0.843 1.46464079829e-38
0.012510590511 -0.175148267154 0.845 1.4007875509e-38
0.0141077265481 -0.175562819265 0.847 1.38245352232e-38
0.0156752517201 -0.175562819265 0.847 1.51070582284e-38
0.0172427768921 -0.175562819265 0.847 1.75916262666e-38
0.0188547183618 -0.175977371377 0.849 1.68522703683e-38
0.020425944892 -0.175977371377 0.849 1.86028733034e-38
0.0220489904361 -0.176391923488 0.851 1.79589234097e-38
0.0237071988825 -0.177013751656 0.854 1.76827499032e-38
0.0253469005382 -0.177428303768 0.856 1.74050461787e-38
0.0269940049102 -0.177842855879 0.858 1.80504422124e-38
0.0286485119985 -0.178257407991 0.86 1.82319131661e-38
0.0302400959984 -0.178257407991 0.86 1.71284424735e-38
0.0319057071611 -0.178671960102 0.862 1.5932067094e-38
0.0335009925192 -0.178671960102 0.862 1.77738567241e-38
0.0350962778772 -0.178671960102 0.862 1.91542267959e-38
-0.0351777077563 -0.177487525498 0.864 1.21528071747e-38
-0.0335787210401 -0.177487525498 0.864 1.160106272e-38
-0.0319057071611 -0.177076674744 0.862 5.23534074582e-39
-0.0303104218031 -0.177076674744 0.862 6.06114274643e-39
-0.0286485119985 -0.176665823991 0.86 6.61215572338e-39
-0.0269940049102 -0.176254973237 0.858 6.97949770801e-39
-0.0254061222684 -0.176254973237 0.858 7.98968816575e-39
-0.0237071988825 -0.17543327173 0.854 7.89785266959e-39
-0.022126718957 -0.17543327173 0.854 7.89785266959e-39
-0.0205462390315 -0.17543327173 0.854 8.26519465422e-39
-0.018965759106 -0.17543327173 0.854 8.26519465422e-39
-0.0173242067712 -0.1748169956 0.851 8.44886564654e-39
-0.0157122653015 -0.174406144847 0.849 9.09171411964e-39
-0.0141410387714 -0.174406144847 0.849 9.36722060812e-39
-0.0125698122412 -0.174406144847 0.849 9.36722060812e-39
-0.0109726762041 -0.173995294093 0.847 4.49993931174e-39
-0.00940515103207 -0.173995294093 0.847 1.34471459285e-38
-0.00783762586006 -0.173995294093 0.847 9.93760513503e-39
-0.00625529525549 -0.17358444334 0.845 1.17793373119e-38
-0.00469147144162 -0.17358444334 0.845 1.20570214182e-38
-0.00312024491147 -0.173173592586 0.843 1.17768738292e-38
-0.00156012245573 -0.173173592586 0.843 1.16900367647e-38
0.0 -0.172762741833 0.841 1.76823197045e-38
0.00155642109759 -0.172762741833 0.841 1.12294257555e-38
0.00311284219519 -0.172762741833 0.841 1.24283248736e-38
0.00466926329278 -0.172762741833 0.841 1.05822598819e-38
0.00624048982293 -0.173173592586 0.843 1.62086063395e-38
0.00780061227866 -0.173173592586 0.843 1.74035720127e-38
0.0093607347344 -0.173173592586 0.843 1.37208013018e-38
0.0109208571901 -0.173173592586 0.843 1.20595451567e-38
0.012510590511 -0.17358444334 0.845 1.33498888086e-38
0.0141077265481 -0.173995294093 0.847 1.26144663551e-38
0.0156752517201 -0.173995294093 0.847 1.31673346512e-38
0.0172834918317 -0.174406144847 0.849 1.54750588233e-38
0.0188547183618 -0.174406144847 0.849 1.59353307182e-38
0.0204740625478 -0.1748169956 0.851 1.63012405758e-38
0.022126718957 -0.17543327173 0.854 1.78681627095e-38
0.0237071988825 -0.17543327173 0.854 1.86017746854e-38
0.0253469005382 -0.175844122484 0.856 1.7866362041e-38
0.0269940049102 -0.176254973237 0.858 1.69448191254e-38
0.0286485119985 -0.176665823991 0.86 1.67560894456e-38
0.0303104218031 -0.177076674744 0.862 1.13130118076e-38
0.0319057071611 -0.177076674744 0.862 1.58337407834e-38
0.0335009925192 -0.177076674744 0.862 1.73110779063e-38
0.0350962778772 -0.177076674744 0.862 1.90623674777e-38
-0.0319797343239 -0.175888538782 0.864 5.23462328101e-39
-0.0303104218031 -0.175481389386 0.862 5.78563625795e-39
-0.028715136445 -0.175481389386 0.862 6.42848473106e-39
-0.0270569279986 -0.175074239991 0.86 7.07133320417e-39
-0.0254061222684 -0.174667090596 0.858 7.62234618111e-39
-0.0237627192546 -0.1742599412 0.856 7.89785266959e-39
-0.0221785379709 -0.1742599412 0.856 7.89785266959e-39
-0.0205943566873 -0.1742599412 0.856 7.98968816575e-39
-0.018965759106 -0.173852791805 0.854 8.26519465422e-39
-0.0173852791805 -0.173852791805 0.854 8.44886564654e-39
-0.0157492788829 -0.173242067712 0.851 8.54070114269e-39
-0.0141743509946 -0.173242067712 0.851 9.36722060812e-39
-0.0125698122412 -0.172834918317 0.849 9.55089160043e-39
-0.0109985857111 -0.172834918317 0.849 4.49993931174e-39
-0.00940515103207 -0.172427768921 0.847 1.50137499675e-38
-0.00783762586006 -0.172427768921 0.847 1.3442786489e-38
-0.00627010068805 -0.172427768921 0.847 1.46431303458e-38
-0.00469147144162 -0.172020619526 0.845 1.51052001066e-38
-0.00312764762774 -0.172020619526 0.845 1.49222409739e-38
-0.00156382381387 -0.172020619526 0.845 1.14170820407e-38
0.0 -0.171613470131 0.843 1.74991195485e-38
0.00156012245573 -0.171613470131 0.843 1.3447528483e-38
0.00312024491147 -0.171613470131 0.843 1.37287676835e-38
0.0046803673672 -0.171613470131 0.843 1.44645152383e-38
0.00624048982293 -0.171613470131 0.843 1.59360173544e-38
0.00781911906936 -0.172020619526 0.845 1.57502346053e-38
0.00938294288323 -0.172020619526 0.845 1.48296866116e-38
0.0109467666971 -0.172020619526 0.845 1.49226193245e-38
0.0125402013761 -0.172427768921 0.847 1.50115583367e-38
0.0141410387714 -0.172834918317 0.849 1.23360942112e-38
0.0157492788829 -0.173242067712 0.851 1.61111278144e-38
0.0173242067712 -0.173242067712 0.851 1.1970195564e-38
0.0188991346595 -0.173242067712 0.851 1.29829405889e-38
0.0204740625478 -0.173242067712 0.851 1.18726077377e-38
0.022126718957 -0.173852791805 0.854 1.82372703302e-38
0.0237071988825 -0.173852791805 0.854 1.6944793902e-38
0.0253469005382 -0.1742599412 0.856 1.37208013018e-38
0.0270569279986 -0.175074239991 0.86 1.36221737119e-38
0.028715136445 -0.175481389386 0.862 1.41714280593e-38
0.0303104218031 -0.175481389386 0.862 1.89705796256e-38
0.0319797343239 -0.175888538782 0.864 1.92482244956e-38
0.0335787210401 -0.175888538782 0.864 1.82322662934e-38
0.0351777077563 -0.175888538782 0.864 1.81422510839e-38
0.0369895225655 -0.17690641227 0.869 1.26029869181e-38
-0.0338507708634 -0.175701620195 0.871 1.56602460205e-38
-0.0319797343239 -0.174289552065 0.864 3.76525534248e-39
-0.0303104218031 -0.173886104028 0.862 4.13259732711e-39
-0.028715136445 -0.173886104028 0.862 6.24481373874e-39
-0.0270569279986 -0.173482655991 0.86 7.07133320417e-39
-0.0254653439987 -0.173482655991 0.86 7.62234618111e-39
-0.0238182396267 -0.173079207954 0.858 7.89785266959e-39
-0.0222303569849 -0.173079207954 0.858 7.89785266959e-39
-0.0205943566873 -0.172675759917 0.856 7.98968816575e-39
-0.018965759106 -0.172272311879 0.854 8.17335915806e-39
-0.0173852791805 -0.172272311879 0.854 8.44886564654e-39
-0.0157492788829 -0.171667139824 0.851 8.54070114269e-39
-0.0141743509946 -0.171667139824 0.851 9.36722060812e-39
-0.0125994231063 -0.171667139824 0.851 9.55089160043e-39
-0.0109985857111 -0.171263691786 0.849 4.49993931174e-39
-0.0094273591809 -0.171263691786 0.849 1.5844232305e-38
-0.00785613265075 -0.171263691786 0.849 1.0494364837e-38
-0.00627010068805 -0.170860243749 0.847 1.1233705321e-38
-0.00470257551603 -0.170860243749 0.847 1.25198114464e-38
-0.00312764762774 -0.170456795712 0.845 1.17796960443e-38
-0.00156382381387 -0.170456795712 0.845 1.29779435585e-38
0.0 -0.170456795712 0.845 1.37165427557e-38
0.00156382381387 -0.170456795712 0.845 1.18765551954e-38
0.00312764762774 -0.170456795712 0.845 1.05861933266e-38
0.00469147144162 -0.170456795712 0.845 1.36290008381e-38
0.00625529525549 -0.170456795712 0.845 1.1137565036e-38
0.00781911906936 -0.170456795712 0.845 1.07731223379e-38
0.00938294288323 -0.170456795712 0.845 1.2979678366e-38
0.0109726762041 -0.170860243749 0.847 1.39931296453e-38
0.0125698122412 -0.171263691786 0.849 1.2797778615e-38
0.0141410387714 -0.171263691786 0.849 1.41817738459e-38
0.0157492788829 -0.171667139824 0.851 1.55679761218e-38
0.0173242067712 -0.171667139824 0.851 1.14184917469e-38
0.018965759106 -0.172272311879 0.854 1.5104164547e-38
0.0205462390315 -0.172272311879 0.854 1.36235834182e-38
0.0221785379709 -0.172675759917 0.856 1.22371190994e-38
0.0237627192546 -0.172675759917 0.856 1.36207107563e-38
0.0254061222684 -0.173079207954 0.858 1.69444435774e-38
0.0270569279986 -0.173482655991 0.86 1.75898129864e-38
0.028715136445 -0.173886104028 0.862 1.85124755395e-38
0.0303104218031 -0.173886104028 0.862 1.74983404266e-38
0.0320907750681 -0.174894724121 0.867 1.83258982542e-38
0.0336953138215 -0.174894724121 0.867 1.90616612232e-38
0.0352998525749 -0.174894724121 0.867 1.56562032745e-38
0.0369895225655 -0.175298172158 0.869 1.37129246031e-38
-0.0338507708634 -0.174089678726 0.871 7.91148450105e-39
-0.0321648022309 -0.173689932047 0.869 9.48064310712e-39
-0.0303807476077 -0.172690565349 0.864 4.77544580022e-39
-0.0287817608915 -0.172690565349 0.864 6.42848473106e-39
-0.027119851087 -0.17229081867 0.862 7.07133320417e-39
-0.0254653439987 -0.171891071991 0.86 7.62234618111e-39
-0.0238182396267 -0.171491325312 0.858 7.89785266959e-39
-0.0222303569849 -0.171491325312 0.858 8.26519465422e-39
-0.0205943566873 -0.171091578633 0.856 8.26519465422e-39
-0.018965759106 -0.170691831954 0.854 8.35703015038e-39
-0.0173852791805 -0.170691831954 0.854 8.72437213501e-39
-0.0157492788829 -0.170092211935 0.851 8.90804312733e-39
-0.0141743509946 -0.170092211935 0.851 9.45905610427e-39
-0.0125994231063 -0.170092211935 0.851 9.45905610427e-39
-0.011024495218 -0.170092211935 0.851 5.14278778485e-39
-0.0094273591809 -0.169692465256 0.849 1.18834327683e-38
-0.00785613265075 -0.169692465256 0.849 1.11393839214e-38
-0.0062849061206 -0.169692465256 0.849 1.10461289099e-38
-0.00470257551603 -0.169292718577 0.847 1.12312292267e-38
-0.00313505034402 -0.169292718577 0.847 1.71285419657e-38
-0.00156382381387 -0.168892971898 0.845 1.13259009509e-38
0.0 -0.168892971898 0.845 1.30737167034e-38
0.00156382381387 -0.168892971898 0.845 1.35332403049e-38
0.00312764762774 -0.168892971898 0.845 1.32580827397e-38
0.00469147144162 -0.168892971898 0.845 1.36304175508e-38
0.00627010068805 -0.169292718577 0.847 1.57502037767e-38
0.00783762586006 -0.169292718577 0.847 1.17879468897e-38
0.00940515103207 -0.169292718577 0.847 1.19655866934e-38
0.0109726762041 -0.169292718577 0.847 1.32509136968e-38
0.0125994231063 -0.170092211935 0.851 1.30668391305e-38
0.0141743509946 -0.170092211935 0.851 1.66667650763e-38
0.0157492788829 -0.170092211935 0.851 1.5656248116e-38
0.0173852791805 -0.170691831954 0.854 1.26123475918e-38
0.018965759106 -0.170691831954 0.854 1.54715009265e-38
0.0205462390315 -0.170691831954 0.854 1.82376388717e-38
0.0221785379709 -0.171091578633 0.856 1.47357491678e-38
0.0238182396267 -0.171491325312 0.858 1.57502163884e-38
0.0254653439987 -0.171891071991 0.86 1.78659892956e-38
0.027119851087 -0.17229081867 0.862 1.63858818056e-38
0.028715136445 -0.17229081867 0.862 1.88809021291e-38
0.0303807476077 -0.172690565349 0.864 1.76826994564e-38
0.0320907750681 -0.173290185368 0.867 2.01694549216e-38
0.0336953138215 -0.173290185368 0.867 1.32591365162e-38
0.035381282454 -0.173689932047 0.869 1.06740827663e-38
0.0370746538027 -0.174089678726 0.871 1.61978737945e-38
-0.0339284993843 -0.172873782577 0.873 1.28896589527e-38
-0.0322388293937 -0.172477737256 0.871 1.26120547204e-38
-0.0305565621193 -0.172081691935 0.869 4.04076183095e-39
-0.0287817608915 -0.171091578633 0.864 5.60196526564e-39
-0.027119851087 -0.170695533312 0.862 6.88766221185e-39
-0.0254653439987 -0.170299487991 0.86 7.4386751888e-39
-0.0238182396267 -0.16990344267 0.858 7.89785266959e-39
-0.0222303569849 -0.16990344267 0.858 8.17335915806e-39
-0.0206424743431 -0.16990344267 0.858 7.98968816575e-39
-0.0190101754037 -0.169507397349 0.856 8.26519465422e-39
-0.0173852791805 -0.169111352028 0.854 8.54070114269e-39
-0.0157492788829 -0.168517284047 0.851 8.63253663885e-39
-0.0141743509946 -0.168517284047 0.851 9.55089160043e-39
-0.0125994231063 -0.168517284047 0.851 9.45905610427e-39
-0.011024495218 -0.168517284047 0.851 5.14278778485e-39
-0.00944956732974 -0.168517284047 0.851 1.3452538125e-38
-0.00785613265075 -0.168121238726 0.849 1.43687322844e-38
-0.0062849061206 -0.168121238726 0.849 1.5659074535e-38
-0.00471367959045 -0.168121238726 0.849 1.07731391535e-38
-0.00313505034402 -0.167725193405 0.847 1.52857041644e-38
-0.00156752517201 -0.167725193405 0.847 1.40003379246e-38
0.0 -0.167329148084 0.845 1.25233903627e-38
0.00156382381387 -0.167329148084 0.845 1.27946088779e-38
0.00312764762774 -0.167329148084 0.845 1.52852935839e-38
0.00469147144162 -0.167329148084 0.845 1.36307734806e-38
0.00627010068805 -0.167725193405 0.847 1.45505787861e-38
0.00783762586006 -0.167725193405 0.847 1.44577203421e-38
0.00940515103207 -0.167725193405 0.847 1.42747331834e-38
0.0109985857111 -0.168121238726 0.849 1.68551023925e-38
0.0125994231063 -0.168517284047 0.851 1.57502346053e-38
0.0141743509946 -0.168517284047 0.851 1.52913640089e-38
0.015804799255 -0.169111352028 0.854 1.35396666597e-38
0.0173852791805 -0.169111352028 0.854 1.66692635914e-38
0.018965759106 -0.169111352028 0.854 1.24240018678e-38
0.0205943566873 -0.169507397349 0.856 1.12283243349e-38
0.0221785379709 -0.169507397349 0.856 1.47328078423e-38
0.0237627192546 -0.169507397349 0.856 1.27098891753e-38
0.0254653439987 -0.170299487991 0.86 1.67647410623e-38
0.027119851087 -0.170695533312 0.862 1.86035739526e-38
0.028715136445 -0.170695533312 0.862 1.89738012108e-38
0.0303807476077 -0.171091578633 0.864 1.67647172402e-38
0.0321648022309 -0.172081691935 0.869 6.8069474203e-39
0.0337730423424 -0.172081691935 0.869 1.00312342932e-38
0.035381282454 -0.172081691935 0.869 1.82341104021e-38
0.0370746538027 -0.172477737256 0.871 1.67481580963e-38
-0.0339284993843 -0.171258139749 0.873 1.61169263875e-38
-0.0322388293937 -0.170865795786 0.871 1.15931944291e-38
-0.030626887924 -0.170865795786 0.871 2.8469003809e-39
-0.0288816975613 -0.170081107861 0.867 4.04076183095e-39
-0.0271827741753 -0.169492591917 0.864 7.07133320417e-39
-0.0255245657289 -0.169100247954 0.862 7.62234618111e-39
-0.0238737599988 -0.168707903991 0.86 7.98968816575e-39
-0.0222821759988 -0.168707903991 0.86 8.26519465422e-39
-0.0206424743431 -0.168315560028 0.858 8.26519465422e-39
-0.0190101754037 -0.167923216066 0.856 8.35703015038e-39
-0.0173852791805 -0.167530872103 0.854 8.54070114269e-39
-0.015804799255 -0.167530872103 0.854 8.63253663885e-39
-0.0141743509946 -0.166942356159 0.851 9.91823358506e-39
-0.0125994231063 -0.166942356159 0.851 9.27538511196e-39
-0.011024495218 -0.166942356159 0.851 5.41829427332e-39
-0.00944956732974 -0.166942356159 0.851 1.30808801411e-38
-0.00787463944145 -0.166942356159 0.851 9.0163803142e-39
-0.00629971155316 -0.166942356159 0.851 1.11307743436e-38
-0.00471367959045 -0.166550012196 0.849 1.26105637389e-38
-0.0031424530603 -0.166550012196 0.849 1.17800659871e-38
-0.00156752517201 -0.166157668233 0.847 1.2148536017e-38
0.0 -0.166157668233 0.847 1.2426899753e-38
0.00156752517201 -0.166157668233 0.847 1.22461042252e-38
0.00313505034402 -0.166157668233 0.847 1.14134694932e-38
0.00470257551603 -0.166157668233 0.847 1.33491699425e-38
0.0062849061206 -0.166550012196 0.849 1.30765136951e-38
0.00785613265075 -0.166550012196 0.849 1.39038024734e-38
0.0094273591809 -0.166550012196 0.849 1.22432105438e-38
0.011024495218 -0.166942356159 0.851 1.2333252378e-38
0.0125994231063 -0.166942356159 0.851 1.03045953938e-38
0.0142243193295 -0.167530872103 0.854 1.36282441369e-38
0.015804799255 -0.167530872103 0.854 1.03099988006e-38
0.0173852791805 -0.167530872103 0.854 1.78678249966e-38
0.018965759106 -0.167530872103 0.854 1.4460884474e-38
0.0205943566873 -0.167923216066 0.856 1.53846638619e-38
0.0221785379709 -0.167923216066 0.856 1.88834216638e-38
0.0237627192546 -0.167923216066 0.856 1.06805399497e-38
0.0254653439987 -0.168707903991 0.86 1.81491034334e-38
0.027119851087 -0.169100247954 0.862 1.67640151897e-38
0.0287817608915 -0.169492591917 0.864 1.07723936627e-38
0.0304862363147 -0.170081107861 0.867 8.73513410722e-39
0.0321648022309 -0.170473451824 0.869 1.565654379e-38
0.0338507708634 -0.170865795786 0.871 1.85153439974e-38
0.035462712333 -0.170865795786 0.871 1.50054178468e-38
0.0371597850399 -0.171258139749 0.873 1.75822571851e-38
-0.0356255720912 -0.170031139526 0.875 1.74976397773e-38
-0.0339284993843 -0.169642496921 0.873 1.63927565759e-38
-0.0323128565565 -0.169642496921 0.873 1.10439807194e-38
-0.030626887924 -0.169253854317 0.871 9.94521698829e-39
-0.0288816975613 -0.168476569108 0.867 5.05095228869e-39
-0.0271827741753 -0.167893605201 0.864 7.07133320417e-39
-0.0255245657289 -0.167504962596 0.862 7.62234618111e-39
-0.0238737599988 -0.167116319991 0.86 7.89785266959e-39
-0.0222821759988 -0.167116319991 0.86 7.89785266959e-39
-0.0206905919989 -0.167116319991 0.86 8.35703015038e-39
-0.0190545917013 -0.166727677387 0.858 8.72437213501e-39
-0.01742599412 -0.166339034782 0.856 8.54070114269e-39
-0.015804799255 -0.165950392177 0.854 9.09171411964e-39
-0.0142243193295 -0.165950392177 0.854 9.73456259275e-39
-0.012643839404 -0.165950392177 0.854 9.27538511196e-39
-0.011024495218 -0.16536742827 0.851 6.70399121953e-39
-0.00944956732974 -0.16536742827 0.851 1.12355045883e-38
-0.00787463944145 -0.16536742827 0.851 1.43623045283e-38
-0.00629971155316 -0.16536742827 0.851 1.47360476443e-38
-0.00472478366487 -0.16536742827 0.851 1.4737496587e-38
-0.00314985577658 -0.16536742827 0.851 1.55665538039e-38
-0.00157122653015 -0.164978785666 0.849 1.12308760994e-38
0.0 -0.164978785666 0.849 1.47386204283e-38
0.00157122653015 -0.164978785666 0.849 1.37295103717e-38
0.0031424530603 -0.164978785666 0.849 1.46474645619e-38
0.00471367959045 -0.164978785666 0.849 1.36343706138e-38
0.00629971155316 -0.16536742827 0.851 1.54790273005e-38
0.00787463944145 -0.16536742827 0.851 1.49240682671e-38
0.00944956732974 -0.16536742827 0.851 1.54743259442e-38
0.011024495218 -0.16536742827 0.851 1.6027178826e-38
0.012643839404 -0.165950392177 0.854 1.56594304648e-38
0.0142243193295 -0.165950392177 0.854 1.29865153013e-38
0.015804799255 -0.165950392177 0.854 1.77773515625e-38
0.0173852791805 -0.165950392177 0.854 1.01241459866e-38
0.0190101754037 -0.166339034782 0.856 1.27027635726e-38
0.0205943566873 -0.166339034782 0.856 1.47321043905e-38
0.0221785379709 -0.166339034782 0.856 1.59332049484e-38
0.0237627192546 -0.166339034782 0.856 1.27149674809e-38
0.0254653439987 -0.167116319991 0.86 3.95361227686e-39
0.027119851087 -0.167504962596 0.862 6.79582671569e-39
0.0287817608915 -0.167893605201 0.864 1.32534136133e-38
0.0304862363147 -0.168476569108 0.867 1.86977005718e-38
0.0322388293937 -0.169253854317 0.871 1.84202953239e-38
0.0339284993843 -0.169642496921 0.873 1.67596347307e-38
0.035462712333 -0.169253854317 0.871 1.50072241206e-38
0.0370746538027 -0.169253854317 0.871 1.75833712174e-38
-0.0356255720912 -0.16841179534 0.875 1.7035980597e-38
-0.0339284993843 -0.168026854094 0.873 1.72218123915e-38
-0.0323128565565 -0.168026854094 0.873 9.10678648592e-39
-0.030626887924 -0.167641912847 0.871 1.17869729872e-38
-0.0289483220078 -0.167256971601 0.869 3.03057137321e-39
-0.0272771588079 -0.166872030354 0.867 5.23462328101e-39
-0.0255837874591 -0.166294618484 0.864 7.4386751888e-39
-0.0239292803708 -0.165909677238 0.862 7.98968816575e-39
-0.0223339950128 -0.165909677238 0.862 8.26519465422e-39
-0.0206905919989 -0.165524735991 0.86 8.44886564654e-39
-0.019099007999 -0.165524735991 0.86 8.63253663885e-39
-0.0174667090596 -0.165139794745 0.858 9.09171411964e-39
-0.0158418128364 -0.164754853498 0.856 9.45905610427e-39
-0.0142576315527 -0.164754853498 0.856 9.73456259275e-39
-0.012643839404 -0.164369912252 0.854 9.27538511196e-39
-0.0110633594785 -0.164369912252 0.854 7.25500419648e-39
-0.00948287955299 -0.164369912252 0.854 1.33617998456e-38
-0.00787463944145 -0.163792500382 0.851 1.05923590399e-38
-0.00629971155316 -0.163792500382 0.851 1.22489278416e-38
-0.00472478366487 -0.163792500382 0.851 1.27066844057e-38
-0.00314985577658 -0.163792500382 0.851 1.31672940135e-38
-0.00157122653015 -0.163407559136 0.849 1.46445498611e-38
0.0 -0.163407559136 0.849 1.10482406667e-38
0.00157492788829 -0.163792500382 0.851 1.25226813057e-38
0.00314985577658 -0.163792500382 0.851 1.15124614207e-38
0.00472478366487 -0.163792500382 0.851 1.1786915534e-38
0.00629971155316 -0.163792500382 0.851 1.37208461433e-38
0.00787463944145 -0.163792500382 0.851 1.18769489603e-38
0.00944956732974 -0.163792500382 0.851 1.45466537491e-38
0.0110633594785 -0.164369912252 0.854 1.31655367853e-38
0.012643839404 -0.164369912252 0.854 1.15099404847e-38
0.0142243193295 -0.164369912252 0.854 1.28021016207e-38
0.015804799255 -0.164369912252 0.854 1.51081092022e-38
0.0173852791805 -0.164369912252 0.854 1.15157236435e-38
0.0190101754037 -0.164754853498 0.856 1.03160846399e-38
0.0205943566873 -0.164754853498 0.856 6.24484456731e-39
0.0221785379709 -0.164754853498 0.856 7.80601717343e-39
0.0237627192546 -0.164754853498 0.856 1.0669419245e-38
0.0254653439987 -0.165524735991 0.86 1.33621095325e-38
0.027119851087 -0.165909677238 0.862 1.31684458809e-38
0.0287817608915 -0.166294618484 0.864 1.17811309739e-38
0.0305565621193 -0.167256971601 0.869 1.68455063006e-38
0.0322388293937 -0.167641912847 0.871 1.75876423751e-38
