# .PCD v0.7 - Point Cloud Data file format
VERSION 0.7
FIELDS x y z rgb
SIZE 4 4 4 4
TYPE F F F F
COUNT 1 1 1 1
WIDTH 848
HEIGHT 1
VIEWPOINT 0 0 0 1 0 0 0
POINTS 848
DATA ascii
0.012643839404 -0.03160959851 0.854 1.62962001052e-38
0.0142243193295 -0.03160959851 0.854 2.2932744027e-38
0.0157122653015 -0.031424530603 0.849 8.27308676717e-39
0.0172834918317 -0.031424530603 0.849 1.75732944801e-38
0.0187658857665 -0.0312764762774 0.845 1.85891812161e-38
0.0203297095803 -0.0312764762774 0.845 1.89493219279e-38
0.0218935333942 -0.0312764762774 0.845 1.95003573257e-38
0.0234573572081 -0.0312764762774 0.845 2.16139862462e-38
0.025021181022 -0.0312764762774 0.845 2.12452093319e-38
0.0265850048358 -0.0312764762774 0.845 2.13402734197e-38
0.0281488286497 -0.0312764762774 0.845 2.06938376225e-38
0.0297126524636 -0.0312764762774 0.845 2.09682679138e-38
0.0312764762774 -0.0312764762774 0.845 1.97765588582e-38
0.0328403000913 -0.0312764762774 0.845 1.7759047802e-38
0.0343226940261 -0.0312024491147 0.843 1.58287087206e-38
0.0357976852446 -0.0311284219519 0.841 1.39834256534e-38
0.0373541063422 -0.0311284219519 0.841 1.32372692537e-38
0.0390030613933 -0.0312024491147 0.843 1.50861410462e-38
0.040563183849 -0.0312024491147 0.843 1.68396726951e-38
0.0421233063048 -0.0312024491147 0.843 1.24103476156e-38
0.0436834287605 -0.0312024491147 0.843 1.87832596521e-38
0.0453508906023 -0.0312764762774 0.845 1.82261173957e-38
0.0469147144162 -0.0312764762774 0.845 2.34902982652e-38
0.04847853823 -0.0312764762774 0.845 5.51012976948e-39
0.0500423620439 -0.0312764762774 0.845 2.34892697121e-38
0.0524001271787 -0.0317576528356 0.858 2.33869076619e-38
0.0667725008337 -0.0325719516262 0.88 2.31892923486e-38
0.00319057071611 -0.0303104218031 0.862 2.27398398791e-38
0.00478585607417 -0.0303104218031 0.862 2.16338426454e-38
0.00638114143223 -0.0303104218031 0.862 1.86893334187e-38
0.00795791999959 -0.0302400959984 0.86 1.85916755274e-38
0.0095495039995 -0.0302400959984 0.86 1.75675841889e-38
0.0111151784924 -0.0301697701938 0.858 1.43403924242e-38
0.0126734502691 -0.0300994443891 0.856 1.06618858645e-38
0.0142243193295 -0.0300291185845 0.854 1.46227218349e-38
0.0157492788829 -0.0299236298775 0.851 7.89785266959e-39
0.0173242067712 -0.0299236298775 0.851 1.31429772813e-38
0.0188547183618 -0.0298533040729 0.849 1.84101471204e-38
0.0203778272361 -0.0297829782682 0.847 1.82139204939e-38
0.0219453524082 -0.0297829782682 0.847 1.90382889661e-38
0.0235128775802 -0.0297829782682 0.847 2.06023692666e-38
0.0250804027522 -0.0297829782682 0.847 2.01406722511e-38
0.0266479279242 -0.0297829782682 0.847 1.92223467168e-38
0.0282154530962 -0.0297829782682 0.847 1.84894451992e-38
0.0297829782682 -0.0297829782682 0.847 1.15762947696e-38
0.0313505034402 -0.0297829782682 0.847 1.55313195553e-38
0.0329180286122 -0.0297829782682 0.847 1.64679782774e-38
0.0344855537843 -0.0297829782682 0.847 1.86935457218e-38
0.0359679477191 -0.0297126524636 0.845 2.01711645057e-38
0.0375317715329 -0.0297126524636 0.845 1.74028265219e-38
0.0391881293003 -0.0297829782682 0.847 4.13259732711e-39
0.0406594191607 -0.0297126524636 0.845 1.51826722935e-38
0.0422232429745 -0.0297126524636 0.845 2.15379896265e-38
0.0437870667884 -0.0297126524636 0.845 1.73109910258e-38
0.0454582299883 -0.0297829782682 0.847 1.94264626537e-38
0.0470257551603 -0.0297829782682 0.847 2.34870262333e-38
0.0489948776905 -0.0300291185845 0.854 6.15297824259e-39
0.0508122445369 -0.0301697701938 0.858 2.34892599031e-38
0.0524001271787 -0.0301697701938 0.858 1.4167060212e-38
0.0542397021739 -0.0303104218031 0.862 1.34191031437e-38
0.0667725008337 -0.0309433540449 0.88 2.3469488983e-38
0.068401098415 -0.0309433540449 0.88 2.34777748608e-38
0.0700296959964 -0.0309433540449 0.88 2.3509809945e-38
0.0032831046696 -0.0295479420264 0.887 2.23692426782e-38
0.00478585607417 -0.028715136445 0.862 1.98839235439e-38
0.00638114143223 -0.028715136445 0.862 2.00690336698e-38
0.00797642679028 -0.028715136445 0.862 1.65702534472e-38
0.0095495039995 -0.0286485119985 0.86 1.72088685976e-38
0.0111151784924 -0.028581887552 0.858 1.59966837688e-38
0.0126734502691 -0.0285152631055 0.856 1.50754141064e-38
0.0142243193295 -0.028448638659 0.854 1.27773616964e-38
0.015804799255 -0.028448638659 0.854 1.08401758707e-38
0.0173242067712 -0.0283487019892 0.851 1.15849702084e-38
0.0188991346595 -0.0283487019892 0.851 1.77644554127e-38
0.0204740625478 -0.0283487019892 0.851 1.78483721713e-38
0.0219971714221 -0.0282820775427 0.849 1.87645901527e-38
0.0235683979523 -0.0282820775427 0.849 1.87606398923e-38
0.0251396244824 -0.0282820775427 0.849 1.83025484178e-38
0.0267108510126 -0.0282820775427 0.849 9.91823358506e-39
0.0282820775427 -0.0282820775427 0.849 1.45193550537e-38
0.0298533040729 -0.0282820775427 0.849 2.18253020546e-38
0.031424530603 -0.0282820775427 0.849 2.2747628296e-38
0.0329957571332 -0.0282820775427 0.849 1.47245303723e-38
0.0345669836633 -0.0282820775427 0.849 2.18264006726e-38
0.0361382101935 -0.0282820775427 0.849 2.34855464621e-38
0.0377094367236 -0.0282820775427 0.849 2.34801640747e-38
0.0392806632538 -0.0282820775427 0.849 1.56414504042e-38
0.0408518897839 -0.0282820775427 0.849 2.34902282003e-38
0.0424231163141 -0.0282820775427 0.849 2.24656744333e-38
0.0440979808721 -0.0283487019892 0.851 5.51012976948e-39
0.0456729087604 -0.0283487019892 0.851 2.34813761979e-38
0.047414397765 -0.028448638659 0.854 2.34822954497e-38
0.0489948776905 -0.028448638659 0.854 1.71244501742e-38
0.0508122445369 -0.028581887552 0.858 1.03896514079e-38
0.0526444168159 -0.028715136445 0.862 1.52536606724e-38
0.065291957578 -0.0293813809101 0.882 2.34791621463e-38
0.0667725008337 -0.0293147564636 0.88 2.34805732539e-38
0.068401098415 -0.0293147564636 0.88 2.34766594273e-38
0.0700296959964 -0.0293147564636 0.88 2.35098267606e-38
0.00164525369294 -0.0279693127799 0.889 2.33106461969e-38
0.0032831046696 -0.0279063896916 0.887 2.20004545535e-38
0.00492465700439 -0.0279063896916 0.887 2.02523753569e-38
0.00651439032524 -0.0276861588823 0.88 1.71101835545e-38
0.00812448111586 -0.0276232357939 0.878 1.91456802766e-38
0.00974937733903 -0.0276232357939 0.878 1.78649985775e-38
0.0113354093017 -0.0275288511614 0.875 1.81325442894e-38
0.0128955317575 -0.0274030049846 0.871 1.72938335274e-38
0.0143242559993 -0.0270569279986 0.86 1.51765332049e-38
0.015804799255 -0.0268681587335 0.854 1.66466270161e-38
0.0173852791805 -0.0268681587335 0.854 1.2223806764e-38
0.018965759106 -0.0268681587335 0.854 1.71133659034e-38
0.0204740625478 -0.0267737741009 0.851 1.84958869683e-38
0.0220489904361 -0.0267737741009 0.851 1.85816212109e-38
0.0236239183244 -0.0267737741009 0.851 1.89479052152e-38
0.0251988462126 -0.0267737741009 0.851 1.84894508044e-38
0.0267737741009 -0.0267737741009 0.851 4.68361030406e-39
0.0283487019892 -0.0267737741009 0.851 2.31968705707e-38
0.0299236298775 -0.0267737741009 0.851 2.34830829794e-38
0.0314985577658 -0.0267737741009 0.851 2.03465846527e-38
0.0330734856541 -0.0267737741009 0.851 6.06114274643e-39
0.0346484135424 -0.0267737741009 0.851 1.95180529227e-38
0.0362233414307 -0.0267737741009 0.851 2.3209290279e-38
0.037798269319 -0.0267737741009 0.851 1.83222576807e-38
0.0393731972073 -0.0267737741009 0.851 1.98824381675e-38
0.0409481250955 -0.0267737741009 0.851 2.34880996279e-38
0.0425230529838 -0.0267737741009 0.851 8.3634873337e-39
0.0440979808721 -0.0267737741009 0.851 6.79582671569e-39
0.0458339178395 -0.0268681587335 0.854 2.34842908987e-38
0.047414397765 -0.0268681587335 0.854 1.98877659043e-38
0.0492243618951 -0.0269940049102 0.858 9.00848820125e-39
0.0510491314578 -0.027119851087 0.862 1.59133751738e-38
0.0526444168159 -0.027119851087 0.862 2.27300868418e-38
0.054931856146 -0.027465928073 0.873 2.29192242994e-38
0.0566770465087 -0.0275288511614 0.875 1.64554338536e-38
0.0586295129272 -0.0276861588823 0.88 2.34688023468e-38
0.0602581105085 -0.0276861588823 0.88 1.93196795069e-38
0.0620273596991 -0.0277490819706 0.882 2.34647960345e-38
0.065291957578 -0.0277490819706 0.882 2.19031525921e-38
0.0667725008337 -0.0276861588823 0.88 2.34788426503e-38
0.068401098415 -0.0276861588823 0.88 2.34806040824e-38
0.0700296959964 -0.0276861588823 0.88 2.35098351684e-38
0.00164525369294 -0.026324059087 0.889 2.34957675331e-38
0.0032831046696 -0.0262648373568 0.887 2.25547255494e-38
0.00492465700439 -0.0262648373568 0.887 2.05300188256e-38
0.00651439032524 -0.026057561301 0.88 1.81293521315e-38
0.00814298790655 -0.026057561301 0.88 1.4254251805e-38
0.00974937733903 -0.0259983395707 0.878 1.50894060716e-38
0.0113354093017 -0.0259095069754 0.875 2.01654780366e-38
0.0128955317575 -0.0257910635149 0.871 1.60945896899e-38
0.0143908804458 -0.0255837874591 0.864 1.26815493152e-38
0.0159528535806 -0.0255245657289 0.862 1.56256661783e-38
0.0175074239991 -0.0254653439987 0.86 1.77443551876e-38
0.019099007999 -0.0254653439987 0.86 1.60923994604e-38
0.0205943566873 -0.0253469005382 0.856 1.98741971313e-38
0.0221785379709 -0.0253469005382 0.856 1.84916284222e-38
0.0237627192546 -0.0253469005382 0.856 1.94120867328e-38
0.0253469005382 -0.0253469005382 0.856 1.73834703863e-38
0.0269310818219 -0.0253469005382 0.856 6.06114274643e-39
0.0285152631055 -0.0253469005382 0.856 2.31107930099e-38
0.0300291185845 -0.025287678808 0.854 2.29312796701e-38
0.03160959851 -0.025287678808 0.854 1.87814351615e-38
0.0332678069564 -0.0253469005382 0.856 6.79582671569e-39
0.03485198824 -0.0253469005382 0.856 2.34895793991e-38
0.0364361695237 -0.0253469005382 0.856 2.34830283288e-38
0.0380203508073 -0.0253469005382 0.856 6.70399121953e-39
0.039604532091 -0.0253469005382 0.856 2.34756154599e-38
0.0411887133746 -0.0253469005382 0.856 2.34859220101e-38
0.042872831328 -0.0254061222684 0.858 5.87747175411e-39
0.0443570759419 -0.0253469005382 0.856 1.00183255318e-38
0.0459412572255 -0.0253469005382 0.856 1.46223659051e-38
0.0475254385092 -0.0253469005382 0.856 1.21348467323e-38
0.0493391039974 -0.0254653439987 0.86 1.73884926399e-38
0.0514636835694 -0.0257318417847 0.869 1.9407148557e-38
0.0531940684996 -0.0257910635149 0.871 2.34896550692e-38
0.054931856146 -0.0258502852452 0.873 1.45380035337e-38
0.0566770465087 -0.0259095069754 0.875 2.34643980657e-38
0.0586295129272 -0.026057561301 0.88 2.34752160898e-38
0.0602581105085 -0.026057561301 0.88 2.34715460892e-38
0.0620273596991 -0.0261167830312 0.882 2.18985381162e-38
0.0638761880897 -0.0262056156265 0.885 2.1435762101e-38
0.0655140390664 -0.0262056156265 0.885 2.34687182689e-38
0.0669242565174 -0.0261167830312 0.882 2.34756098547e-38
0.0685565554569 -0.0261167830312 0.882 2.34798810124e-38
0.0701888543963 -0.0261167830312 0.882 2.35097987346e-38
0.00164525369294 -0.0246788053941 0.889 2.34975752081e-38
0.0032831046696 -0.024623285022 0.887 2.14508961244e-38
0.00492465700439 -0.024623285022 0.887 2.13597570736e-38
0.00651439032524 -0.0244289637197 0.88 1.85002856441e-38
0.00814298790655 -0.0244289637197 0.88 1.51772969126e-38
0.00977158548786 -0.0244289637197 0.88 1.34205380733e-38
0.0113742735622 -0.0243734433476 0.878 2.19118602607e-38
0.0129547534877 -0.0242901627894 0.875 1.95169711203e-38
0.0144741610039 -0.0241236016732 0.869 1.71134051397e-38
0.0160824011154 -0.0241236016732 0.869 2.19043184724e-38
0.0175888538782 -0.0239848007429 0.864 1.68378355928e-38
0.0191434242967 -0.0239292803708 0.862 1.74666808904e-38
0.0206905919989 -0.0238737599988 0.86 1.85791423139e-38
0.0222303569849 -0.0238182396267 0.858 2.01496503704e-38
0.0238182396267 -0.0238182396267 0.858 1.96890449665e-38
0.0254061222684 -0.0238182396267 0.858 1.68338769246e-38
0.0269940049102 -0.0238182396267 0.858 6.15297824259e-39
0.0285152631055 -0.0237627192546 0.856 2.34827943119e-38
0.0300994443891 -0.0237627192546 0.856 2.21919391861e-38
0.0316836256728 -0.0237627192546 0.856 1.75807577957e-38
0.0333455354773 -0.0238182396267 0.858 2.05334912432e-38
0.03485198824 -0.0237627192546 0.856 2.32107546359e-38
0.0364361695237 -0.0237627192546 0.856 9.00956439847e-39
0.0380203508073 -0.0237627192546 0.856 5.6938007618e-39
0.039604532091 -0.0237627192546 0.856 2.34867782035e-38
0.0413811839978 -0.0238737599988 0.86 2.34777047959e-38
0.0429727679978 -0.0238737599988 0.86 7.07133320417e-39
0.0447716280535 -0.0239848007429 0.864 1.41667799523e-38
0.0465316238487 -0.0240680813011 0.867 1.4997573378e-38
0.0482472033463 -0.0241236016732 0.869 1.82186344619e-38
0.0499701855602 -0.0241791220453 0.871 2.27329034517e-38
0.0517005704903 -0.0242346424173 0.873 2.18999884601e-38
0.0533162133182 -0.0242346424173 0.873 2.34882187383e-38
0.0550577023227 -0.0242901627894 0.875 2.34831586495e-38
0.0570009153459 -0.0244289637197 0.88 2.29245870687e-38
0.0586295129272 -0.0244289637197 0.88 2.34755524015e-38
0.0603950607596 -0.0244844840917 0.882 1.98749005831e-38
0.062238337113 -0.0245677646499 0.885 2.08850518045e-38
0.0638761880897 -0.0245677646499 0.885 2.20822007007e-38
0.0656620933919 -0.024623285022 0.887 2.34752441158e-38
0.0673036457267 -0.024623285022 0.887 2.34716315684e-38
0.0689451980615 -0.024623285022 0.887 2.34813509745e-38
0.0705867503963 -0.024623285022 0.887 2.35098253593e-38
0.00164525369294 -0.0230335517011 0.889 2.35004534752e-38
0.0032831046696 -0.0229817326872 0.887 2.26497742229e-38
0.00492465700439 -0.0229817326872 0.887 2.11767951383e-38
0.0065291957578 -0.0228521851523 0.882 1.80393074948e-38
0.00816149469725 -0.0228521851523 0.882 1.68374838669e-38
0.00977158548786 -0.0228003661383 0.88 1.52673429506e-38
0.0113742735622 -0.0227485471244 0.878 1.36006413597e-38
0.0129547534877 -0.0226708186035 0.875 1.6182837862e-38
0.0145074732272 -0.0225671805756 0.871 2.31933028648e-38
0.0161194146968 -0.0225671805756 0.871 1.84981598744e-38
0.0176499262875 -0.0224635425477 0.867 2.19154714069e-38
0.0191878405943 -0.0223858140267 0.864 1.50703484125e-38
0.0207387096547 -0.0223339950128 0.862 1.81171103882e-38
0.0223339950128 -0.0223339950128 0.862 2.09790410964e-38
0.0239292803708 -0.0223339950128 0.862 1.95071508206e-38
0.0254653439987 -0.0222821759988 0.86 1.58212075699e-38
0.0270569279986 -0.0222821759988 0.86 5.87747175411e-39
0.028581887552 -0.0222303569849 0.858 2.34838915286e-38
0.0301697701938 -0.0222303569849 0.858 2.25596048707e-38
0.0317576528356 -0.0222303569849 0.858 2.18238447042e-38
0.0333455354773 -0.0222303569849 0.858 1.56489837848e-38
0.0349334181191 -0.0222303569849 0.858 9.92397330357e-39
0.0365213007609 -0.0222303569849 0.858 1.46226643817e-38
0.0381091834027 -0.0222303569849 0.858 5.6938007618e-39
0.0396970660444 -0.0222303569849 0.858 2.29321400674e-38
0.0414774193095 -0.0223339950128 0.862 1.46337710733e-38
0.0430727046675 -0.0223339950128 0.862 1.16706413926e-38
0.0450307231232 -0.0225153615616 0.869 1.84905774484e-38
0.0466389632348 -0.0225153615616 0.869 1.95950444642e-38
0.0482472033463 -0.0225153615616 0.869 2.13449915916e-38
0.0499701855602 -0.0225671805756 0.871 2.08850700214e-38
0.0517005704903 -0.0226189995895 0.873 1.98709377111e-38
0.0533162133182 -0.0226189995895 0.873 2.30998558754e-38
0.0552464715878 -0.0227485471244 0.878 2.3477381096e-38
0.0570009153459 -0.0228003661383 0.88 2.34856501582e-38
0.0586295129272 -0.0228003661383 0.88 2.2462804574e-38
0.0606004861364 -0.0229299136732 0.885 2.15354742958e-38
0.062238337113 -0.0229299136732 0.885 2.04291267374e-38
0.0638761880897 -0.0229299136732 0.885 2.34712209879e-38
0.0656620933919 -0.0229817326872 0.887 2.34852774128e-38
0.0673036457267 -0.0229817326872 0.887 2.16262658246e-38
0.0689451980615 -0.0229817326872 0.887 2.34867936178e-38
0.0705867503963 -0.0229817326872 0.887 2.35098421749e-38
0.00164525369294 -0.0213882980082 0.889 2.34997233987e-38
0.00329050738588 -0.0213882980082 0.889 2.09899011595e-38
0.00492465700439 -0.0213401803524 0.887 2.20058481513e-38
0.00656620933919 -0.0213401803524 0.887 1.99764554854e-38
0.00818925488329 -0.0212920626966 0.885 1.56389743098e-38
0.0097937936367 -0.0212198862128 0.882 1.59108822639e-38
0.0114001830692 -0.021171768557 0.88 1.50761175583e-38
0.0129991697854 -0.0211236509012 0.878 1.41523605911e-38
0.0145740976737 -0.0210514744175 0.875 1.46054312132e-38
0.0161564282782 -0.0210033567617 0.873 2.29256408451e-38
0.0177313561665 -0.0209552391059 0.871 2.11800923936e-38
0.0192988813385 -0.0209071214501 0.869 1.34998179352e-38
0.0209071214501 -0.0209071214501 0.869 1.90340402292e-38
0.0224635425477 -0.0208590037943 0.867 1.83961565566e-38
0.0240680813011 -0.0208590037943 0.867 2.03383926619e-38
0.0255837874591 -0.0207868273105 0.864 1.55492828003e-38
0.027119851087 -0.0207387096547 0.862 5.78563625795e-39
0.028715136445 -0.0207387096547 0.862 2.34831908794e-38
0.0303104218031 -0.0207387096547 0.862 2.34798249605e-38
0.0319057071611 -0.0207387096547 0.862 1.02992074012e-38
0.0334232639983 -0.0206905919989 0.86 6.3366492349e-39
0.0350148479982 -0.0206905919989 0.86 1.48142583155e-38
0.0366064319981 -0.0206905919989 0.86 1.80277411773e-38
0.038198015998 -0.0206905919989 0.86 1.17596070295e-38
0.0397895999979 -0.0206905919989 0.86 1.01019115839e-38
0.0415736546211 -0.0207868273105 0.864 1.67324355275e-38
0.0433225463419 -0.0208590037943 0.867 1.84912206444e-38
0.0450307231232 -0.0209071214501 0.869 1.98673181571e-38
0.0467463026208 -0.0209552391059 0.871 2.0142835856e-38
0.0483582440905 -0.0209552391059 0.871 2.26317451169e-38
0.0500849276625 -0.0210033567617 0.873 2.09790635172e-38
0.0517005704903 -0.0210033567617 0.873 2.33797218034e-38
0.0533162133182 -0.0210033567617 0.873 2.3478010279e-38
0.0552464715878 -0.0211236509012 0.878 2.03358773311e-38
0.0570009153459 -0.021171768557 0.88 1.89507596602e-38
0.0586295129272 -0.021171768557 0.88 2.06963487494e-38
0.0606004861364 -0.0212920626966 0.885 2.21743865215e-38
0.0623789887223 -0.0213401803524 0.887 2.31942095049e-38
0.0640205410571 -0.0213401803524 0.887 2.34805578396e-38
0.0658101477175 -0.0213882980082 0.889 2.34816592602e-38
0.0674554014104 -0.0213882980082 0.889 2.03344325924e-38
0.0691006551034 -0.0213882980082 0.889 2.34932634128e-38
0.0707459087963 -0.0213882980082 0.889 2.35098547866e-38
0.00329050738588 -0.0197430443153 0.889 2.19125777255e-38
0.00492465700439 -0.0196986280176 0.887 2.11742896166e-38
0.00656620933919 -0.0196986280176 0.887 2.05303453281e-38
0.00820776167399 -0.0196986280176 0.887 1.72056035722e-38
0.00982710585995 -0.0196542117199 0.885 1.61892768285e-38
0.0114001830692 -0.0195431709757 0.88 1.36957054476e-38
0.0130287806505 -0.0195431709757 0.88 1.59008377565e-38
0.0146240660085 -0.0194987546781 0.878 1.36924572377e-38
0.0162489622317 -0.0194987546781 0.878 1.49763605219e-38
0.0177720711061 -0.0193877139339 0.873 2.13579395895e-38
0.0193432976362 -0.0193432976362 0.871 1.33254992089e-38
0.0209552391059 -0.0193432976362 0.871 1.70979320021e-38
0.0225153615616 -0.0192988813385 0.869 1.84844257481e-38
0.0241236016732 -0.0192988813385 0.869 1.93224036311e-38
0.0256726200545 -0.0192544650409 0.867 1.60105860509e-38
0.0271827741753 -0.0191878405943 0.864 6.42848473106e-39
0.0287817608915 -0.0191878405943 0.864 2.3484226439e-38
0.0303807476077 -0.0191878405943 0.864 2.34797717111e-38
0.0319797343239 -0.0191878405943 0.864 7.16675602439e-39
0.0335009925192 -0.0191434242967 0.862 9.37475819255e-39
0.0350962778772 -0.0191434242967 0.862 1.65659178297e-38
0.0366915632353 -0.0191434242967 0.862 1.82085395078e-38
0.0383756811887 -0.0191878405943 0.864 1.73798676479e-38
0.0402060027886 -0.0192988813385 0.869 1.71061576241e-38
0.0418142429001 -0.0192988813385 0.869 1.88546347894e-38
0.0436223563512 -0.0193877139339 0.873 2.06041867507e-38
0.045237999179 -0.0193877139339 0.873 2.03290067648e-38
0.0468536420069 -0.0193877139339 0.873 2.16200846971e-38
0.0485803255789 -0.0194321302315 0.875 2.18056390345e-38
0.0503717829183 -0.0194987546781 0.878 2.34737531342e-38
0.0518190139508 -0.0194321302315 0.875 2.18135423579e-38
0.0534383581368 -0.0194321302315 0.875 1.94146469051e-38
0.0553723177646 -0.0195431709757 0.88 2.11637826807e-38
0.0570009153459 -0.0195431709757 0.88 2.02414760575e-38
0.0587627618202 -0.0195875872734 0.882 2.01442651804e-38
0.0607374363875 -0.0196986280176 0.887 2.25402949778e-38
0.0623789887223 -0.0196986280176 0.887 2.28230335677e-38
0.0640205410571 -0.0196986280176 0.887 2.34841759922e-38
0.0658101477175 -0.0197430443153 0.889 2.08929761473e-38
0.0676071570942 -0.0197874606129 0.891 2.30070366677e-38
0.0692561121452 -0.0197874606129 0.891 2.34878614072e-38
0.00492465700439 -0.0180570756828 0.887 1.88693792519e-38
0.00656620933919 -0.0180570756828 0.887 1.8960130143e-38
0.00820776167399 -0.0180570756828 0.887 1.701940744e-38
0.00982710585995 -0.0180163607432 0.885 1.60041639e-38
0.0114260925761 -0.0179552883339 0.882 1.52630241487e-38
0.0130583915156 -0.0179552883339 0.882 1.41509172537e-38
0.0146573782318 -0.0179145733944 0.88 1.47977328027e-38
0.0162859758131 -0.0179145733944 0.88 1.58111308327e-38
0.0178738584549 -0.0178738584549 0.878 1.35955994879e-38
0.0193877139339 -0.0177720711061 0.873 1.56235151852e-38
0.0210033567617 -0.0177720711061 0.873 1.6453261841e-38
0.0225671805756 -0.0177313561665 0.871 1.84826264809e-38
0.0241791220453 -0.0177313561665 0.871 1.94103098863e-38
0.0257318417847 -0.017690641227 0.869 1.56403812135e-38
0.0273400818963 -0.017690641227 0.869 6.42848473106e-39
0.0289483220078 -0.017690641227 0.869 2.34881430682e-38
0.0305565621193 -0.017690641227 0.869 1.9424642367e-38
0.0321648022309 -0.017690641227 0.869 7.16783222161e-39
0.0337730423424 -0.017690641227 0.869 1.10346676898e-38
0.035381282454 -0.017690641227 0.869 1.84048081733e-38
0.0369895225655 -0.017690641227 0.869 1.72858797573e-38
0.0385977626771 -0.017690641227 0.869 1.88506873316e-38
0.0402985367421 -0.0177313561665 0.871 1.84822635446e-38
0.0420067135234 -0.0177720711061 0.873 1.84837096846e-38
0.043722293021 -0.0178127860456 0.875 1.93155933205e-38
0.0453416372069 -0.0178127860456 0.875 2.24545060845e-38
0.0469609813929 -0.0178127860456 0.875 2.34805592409e-38
0.0487468866951 -0.0178738584549 0.878 2.34805522344e-38
0.0504865250206 -0.0179145733944 0.88 2.04302029347e-38
0.0521151226019 -0.0179145733944 0.88 2.01507616001e-38
0.0537437201832 -0.0179145733944 0.88 1.89472143751e-38
0.0556869332064 -0.0180163607432 0.885 1.95907354714e-38
0.0573247841831 -0.0180163607432 0.885 2.02393474851e-38
0.0590958840527 -0.0180570756828 0.887 2.25417523282e-38
0.0610113368898 -0.0181385055618 0.891 2.2730777682e-38
0.0628712693549 -0.0181995779711 0.894 2.34776445401e-38
0.0645257764432 -0.0181995779711 0.894 2.34791495346e-38
0.0664763921826 -0.0182810078502 0.898 2.06114272599e-38
0.0681383019871 -0.0182810078502 0.898 2.16241568704e-38
0.00658101477175 -0.0164525369294 0.889 1.89612665961e-38
0.00822626846469 -0.0164525369294 0.889 1.74814197476e-38
0.00984931400879 -0.016415523348 0.887 1.50782671501e-38
0.0114908663436 -0.016415523348 0.887 1.59984437997e-38
0.0131028078133 -0.0163785097666 0.885 1.55363684337e-38
0.0147406587899 -0.0163785097666 0.885 1.59055068829e-38
0.0163229893945 -0.0163229893945 0.882 1.50760993414e-38
0.0179552883339 -0.0163229893945 0.882 1.48945695331e-38
0.0194987546781 -0.0162489622317 0.878 1.56267423755e-38
0.0211236509012 -0.0162489622317 0.878 1.58986615399e-38
0.0227485471244 -0.0162489622317 0.878 1.70049922827e-38
0.0243734433476 -0.0162489622317 0.878 1.75585289982e-38
0.0257910635149 -0.0161194146968 0.871 1.79376965406e-38
0.0273400818963 -0.0160824011154 0.869 9.09171832354e-39
0.0289483220078 -0.0160824011154 0.869 1.36096461037e-38
0.030626887924 -0.0161194146968 0.871 1.06557874136e-38
0.0322388293937 -0.0161194146968 0.871 1.37950673178e-38
0.0338507708634 -0.0161194146968 0.871 1.55417844522e-38
0.035462712333 -0.0161194146968 0.871 1.82110814632e-38
0.0372449162771 -0.0161934418596 0.875 1.99609809465e-38
0.0388642604631 -0.0161934418596 0.875 1.89482457307e-38
0.0404836046491 -0.0161934418596 0.875 1.83890211448e-38
0.042102948835 -0.0161934418596 0.875 2.10659061869e-38
0.0438721980256 -0.0162489622317 0.878 2.34759741923e-38
0.0454970942488 -0.0162489622317 0.878 2.34892669095e-38
0.047121990472 -0.0162489622317 0.878 2.33865937711e-38
0.0488579274393 -0.0162859758131 0.88 1.90494082695e-38
0.0504865250206 -0.0162859758131 0.88 2.07946722574e-38
0.0522335660624 -0.0163229893945 0.882 1.92273437472e-38
0.0540490822297 -0.0163785097666 0.885 2.06963851831e-38
0.0558127793831 -0.016415523348 0.887 1.93131074171e-38
0.0575838792528 -0.0164525369294 0.889 2.05159511903e-38
0.0593623818388 -0.0164895505108 0.891 2.26364534797e-38
0.0613537125177 -0.0165820844643 0.896 2.25474205805e-38
0.0631525725735 -0.0166190980456 0.898 2.34813145408e-38
0.0651753647966 -0.0167116319991 0.903 2.08904369945e-38
0.0668465279965 -0.0167116319991 0.903 2.23591028825e-38
0.0685176911964 -0.0167116319991 0.903 2.2272773088e-38
0.00668465279965 -0.0150404687992 0.903 1.83137644107e-38
0.00822626846469 -0.0148072832364 0.889 1.84966114396e-38
0.00987152215763 -0.0148072832364 0.889 1.67381738447e-38
0.0114908663436 -0.0147739710132 0.887 1.59055265011e-38
0.0131324186784 -0.0147739710132 0.887 1.49838939024e-38
0.0147406587899 -0.0147406587899 0.885 1.47991467129e-38
0.0163785097666 -0.0147406587899 0.885 1.55370774907e-38
0.0180163607432 -0.0147406587899 0.885 1.47076699491e-38
0.0195875872734 -0.014690690455 0.882 1.54398427916e-38
0.021171768557 -0.0146573782318 0.88 1.62699537849e-38
0.0227485471244 -0.0146240660085 0.878 1.62703083135e-38
0.0243734433476 -0.0146240660085 0.878 1.8481204163e-38
0.0259095069754 -0.0145740976737 0.875 1.79341260321e-38
0.0274030049846 -0.0145074732272 0.871 1.74792589454e-38
0.0290149464543 -0.0145074732272 0.871 1.6561994194e-38
0.0309433540449 -0.0146573782318 0.88 1.72959438829e-38
0.0325719516262 -0.0146573782318 0.88 1.7661485199e-38
0.0341228206866 -0.0146240660085 0.878 1.85780464985e-38
0.0357477169098 -0.0146240660085 0.878 1.72848035601e-38
0.0373726131329 -0.0146240660085 0.878 1.83882644436e-38
0.0389975093561 -0.0146240660085 0.878 1.97762337569e-38
0.0406224055793 -0.0146240660085 0.878 1.95010523697e-38
0.0422473018025 -0.0146240660085 0.878 2.16273588374e-38
0.0439721346954 -0.0146573782318 0.88 2.34762712676e-38
0.0456007322767 -0.0146573782318 0.88 2.09866333315e-38
0.047229329858 -0.0146573782318 0.88 1.83947216269e-38
0.0488579274393 -0.0146573782318 0.88 1.9684723362e-38
0.0506012671229 -0.014690690455 0.882 1.94077819439e-38
0.0524112312531 -0.0147406587899 0.885 2.01467791099e-38
0.0541712270483 -0.0147739710132 0.887 1.98673181571e-38
0.0560644717366 -0.0148405954597 0.891 2.03283243324e-38
0.05790774809 -0.0148905637946 0.894 2.08832945762e-38
0.0596955040713 -0.0149238760178 0.896 2.17187557271e-38
0.0614906627689 -0.0149571882411 0.898 2.34772689921e-38
0.0633635499874 -0.015007156576 0.901 2.34809235785e-38
0.0651753647966 -0.0150404687992 0.903 1.87674740249e-38
0.0668465279965 -0.0150404687992 0.903 2.02412000017e-38
0.00668465279965 -0.0133693055993 0.903 1.85002632234e-38
0.00835581599956 -0.0133693055993 0.903 1.75754384668e-38
0.00989373030646 -0.0131916404086 0.891 1.6279677395e-38
0.0115167758506 -0.0131620295435 0.889 1.617959806e-38
0.0131324186784 -0.0131324186784 0.887 1.56249795421e-38
0.0147739710132 -0.0131324186784 0.887 1.58082609734e-38
0.016415523348 -0.0131324186784 0.887 1.48910424649e-38
0.0180163607432 -0.0131028078133 0.885 1.53512386897e-38
0.0196542117199 -0.0131028078133 0.885 1.56271011079e-38
0.0212920626966 -0.0131028078133 0.885 1.58104147692e-38
0.0228521851523 -0.0130583915156 0.882 1.57167842097e-38
0.0244289637197 -0.0130287806505 0.88 1.70982879319e-38
0.026057561301 -0.0130287806505 0.88 1.62735369051e-38
0.0276861588823 -0.0130287806505 0.88 1.81210116031e-38
0.0294813175799 -0.0131028078133 0.885 1.89511268004e-38
0.0310136798495 -0.0130583915156 0.882 1.84880410982e-38
0.032645978789 -0.0130583915156 0.882 1.93166835308e-38
0.0342782777284 -0.0130583915156 0.882 1.84851320025e-38
0.0359105766679 -0.0130583915156 0.882 1.81149103496e-38
0.0375428756073 -0.0130583915156 0.882 1.83900581056e-38
0.0391751745468 -0.0130583915156 0.882 2.04245150642e-38
0.0407149395328 -0.0130287806505 0.88 2.34783816231e-38
0.0423435371141 -0.0130287806505 0.88 2.15382937083e-38
0.0439721346954 -0.0130287806505 0.88 1.9873083099e-38
0.0456007322767 -0.0130287806505 0.88 1.85783926192e-38
0.047229329858 -0.0130287806505 0.88 1.91301482844e-38
0.0489689681835 -0.0130583915156 0.882 1.92215998248e-38
0.0507733802764 -0.0131028078133 0.885 1.94978363897e-38
0.0525296747135 -0.0131324186784 0.887 1.98694733542e-38
0.0542933718669 -0.0131620295435 0.889 2.08822113725e-38
0.0562532410017 -0.0132360567063 0.894 1.99598837298e-38
0.05790774809 -0.0132360567063 0.894 2.346441348e-38
0.0598287529643 -0.0132952784365 0.898 2.28265059853e-38
0.0614906627689 -0.0132952784365 0.898 2.34797689086e-38
0.0633635499874 -0.0133396947342 0.901 2.19982166799e-38
0.0650310118292 -0.0133396947342 0.901 1.87602867651e-38
0.0666984736709 -0.0133396947342 0.901 1.94154050076e-38
0.00670686094849 -0.0117370066599 0.906 1.83158719636e-38
0.00835581599956 -0.0116981423994 0.903 1.80368047758e-38
0.0100269791995 -0.0116981423994 0.903 1.55438920051e-38
0.0115426853575 -0.0115426853575 0.891 1.67345472843e-38
0.0131620295435 -0.0115167758506 0.889 1.58086603435e-38
0.0148072832364 -0.0115167758506 0.889 1.5533487364e-38
0.0164525369294 -0.0115167758506 0.889 1.47984362546e-38
0.0180570756828 -0.0114908663436 0.887 1.51664886975e-38
0.0196986280176 -0.0114908663436 0.887 1.53487247602e-38
0.0213401803524 -0.0114908663436 0.887 1.51650537679e-38
0.0229817326872 -0.0114908663436 0.887 1.61766791553e-38
0.0245677646499 -0.0114649568366 0.885 1.57164464967e-38
0.0262056156265 -0.0114649568366 0.885 1.64518633451e-38
0.0279063896916 -0.0114908663436 0.887 1.67313074823e-38
0.0294813175799 -0.0114649568366 0.885 1.81164069363e-38
0.0311191685565 -0.0114649568366 0.885 1.97805399471e-38
0.0327570195332 -0.0114649568366 0.885 1.91340691175e-38
0.0343948705098 -0.0114649568366 0.885 1.90436755574e-38
0.0360327214865 -0.0114649568366 0.885 2.09822584777e-38
0.0376705724632 -0.0114649568366 0.885 2.19989383486e-38
0.0393972560352 -0.0114908663436 0.887 2.06131298375e-38
0.0409462744165 -0.0114649568366 0.885 1.94092168735e-38
0.0425841253931 -0.0114649568366 0.885 2.0141389716e-38
0.0442219763698 -0.0114649568366 0.885 1.97765742725e-38
0.0457043703046 -0.0114260925761 0.882 1.96851227321e-38
0.047336669244 -0.0114260925761 0.882 1.88532040637e-38
0.0492465700439 -0.0114908663436 0.887 1.94981825105e-38
0.0508881223787 -0.0114908663436 0.887 1.95893005418e-38
0.052648118174 -0.0115167758506 0.889 2.02335839445e-38
0.0545987339134 -0.011581549618 0.894 2.18952913077e-38
0.0562532410017 -0.011581549618 0.894 2.09815410128e-38
0.0581668431598 -0.011633368632 0.898 2.27314811338e-38
0.0600286263038 -0.0116722328924 0.901 2.30105917619e-38
0.0616960881456 -0.0116722328924 0.901 2.34819395199e-38
0.0637151790106 -0.0117370066599 0.906 1.72023245338e-38
0.0653918942478 -0.0117370066599 0.906 2.03330495108e-38
0.00670686094849 -0.0100602914227 0.906 1.84977492939e-38
0.00838357618561 -0.0100602914227 0.906 1.56375702088e-38
0.0100602914227 -0.0100602914227 0.906 1.77548074728e-38
0.011633368632 -0.00997145882739 0.898 1.64601296047e-38
0.0132656675714 -0.00994925067855 0.896 1.57193205599e-38
0.0148405954597 -0.00989373030646 0.891 1.67323934886e-38
0.0164895505108 -0.00989373030646 0.891 1.46161931854e-38
0.0180977906223 -0.00987152215763 0.889 1.50757336025e-38
0.0197430443153 -0.00987152215763 0.889 1.52594116013e-38
0.0213882980082 -0.00987152215763 0.889 1.57175437134e-38
0.0230335517011 -0.00987152215763 0.889 1.56246039941e-38
0.0246788053941 -0.00987152215763 0.889 1.56242480643e-38
0.026324059087 -0.00987152215763 0.889 1.66366105346e-38
0.0279693127799 -0.00987152215763 0.889 1.8023119695e-38
0.0295479420264 -0.00984931400879 0.887 1.74710179091e-38
0.0311894943612 -0.00984931400879 0.887 1.89497198967e-38
0.032831046696 -0.00984931400879 0.887 1.92252277865e-38
0.0344725990308 -0.00984931400879 0.887 2.0702136112e-38
0.0361141513656 -0.00984931400879 0.887 2.34748041081e-38
0.0377557037004 -0.00984931400879 0.887 2.1722323433e-38
0.0393972560352 -0.00984931400879 0.887 2.04266100054e-38
0.04103880837 -0.00984931400879 0.887 1.97776406606e-38
0.0426803607048 -0.00984931400879 0.887 2.03290067648e-38
0.0443219130396 -0.00984931400879 0.887 2.02378985425e-38
0.0459634653743 -0.00984931400879 0.887 2.01474993773e-38
0.0476050177091 -0.00984931400879 0.887 1.92233976907e-38
0.0493576107881 -0.00987152215763 0.889 2.00499129522e-38
0.0512897197369 -0.00992704252972 0.894 2.1617610004e-38
0.0529442268251 -0.00992704252972 0.894 2.14360703866e-38
0.0545987339134 -0.00992704252972 0.894 2.20807391464e-38
0.0565049333552 -0.00997145882739 0.898 2.22687205328e-38
0.0583611644621 -0.0100047710506 0.901 2.34715516944e-38
0.0601618751969 -0.0100269791995 0.903 2.34772858077e-38
0.0620384637735 -0.0100602914227 0.906 1.97873292382e-38
0.0637151790106 -0.0100602914227 0.906 1.86709483828e-38
0.00672166638105 -0.00840208297631 0.908 1.69318655224e-38
0.00840208297631 -0.00840208297631 0.908 1.69315334146e-38
0.0100824995716 -0.00840208297631 0.908 1.56350506741e-38
0.0117629161668 -0.00840208297631 0.908 1.71976708216e-38
0.013413721897 -0.00838357618561 0.906 1.52622702502e-38
0.0149571882411 -0.00830954902282 0.898 1.56238977397e-38
0.0165450708829 -0.00827253544143 0.894 1.52594144039e-38
0.0181385055618 -0.00824477525538 0.891 1.56278185728e-38
0.0197874606129 -0.00824477525538 0.891 1.43335120488e-38
0.021436415664 -0.00824477525538 0.891 1.57171527512e-38
0.0230335517011 -0.00822626846469 0.889 1.62703237277e-38
0.0246788053941 -0.00822626846469 0.889 1.59026132016e-38
0.026324059087 -0.00822626846469 0.889 1.62703489511e-38
0.0279693127799 -0.00822626846469 0.889 1.66405313677e-38
0.0296145664729 -0.00822626846469 0.889 1.73766909043e-38
0.0312598201658 -0.00822626846469 0.889 1.84848181117e-38
0.0329050738588 -0.00822626846469 0.889 2.05166378265e-38
0.0345503275517 -0.00822626846469 0.889 2.33747023523e-38
0.0361955812446 -0.00822626846469 0.889 2.27361656746e-38
0.0378408349376 -0.00822626846469 0.889 2.11666469348e-38
0.0394860886305 -0.00822626846469 0.889 2.17198123062e-38
0.0411313423234 -0.00822626846469 0.889 2.00560114031e-38
0.0427765960164 -0.00822626846469 0.889 1.9131916723e-38
0.0444218497093 -0.00822626846469 0.889 1.97747651961e-38
0.0460671034023 -0.00822626846469 0.889 2.01435771429e-38
0.0477123570952 -0.00822626846469 0.889 1.98698965463e-38
0.0494686515323 -0.00824477525538 0.891 2.12499064843e-38
0.0518060591973 -0.00835581599956 0.903 2.0143183378e-38
0.0531811137461 -0.00830954902282 0.898 2.12495687714e-38
0.0548430235506 -0.00830954902282 0.898 2.34654770655e-38
0.056819548797 -0.00835581599956 0.903 2.33768477402e-38
0.0586850332993 -0.00838357618561 0.906 2.34726951539e-38
0.0603617485364 -0.00838357618561 0.906 2.29191514319e-38
0.0620384637735 -0.00838357618561 0.906 1.61860061978e-38
0.00846685674374 -0.006773485395 0.915 1.63798057755e-38
0.0101602280925 -0.006773485395 0.915 1.51758745946e-38
0.0117888256738 -0.0067364718136 0.91 1.64604855345e-38
0.0134433327621 -0.00672166638105 0.908 1.71032891661e-38
0.0150904371341 -0.00670686094849 0.906 1.52536704815e-38
0.0167116319991 -0.00668465279965 0.903 1.69135477488e-38
0.0182810078502 -0.00664763921826 0.898 1.51636188383e-38
0.0199429176548 -0.00664763921826 0.898 1.56249571213e-38
0.0215567098035 -0.0066328337857 0.896 1.49795891136e-38
0.023163099236 -0.00661802835314 0.894 1.58993790048e-38
0.0248176063243 -0.00661802835314 0.894 1.58071847762e-38
0.0264721134126 -0.00661802835314 0.894 1.58071847762e-38
0.0281266205009 -0.00661802835314 0.894 1.62706740524e-38
0.0296811909194 -0.00659582020431 0.891 1.83893770746e-38
0.0313301459705 -0.00659582020431 0.891 1.67323780743e-38
0.0329791010215 -0.00659582020431 0.891 2.34669021861e-38
0.0346280560726 -0.00659582020431 0.891 2.17158662497e-38
0.0362770111237 -0.00659582020431 0.891 2.14392905705e-38
0.0379259661748 -0.00659582020431 0.891 2.18998959744e-38
0.0395749212258 -0.00659582020431 0.891 2.11652120052e-38
0.0412238762769 -0.00659582020431 0.891 2.18102128727e-38
0.042872831328 -0.00659582020431 0.891 1.96843646296e-38
0.0445217863791 -0.00659582020431 0.891 1.99537726672e-38
0.0461707414302 -0.00659582020431 0.891 2.09708364939e-38
0.0480880449463 -0.0066328337857 0.896 1.93152612128e-38
0.0500238552532 -0.00666984736709 0.901 1.97737002093e-38
0.0518060591973 -0.00668465279965 0.903 2.16194134751e-38
0.0534772223972 -0.00668465279965 0.903 2.16251335754e-38
0.0551483855971 -0.00668465279965 0.903 2.2916964005e-38
0.0570083180621 -0.00670686094849 0.906 2.31942515438e-38
0.0586850332993 -0.00670686094849 0.906 2.32882492435e-38
0.0604949974294 -0.00672166638105 0.908 1.95082270178e-38
0.0623123642758 -0.0067364718136 0.91 1.83015212661e-38
0.0652623467129 -0.00686972070662 0.928 1.8585288409e-38
0.0669797768895 -0.00686972070662 0.928 1.84037936332e-38
0.00846685674374 -0.00508011404625 0.915 1.61042558467e-38
0.0101602280925 -0.00508011404625 0.915 1.49932812008e-38
0.0117888256738 -0.0050523538602 0.91 1.60027415821e-38
0.0134729436272 -0.0050523538602 0.91 1.64550653121e-38
0.0151237493574 -0.00504124978578 0.908 1.64554184393e-38
0.0167671523712 -0.00503014571137 0.906 1.70057181553e-38
0.018382795199 -0.00501348959974 0.903 1.58071847762e-38
0.0200095421013 -0.00500238552532 0.901 1.58975853427e-38
0.0216048274593 -0.00498572941369 0.898 1.55316782877e-38
0.02321491825 -0.00497462533928 0.896 1.51636230422e-38
0.0248731266964 -0.00497462533928 0.896 1.56245899811e-38
0.0265313351428 -0.00497462533928 0.896 1.56227963191e-38
0.0281895435892 -0.00497462533928 0.896 1.59915760359e-38
0.0297811275891 -0.00496352126486 0.894 1.68213268956e-38
0.0314356346774 -0.00496352126486 0.894 1.66412376222e-38
0.0330901417657 -0.00496352126486 0.894 2.18959751413e-38
0.034744648854 -0.00496352126486 0.894 2.18080983133e-38
0.0363991559423 -0.00496352126486 0.894 2.3099872691e-38
0.0380536630306 -0.00496352126486 0.894 2.13492417299e-38
0.0397081701189 -0.00496352126486 0.894 2.07017297355e-38
0.0414552111606 -0.00497462533928 0.896 2.01474881669e-38
0.0431134196071 -0.00497462533928 0.896 2.12516819295e-38
0.0447716280535 -0.00497462533928 0.896 2.32774676532e-38
0.0465334745278 -0.00498572941369 0.898 1.94060093014e-38
0.0483563934114 -0.00500238552532 0.901 2.0975813906e-38
0.0501348959974 -0.00501348959974 0.903 2.33750358613e-38
0.0519781723508 -0.00503014571137 0.906 2.18116576114e-38
0.0536548875879 -0.00503014571137 0.906 2.01522091414e-38
0.055331602825 -0.00503014571137 0.906 2.31942151101e-38
0.0570083180621 -0.00503014571137 0.906 2.2363382448e-38
0.0588145808341 -0.00504124978578 0.908 2.18149198343e-38
0.0606282463224 -0.0050523538602 0.91 1.62785591588e-38
0.0623123642758 -0.0050523538602 0.91 1.85820668238e-38
0.0650513692989 -0.00513563441834 0.925 1.75722154803e-38
0.0669797768895 -0.00515229052996 0.928 1.86778399687e-38
0.0688452613918 -0.00516339460438 0.93 2.19003934354e-38
0.0707940264521 -0.00518005071601 0.933 2.34759713897e-38
0.072676167066 -0.00519115479043 0.935 2.35080373025e-38
0.00703998318103 -0.00351999159051 0.951 1.73006858769e-38
0.00879997897629 -0.00351999159051 0.951 1.61964094376e-38
0.0101935403157 -0.00339784677192 0.918 1.46255706747e-38
0.0118535994412 -0.0033867426975 0.915 1.55446374959e-38
0.0135173599249 -0.00337933998122 0.913 1.65523042151e-38
0.0151570615806 -0.0033682359068 0.91 1.64583275349e-38
0.0168041659526 -0.00336083319052 0.908 1.66380090305e-38
0.0184845825479 -0.00336083319052 0.908 1.70986382565e-38
0.0201205828455 -0.00335343047424 0.906 1.59904970361e-38
0.0217251215989 -0.00334232639983 0.903 1.58082791903e-38
0.0233444657848 -0.00333492368355 0.901 1.47991467129e-38
0.0249286470685 -0.00332381960913 0.898 1.52594003909e-38
0.026590556873 -0.00332381960913 0.898 1.53480072954e-38
0.0281895435892 -0.00331641689285 0.896 1.58075463112e-38
0.0298477520357 -0.00331641689285 0.896 1.67312850615e-38
0.0315059604821 -0.00331641689285 0.896 1.68241911497e-38
0.0331641689285 -0.00331641689285 0.896 1.90354471329e-38
0.0348223773749 -0.00331641689285 0.896 2.30952217814e-38
0.0364805858214 -0.00331641689285 0.896 2.18102128727e-38
0.0381387942678 -0.00331641689285 0.896 2.17180186441e-38
0.0397970027142 -0.00331641689285 0.896 2.22683141563e-38
0.0414552111606 -0.00331641689285 0.896 2.07932064992e-38
0.0432096549187 -0.00332381960913 0.898 2.2265833858e-38
0.0448715647232 -0.00332381960913 0.898 2.0884683263e-38
0.0466889315697 -0.00333492368355 0.901 2.30080456026e-38
0.0484637327975 -0.00334232639983 0.903 2.03347464833e-38
0.0503014571137 -0.00335343047424 0.906 2.17148433018e-38
0.0519781723508 -0.00335343047424 0.906 2.21797114557e-38
0.0537733310484 -0.00336083319052 0.908 2.2089666819e-38
0.0554537476436 -0.00336083319052 0.908 2.2086436826e-38
0.0571341642389 -0.00336083319052 0.908 2.28243802155e-38
0.0588145808341 -0.00336083319052 0.908 1.97887963977e-38
0.0606282463224 -0.0033682359068 0.91 1.72902013618e-38
0.0628601652804 -0.00339784677192 0.918 1.83083610039e-38
0.0650513692989 -0.00342375627889 0.925 1.66506333284e-38
0.0669797768895 -0.00343486035331 0.928 1.97802260563e-38
0.0688452613918 -0.00344226306959 0.93 2.34619654116e-38
0.0707940264521 -0.00345336714401 0.933 2.34756126573e-38
0.072676167066 -0.00346076986028 0.935 2.35098071424e-38
0.00701777503219 -0.00175444375805 0.948 1.65641998378e-38
0.00877221879024 -0.00175444375805 0.948 1.67446030021e-38
0.0105266625483 -0.00175444375805 0.948 1.54510349624e-38
0.0118924637017 -0.00169892338596 0.918 1.42549832828e-38
0.01354697079 -0.00169337134875 0.915 1.52626584098e-38
0.0152070299155 -0.00168966999061 0.913 1.59940899654e-38
0.0168041659526 -0.00168041659526 0.908 1.65451127514e-38
0.0184845825479 -0.00168041659526 0.908 1.61766889644e-38
0.0201205828455 -0.00167671523712 0.906 1.63578530337e-38
0.0217251215989 -0.00167116319991 0.903 1.60791207562e-38
0.0233962847988 -0.00167116319991 0.903 1.57167842097e-38
0.0250119276266 -0.00166746184177 0.901 1.53498009574e-38
0.026590556873 -0.00166190980456 0.898 1.5349442225e-38
0.0282524666776 -0.00166190980456 0.898 1.53487261615e-38
0.0299143764822 -0.00166190980456 0.898 1.61748854932e-38
0.0315762862867 -0.00166190980456 0.898 1.58972280116e-38
0.0332381960913 -0.00166190980456 0.898 1.65429505479e-38
0.0349001058959 -0.00166190980456 0.898 1.96825709676e-38
0.0365620157004 -0.00166190980456 0.898 2.30051589278e-38
0.0381387942678 -0.00165820844643 0.896 2.28236319221e-38
0.0397970027142 -0.00165820844643 0.896 2.31931403142e-38
0.0415477451141 -0.00166190980456 0.898 2.30083791116e-38
0.0432096549187 -0.00166190980456 0.898 2.31016495374e-38
0.0450214697279 -0.00166746184177 0.901 2.34729417824e-38
0.0467925695976 -0.00167116319991 0.903 2.26467768455e-38
0.0486247418765 -0.00167671523712 0.906 2.34754487054e-38
0.0503014571137 -0.00167671523712 0.906 2.18123652672e-38
0.0520929144531 -0.00168041659526 0.908 2.31942417348e-38
0.0537733310484 -0.00168041659526 0.908 2.10748520763e-38
0.0555758924622 -0.0016841179534 0.91 2.23630293208e-38
0.0572600104156 -0.0016841179534 0.91 2.24592676967e-38
0.0591384496713 -0.00168966999061 0.913 1.82225651041e-38
0.0611612418945 -0.00169892338596 0.918 1.63726213182e-38
0.0635449165362 -0.00171743017665 0.928 1.60045590662e-38
0.0652623467129 -0.00171743017665 0.928 1.81225432223e-38
0.067124129857 -0.00172113153479 0.93 2.1619821253e-38
0.0690673428801 -0.001726683572 0.933 2.34662365693e-38
0.0707940264521 -0.001726683572 0.933 2.34766972623e-38
0.072676167066 -0.00173038493014 0.935 2.35097931294e-38
0.0052966434974 0.0 0.954 1.51816129119e-38
0.00701777503219 0.0 0.948 1.66563954676e-38
0.00877221879024 0.0 0.948 1.70186493376e-38
0.0105266625483 0.0 0.948 1.60938610147e-38
0.0119831469761 0.0 0.925 1.52698484723e-38
0.0135913870877 0.0 0.918 1.45276087017e-38
0.0152403421387 0.0 0.915 1.59036837936e-38
0.0169337134875 0.0 0.915 1.65501350051e-38
0.0186270848362 0.0 0.915 1.83922679533e-38
0.0202760398873 0.0 0.913 1.63671660633e-38
0.0218935333942 0.0 0.91 1.60848590734e-38
0.0235258323337 0.0 0.908 1.63585789063e-38
0.0251507285568 0.0 0.906 1.59919389722e-38
0.0267386111986 0.0 0.903 1.52572732198e-38
0.0284097743985 0.0 0.903 1.54412889316e-38
0.0300809375984 0.0 0.903 1.5807902241e-38
0.0317521007983 0.0 0.903 1.63592823582e-38
0.0334232639983 0.0 0.903 1.58979440751e-38
0.0350944271982 0.0 0.903 1.6727339005e-38
0.0368877352167 0.0 0.906 1.8481176137e-38
0.0385644504538 0.0 0.906 2.09725783079e-38
0.0402411656909 0.0 0.906 2.28233810897e-38
0.041917880928 0.0 0.906 2.2916550622e-38
0.0435945961652 0.0 0.906 2.33775147583e-38
0.0453712480721 0.0 0.908 2.34732963109e-38
0.0470516646673 0.0 0.908 2.26442867382e-38
0.0487320812626 0.0 0.908 2.21822183786e-38
0.0504124978578 0.0 0.908 2.34829820859e-38
0.0522076565554 0.0 0.91 2.34743725082e-38
0.0538917745088 0.0 0.91 2.3475089973e-38
0.0557591096901 0.0 0.913 2.34761731767e-38
0.0575746258575 0.0 0.915 2.11702510744e-38
0.0592679972062 0.0 0.915 1.65623164926e-38
0.0611612418945 0.0 0.918 1.5635444439e-38
0.0635449165362 0.0 0.928 1.84002217234e-38
0.0652623467129 0.0 0.928 2.01476030734e-38
0.067124129857 0.0 0.93 2.15265536298e-38
0.0690673428801 0.0 0.933 2.34684099832e-38
0.0707940264521 0.0 0.933 2.34802831851e-38
0.0052966434974 0.00176554783247 0.954 1.55572127483e-38
0.00703998318103 0.00175999579526 0.951 1.49994118816e-38
0.00879997897629 0.00175999579526 0.951 1.72959971322e-38
0.0105044543995 0.00175074239991 0.946 1.71069395486e-38
0.0122551967994 0.00175074239991 0.946 1.48056417313e-38
0.0136654142505 0.00170817678131 0.923 1.49864442656e-38
0.0152903104736 0.00169892338596 0.918 1.51686452959e-38
0.0169892338596 0.00169892338596 0.918 1.51636188383e-38
0.0186270848362 0.00169337134875 0.915 1.70057097475e-38
0.020320456185 0.00169337134875 0.915 1.85812624785e-38
0.0219657098779 0.00168966999061 0.913 1.63660898661e-38
0.0236553798685 0.00168966999061 0.913 1.6175602958e-38
0.025261769301 0.0016841179534 0.91 1.6268155919e-38
0.0268866655242 0.00168041659526 0.908 1.54423609249e-38
0.0285670821194 0.00168041659526 0.908 1.53530393582e-38
0.0301808742682 0.00167671523712 0.906 1.59040495325e-38
0.0318575895053 0.00167671523712 0.906 1.66441341061e-38
0.0335343047424 0.00167671523712 0.906 1.58129244947e-38
0.0352887485005 0.00168041659526 0.908 1.66344427259e-38
0.0369691650957 0.00168041659526 0.908 1.75628211754e-38
0.038649581691 0.00168041659526 0.908 1.74677570876e-38
0.0404188308816 0.0016841179534 0.91 1.82989400743e-38
0.0422417497652 0.00168966999061 0.913 1.99605885829e-38
0.0439314197559 0.00168966999061 0.913 2.20824907695e-38
0.0457210264162 0.00169337134875 0.915 2.33796671528e-38
0.047414397765 0.00169337134875 0.915 2.34754697249e-38
0.0492687781928 0.00169892338596 0.918 2.3475489343e-38
0.0509677015787 0.00169892338596 0.918 2.34833702456e-38
0.0526666249647 0.00169892338596 0.918 2.30130426329e-38
0.0544839918111 0.0017026247441 0.92 2.08940103056e-38
0.0561866165552 0.0017026247441 0.92 2.07075058878e-38
0.0578892412993 0.0017026247441 0.92 1.93252776942e-38
0.0595918660434 0.0017026247441 0.92 1.77601394135e-38
0.0612944907875 0.0017026247441 0.92 1.67453470916e-38
0.0640242424153 0.00173038493014 0.935 1.9600156401e-38
0.0657546273454 0.00173038493014 0.935 1.86692023649e-38
0.0674850122756 0.00173038493014 0.935 2.34601030859e-38
0.0692153972057 0.00173038493014 0.935 2.24524685966e-38
0.0709457821358 0.00173038493014 0.935 2.34770615999e-38
0.00530774757182 0.00353849838121 0.956 1.62961902961e-38
0.00706219132986 0.00353109566493 0.954 1.24200810347e-38
0.00882773916233 0.00353109566493 0.954 1.61003280071e-38
0.0105044543995 0.00350148479982 0.946 1.79370379303e-38
0.0122551967994 0.00350148479982 0.946 1.69225286707e-38
0.0137394414132 0.00343486035331 0.928 1.47094902359e-38
0.0153236226969 0.00340524948819 0.92 1.45254464981e-38
0.017026247441 0.00340524948819 0.92 1.54409189888e-38
0.0187288721851 0.00340524948819 0.92 1.67298571383e-38
