# .PCD v0.7 - Point Cloud Data file format
VERSION 0.7
FIELDS x y z rgb
SIZE 4 4 4 4
TYPE F F F F
COUNT 1 1 1 1
WIDTH 840
HEIGHT 1
VIEWPOINT 0 0 0 1 0 0 0
POINTS 840
DATA ascii
0.006773485395 -0.0626547399037 0.915 1.08365885466e-38
0.00846685674374 -0.0626547399037 0.915 1.14794370197e-38
0.0101935403157 -0.0628601652804 0.918 1.14794370197e-38
0.0118924637017 -0.0628601652804 0.918 1.07447530505e-38
0.0136209979528 -0.0629971155316 0.92 1.12039305313e-38
0.0153236226969 -0.0629971155316 0.92 1.20304499967e-38
0.017026247441 -0.0629971155316 0.92 1.25818217061e-38
0.0187899445944 -0.0632025409083 0.923 1.30406404544e-38
0.0205425376733 -0.0633394911595 0.925 1.37764160352e-38
0.0222544158128 -0.0633394911595 0.925 1.36877937164e-38
0.0240440224732 -0.0635449165362 0.928 1.12039305313e-38
0.0257614526498 -0.0635449165362 0.928 1.13876015236e-38
0.0275381045567 -0.0636818667874 0.93 1.19450772891e-38
0.0292592360915 -0.0636818667874 0.93 1.27791623649e-38
0.0310803042961 -0.0638872921641 0.933 1.49889357743e-38
0.0328069878681 -0.0638872921641 0.933 1.64622707888e-38
0.0346076986028 -0.0640242424153 0.935 2.34918158714e-38
-0.0366489976167 -0.0628268530572 0.943 2.34900222094e-38
-0.0347927665098 -0.0626269797177 0.94 8.73585157203e-39
-0.0328069878681 -0.0621606085921 0.933 9.74424836773e-39
-0.0310803042961 -0.0621606085921 0.933 7.62844883593e-39
-0.0292592360915 -0.0619607352526 0.93 8.72724199426e-39
-0.0274788828265 -0.0618274863596 0.928 9.1835496158e-39
-0.0256781720917 -0.06162761302 0.925 1.02855755697e-38
-0.0239662939522 -0.06162761302 0.925 1.1020259539e-38
-0.0222544158128 -0.06162761302 0.925 1.1387960256e-38
-0.0205425376733 -0.06162761302 0.925 1.44303796077e-38
-0.0187899445944 -0.061494364127 0.923 1.50861326384e-38
-0.0170817678131 -0.061494364127 0.923 1.14794370197e-38
-0.0153735910318 -0.061494364127 0.923 1.25814629736e-38
-0.0136209979528 -0.0612944907875 0.92 1.24896274775e-38
-0.0119183732087 -0.0612944907875 0.92 1.2214120989e-38
-0.0102157484646 -0.0612944907875 0.92 1.20304499967e-38
-0.00851312372049 -0.0612944907875 0.92 1.23977919813e-38
-0.00681049897639 -0.0612944907875 0.92 9.1835496158e-39
-0.00510787423229 -0.0612944907875 0.92 8.54070114269e-39
-0.00339784677192 -0.0611612418945 0.918 8.72437213501e-39
-0.00169892338596 -0.0611612418945 0.918 1.09284240428e-38
0.0 -0.0611612418945 0.918 9.45905610427e-39
0.00169892338596 -0.0611612418945 0.918 9.64272709659e-39
0.00339784677192 -0.0611612418945 0.918 9.45905610427e-39
0.00509677015787 -0.0611612418945 0.918 9.45905610427e-39
0.00679569354383 -0.0611612418945 0.918 1.1020259539e-38
0.00849461692979 -0.0611612418945 0.918 1.2214120989e-38
0.0101935403157 -0.0611612418945 0.918 1.23059564852e-38
0.0119183732087 -0.0612944907875 0.92 1.24896274775e-38
0.0136654142505 -0.061494364127 0.923 1.30406404544e-38
0.0153735910318 -0.061494364127 0.923 1.33161469429e-38
0.0170817678131 -0.061494364127 0.923 1.3132487161e-38
0.0188306595339 -0.06162761302 0.925 1.23059564852e-38
0.0205425376733 -0.06162761302 0.925 1.34101348335e-38
0.0223265922965 -0.0618274863596 0.928 1.03774110659e-38
0.0240440224732 -0.0618274863596 0.928 1.05610820582e-38
0.0258169730219 -0.0619607352526 0.93 1.14794370197e-38
0.027626937152 -0.0621606085921 0.933 1.30514108344e-38
0.0293536207241 -0.0621606085921 0.933 1.3142919828e-38
0.0310803042961 -0.0621606085921 0.933 1.53523401103e-38
0.0328773136727 -0.0622938574851 0.935 1.67352451309e-38
0.0346076986028 -0.0622938574851 0.935 2.34939542529e-38
-0.0366489976167 -0.0610816626945 0.943 2.34892893303e-38
-0.0347927665098 -0.0608873413922 0.94 9.56595836152e-39
-0.0328773136727 -0.060563472555 0.935 8.91163045139e-39
-0.0310803042961 -0.0604339250201 0.933 8.27131552591e-39
-0.0293536207241 -0.0604339250201 0.933 8.72724199426e-39
-0.0275381045567 -0.0602396037178 0.93 9.27538511196e-39
-0.0256781720917 -0.0599157348806 0.925 8.99987862348e-39
-0.0239662939522 -0.0599157348806 0.925 1.03774110659e-38
-0.0222544158128 -0.0599157348806 0.925 1.20326023911e-38
-0.0205425376733 -0.0599157348806 0.925 1.36906831939e-38
-0.0188306595339 -0.0599157348806 0.925 1.53677852219e-38
-0.0171187813945 -0.0599157348806 0.925 1.17570959027e-38
-0.0153735910318 -0.0597861873457 0.923 1.24896274775e-38
-0.0136654142505 -0.0597861873457 0.923 1.23059564852e-38
-0.0119572374691 -0.0597861873457 0.923 1.2214120989e-38
-0.0102490606878 -0.0597861873457 0.923 1.2214120989e-38
-0.00854088390653 -0.0597861873457 0.923 1.24896274775e-38
-0.00683270712523 -0.0597861873457 0.923 1.01019045774e-38
-0.00512453034392 -0.0597861873457 0.923 9.91823358506e-39
-0.00340524948819 -0.0595918660434 0.92 1.03774110659e-38
-0.0017026247441 -0.0595918660434 0.92 1.16631080121e-38
0.0 -0.0595918660434 0.92 1.02855755697e-38
0.0017026247441 -0.0595918660434 0.92 1.14794370197e-38
0.00340524948819 -0.0595918660434 0.92 1.07447530505e-38
0.00510787423229 -0.0595918660434 0.92 1.0469246562e-38
0.00679569354383 -0.0594623185085 0.918 1.20304499967e-38
0.00849461692979 -0.0594623185085 0.918 1.2765133966e-38
0.0102157484646 -0.0595918660434 0.92 1.22141237916e-38
0.0119183732087 -0.0595918660434 0.92 1.17549435082e-38
0.0136654142505 -0.0597861873457 0.923 1.12957660274e-38
0.0153735910318 -0.0597861873457 0.923 1.17549435082e-38
0.0170817678131 -0.0597861873457 0.923 1.25814629736e-38
0.0188306595339 -0.0599157348806 0.925 1.13876015236e-38
0.0206091621199 -0.0601100561829 0.928 1.18471377368e-38
0.0223265922965 -0.0601100561829 0.928 1.14794370197e-38
0.0240958414871 -0.0602396037178 0.93 1.21240791549e-38
0.02590025358 -0.0604339250201 0.933 1.26747390046e-38
0.027626937152 -0.0604339250201 0.933 1.47955846122e-38
0.0294165438124 -0.060563472555 0.935 1.28619917158e-38
0.0311469287426 -0.060563472555 0.935 1.59072823281e-38
0.0328773136727 -0.060563472555 0.935 1.85791605308e-38
0.034718739347 -0.0607577938573 0.938 2.34914431261e-38
0.0364546763144 -0.0607577938573 0.938 2.34856893946e-38
-0.0366489976167 -0.0593364723318 0.943 2.34918046611e-38
-0.0347927665098 -0.0591477030667 0.94 8.73656903684e-39
-0.0328773136727 -0.0588330876248 0.935 8.54285353713e-39
-0.0311469287426 -0.0588330876248 0.935 7.99473003762e-39
-0.0293536207241 -0.0587072414481 0.933 8.90911932455e-39
-0.0275381045567 -0.058518472183 0.93 9.45905610427e-39
-0.0257614526498 -0.0583926260063 0.928 8.63253663885e-39
-0.0239662939522 -0.0582038567412 0.925 9.45905610427e-39
-0.0222544158128 -0.0582038567412 0.925 1.1020259539e-38
-0.0206091621199 -0.0583926260063 0.928 1.18467790044e-38
-0.0188306595339 -0.0582038567412 0.925 1.17549435082e-38
-0.0171187813945 -0.0582038567412 0.925 1.2674374667e-38
-0.015406903255 -0.0582038567412 0.925 1.21222854929e-38
-0.0136950251156 -0.0582038567412 0.925 1.23977919813e-38
-0.0119831469761 -0.0582038567412 0.925 1.23977919813e-38
-0.0102712688367 -0.0582038567412 0.925 1.24896274775e-38
-0.00855939069723 -0.0582038567412 0.925 1.21222854929e-38
-0.00684751255778 -0.0582038567412 0.925 1.09284240428e-38
-0.00512453034392 -0.0580780105644 0.923 1.08365885466e-38
-0.00341635356261 -0.0580780105644 0.923 1.01937400735e-38
-0.00170817678131 -0.0580780105644 0.923 1.08365885466e-38
0.0 -0.0578892412993 0.92 1.07447530505e-38
0.0017026247441 -0.0578892412993 0.92 1.08365885466e-38
0.00340524948819 -0.0578892412993 0.92 1.0469246562e-38
0.00510787423229 -0.0578892412993 0.92 1.18471377368e-38
0.00681049897639 -0.0578892412993 0.92 1.06529175543e-38
0.00851312372049 -0.0578892412993 0.92 1.11120950351e-38
0.0102490606878 -0.0580780105644 0.923 1.1020259539e-38
0.0119572374691 -0.0580780105644 0.923 1.09284240428e-38
0.0136950251156 -0.0582038567412 0.925 1.01937400735e-38
0.015406903255 -0.0582038567412 0.925 1.03774110659e-38
0.0171187813945 -0.0582038567412 0.925 1.01937400735e-38
0.0188917319432 -0.0583926260063 0.928 1.20311674615e-38
0.0206091621199 -0.0583926260063 0.928 1.35019703297e-38
0.0223265922965 -0.0583926260063 0.928 1.13876015236e-38
0.0240958414871 -0.058518472183 0.93 1.25832566357e-38
0.0259557739521 -0.0588330876248 0.935 1.1389753918e-38
0.0276861588823 -0.0588330876248 0.935 1.45229704038e-38
0.0294165438124 -0.0588330876248 0.935 1.51657908509e-38
0.0312468654123 -0.0590218568899 0.938 1.40626690816e-38
0.0329828023797 -0.0590218568899 0.938 1.78415954919e-38
0.034718739347 -0.0590218568899 0.938 2.34914403235e-38
-0.0365324048353 -0.0574080647412 0.94 2.34900081964e-38
-0.0347927665098 -0.0574080647412 0.94 8.73656903684e-39
-0.0329828023797 -0.0572859199226 0.938 1.01101554227e-38
-0.0311469287426 -0.0571027026947 0.935 7.53553293865e-39
-0.0293536207241 -0.0569805578761 0.933 8.72544833223e-39
-0.0275381045567 -0.0567973406482 0.93 9.27538511196e-39
-0.0258169730219 -0.0567973406482 0.93 9.36722060812e-39
-0.0240440224732 -0.0566751958296 0.928 1.06529175543e-38
-0.0223265922965 -0.0566751958296 0.928 1.1020259539e-38
-0.0206091621199 -0.0566751958296 0.928 1.16631080121e-38
-0.0188917319432 -0.0566751958296 0.928 1.17553022406e-38
-0.0171187813945 -0.0564919786017 0.925 1.18467790044e-38
-0.015406903255 -0.0564919786017 0.925 1.17549435082e-38
-0.0136950251156 -0.0564919786017 0.925 1.25814629736e-38
-0.0119831469761 -0.0564919786017 0.925 1.24896274775e-38
-0.0102712688367 -0.0564919786017 0.925 1.23059564852e-38
-0.00855939069723 -0.0564919786017 0.925 1.20304499967e-38
-0.00684751255778 -0.0564919786017 0.925 1.01937400735e-38
-0.00513563441834 -0.0564919786017 0.925 1.03774110659e-38
-0.00342375627889 -0.0564919786017 0.925 7.71418167727e-39
-0.00170817678131 -0.0563698337831 0.923 8.44958311135e-39
0.0 -0.0563698337831 0.923 8.63253663885e-39
0.00170817678131 -0.0563698337831 0.923 8.54070114269e-39
0.00341635356261 -0.0563698337831 0.923 7.89785266959e-39
0.00512453034392 -0.0563698337831 0.923 8.81620763117e-39
0.00683270712523 -0.0563698337831 0.923 8.35703015038e-39
0.00854088390653 -0.0563698337831 0.923 8.81620763117e-39
0.0102712688367 -0.0564919786017 0.925 1.01937400735e-38
0.0119831469761 -0.0564919786017 0.925 1.11120950351e-38
0.0136950251156 -0.0564919786017 0.925 1.14794370197e-38
0.0154568715899 -0.0566751958296 0.928 1.19386145005e-38
0.0171743017665 -0.0566751958296 0.928 1.09284240428e-38
0.0188917319432 -0.0566751958296 0.928 1.1387960256e-38
0.0206535784175 -0.0567973406482 0.93 1.34086999039e-38
0.022446886436 -0.0569805578761 0.933 1.16631080121e-38
0.024173570008 -0.0569805578761 0.933 1.24035316998e-38
0.0259557739521 -0.0571027026947 0.935 1.2493573534e-38
0.0276861588823 -0.0571027026947 0.935 1.44221329663e-38
0.029510928445 -0.0572859199226 0.938 1.60866611432e-38
0.0312468654123 -0.0572859199226 0.938 1.69200091361e-38
0.0329828023797 -0.0572859199226 0.938 1.79392029364e-38
0.034718739347 -0.0572859199226 0.938 2.34907270625e-38
-0.0365324048353 -0.0556684264157 0.94 2.34896452601e-38
-0.0347927665098 -0.0556684264157 0.94 9.28973440823e-39
-0.0329828023797 -0.0555499829552 0.938 1.02005559893e-38
-0.0311469287426 -0.0553723177646 0.935 8.63900643386e-39
-0.0293536207241 -0.0552538743041 0.933 8.35774761519e-39
-0.027626937152 -0.0552538743041 0.933 9.1835496158e-39
-0.0258169730219 -0.0550762091134 0.93 9.91823358506e-39
-0.0240958414871 -0.0550762091134 0.93 1.05610820582e-38
-0.0223747099523 -0.0550762091134 0.93 1.12039305313e-38
-0.0206535784175 -0.0550762091134 0.93 1.12957660274e-38
-0.0188917319432 -0.054957765653 0.928 1.18467790044e-38
-0.0171743017665 -0.054957765653 0.928 1.21222854929e-38
-0.0154568715899 -0.054957765653 0.928 1.23059564852e-38
-0.0137394414132 -0.054957765653 0.928 1.24896274775e-38
-0.0119831469761 -0.0547801004623 0.925 1.29488049583e-38
-0.0102712688367 -0.0547801004623 0.925 1.2765133966e-38
-0.00855939069723 -0.0547801004623 0.925 1.2765133966e-38
-0.00684751255778 -0.0547801004623 0.925 1.03774110659e-38
-0.00513563441834 -0.0547801004623 0.925 1.05610820582e-38
-0.00342375627889 -0.0547801004623 0.925 1.00100690812e-38
-0.00170817678131 -0.0546616570018 0.923 1.01937400735e-38
0.0 -0.0546616570018 0.923 1.03774110659e-38
0.00170817678131 -0.0546616570018 0.923 1.02855755697e-38
0.00341635356261 -0.0546616570018 0.923 1.03774110659e-38
0.00512453034392 -0.0546616570018 0.923 1.02855755697e-38
0.00683270712523 -0.0546616570018 0.923 1.05610820582e-38
0.00854088390653 -0.0546616570018 0.923 1.07447530505e-38
0.0102712688367 -0.0547801004623 0.925 1.14794370197e-38
0.0119831469761 -0.0547801004623 0.925 1.08365885466e-38
0.0137394414132 -0.054957765653 0.928 1.09284240428e-38
0.0154568715899 -0.054957765653 0.928 1.32250289116e-38
0.0171743017665 -0.054957765653 0.928 1.26732984698e-38
0.0189324468827 -0.0550762091134 0.93 1.12039305313e-38
0.0206535784175 -0.0550762091134 0.93 1.23088263444e-38
0.0224950040919 -0.0553723177646 0.935 1.20322436587e-38
0.024225389022 -0.0553723177646 0.935 1.14797957522e-38
0.0260390545103 -0.0555499829552 0.938 1.4796288064e-38
0.0277749914776 -0.0555499829552 0.938 1.56217327335e-38
0.0295738515333 -0.0556684264157 0.94 1.47058846949e-38
0.0313134898588 -0.0556684264157 0.94 1.65508538712e-38
0.0330531281843 -0.0556684264157 0.94 1.80306558781e-38
0.0347927665098 -0.0556684264157 0.94 2.34918004572e-38
-0.0366489976167 -0.0541009012437 0.943 2.34910843937e-38
-0.034903807254 -0.0541009012437 0.943 9.19789891207e-39
-0.0329828023797 -0.0538140459879 0.938 9.09171411964e-39
-0.0311469287426 -0.0536419328344 0.935 8.91019552177e-39
-0.0294165438124 -0.0536419328344 0.935 9.09171552094e-39
-0.027626937152 -0.0535271907321 0.933 9.09171411964e-39
-0.02590025358 -0.0535271907321 0.933 9.91823358506e-39
-0.0240958414871 -0.0533550775786 0.93 1.03774110659e-38
-0.0223747099523 -0.0533550775786 0.93 1.07447530505e-38
-0.0206535784175 -0.0533550775786 0.93 1.1020259539e-38
-0.0189324468827 -0.0533550775786 0.93 1.15712725159e-38
-0.0171743017665 -0.0532403354763 0.928 1.24896274775e-38
-0.0154568715899 -0.0532403354763 0.928 1.23977919813e-38
-0.0137394414132 -0.0532403354763 0.928 1.2305964893e-38
-0.0120220112366 -0.0532403354763 0.928 1.24896274775e-38
-0.0102712688367 -0.0530682223228 0.925 1.29488049583e-38
-0.00855939069723 -0.0530682223228 0.925 1.19386145005e-38
-0.00684751255778 -0.0530682223228 0.925 1.11120950351e-38
-0.00513563441834 -0.0530682223228 0.925 1.09284240428e-38
-0.00342375627889 -0.0530682223228 0.925 1.17549435082e-38
-0.00170817678131 -0.0529534802205 0.923 1.19386145005e-38
0.0 -0.0529534802205 0.923 1.19386145005e-38
0.00170817678131 -0.0529534802205 0.923 1.16631080121e-38
0.00342375627889 -0.0530682223228 0.925 1.18467790044e-38
0.00513563441834 -0.0530682223228 0.925 1.16631080121e-38
0.00684751255778 -0.0530682223228 0.925 1.20304499967e-38
0.00855939069723 -0.0530682223228 0.925 1.2214120989e-38
0.0102712688367 -0.0530682223228 0.925 1.23977919813e-38
0.0119831469761 -0.0530682223228 0.925 1.20304499967e-38
0.0137394414132 -0.0532403354763 0.928 1.02855755697e-38
0.0154568715899 -0.0532403354763 0.928 1.16649016741e-38
0.0171743017665 -0.0532403354763 0.928 1.24896274775e-38
0.0189324468827 -0.0533550775786 0.93 1.08365885466e-38
0.020720202864 -0.0535271907321 0.933 1.22162733835e-38
0.0224950040919 -0.0536419328344 0.935 1.18474964692e-38
0.024225389022 -0.0536419328344 0.935 1.33179560192e-38
0.0260390545103 -0.0538140459879 0.938 1.42427527498e-38
0.0278342132079 -0.0539287880902 0.94 1.58071945853e-38
0.0295738515333 -0.0539287880902 0.94 1.4429310417e-38
0.0313134898588 -0.0539287880902 0.94 1.57211002089e-38
0.0330531281843 -0.0539287880902 0.94 1.8580959798e-38
0.0347927665098 -0.0539287880902 0.94 2.34935843101e-38
-0.0383941879794 -0.052355710881 0.943 2.28395913103e-38
-0.0366489976167 -0.052355710881 0.943 2.34885704642e-38
-0.034903807254 -0.052355710881 0.943 1.03042296549e-38
-0.0330531281843 -0.0521891497647 0.94 1.13011470135e-38
-0.0312468654123 -0.0520781090205 0.938 9.64631442066e-39
-0.0294165438124 -0.0519115479043 0.935 9.45977356909e-39
-0.027626937152 -0.0518005071601 0.933 9.27538511196e-39
-0.02590025358 -0.0518005071601 0.933 9.45905610427e-39
-0.024173570008 -0.0518005071601 0.933 1.00100690812e-38
-0.022446886436 -0.0518005071601 0.933 1.07447530505e-38
-0.020720202864 -0.0518005071601 0.933 1.1020259539e-38
-0.0189324468827 -0.0516339460438 0.93 1.16631080121e-38
-0.0172113153479 -0.0516339460438 0.93 1.16631080121e-38
-0.0154901838131 -0.0516339460438 0.93 1.23059564852e-38
-0.0137394414132 -0.0515229052996 0.928 1.23059564852e-38
-0.0120220112366 -0.0515229052996 0.928 1.29488049583e-38
-0.0102712688367 -0.0513563441834 0.925 1.28569694621e-38
-0.00855939069723 -0.0513563441834 0.925 1.21222854929e-38
-0.00684751255778 -0.0513563441834 0.925 1.16631080121e-38
-0.00513563441834 -0.0513563441834 0.925 1.13876015236e-38
-0.00342375627889 -0.0513563441834 0.925 1.15712725159e-38
-0.00171187813945 -0.0513563441834 0.925 1.11120950351e-38
0.0 -0.0513563441834 0.925 1.03774110659e-38
0.00171187813945 -0.0513563441834 0.925 1.20304499967e-38
0.00342375627889 -0.0513563441834 0.925 1.15712725159e-38
0.00513563441834 -0.0513563441834 0.925 1.12957660274e-38
0.00684751255778 -0.0513563441834 0.925 1.12039305313e-38
0.00855939069723 -0.0513563441834 0.925 1.14794370197e-38
0.0102712688367 -0.0513563441834 0.925 1.17549435082e-38
0.0119831469761 -0.0513563441834 0.925 1.28569694621e-38
0.0137394414132 -0.0515229052996 0.928 1.09284240428e-38
0.0154568715899 -0.0515229052996 0.928 1.09284240428e-38
0.0171743017665 -0.0515229052996 0.928 1.21222854929e-38
0.0189324468827 -0.0516339460438 0.93 1.28569694621e-38
0.020720202864 -0.0518005071601 0.933 1.31335521478e-38
0.0224950040919 -0.0519115479043 0.935 1.36888699136e-38
0.0243031175429 -0.0520781090205 0.938 1.38707472439e-38
0.0260390545103 -0.0520781090205 0.938 1.46068661428e-38
0.0278342132079 -0.0521891497647 0.94 1.51607545842e-38
0.0295738515333 -0.0521891497647 0.94 1.50682058271e-38
0.0313134898588 -0.0521891497647 0.94 1.59044012585e-38
0.0330531281843 -0.0521891497647 0.94 1.93207108625e-38
0.0347927665098 -0.0521891497647 0.94 2.34910759859e-38
-0.0383941879794 -0.0506105205183 0.943 2.20105537116e-38
-0.0366489976167 -0.0506105205183 0.943 2.34907256612e-38
-0.034903807254 -0.0506105205183 0.943 1.07673531921e-38
-0.0330531281843 -0.0504495114392 0.94 1.01937400735e-38
-0.0312468654123 -0.0503421720532 0.938 1.10245685317e-38
-0.0294165438124 -0.0501811629741 0.935 1.01937400735e-38
-0.0276861588823 -0.0501811629741 0.935 9.64272709659e-39
-0.02590025358 -0.0500738235881 0.933 9.91823358506e-39
-0.024173570008 -0.0500738235881 0.933 1.01937400735e-38
-0.022446886436 -0.0500738235881 0.933 1.03774110659e-38
-0.020720202864 -0.0500738235881 0.933 1.06529175543e-38
-0.018993519292 -0.0500738235881 0.933 1.12039305313e-38
-0.0172113153479 -0.049912814509 0.93 1.17549435082e-38
-0.0154901838131 -0.049912814509 0.93 1.19386145005e-38
-0.0137394414132 -0.049805475123 0.928 1.24896274775e-38
-0.0120220112366 -0.049805475123 0.928 1.29488049583e-38
-0.0102712688367 -0.0496444660439 0.925 1.29488049583e-38
-0.00855939069723 -0.0496444660439 0.925 1.18467790044e-38
-0.00684751255778 -0.0496444660439 0.925 1.14794370197e-38
-0.00513563441834 -0.0496444660439 0.925 1.11120950351e-38
-0.00342375627889 -0.0496444660439 0.925 1.12039305313e-38
-0.00171187813945 -0.0496444660439 0.925 1.0469246562e-38
0.0 -0.0496444660439 0.925 9.73456259275e-39
0.00171187813945 -0.0496444660439 0.925 1.07447530505e-38
0.00342375627889 -0.0496444660439 0.925 1.07447530505e-38
0.00513563441834 -0.0496444660439 0.925 1.05610820582e-38
0.00684751255778 -0.0496444660439 0.925 1.06529175543e-38
0.00858715088327 -0.049805475123 0.928 1.14794370197e-38
0.0102712688367 -0.0496444660439 0.925 1.2214120989e-38
0.0119831469761 -0.0496444660439 0.925 1.28569694621e-38
0.0137394414132 -0.049805475123 0.928 1.20304499967e-38
0.0154901838131 -0.049912814509 0.93 1.18467790044e-38
0.0172113153479 -0.049912814509 0.93 1.29488049583e-38
0.018993519292 -0.0500738235881 0.933 1.3958995416e-38
0.0207646191617 -0.0501811629741 0.935 1.3867179538e-38
0.0224950040919 -0.0501811629741 0.935 1.37753244237e-38
0.0243031175429 -0.0503421720532 0.938 1.4511802055e-38
0.0260390545103 -0.0503421720532 0.938 1.47887434731e-38
0.0278342132079 -0.0504495114392 0.94 1.52497146159e-38
0.0296682361659 -0.0506105205183 0.943 1.64547177901e-38
0.0315133631984 -0.0507715295974 0.946 1.49824589728e-38
0.0332641055983 -0.0507715295974 0.946 2.0796191265e-38
0.035088875161 -0.0508788689834 0.948 2.34907284638e-38
-0.0383941879794 -0.0488653301556 0.943 2.24715304596e-38
-0.0366489976167 -0.0488653301556 0.943 2.3490010999e-38
-0.034903807254 -0.0488653301556 0.943 8.46178001318e-39
-0.0331586168913 -0.0488653301556 0.943 1.18496488636e-38
-0.0313134898588 -0.0487098731137 0.94 1.20365722697e-38
-0.029510928445 -0.0486062350858 0.938 1.11120950351e-38
-0.0276861588823 -0.048450778044 0.935 1.07447530505e-38
-0.0259557739521 -0.048450778044 0.935 1.03774110659e-38
-0.024173570008 -0.0483471400161 0.933 1.05610820582e-38
-0.022446886436 -0.0483471400161 0.933 1.03774110659e-38
-0.0207646191617 -0.048450778044 0.935 1.07447530505e-38
-0.018993519292 -0.0483471400161 0.933 1.12039305313e-38
-0.01726683572 -0.0483471400161 0.933 1.13876015236e-38
-0.0154901838131 -0.0481916829742 0.93 1.20304499967e-38
-0.0137690522784 -0.0481916829742 0.93 1.24896274775e-38
-0.0120220112366 -0.0480880449463 0.928 1.24896274775e-38
-0.0103045810599 -0.0480880449463 0.928 1.25814629736e-38
-0.00858715088327 -0.0480880449463 0.928 1.24896274775e-38
-0.00686972070662 -0.0480880449463 0.928 1.11120950351e-38
-0.00513563441834 -0.0479325879045 0.925 1.06529175543e-38
-0.00342375627889 -0.0479325879045 0.925 1.05610820582e-38
-0.00171743017665 -0.0480880449463 0.928 1.07447530505e-38
0.0 -0.0480880449463 0.928 9.1835496158e-39
0.00171743017665 -0.0480880449463 0.928 8.72437213501e-39
0.00343486035331 -0.0480880449463 0.928 9.45905610427e-39
0.00515229052996 -0.0480880449463 0.928 8.99987862348e-39
0.00686972070662 -0.0480880449463 0.928 1.1387960256e-38
0.00858715088327 -0.0480880449463 0.928 1.2214120989e-38
0.0103045810599 -0.0480880449463 0.928 1.29488049583e-38
0.0120220112366 -0.0480880449463 0.928 1.28569694621e-38
0.0137690522784 -0.0481916829742 0.93 1.26732984698e-38
0.0154901838131 -0.0481916829742 0.93 1.33161469429e-38
0.01726683572 -0.0483471400161 0.933 1.36834889275e-38
0.018993519292 -0.0483471400161 0.933 1.34998179352e-38
0.0207646191617 -0.048450778044 0.935 1.41426664083e-38
0.0225671805756 -0.0486062350858 0.938 1.51550092605e-38
0.0243031175429 -0.0486062350858 0.938 1.46086598049e-38
0.0260390545103 -0.0486062350858 0.938 1.42391654258e-38
0.0279230458032 -0.0488653301556 0.943 1.56217327335e-38
0.0297626207984 -0.0490207871974 0.946 1.59026160042e-38
0.0315133631984 -0.0490207871974 0.946 1.66437557555e-38
0.0333344314029 -0.0491244252253 0.948 2.07998220293e-38
0.035088875161 -0.0491244252253 0.948 2.34885578525e-38
-0.0366489976167 -0.0471201397929 0.943 2.34892865277e-38
-0.034903807254 -0.0471201397929 0.943 8.92024002916e-39
-0.0331586168913 -0.0471201397929 0.943 1.09284240428e-38
-0.0313134898588 -0.0469702347883 0.94 1.17574672468e-38
-0.029510928445 -0.0468702981185 0.938 1.23985094461e-38
-0.0276861588823 -0.0467203931138 0.935 1.14794370197e-38
-0.0259557739521 -0.0467203931138 0.935 1.12957660274e-38
-0.024225389022 -0.0467203931138 0.935 1.07447530505e-38
-0.0224950040919 -0.0467203931138 0.935 1.0469246562e-38
-0.0207646191617 -0.0467203931138 0.935 1.1020259539e-38
-0.018993519292 -0.0466204564441 0.933 1.1020259539e-38
-0.01726683572 -0.0466204564441 0.933 1.14794370197e-38
-0.015540152148 -0.0466204564441 0.933 1.15712725159e-38
-0.0137690522784 -0.0464705514394 0.93 1.2214120989e-38
-0.0120220112366 -0.0463706147697 0.928 1.23977919813e-38
-0.0103045810599 -0.0463706147697 0.928 1.2765133966e-38
-0.00858715088327 -0.0463706147697 0.928 1.30406404544e-38
-0.00686972070662 -0.0463706147697 0.928 1.2214120989e-38
-0.00515229052996 -0.0463706147697 0.928 1.16631080121e-38
-0.00343486035331 -0.0463706147697 0.928 1.17549435082e-38
-0.00171743017665 -0.0463706147697 0.928 1.12039305313e-38
0.0 -0.0463706147697 0.928 1.05610820582e-38
0.00171743017665 -0.0463706147697 0.928 1.00104278136e-38
0.00343486035331 -0.0463706147697 0.928 1.08365885466e-38
0.00515229052996 -0.0463706147697 0.928 9.73456259275e-39
0.00686972070662 -0.0463706147697 0.928 1.15712725159e-38
0.00858715088327 -0.0463706147697 0.928 1.22144797214e-38
0.0103045810599 -0.0463706147697 0.928 1.26732984698e-38
0.0120479207436 -0.0464705514394 0.93 1.25814629736e-38
0.013813468576 -0.0466204564441 0.933 1.33161469429e-38
0.015540152148 -0.0466204564441 0.933 1.33161469429e-38
0.01726683572 -0.0466204564441 0.933 1.36834889275e-38
0.0190342342316 -0.0467203931138 0.935 1.37753244237e-38
0.0207646191617 -0.0467203931138 0.935 1.41426664083e-38
0.0225671805756 -0.0468702981185 0.938 1.48773503776e-38
0.0243549365569 -0.0469702347883 0.94 1.4972055733e-38
0.0260945748824 -0.0469702347883 0.94 1.4419249094e-38
0.0279230458032 -0.0471201397929 0.943 1.65386695811e-38
0.0297626207984 -0.0472700447975 0.946 1.47030064279e-38
0.0315133631984 -0.0472700447975 0.946 1.60887897156e-38
0.0333344314029 -0.0473699814673 0.948 2.13522769424e-38
0.035088875161 -0.0473699814673 0.948 2.34900039925e-38
-0.0366489976167 -0.0453749494302 0.943 2.34885690629e-38
-0.034903807254 -0.0453749494302 0.943 9.10570468351e-39
-0.0331586168913 -0.0453749494302 0.943 1.13893951856e-38
-0.0313134898588 -0.0452305964628 0.94 1.16645625599e-38
-0.0295738515333 -0.0452305964628 0.94 1.33161469429e-38
-0.0277749914776 -0.0451343611511 0.938 1.2214120989e-38
-0.0260390545103 -0.0451343611511 0.938 1.17549435082e-38
-0.024225389022 -0.0449900081837 0.935 1.12039305313e-38
-0.0224950040919 -0.0449900081837 0.935 1.12039305313e-38
-0.0207646191617 -0.0449900081837 0.935 1.07447530505e-38
-0.0190342342316 -0.0449900081837 0.935 1.1020259539e-38
-0.0173038493014 -0.0449900081837 0.935 1.12039305313e-38
-0.015540152148 -0.0448937728721 0.933 1.16631080121e-38
-0.0137690522784 -0.0447494199046 0.93 1.15712725159e-38
-0.0120479207436 -0.0447494199046 0.93 1.23977919813e-38
-0.0103045810599 -0.044653184593 0.928 1.2765133966e-38
-0.00858715088327 -0.044653184593 0.928 1.30406404544e-38
-0.00686972070662 -0.044653184593 0.928 1.30406404544e-38
-0.00515229052996 -0.044653184593 0.928 1.30406404544e-38
-0.00343486035331 -0.044653184593 0.928 1.24896274775e-38
-0.00171743017665 -0.044653184593 0.928 1.13876015236e-38
0.0 -0.044653184593 0.928 1.07447530505e-38
0.00171743017665 -0.044653184593 0.928 1.06529175543e-38
0.00343486035331 -0.044653184593 0.928 1.11120950351e-38
0.00516339460438 -0.0447494199046 0.93 1.08365885466e-38
0.00688452613918 -0.0447494199046 0.93 1.1020259539e-38
0.00860565767397 -0.0447494199046 0.93 1.07447530505e-38
0.0103267892088 -0.0447494199046 0.93 1.29488049583e-38
0.012086785004 -0.0448937728721 0.933 1.24896274775e-38
0.013813468576 -0.0448937728721 0.933 1.31324759506e-38
0.015540152148 -0.0448937728721 0.933 1.32243114468e-38
0.01726683572 -0.0448937728721 0.933 1.34998179352e-38
0.0190342342316 -0.0449900081837 0.935 1.37753244237e-38
0.0208312436082 -0.0451343611511 0.938 1.42345019045e-38
0.0225671805756 -0.0451343611511 0.938 1.46940381177e-38
0.0243549365569 -0.0452305964628 0.94 1.48791440396e-38
0.0260945748824 -0.0452305964628 0.94 1.46018438891e-38
0.0279230458032 -0.0453749494302 0.943 1.6722690898e-38
0.0297626207984 -0.0455193023976 0.946 1.59944613095e-38
0.0315133631984 -0.0455193023976 0.946 1.48888298146e-38
0.0333344314029 -0.0456155377093 0.948 2.15395394626e-38
0.035088875161 -0.0456155377093 0.948 2.34871145151e-38
-0.0350148479982 -0.0437685599977 0.946 7.35329687596e-39
-0.0331586168913 -0.0436297590675 0.943 1.258793417e-38
-0.0314134265286 -0.0436297590675 0.943 1.19422088311e-38
-0.0295738515333 -0.0434909581373 0.94 1.26732984698e-38
-0.0277749914776 -0.0433984241838 0.938 1.25814629736e-38
-0.0260390545103 -0.0433984241838 0.938 1.32243114468e-38
-0.024225389022 -0.0432596232536 0.935 1.20304499967e-38
-0.0224950040919 -0.0432596232536 0.935 1.1020259539e-38
-0.0208312436082 -0.0433984241838 0.938 1.14794370197e-38
-0.0190342342316 -0.0432596232536 0.935 1.12957660274e-38
-0.0173038493014 -0.0432596232536 0.935 1.15712725159e-38
-0.0155734643713 -0.0432596232536 0.935 1.15712725159e-38
-0.013813468576 -0.0431670893001 0.933 1.17549435082e-38
-0.0120479207436 -0.0430282883699 0.93 1.24896274775e-38
-0.0103045810599 -0.0429357544164 0.928 1.25814629736e-38
-0.00858715088327 -0.0429357544164 0.928 1.26732984698e-38
-0.00686972070662 -0.0429357544164 0.928 1.31324759506e-38
-0.00515229052996 -0.0429357544164 0.928 1.34079824391e-38
-0.00343486035331 -0.0429357544164 0.928 1.17549435082e-38
-0.00171743017665 -0.0429357544164 0.928 1.2214120989e-38
0.0 -0.0430282883699 0.93 1.00100690812e-38
0.00172113153479 -0.0430282883699 0.93 9.36722060812e-39
0.00344226306959 -0.0430282883699 0.93 9.27538511196e-39
0.00516339460438 -0.0430282883699 0.93 1.02855755697e-38
0.00690673428801 -0.0431670893001 0.933 1.06529175543e-38
0.00863341786002 -0.0431670893001 0.933 1.08365885466e-38
0.010360101432 -0.0431670893001 0.933 1.31324759506e-38
0.012086785004 -0.0431670893001 0.933 1.28569694621e-38
0.013813468576 -0.0431670893001 0.933 1.28569694621e-38
0.0155734643713 -0.0432596232536 0.935 1.23059564852e-38
0.0173038493014 -0.0432596232536 0.935 1.35001766676e-38
0.0190342342316 -0.0432596232536 0.935 1.35916534314e-38
0.0208312436082 -0.0433984241838 0.938 1.41426664083e-38
0.0225671805756 -0.0433984241838 0.938 1.46936793853e-38
0.0243549365569 -0.0434909581373 0.94 1.46936793853e-38
0.0261778554405 -0.0436297590675 0.943 1.55245036396e-38
0.0280118783985 -0.0437685599977 0.946 1.54373316647e-38
0.0297626207984 -0.0437685599977 0.946 1.57178912355e-38
0.0315799876449 -0.0438610939512 0.948 1.49828177052e-38
0.0333344314029 -0.0438610939512 0.948 2.34806951668e-38
-0.0350148479982 -0.0420178175978 0.946 6.33951909416e-39
-0.0332641055983 -0.0420178175978 0.946 1.21283951542e-38
-0.0314134265286 -0.0418845687048 0.943 1.18485726664e-38
-0.0295738515333 -0.0417513198118 0.94 1.29488049583e-38
-0.0278342132079 -0.0417513198118 0.94 1.24896274775e-38
-0.0260390545103 -0.0416624872164 0.938 1.33161469429e-38
-0.0243031175429 -0.0416624872164 0.938 1.28569694621e-38
-0.0225671805756 -0.0416624872164 0.938 1.20304499967e-38
-0.0208312436082 -0.0416624872164 0.938 1.18467790044e-38
-0.0190953066409 -0.0416624872164 0.938 1.17549435082e-38
-0.0173038493014 -0.0415292383234 0.935 1.14794370197e-38
-0.0155734643713 -0.0415292383234 0.935 1.19386145005e-38
-0.0138430794411 -0.0415292383234 0.935 1.2214120989e-38
-0.012086785004 -0.0414404057281 0.933 1.25814629736e-38
-0.0103267892088 -0.0413071568351 0.93 1.31324759506e-38
-0.00860565767397 -0.0413071568351 0.93 1.13876015236e-38
-0.00688452613918 -0.0413071568351 0.93 1.17549435082e-38
-0.00516339460438 -0.0413071568351 0.93 1.17549435082e-38
-0.00344226306959 -0.0413071568351 0.93 1.12957660274e-38
-0.00172113153479 -0.0413071568351 0.93 1.16631080121e-38
0.0 -0.0413071568351 0.93 1.02855755697e-38
0.00172113153479 -0.0413071568351 0.93 1.01019045774e-38
0.00344226306959 -0.0413071568351 0.93 1.01937400735e-38
0.00518005071601 -0.0414404057281 0.933 1.00100690812e-38
0.00690673428801 -0.0414404057281 0.933 1.07447530505e-38
0.00863341786002 -0.0414404057281 0.933 1.0469246562e-38
0.010360101432 -0.0414404057281 0.933 1.28569694621e-38
0.012112694511 -0.0415292383234 0.935 1.2214120989e-38
0.0138430794411 -0.0415292383234 0.935 1.24896274775e-38
0.0155734643713 -0.0415292383234 0.935 1.2214120989e-38
0.0173038493014 -0.0415292383234 0.935 1.36834889275e-38
0.0190953066409 -0.0416624872164 0.938 1.34998305469e-38
0.0208312436082 -0.0416624872164 0.938 1.44181728968e-38
0.0225671805756 -0.0416624872164 0.938 1.48773503776e-38
0.0243549365569 -0.0417513198118 0.94 1.52468447567e-38
0.0261778554405 -0.0418845687048 0.943 1.55270147664e-38
0.0280118783985 -0.0420178175978 0.946 1.53451374361e-38
0.0298255438868 -0.0421066501932 0.948 1.56195677274e-38
0.0315799876449 -0.0421066501932 0.948 1.70997733083e-38
0.0335454088169 -0.0423731479792 0.954 2.34885886811e-38
-0.0350148479982 -0.0402670751979 0.946 5.60375892767e-39
-0.0332641055983 -0.0402670751979 0.946 1.03792047279e-38
-0.0314134265286 -0.0401393783421 0.943 1.12039305313e-38
-0.0296682361659 -0.0401393783421 0.943 1.17549435082e-38
-0.0278342132079 -0.0400116814863 0.94 1.2765133966e-38
-0.0260945748824 -0.0400116814863 0.94 1.34998179352e-38
-0.0243031175429 -0.0399265502491 0.938 1.28569694621e-38
-0.0225671805756 -0.0399265502491 0.938 1.28569694621e-38
-0.0208312436082 -0.0399265502491 0.938 1.2214120989e-38
-0.0190953066409 -0.0399265502491 0.938 1.17549435082e-38
-0.0173593696735 -0.0399265502491 0.938 1.2214120989e-38
-0.0155734643713 -0.0397988533933 0.935 1.23059564852e-38
-0.0138430794411 -0.0397988533933 0.935 1.21222854929e-38
-0.012086785004 -0.0397137221561 0.933 1.21222854929e-38
-0.010360101432 -0.0397137221561 0.933 1.25814629736e-38
-0.00860565767397 -0.0395860253003 0.93 1.19386145005e-38
-0.00688452613918 -0.0395860253003 0.93 1.29488049583e-38
-0.00518005071601 -0.0397137221561 0.933 1.19386145005e-38
-0.00344226306959 -0.0395860253003 0.93 1.17549435082e-38
-0.00172113153479 -0.0395860253003 0.93 1.23977919813e-38
0.0 -0.0397137221561 0.933 1.21222854929e-38
0.001726683572 -0.0397137221561 0.933 1.21222854929e-38
0.00345336714401 -0.0397137221561 0.933 1.19386145005e-38
0.00518005071601 -0.0397137221561 0.933 1.17549435082e-38
0.00692153972057 -0.0397988533933 0.935 1.15712725159e-38
0.00865192465071 -0.0397988533933 0.935 1.17549435082e-38
0.0103823095809 -0.0397988533933 0.935 1.30406404544e-38
0.012112694511 -0.0397988533933 0.935 1.24896274775e-38
0.0138430794411 -0.0397988533933 0.935 1.3685641322e-38
0.0155734643713 -0.0397988533933 0.935 1.27651437751e-38
0.0173593696735 -0.0399265502491 0.938 1.23977919813e-38
0.0190953066409 -0.0399265502491 0.938 1.21222854929e-38
0.0208312436082 -0.0399265502491 0.938 1.38671655251e-38
0.0225671805756 -0.0399265502491 0.938 1.44181728968e-38
0.0243549365569 -0.0400116814863 0.94 1.51542917957e-38
0.0261778554405 -0.0401393783421 0.943 1.57088920967e-38
0.0280118783985 -0.0402670751979 0.946 1.44214014885e-38
0.0298255438868 -0.0403522064351 0.948 1.36863587868e-38
0.0315799876449 -0.0403522064351 0.948 2.25597898421e-38
0.0334399201099 -0.0404799032909 0.951 2.25655435735e-38
-0.0371542330027 -0.0389234821933 0.956 2.34903711327e-38
-0.035088875161 -0.0385977626771 0.948 6.34238895341e-39
-0.0333344314029 -0.0385977626771 0.948 9.73599752237e-39
-0.0314134265286 -0.0383941879794 0.943 1.09298589724e-38
-0.0296682361659 -0.0383941879794 0.943 1.15712725159e-38
-0.0279230458032 -0.0383941879794 0.943 1.24896274775e-38
-0.0260945748824 -0.0382720431608 0.94 1.30406404544e-38
-0.0243549365569 -0.0382720431608 0.94 1.28569694621e-38
-0.0226152982314 -0.0382720431608 0.94 1.34998179352e-38
-0.0208756599059 -0.0382720431608 0.94 1.24896274775e-38
-0.0190953066409 -0.0381906132817 0.938 1.23059564852e-38
-0.0173593696735 -0.0381906132817 0.938 1.23059564852e-38
-0.0156234327062 -0.0381906132817 0.938 1.24896274775e-38
-0.0138430794411 -0.0380684684631 0.935 1.2214120989e-38
-0.012112694511 -0.0380684684631 0.935 1.24896274775e-38
-0.010360101432 -0.0379870385841 0.933 1.33161469429e-38
-0.00863341786002 -0.0379870385841 0.933 1.12039305313e-38
-0.00690673428801 -0.0379870385841 0.933 1.09284240428e-38
-0.00518005071601 -0.0379870385841 0.933 1.24896274775e-38
-0.00345336714401 -0.0379870385841 0.933 1.2765133966e-38
-0.001726683572 -0.0379870385841 0.933 1.18467790044e-38
0.0 -0.0379870385841 0.933 1.28569694621e-38
0.001726683572 -0.0379870385841 0.933 1.30406404544e-38
0.00345336714401 -0.0379870385841 0.933 1.26732984698e-38
0.00518005071601 -0.0379870385841 0.933 1.29488049583e-38
0.00692153972057 -0.0380684684631 0.935 1.30406404544e-38
0.00865192465071 -0.0380684684631 0.935 1.32243114468e-38
0.0103823095809 -0.0380684684631 0.935 1.2214120989e-38
0.012112694511 -0.0380684684631 0.935 1.17549435082e-38
0.0138430794411 -0.0380684684631 0.935 1.23977919813e-38
0.0156234327062 -0.0381906132817 0.938 1.21222854929e-38
0.0173593696735 -0.0381906132817 0.938 1.12039305313e-38
0.0190953066409 -0.0381906132817 0.938 1.07447530505e-38
0.0208756599059 -0.0382720431608 0.94 1.35963169527e-38
0.0226152982314 -0.0382720431608 0.94 1.46018438891e-38
0.0244326650778 -0.0383941879794 0.943 1.62599148827e-38
0.0261778554405 -0.0383941879794 0.943 1.46022026215e-38
0.0280118783985 -0.038516332798 0.946 1.28569694621e-38
0.0298255438868 -0.0385977626771 0.948 2.27405237128e-38
0.0315799876449 -0.0385977626771 0.948 2.05376166658e-38
0.0334399201099 -0.0387199074957 0.951 2.29328687426e-38
-0.0371542330027 -0.0371542330027 0.956 2.32126968355e-38
-0.0353849838121 -0.0371542330027 0.956 5.88105907818e-39
-0.0335454088169 -0.0370765044818 0.954 8.90911932455e-39
-0.0315133631984 -0.0367655903981 0.946 9.73886738163e-39
-0.0296682361659 -0.0366489976167 0.943 1.1020259539e-38
-0.0279230458032 -0.0366489976167 0.943 1.18467790044e-38
-0.0260945748824 -0.0365324048353 0.94 1.26732984698e-38
-0.0243549365569 -0.0365324048353 0.94 1.29488049583e-38
-0.0226152982314 -0.0365324048353 0.94 1.35916534314e-38
-0.0208756599059 -0.0365324048353 0.94 1.30406404544e-38
-0.0190953066409 -0.0364546763144 0.938 1.17549435082e-38
-0.0173593696735 -0.0364546763144 0.938 1.16631080121e-38
-0.0156234327062 -0.0364546763144 0.938 1.23059564852e-38
-0.0138430794411 -0.036338083533 0.935 1.24896274775e-38
-0.012112694511 -0.036338083533 0.935 1.29488049583e-38
-0.0103823095809 -0.036338083533 0.935 1.33161469429e-38
-0.00865192465071 -0.036338083533 0.935 1.07447530505e-38
-0.00692153972057 -0.036338083533 0.935 8.54070114269e-39
-0.00519115479043 -0.036338083533 0.935 1.01937400735e-38
-0.00346076986028 -0.036338083533 0.935 1.1850007596e-38
-0.00173038493014 -0.036338083533 0.935 1.43532451338e-38
0.0 -0.036338083533 0.935 1.00201135886e-38
0.00173038493014 -0.036338083533 0.935 1.29488049583e-38
0.00346076986028 -0.036338083533 0.935 1.32243114468e-38
0.00519115479043 -0.036338083533 0.935 1.30406404544e-38
0.00692153972057 -0.036338083533 0.935 1.33161469429e-38
0.00865192465071 -0.036338083533 0.935 1.36834889275e-38
0.0103823095809 -0.036338083533 0.935 1.12957660274e-38
0.012112694511 -0.036338083533 0.935 1.12042892637e-38
0.0138430794411 -0.036338083533 0.935 1.11120950351e-38
0.0156234327062 -0.0364546763144 0.938 1.17549435082e-38
0.0173593696735 -0.0364546763144 0.938 1.15712725159e-38
0.0190953066409 -0.0364546763144 0.938 1.15712725159e-38
0.0208756599059 -0.0365324048353 0.94 1.35963169527e-38
0.0226152982314 -0.0365324048353 0.94 1.51542917957e-38
0.0244326650778 -0.0366489976167 0.943 1.48784265748e-38
0.0262611359986 -0.0367655903981 0.946 1.38671599199e-38
0.0280711001288 -0.036843318919 0.948 2.34634353737e-38
0.0298255438868 -0.036843318919 0.948 2.23840011536e-38
0.0315799876449 -0.036843318919 0.948 1.7585181695e-38
0.0336157346215 -0.0371542330027 0.956 2.34842600701e-38
-0.0372708257841 -0.0354960245563 0.959 2.33960273123e-38
-0.0353849838121 -0.0353849838121 0.956 5.14386398207e-39
-0.0335454088169 -0.0353109566493 0.954 6.97949770801e-39
-0.0316799243146 -0.0351999159051 0.951 8.36025874204e-39
-0.0297626207984 -0.0350148479982 0.946 1.00140151377e-38
-0.0280118783985 -0.0350148479982 0.946 1.12957660274e-38
-0.0261778554405 -0.034903807254 0.943 1.18467790044e-38
-0.0244326650778 -0.034903807254 0.943 1.28569694621e-38
-0.0226874747151 -0.034903807254 0.943 1.32243114468e-38
-0.0209422843524 -0.034903807254 0.943 1.14794370197e-38
-0.0191360215804 -0.0347927665098 0.94 1.05610820582e-38
-0.0173963832549 -0.0347927665098 0.94 1.12039305313e-38
-0.0156234327062 -0.034718739347 0.938 1.18467790044e-38
-0.0138874957388 -0.034718739347 0.938 1.25814629736e-38
-0.012112694511 -0.0346076986028 0.935 1.33161469429e-38
-0.0103823095809 -0.0346076986028 0.935 1.2765133966e-38
-0.00865192465071 -0.0346076986028 0.935 1.58215522893e-38
-0.00692153972057 -0.0346076986028 0.935 1.13201598311e-38
-0.00519115479043 -0.0346076986028 0.935 1.39966623187e-38
-0.00346076986028 -0.0346076986028 0.935 1.2705225654e-38
-0.00173038493014 -0.0346076986028 0.935 1.31661967968e-38
0.0 -0.0346076986028 0.935 9.84648710369e-39
0.00173038493014 -0.0346076986028 0.935 8.63253663885e-39
0.00346076986028 -0.0346076986028 0.935 1.12039305313e-38
0.00519115479043 -0.0346076986028 0.935 1.31324759506e-38
0.00692153972057 -0.0346076986028 0.935 1.33161469429e-38
0.00865192465071 -0.0346076986028 0.935 1.34998179352e-38
0.0103823095809 -0.0346076986028 0.935 1.12957660274e-38
0.0121515587715 -0.034718739347 0.938 1.09284240428e-38
0.0138874957388 -0.034718739347 0.938 1.17549435082e-38
0.0156234327062 -0.034718739347 0.938 1.25814629736e-38
0.0173593696735 -0.034718739347 0.938 1.34998179352e-38
0.0190953066409 -0.034718739347 0.938 1.25814629736e-38
0.0208756599059 -0.0347927665098 0.94 1.45161068439e-38
0.0226874747151 -0.034903807254 0.943 1.46018438891e-38
0.0245103935987 -0.0350148479982 0.946 1.5337962788e-38
0.0262611359986 -0.0350148479982 0.946 1.38671599199e-38
0.0280711001288 -0.035088875161 0.948 2.34774595687e-38
0.0298255438868 -0.035088875161 0.948 1.74057944721e-38
0.0317798609844 -0.0353109566493 0.954 1.64813578752e-38
0.0336157346215 -0.0353849838121 0.956 2.34910801898e-38
-0.0372708257841 -0.0337212233285 0.959 2.34899983873e-38
-0.0353849838121 -0.0336157346215 0.956 5.32717624198e-39
-0.0335454088169 -0.0335454088169 0.954 6.3366492349e-39
-0.0317798609844 -0.0335454088169 0.954 6.80013150457e-39
-0.0297626207984 -0.0332641055983 0.946 8.26734704866e-39
-0.0280118783985 -0.0332641055983 0.946 9.27538511196e-39
-0.0261778554405 -0.0331586168913 0.943 1.07447530505e-38
-0.0244326650778 -0.0331586168913 0.943 1.08365885466e-38
-0.0226874747151 -0.0331586168913 0.943 1.11120950351e-38
-0.0209422843524 -0.0331586168913 0.943 1.02855755697e-38
-0.0191360215804 -0.0330531281843 0.94 1.01937400735e-38
-0.0173963832549 -0.0330531281843 0.94 1.05610820582e-38
-0.0156567449294 -0.0330531281843 0.94 1.23059564852e-38
-0.0138874957388 -0.0329828023797 0.938 1.25814629736e-38
-0.0121515587715 -0.0329828023797 0.938 1.30406404544e-38
-0.0104156218041 -0.0329828023797 0.938 1.32243114468e-38
-0.00865192465071 -0.0328773136727 0.935 1.32451179263e-38
-0.00692153972057 -0.0328773136727 0.935 1.04814434638e-38
-0.00519115479043 -0.0328773136727 0.935 1.02884454289e-38
-0.00346076986028 -0.0328773136727 0.935 1.18604234475e-38
-0.00173038493014 -0.0328773136727 0.935 7.16352743273e-39
0.0 -0.0328773136727 0.935 1.150029815e-38
0.00173038493014 -0.0328773136727 0.935 1.03135566974e-38
0.00346076986028 -0.0328773136727 0.935 8.54464719917e-39
0.00519115479043 -0.0328773136727 0.935 1.28569694621e-38
0.00692153972057 -0.0328773136727 0.935 1.30406404544e-38
0.00865192465071 -0.0328773136727 0.935 1.33161469429e-38
0.0103823095809 -0.0328773136727 0.935 1.24896274775e-38
0.0121515587715 -0.0329828023797 0.938 1.24896274775e-38
0.0138874957388 -0.0329828023797 0.938 1.28569694621e-38
0.0156234327062 -0.0329828023797 0.938 1.34998179352e-38
0.0173593696735 -0.0329828023797 0.938 1.36834889275e-38
0.0191360215804 -0.0330531281843 0.94 1.41426664083e-38
0.0208756599059 -0.0330531281843 0.94 1.45107258578e-38
0.0226874747151 -0.0331586168913 0.943 1.50613801023e-38
0.0245103935987 -0.0332641055983 0.946 1.52468447567e-38
0.0263166563707 -0.0333344314029 0.948 1.40508309122e-38
0.0281599327241 -0.0334399201099 0.951 2.3477085422e-38
0.0300143131519 -0.0335454088169 0.954 1.74976425799e-38
0.0317798609844 -0.0335454088169 0.954 1.33459777846e-38
0.0336157346215 -0.0336157346215 0.956 2.34885802733e-38
-0.0372708257841 -0.0319464221007 0.959 2.2749571897e-38
-0.0354960245563 -0.0319464221007 0.959 5.9711009123e-39
-0.0336157346215 -0.0318464854309 0.956 6.52032022722e-39
-0.0317798609844 -0.0317798609844 0.954 6.43207205513e-39
-0.0299199285194 -0.0316799243146 0.951 6.70399121953e-39
-0.0280118783985 -0.0315133631984 0.946 7.71418167727e-39
-0.0262611359986 -0.0315133631984 0.946 8.0815236619e-39
-0.0244326650778 -0.0314134265286 0.943 8.35703015038e-39
-0.0226874747151 -0.0314134265286 0.943 8.54070114269e-39
-0.0210089087989 -0.0315133631984 0.946 9.1835496158e-39
-0.0191970939897 -0.0314134265286 0.943 1.01937400735e-38
-0.017451903627 -0.0314134265286 0.943 1.06529175543e-38
-0.0156567449294 -0.0313134898588 0.94 1.19386145005e-38
-0.0139171066039 -0.0313134898588 0.94 1.26732984698e-38
-0.0121515587715 -0.0312468654123 0.938 1.30406404544e-38
-0.0104156218041 -0.0312468654123 0.938 1.33161469429e-38
-0.00867968483676 -0.0312468654123 0.938 1.13876015236e-38
-0.00694374786941 -0.0312468654123 0.938 1.18467790044e-38
-0.00520781090205 -0.0312468654123 0.938 1.31324759506e-38
-0.0034718739347 -0.0312468654123 0.938 1.06529175543e-38
-0.00173593696735 -0.0312468654123 0.938 1.17549435082e-38
0.0 -0.0312468654123 0.938 1.07447530505e-38
0.00173593696735 -0.0312468654123 0.938 1.08365885466e-38
0.0034718739347 -0.0312468654123 0.938 1.19386145005e-38
0.00520781090205 -0.0312468654123 0.938 1.32243114468e-38
0.00694374786941 -0.0312468654123 0.938 1.30406404544e-38
0.00867968483676 -0.0312468654123 0.938 1.34079824391e-38
0.0104156218041 -0.0312468654123 0.938 1.34079824391e-38
0.0121515587715 -0.0312468654123 0.938 1.37753244237e-38
0.0138874957388 -0.0312468654123 0.938 1.35916534314e-38
0.0156234327062 -0.0312468654123 0.938 1.37753244237e-38
0.0173963832549 -0.0313134898588 0.94 1.34998179352e-38
0.0191360215804 -0.0313134898588 0.94 1.4510008393e-38
0.0209422843524 -0.0314134265286 0.943 1.46936793853e-38
0.0227596511988 -0.0315133631984 0.946 1.48784265748e-38
0.0245622126127 -0.0315799876449 0.948 1.49706208034e-38
0.0263166563707 -0.0315799876449 0.948 1.37753244237e-38
0.0281599327241 -0.0316799243146 0.951 2.34788888931e-38
0.0298255438868 -0.0315799876449 0.948 1.2609085369e-38
0.0315799876449 -0.0315799876449 0.948 1.61086292992e-38
0.0336157346215 -0.0318464854309 0.956 2.34910942027e-38
-0.0354960245563 -0.0301716208728 0.959 5.51048850189e-39
-0.0336157346215 -0.0300772362403 0.956 6.79582671569e-39
-0.0317798609844 -0.0300143131519 0.954 6.61502558263e-39
-0.0300143131519 -0.0300143131519 0.954 6.24481373874e-39
-0.0281599327241 -0.0299199285194 0.951 7.98968816575e-39
-0.0262611359986 -0.0297626207984 0.946 7.98968816575e-39
-0.0245103935987 -0.0297626207984 0.946 8.63253663885e-39
-0.0227596511988 -0.0297626207984 0.946 9.1835496158e-39
-0.0210089087989 -0.0297626207984 0.946 9.73456259275e-39
-0.019258166399 -0.0297626207984 0.946 1.02855755697e-38
-0.0175074239991 -0.0297626207984 0.946 1.11120950351e-38
-0.0157067132643 -0.0296682361659 0.943 1.18467790044e-38
-0.0139615229016 -0.0296682361659 0.943 1.26732984698e-38
-0.0121774682784 -0.0295738515333 0.94 1.30406404544e-38
-0.0104378299529 -0.0295738515333 0.94 1.29488049583e-38
-0.00869819162745 -0.0295738515333 0.94 1.26732984698e-38
-0.00694374786941 -0.029510928445 0.938 1.30406404544e-38
-0.00520781090205 -0.029510928445 0.938 1.26732984698e-38
-0.0034718739347 -0.029510928445 0.938 1.34998179352e-38
-0.00173593696735 -0.029510928445 0.938 1.25814629736e-38
0.0 -0.029510928445 0.938 1.19386145005e-38
0.00173593696735 -0.029510928445 0.938 1.23977919813e-38
0.0034718739347 -0.029510928445 0.938 1.17549435082e-38
0.00521891497647 -0.0295738515333 0.94 1.12039305313e-38
0.00695855330196 -0.0295738515333 0.94 1.26732984698e-38
0.00869819162745 -0.0295738515333 0.94 1.30406404544e-38
0.0104378299529 -0.0295738515333 0.94 1.34998179352e-38
0.0121774682784 -0.0295738515333 0.94 1.41426664083e-38
0.0139171066039 -0.0295738515333 0.94 1.33161469429e-38
0.0157067132643 -0.0296682361659 0.943 1.35916534314e-38
0.017451903627 -0.0296682361659 0.943 1.23977919813e-38
0.019258166399 -0.0297626207984 0.946 1.39589982186e-38
