# .PCD v0.7 - Point Cloud Data file format
VERSION 0.7
FIELDS x y z rgb
SIZE 4 4 4 4
TYPE F F F F
COUNT 1 1 1 1
WIDTH 840
HEIGHT 1
VIEWPOINT 0 0 0 1 0 0 0
POINTS 840
DATA ascii
0.00153421294876 -0.0889843510279 0.829 1.34414426438e-38
0.00306842589751 -0.0889843510279 0.829 1.92490442552e-38
0.00460263884627 -0.0889843510279 0.829 1.86965907434e-38
0.00612204636247 -0.0887696722558 0.827 1.40706368647e-38
0.00765255795309 -0.0887696722558 0.827 1.37079724143e-38
0.00918306954371 -0.0887696722558 0.827 9.55342374676e-39
0.0107135811343 -0.0887696722558 0.827 2.03205499285e-38
0.0122144818598 -0.0885549934838 0.825 1.78586689124e-38
0.0137412920923 -0.0885549934838 0.825 1.36834889275e-38
0.0152681023248 -0.0885549934838 0.825 1.18532361877e-38
0.0167949125573 -0.0885549934838 0.825 1.26732984698e-38
0.0183217227897 -0.0885549934838 0.825 1.31324899636e-38
0.0198485330222 -0.0885549934838 0.825 1.23059564852e-38
0.0213753432547 -0.0885549934838 0.825 1.73014495845e-38
0.0229021534872 -0.0885549934838 0.825 1.52774421086e-38
0.0244289637197 -0.0885549934838 0.825 2.34698238934e-38
0.0260186970405 -0.0887696722558 0.827 1.99912980387e-38
0.0275492086311 -0.0887696722558 0.827 1.23059564852e-38
0.0291500460264 -0.0889843510279 0.829 1.79291472186e-38
0.0306842589751 -0.0889843510279 0.829 1.76611320718e-38
0.0322962004448 -0.0891990298 0.831 1.94150672946e-38
0.0339155446308 -0.0894137085721 0.833 3.67341984632e-39
0.035542291533 -0.0896283873442 0.835 2.15503546842e-38
0.0370876085562 -0.0896283873442 0.835 5.60411766008e-39
0.0387254595329 -0.0898430661163 0.837 1.58237789526e-38
0.0403707132258 -0.0900577448883 0.839 1.74717437817e-38
0.0419234329653 -0.0900577448883 0.839 1.85859946634e-38
0.0434761527047 -0.0900577448883 0.839 2.26508868539e-38
0.0453508906023 -0.0907017812046 0.845 1.68446921462e-38
0.0469147144162 -0.0907017812046 0.845 2.31075433988e-38
-0.0235683979523 -0.0895599122186 0.849 2.34921858142e-38
-0.0219971714221 -0.0895599122186 0.849 1.86047468395e-38
-0.020425944892 -0.0895599122186 0.849 1.41699651037e-38
-0.0188547183618 -0.0895599122186 0.849 1.52788686305e-38
-0.0172427768921 -0.0893489348046 0.847 1.43572430383e-38
-0.0156012245573 -0.0889269799768 0.843 1.74950838089e-38
-0.0140077898783 -0.0887160025628 0.841 1.64853375628e-38
-0.0124513687807 -0.0887160025628 0.841 1.48189470602e-38
-0.0108690381762 -0.0885050251489 0.839 1.39837941949e-38
-0.00929411028789 -0.0882940477349 0.837 1.31540012963e-38
-0.00772658511588 -0.088083070321 0.835 1.74893006502e-38
-0.0061812680927 -0.088083070321 0.835 1.91543669257e-38
-0.00462484699511 -0.0878720929071 0.833 1.90686130649e-38
-0.00307582861379 -0.0876611154931 0.831 1.86101558515e-38
-0.0015379143069 -0.0876611154931 0.831 6.61216833506e-39
0.0 -0.0876611154931 0.831 2.19200984944e-38
0.00153421294876 -0.0874501380792 0.829 4.77544580022e-39
0.00306842589751 -0.0874501380792 0.829 7.62234618111e-39
0.00460263884627 -0.0874501380792 0.829 2.15524930656e-38
0.00613685179503 -0.0874501380792 0.829 2.34860789555e-38
0.00767106474379 -0.0874501380792 0.829 5.41829427332e-39
0.00920527769254 -0.0874501380792 0.829 2.3489996986e-38
0.0107135811343 -0.0872391606652 0.827 1.84175081413e-38
0.0122440927249 -0.0872391606652 0.827 1.20610459474e-38
0.0137746043156 -0.0872391606652 0.827 2.23559990064e-38
0.0153051159062 -0.0872391606652 0.827 1.9246935301e-38
0.0167949125573 -0.0870281832513 0.825 1.69362417775e-38
0.0183217227897 -0.0870281832513 0.825 2.28450437626e-38
0.0198485330222 -0.0870281832513 0.825 1.76695482703e-38
0.0213753432547 -0.0870281832513 0.825 1.2886819922e-38
0.0229576738593 -0.0872391606652 0.827 2.20152985082e-38
0.0244881854499 -0.0872391606652 0.827 2.20038218737e-38
0.0260186970405 -0.0872391606652 0.827 1.8423962522e-38
0.0276158330776 -0.0874501380792 0.829 1.2214120989e-38
0.0291500460264 -0.0874501380792 0.829 1.67291564891e-38
0.0307582861379 -0.0876611154931 0.831 1.69178413273e-38
0.0323739289658 -0.0878720929071 0.833 1.89543764115e-38
0.0339155446308 -0.0878720929071 0.833 5.23462328101e-39
0.035542291533 -0.088083070321 0.835 6.15297824259e-39
0.0371764411516 -0.0882940477349 0.837 1.56408142147e-38
0.0387254595329 -0.0882940477349 0.837 1.69257726766e-38
0.0404669485374 -0.0887160025628 0.841 1.55338797276e-38
0.0419234329653 -0.0885050251489 0.839 2.25482389388e-38
0.0434761527047 -0.0885050251489 0.839 2.00715167706e-38
0.0453508906023 -0.0891379573907 0.845 1.72981551318e-38
0.0469147144162 -0.0891379573907 0.845 2.3476695861e-38
-0.0236239183244 -0.0881959617442 0.851 2.34900278146e-38
-0.0220489904361 -0.0881959617442 0.851 1.86965739278e-38
-0.0204740625478 -0.0881959617442 0.851 1.54625438267e-38
-0.0188991346595 -0.0881959617442 0.851 1.53695999034e-38
-0.0172834918317 -0.0879886856884 0.849 1.40781422192e-38
-0.0156382381387 -0.0875741335768 0.845 1.8045341486e-38
-0.0140411021016 -0.087366857521 0.843 1.6577520581e-38
-0.0124809796459 -0.087366857521 0.843 1.62983959399e-38
-0.0108949476832 -0.0871595814652 0.841 1.68497298142e-38
-0.00931631843672 -0.0869523054094 0.839 1.71252797429e-38
-0.00774509190657 -0.0867450293536 0.837 1.53738612521e-38
-0.0061812680927 -0.0865377532978 0.835 1.51891715158e-38
-0.00463595106953 -0.0865377532978 0.835 1.02123941587e-38
-0.00308323133007 -0.086330477242 0.833 9.27718437919e-39
-0.00154161566504 -0.086330477242 0.833 1.56203132182e-38
0.0 -0.086330477242 0.833 2.10842435786e-38
0.0015379143069 -0.0861232011862 0.831 1.77706897896e-38
0.00307582861379 -0.0861232011862 0.831 1.78455401471e-38
0.00461374292069 -0.0861232011862 0.831 2.09089103121e-38
0.00613685179503 -0.0859159251304 0.829 1.86901069354e-38
0.00767106474379 -0.0859159251304 0.829 1.8694438349e-38
0.00920527769254 -0.0859159251304 0.829 1.66708456574e-38
0.0107135811343 -0.0857086490746 0.827 1.58258766964e-38
0.0122440927249 -0.0857086490746 0.827 1.20631773223e-38
0.0137746043156 -0.0857086490746 0.827 2.13486896183e-38
0.0153051159062 -0.0857086490746 0.827 1.63927775953e-38
0.0168356274968 -0.0857086490746 0.827 1.49039974692e-38
0.0183661390874 -0.0857086490746 0.827 2.16507997581e-38
0.019896650678 -0.0857086490746 0.827 2.32123619252e-38
0.0214271622687 -0.0857086490746 0.827 1.16904445425e-38
0.0229576738593 -0.0857086490746 0.827 2.27475175934e-38
0.0244881854499 -0.0857086490746 0.827 2.34889754395e-38
0.0260816201289 -0.0859159251304 0.829 1.88802561305e-38
0.0276158330776 -0.0859159251304 0.829 1.32243114468e-38
0.0291500460264 -0.0859159251304 0.829 1.70900707177e-38
0.0307582861379 -0.0861232011862 0.831 1.64582896999e-38
0.0323739289658 -0.086330477242 0.833 1.75700476716e-38
0.0339969745099 -0.0865377532978 0.835 1.43507564277e-38
0.0356274227702 -0.0867450293536 0.837 1.43554479749e-38
0.0371764411516 -0.0867450293536 0.837 1.68392999497e-38
0.0388179934863 -0.0869523054094 0.839 1.76633026831e-38
0.040563183849 -0.087366857521 0.843 1.61856488667e-38
0.042023369635 -0.0871595814652 0.841 2.34792434216e-38
0.0435797907326 -0.0871595814652 0.841 1.85913069859e-38
0.0452435512162 -0.087366857521 0.843 1.96008724645e-38
0.046803673672 -0.087366857521 0.843 2.34781644218e-38
-0.0236239183244 -0.086621033856 0.851 2.34950640813e-38
-0.0220489904361 -0.086621033856 0.851 2.05401362005e-38
-0.0204740625478 -0.086621033856 0.851 1.62919443617e-38
-0.0188991346595 -0.086621033856 0.851 1.2788134879e-38
-0.0172834918317 -0.0864174591583 0.849 1.44440114392e-38
-0.0156752517201 -0.0862138844606 0.847 1.55528519075e-38
-0.0140744143248 -0.086010309763 0.845 1.43586233173e-38
-0.0124809796459 -0.0858067350653 0.843 1.5095459681e-38
-0.0109208571901 -0.0858067350653 0.843 1.33416281542e-38
-0.00933852658556 -0.0856031603676 0.841 1.27870166428e-38
-0.00776359869727 -0.08539958567 0.839 1.69394213237e-38
-0.00619607352526 -0.0851960109723 0.837 1.8878028066e-38
-0.00464705514394 -0.0851960109723 0.837 1.71270930231e-38
-0.00309063404635 -0.0849924362746 0.835 1.71227041563e-38
-0.00154531702318 -0.0849924362746 0.835 1.6102421547e-38
0.0 -0.0849924362746 0.835 1.3510221175e-38
0.00154161566504 -0.084788861577 0.833 1.53462136334e-38
0.00308323133007 -0.084788861577 0.833 1.2765133966e-38
0.00462484699511 -0.084788861577 0.833 1.06529175543e-38
0.00615165722759 -0.0845852868793 0.831 2.21970735437e-38
0.00768957153448 -0.0845852868793 0.831 1.73186939634e-38
0.00922748584138 -0.0845852868793 0.831 1.47369024364e-38
0.0107394906413 -0.0843817121817 0.829 1.80522176576e-38
0.0122737035901 -0.0843817121817 0.829 1.82395810713e-38
0.0138079165388 -0.0843817121817 0.829 1.97964951314e-38
0.0153421294876 -0.0843817121817 0.829 1.89713951814e-38
0.0168356274968 -0.084178137484 0.827 1.91496459512e-38
0.0183661390874 -0.084178137484 0.827 2.13706297483e-38
0.019896650678 -0.084178137484 0.827 7.71426855778e-39
0.0214271622687 -0.084178137484 0.827 1.18467790044e-38
0.0229576738593 -0.084178137484 0.827 1.3506657673e-38
0.0244881854499 -0.084178137484 0.827 2.22826074006e-38
0.0260816201289 -0.0843817121817 0.829 1.59235023578e-38
0.0276158330776 -0.0843817121817 0.829 1.2497160858e-38
0.0291500460264 -0.0843817121817 0.829 1.52493572848e-38
0.0308323133007 -0.084788861577 0.833 1.72851945224e-38
0.0324516574867 -0.0849924362746 0.835 1.60956056313e-38
0.0340784043889 -0.0851960109723 0.837 1.72037860881e-38
0.0356274227702 -0.0851960109723 0.837 1.74839280719e-38
0.0372652737469 -0.08539958567 0.839 1.73878046024e-38
0.0390030613933 -0.0858067350653 0.843 1.78470101092e-38
0.0406594191607 -0.086010309763 0.845 2.00618758372e-38
0.042023369635 -0.0856031603676 0.841 1.93285427197e-38
0.0435797907326 -0.0856031603676 0.841 1.99678150791e-38
0.0452435512162 -0.0858067350653 0.843 1.96004997191e-38
0.0471367959045 -0.0864174591583 0.849 2.34788706762e-38
0.0487080224347 -0.0864174591583 0.849 2.34936445659e-38
-0.0237627192546 -0.0855457893165 0.856 2.34925389415e-38
-0.0221785379709 -0.0855457893165 0.856 2.12780683796e-38
-0.0205462390315 -0.0853459159769 0.854 1.56469252773e-38
-0.0188991346595 -0.0850461059677 0.851 1.44508834069e-38
-0.0173242067712 -0.0850461059677 0.851 1.29682003303e-38
-0.0157122653015 -0.0848462326281 0.849 1.3339828887e-38
-0.0141077265481 -0.0846463592886 0.847 1.14887640623e-38
-0.012510590511 -0.0844464859491 0.845 1.30578918398e-38
-0.0109208571901 -0.0842466126096 0.843 1.40734492707e-38
-0.0093607347344 -0.0842466126096 0.843 1.44443841846e-38
-0.00778210548797 -0.08404673927 0.841 1.28799283362e-38
-0.00621087895782 -0.0838468659305 0.839 1.42571020461e-38
-0.00464705514394 -0.083646992591 0.837 1.99814889495e-38
-0.00309803676263 -0.083646992591 0.837 1.92467937698e-38
-0.00154531702318 -0.0834471192515 0.835 1.82301461288e-38
0.0 -0.0834471192515 0.835 1.64708397289e-38
0.00154531702318 -0.0834471192515 0.835 1.54502460314e-38
0.00309063404635 -0.0834471192515 0.835 1.52594003909e-38
0.00463595106953 -0.0834471192515 0.835 1.58893344974e-38
0.00616646266014 -0.0832472459119 0.833 2.05397003967e-38
0.00770807832518 -0.0832472459119 0.833 1.17798305689e-38
0.00924969399022 -0.0832472459119 0.833 2.11876552014e-38
0.0107654001483 -0.0830473725724 0.831 5.05095228869e-39
0.0123033144552 -0.0830473725724 0.831 8.54070114269e-39
0.0138412287621 -0.0830473725724 0.831 1.08365885466e-38
0.0153421294876 -0.0828474992329 0.829 1.06529175543e-38
0.0168763424363 -0.0828474992329 0.829 1.12039305313e-38
0.0184105553851 -0.0828474992329 0.829 1.1020259539e-38
0.0199447683338 -0.0828474992329 0.829 1.28569694621e-38
0.0214789812826 -0.0828474992329 0.829 1.34115753683e-38
0.0230131942314 -0.0828474992329 0.829 1.2765133966e-38
0.0245474071801 -0.0828474992329 0.829 1.25814629736e-38
0.0261445432172 -0.0830473725724 0.831 1.33161469429e-38
0.0276824575241 -0.0830473725724 0.831 1.52486384187e-38
0.029220371831 -0.0830473725724 0.831 1.54348205379e-38
0.0309803676263 -0.083646992591 0.837 1.69142680162e-38
0.0325293860076 -0.083646992591 0.837 1.59998324865e-38
0.034159834268 -0.0838468659305 0.839 1.7568275029e-38
0.0357125540074 -0.0838468659305 0.839 1.76665200644e-38
0.0374429389376 -0.0842466126096 0.843 1.76622615183e-38
0.0390955953468 -0.0844464859491 0.845 1.85867555685e-38
0.0406594191607 -0.0844464859491 0.845 2.23721321556e-38
0.0422232429745 -0.0844464859491 0.845 1.89615342441e-38
0.0439943428442 -0.0848462326281 0.849 2.03412316926e-38
0.0455655693744 -0.0848462326281 0.849 1.92306424037e-38
0.0471367959045 -0.0848462326281 0.849 2.34857048088e-38
0.0487080224347 -0.0848462326281 0.849 2.34914879676e-38
-0.0240680813011 -0.0850405539305 0.867 2.34925361389e-38
-0.0221785379709 -0.0839616080328 0.856 2.21078290484e-38
-0.0205943566873 -0.0839616080328 0.856 1.5095553568e-38
-0.0190101754037 -0.0839616080328 0.856 1.50022593201e-38
-0.0173852791805 -0.0837654360515 0.854 1.26015519884e-38
-0.0157492788829 -0.0834711780794 0.851 1.25976227475e-38
-0.0141410387714 -0.083275006098 0.849 1.29620808599e-38
-0.0125402013761 -0.0830788341166 0.847 1.32379671003e-38
-0.0109467666971 -0.0828826621352 0.845 1.5914103849e-38
-0.00938294288323 -0.0828826621352 0.845 1.33355184929e-38
-0.00780061227866 -0.0826864901538 0.843 1.55471135903e-38
-0.00622568439037 -0.0824903181724 0.841 1.36138948406e-38
-0.00466926329278 -0.0824903181724 0.841 1.42520797924e-38
-0.00309803676263 -0.0820979742097 0.837 1.69314549419e-38
-0.00154901838131 -0.0820979742097 0.837 1.55492561757e-38
0.0 -0.0820979742097 0.837 1.63768518383e-38
0.00154531702318 -0.0819018022283 0.835 1.85913097885e-38
0.00309063404635 -0.0819018022283 0.835 1.46240852983e-38
0.00463595106953 -0.0819018022283 0.835 1.26772445263e-38
0.0061812680927 -0.0819018022283 0.835 1.24896274775e-38
0.00772658511588 -0.0819018022283 0.835 1.16631080121e-38
0.00924969399022 -0.0817056302469 0.833 1.0469246562e-38
0.0107913096553 -0.0817056302469 0.833 1.14794370197e-38
0.0123329253203 -0.0817056302469 0.833 1.29488049583e-38
0.0138412287621 -0.0815094582655 0.831 1.2858072284e-38
0.015379143069 -0.0815094582655 0.831 1.33161469429e-38
0.0169170573759 -0.0815094582655 0.831 1.33161539494e-38
0.0184549716828 -0.0815094582655 0.831 1.3685641322e-38
0.0199928859897 -0.0815094582655 0.831 1.37785530154e-38
0.0215308002966 -0.0815094582655 0.831 1.3687434984e-38
0.0230687146034 -0.0815094582655 0.831 1.39629414725e-38
0.0246066289103 -0.0815094582655 0.831 1.46090185373e-38
0.0262074663056 -0.0817056302469 0.833 1.44242713477e-38
0.0277490819706 -0.0817056302469 0.833 1.51575203874e-38
0.0293610234403 -0.0819018022283 0.835 1.48805789693e-38
0.0310543947891 -0.0822941461911 0.839 1.67245027769e-38
0.0326071145285 -0.0822941461911 0.839 1.64558108029e-38
0.0342412641471 -0.0824903181724 0.841 1.7566119832e-38
0.0357976852446 -0.0824903181724 0.841 1.82168646219e-38
0.0374429389376 -0.0826864901538 0.843 1.76655083269e-38
0.0391881293003 -0.0830788341166 0.847 1.96948687629e-38
0.0407556544723 -0.0830788341166 0.847 2.24678604589e-38
0.0423231796443 -0.0830788341166 0.847 1.93274679237e-38
0.0440979808721 -0.0834711780794 0.851 1.96008556489e-38
0.0456729087604 -0.0834711780794 0.851 1.9140250245e-38
0.0472478366487 -0.0834711780794 0.851 2.3486423675e-38
0.048822764537 -0.0834711780794 0.851 2.34922040311e-38
-0.0240680813011 -0.083436015177 0.867 2.34885900824e-38
-0.0224635425477 -0.083436015177 0.867 2.31216138367e-38
-0.0206424743431 -0.0825698973724 0.858 1.37115457254e-38
-0.0190101754037 -0.0823774267492 0.856 1.47242276918e-38
-0.01742599412 -0.0823774267492 0.856 1.27834293187e-38
-0.0157492788829 -0.0818962501911 0.851 1.43496844344e-38
-0.0141743509946 -0.0818962501911 0.851 1.29635312038e-38
-0.0125698122412 -0.0817037795678 0.849 1.34205380733e-38
-0.0109726762041 -0.0815113089446 0.847 1.5357334338e-38
-0.00938294288323 -0.0813188383213 0.845 1.39769320364e-38
-0.00781911906936 -0.0813188383213 0.845 1.38786393569e-38
-0.00624048982293 -0.0811263676981 0.843 1.54498985093e-38
-0.0046803673672 -0.0811263676981 0.843 1.42545909193e-38
-0.00311284219519 -0.0809338970749 0.841 1.61892642168e-38
-0.00155271973945 -0.0807414264516 0.839 1.42581782433e-38
0.0 -0.0805489558284 0.837 1.3695327097e-38
0.00154531702318 -0.0803564852051 0.835 1.53576930704e-38
0.00309063404635 -0.0803564852051 0.835 1.79459529911e-38
0.00464705514394 -0.0805489558284 0.837 1.60081295747e-38
0.0061812680927 -0.0803564852051 0.835 1.17639118184e-38
0.00772658511588 -0.0803564852051 0.835 1.35916534314e-38
0.00927190213905 -0.0803564852051 0.835 1.37753328315e-38
0.0108172191622 -0.0803564852051 0.835 1.31324759506e-38
0.0123329253203 -0.0801640145819 0.833 1.30406404544e-38
0.0138745409853 -0.0801640145819 0.833 1.31324787532e-38
0.0154161566504 -0.0801640145819 0.833 1.31324787532e-38
0.0169577723154 -0.0801640145819 0.833 1.29488077609e-38
0.0184993879804 -0.0801640145819 0.833 1.3958995416e-38
0.0200410036455 -0.0801640145819 0.833 1.37756831561e-38
0.0215826193105 -0.0801640145819 0.833 1.37756831561e-38
0.0231242349755 -0.0801640145819 0.833 1.41437524146e-38
0.0246658506406 -0.0801640145819 0.833 1.43335120488e-38
0.026270389394 -0.0803564852051 0.835 1.46061514806e-38
0.0278157064172 -0.0803564852051 0.835 1.4698701639e-38
0.0295016750496 -0.0807414264516 0.839 1.53415529147e-38
0.0311284219519 -0.0809338970749 0.841 1.60819892141e-38
0.0326848430495 -0.0809338970749 0.841 1.60862912004e-38
0.0343226940261 -0.0811263676981 0.843 1.52576263471e-38
0.0359679477191 -0.0813188383213 0.845 1.89493541578e-38
0.0375317715329 -0.0813188383213 0.845 1.82222568184e-38
0.0392806632538 -0.0817037795678 0.849 2.04316897123e-38
0.0408518897839 -0.0817037795678 0.849 2.25604638666e-38
0.0424231163141 -0.0817037795678 0.849 1.77644610179e-38
0.044253437914 -0.082184956126 0.854 1.9784830723e-38
0.0458339178395 -0.082184956126 0.854 2.01565321472e-38
0.047414397765 -0.082184956126 0.854 2.34831740638e-38
-0.0241791220453 -0.0822090149539 0.871 2.34903879483e-38
-0.0224635425477 -0.0818314764236 0.867 2.34896901017e-38
-0.0206905919989 -0.0811707839958 0.86 1.41711015568e-38
-0.0190545917013 -0.0809820147307 0.858 1.51847840503e-38
-0.01742599412 -0.0807932454656 0.856 1.42628795997e-38
-0.015804799255 -0.0806044762005 0.854 1.44422331914e-38
-0.0141743509946 -0.0803213223028 0.851 1.29656653814e-38
-0.0125698122412 -0.0801325530377 0.849 1.29595669305e-38
-0.0109726762041 -0.0799437837726 0.847 1.32343559541e-38
-0.00940515103207 -0.0799437837726 0.847 1.43403321684e-38
-0.00781911906936 -0.0797550145075 0.845 1.36960445618e-38
-0.00625529525549 -0.0797550145075 0.845 1.31396505987e-38
-0.0046803673672 -0.0795662452424 0.843 1.65576739908e-38
-0.00312024491147 -0.0795662452424 0.843 1.30542722859e-38
-0.00155642109759 -0.0793774759773 0.841 1.72984760292e-38
0.0 -0.0791887067122 0.839 1.18571822442e-38
0.00154901838131 -0.078999937447 0.837 1.37850101987e-38
0.00309803676263 -0.078999937447 0.837 1.38782806245e-38
0.00464705514394 -0.078999937447 0.837 1.57279105195e-38
0.00619607352526 -0.078999937447 0.837 1.71172755261e-38
0.00774509190657 -0.078999937447 0.837 1.25968884671e-38
0.00927190213905 -0.0788111681819 0.835 1.33175818725e-38
0.0108172191622 -0.0788111681819 0.835 1.35916534314e-38
0.0123625361854 -0.0788111681819 0.835 1.35001766676e-38
0.0139078532086 -0.0788111681819 0.835 1.3958995416e-38
0.0154531702318 -0.0788111681819 0.835 1.36834889275e-38
0.0169984872549 -0.0788111681819 0.835 1.34079824391e-38
0.0185438042781 -0.0788111681819 0.835 1.37771180857e-38
0.0200891213013 -0.0788111681819 0.835 1.37767593533e-38
0.0216344383245 -0.0788111681819 0.835 1.42362955665e-38
0.0231797553476 -0.0788111681819 0.835 1.39600786197e-38
0.0247250723708 -0.0788111681819 0.835 1.38711059763e-38
0.0263333124823 -0.078999937447 0.837 1.4513595717e-38
0.0278823308637 -0.078999937447 0.837 1.48816551665e-38
0.0295720008543 -0.0793774759773 0.841 1.47008554347e-38
0.0311284219519 -0.0793774759773 0.841 1.54391253267e-38
0.0327625715704 -0.0795662452424 0.843 1.65462071655e-38
0.0344041239052 -0.0797550145075 0.845 1.58118637118e-38
0.0360530789563 -0.0799437837726 0.847 1.88539495545e-38
0.0376206041283 -0.0799437837726 0.847 1.73892913801e-38
0.0393731972073 -0.0803213223028 0.851 2.34766454143e-38
0.0409481250955 -0.0803213223028 0.851 2.06250464796e-38
0.0425230529838 -0.0803213223028 0.851 1.9975721205e-38
0.0443570759419 -0.0807932454656 0.856 1.84927298428e-38
0.0459412572255 -0.0807932454656 0.856 2.04313365851e-38
0.0476364792533 -0.0809820147307 0.858 2.34874774514e-38
0.0492243618951 -0.0809820147307 0.858 2.34925585596e-38
-0.0241791220453 -0.0805970734842 0.871 2.34911124196e-38
-0.0225153615616 -0.0804120055772 0.869 2.3490762095e-38
-0.0207868273105 -0.0799493358098 0.864 1.45398742671e-38
-0.0191434242967 -0.0797642679028 0.862 1.68460976486e-38
-0.0175074239991 -0.0795791999959 0.86 1.42642865033e-38
-0.0158418128364 -0.0792090641819 0.856 1.41649232318e-38
-0.0142243193295 -0.079023996275 0.854 1.23210232463e-38
-0.0125994231063 -0.0787463944145 0.851 1.31457560561e-38
-0.011024495218 -0.0787463944145 0.851 1.34198206085e-38
-0.0094273591809 -0.0785613265075 0.849 1.49871238954e-38
-0.00785613265075 -0.0785613265075 0.849 1.39762145715e-38
-0.0062849061206 -0.0785613265075 0.849 1.36949683646e-38
-0.00470257551603 -0.0783762586006 0.847 1.39733447123e-38
-0.00312024491147 -0.0780061227866 0.843 1.37925435792e-38
-0.00155642109759 -0.0778210548797 0.841 1.57282902714e-38
0.0 -0.0778210548797 0.841 1.49057673092e-38
0.00154901838131 -0.0774509190657 0.837 1.29588494657e-38
0.00309803676263 -0.0774509190657 0.837 1.41559395074e-38
0.00465815921836 -0.0776359869727 0.839 1.45275862809e-38
0.00619607352526 -0.0774509190657 0.837 1.3695327097e-38
0.00774509190657 -0.0774509190657 0.837 1.65562488703e-38
0.00929411028789 -0.0774509190657 0.837 1.21262315493e-38
0.0108431286692 -0.0774509190657 0.837 1.37778355505e-38
0.0123921470505 -0.0774509190657 0.837 1.37753244237e-38
0.0139411654318 -0.0774509190657 0.837 1.36834889275e-38
0.0154531702318 -0.0772658511588 0.835 1.34998179352e-38
0.0169984872549 -0.0772658511588 0.835 1.37753244237e-38
0.0185438042781 -0.0772658511588 0.835 1.38689605884e-38
0.0200891213013 -0.0772658511588 0.835 1.34097761011e-38
0.0216344383245 -0.0772658511588 0.835 1.44217602209e-38
0.0231797553476 -0.0772658511588 0.835 1.38689788053e-38
0.0247250723708 -0.0772658511588 0.835 1.43288485275e-38
0.0263962355707 -0.0776359869727 0.839 1.45128782522e-38
0.0279489553102 -0.0776359869727 0.839 1.48809377017e-38
0.0295720008543 -0.0778210548797 0.841 1.47912545999e-38
0.0312024491147 -0.0780061227866 0.843 1.51614748516e-38
0.0328403000913 -0.0781911906936 0.845 1.51639943863e-38
0.0344041239052 -0.0781911906936 0.845 1.59948508704e-38
0.0360530789563 -0.0783762586006 0.847 1.63654186441e-38
0.0376206041283 -0.0783762586006 0.847 1.85812961097e-38
0.0393731972073 -0.0787463944145 0.851 2.32954967592e-38
0.0409481250955 -0.0787463944145 0.851 2.05292186841e-38
0.0425230529838 -0.0787463944145 0.851 2.07100716652e-38
0.0443570759419 -0.0792090641819 0.856 2.07039760169e-38
0.0460485966116 -0.0793941320889 0.858 1.88614871389e-38
0.0476364792533 -0.0793941320889 0.858 2.34874830566e-38
0.0492243618951 -0.0793941320889 0.858 2.34950794956e-38
-0.0241791220453 -0.0789851320145 0.871 2.29343330995e-38
-0.0225153615616 -0.0788037654657 0.869 2.34950808969e-38
-0.0208590037943 -0.0786223989168 0.867 1.41721679449e-38
-0.0191434242967 -0.0781689825448 0.862 1.50937360839e-38
-0.0175481389386 -0.0781689825448 0.862 1.50000368607e-38
-0.0158418128364 -0.0776248828983 0.856 1.27812769243e-38
-0.0142243193295 -0.0774435163495 0.854 1.34252015946e-38
-0.012643839404 -0.0774435163495 0.854 1.29617193249e-38
-0.011024495218 -0.0771714665262 0.851 1.31468252469e-38
-0.00944956732974 -0.0771714665262 0.851 1.36974794914e-38
-0.00787463944145 -0.0771714665262 0.851 1.4064821476e-38
-0.00629971155316 -0.0771714665262 0.851 1.35138084991e-38
-0.00470257551603 -0.0768087334286 0.847 1.40662564057e-38
-0.00312764762774 -0.0766273668797 0.845 1.3884020343e-38
-0.00156382381387 -0.0766273668797 0.845 1.35173958232e-38
0.0 -0.0764460003309 0.843 1.51787220331e-38
0.00156012245573 -0.0764460003309 0.843 1.24146524045e-38
0.00312024491147 -0.0764460003309 0.843 1.3695327097e-38
0.00466926329278 -0.0762646337821 0.841 1.35080687806e-38
0.00622568439037 -0.0762646337821 0.841 1.36928159701e-38
0.00778210548797 -0.0762646337821 0.841 1.49842526348e-38
0.00931631843672 -0.0760832672332 0.839 1.46169106502e-38
0.0108690381762 -0.0760832672332 0.839 1.23073914148e-38
0.0123921470505 -0.0759019006844 0.837 1.40508309122e-38
0.0139411654318 -0.0759019006844 0.837 1.35005354e-38
0.0154901838131 -0.0759019006844 0.837 1.34101348335e-38
0.0170392021945 -0.0759019006844 0.837 1.38671599199e-38
0.0185882205758 -0.0759019006844 0.837 1.42345173188e-38
0.0201372389571 -0.0759019006844 0.837 1.36849630935e-38
0.0216862573384 -0.0759019006844 0.837 1.36845651248e-38
0.0232352757197 -0.0759019006844 0.837 1.41455362676e-38
0.0248435158313 -0.0760832672332 0.839 1.4973849395e-38
0.0263962355707 -0.0760832672332 0.839 1.41462747519e-38
0.0279489553102 -0.0760832672332 0.839 1.47012127658e-38
0.0296423266589 -0.0764460003309 0.843 1.44257062773e-38
0.0312024491147 -0.0764460003309 0.843 1.46079507478e-38
0.0328403000913 -0.0766273668797 0.845 1.59019097498e-38
0.0344855537843 -0.0768087334286 0.847 1.7191945116e-38
0.0360530789563 -0.0768087334286 0.847 1.47973796755e-38
0.0377094367236 -0.0769900999774 0.849 2.03344325924e-38
0.0393731972073 -0.0771714665262 0.851 2.2282041276e-38
0.0409481250955 -0.0771714665262 0.851 2.10802386676e-38
0.0425230529838 -0.0771714665262 0.851 2.08022518808e-38
0.0443570759419 -0.0776248828983 0.856 2.03387752163e-38
0.0460485966116 -0.0778062494471 0.858 2.09863082302e-38
0.0476364792533 -0.0778062494471 0.858 2.34910984066e-38
0.0492243618951 -0.0778062494471 0.858 2.34900404263e-38
-0.0241791220453 -0.0773731905448 0.871 2.34878726176e-38
-0.0225153615616 -0.0771955253541 0.869 2.34940075022e-38
-0.0208590037943 -0.0770178601634 0.867 1.24222740668e-38
-0.0191878405943 -0.0767513623774 0.864 1.62000065708e-38
-0.0175481389386 -0.0765736971867 0.862 1.29707030494e-38
-0.0158788264178 -0.0762183668053 0.858 1.42556895373e-38
-0.0142576315527 -0.0760407016146 0.856 1.30582183424e-38
-0.012643839404 -0.075863036424 0.854 1.31486189089e-38
-0.0110633594785 -0.075863036424 0.854 1.26869303013e-38
-0.00944956732974 -0.0755965386379 0.851 1.30546310183e-38
-0.00787463944145 -0.0755965386379 0.851 1.42488512008e-38
-0.00629971155316 -0.0755965386379 0.851 1.42510049965e-38
-0.00471367959045 -0.0754188734472 0.849 1.39769320364e-38
-0.00312764762774 -0.0750635430659 0.845 1.40691262649e-38
-0.00156382381387 -0.0750635430659 0.845 1.44393381088e-38
0.0 -0.0750635430659 0.845 1.3885814005e-38
0.00156012245573 -0.0748858778752 0.843 1.62878862014e-38
0.00312024491147 -0.0748858778752 0.843 1.20412119689e-38
0.0046803673672 -0.0748858778752 0.843 1.40633865464e-38
0.00624048982293 -0.0748858778752 0.843 1.36938921673e-38
0.00778210548797 -0.0747082126845 0.841 1.45236402244e-38
0.00933852658556 -0.0747082126845 0.841 1.54477349045e-38
0.0108949476832 -0.0747082126845 0.841 1.24056840943e-38
0.0123921470505 -0.0743528823031 0.837 1.40508309122e-38
0.0139411654318 -0.0743528823031 0.837 1.3960789078e-38
0.0154901838131 -0.0743528823031 0.837 1.33179406049e-38
0.0170392021945 -0.0743528823031 0.837 1.35001766676e-38
0.0185882205758 -0.0743528823031 0.837 1.32257463764e-38
0.0201372389571 -0.0743528823031 0.837 1.37771180857e-38
0.0216862573384 -0.0743528823031 0.837 1.38707472439e-38
0.0232352757197 -0.0743528823031 0.837 1.37774894298e-38
0.0249027375615 -0.0747082126845 0.841 1.46954730473e-38
0.0265220817475 -0.0748858778752 0.843 1.44210427561e-38
0.0280822042032 -0.0748858778752 0.843 1.45157481115e-38
0.0296423266589 -0.0748858778752 0.843 1.46075836076e-38
0.0312764762774 -0.0750635430659 0.845 1.40572880955e-38
0.0329180286122 -0.0752412082565 0.847 1.48830900961e-38
0.0346484135424 -0.0755965386379 0.851 1.69142834305e-38
0.0362233414307 -0.0755965386379 0.851 1.59959228638e-38
0.037931518212 -0.075863036424 0.854 2.22712638895e-38
0.0395119981375 -0.075863036424 0.854 2.02523179037e-38
0.041092478063 -0.075863036424 0.854 2.07100520471e-38
0.0426729579885 -0.075863036424 0.854 1.98810340665e-38
0.0444607139698 -0.0762183668053 0.858 1.9510471898e-38
0.0460485966116 -0.0762183668053 0.858 2.21859472338e-38
0.0476364792533 -0.0762183668053 0.858 2.34900194068e-38
0.0492243618951 -0.0762183668053 0.858 2.34889670317e-38
-0.0241791220453 -0.0757612490751 0.871 2.33027596891e-38
-0.0225671805756 -0.0757612490751 0.871 2.34943564256e-38
-0.0209071214501 -0.0755872852426 0.869 1.20573941636e-38
-0.0192544650409 -0.07541332141 0.867 1.61978555777e-38
-0.0176499262875 -0.07541332141 0.867 1.44465519933e-38
-0.0159158399992 -0.0748044479961 0.86 1.30596644824e-38
-0.014290943776 -0.0746304841636 0.858 1.36124725227e-38
-0.0126734502691 -0.074456520331 0.856 1.29671031136e-38
-0.0110633594785 -0.0742825564985 0.854 1.27798419946e-38
-0.00948287955299 -0.0742825564985 0.854 1.34248428622e-38
-0.0079023996275 -0.0742825564985 0.854 1.36974794914e-38
-0.00629971155316 -0.0740216107496 0.851 1.41598855639e-38
-0.00471367959045 -0.0738476469171 0.849 1.39762145715e-38
-0.0031424530603 -0.0738476469171 0.849 1.3884020343e-38
-0.00156752517201 -0.0736736830845 0.847 1.47152033297e-38
0.0 -0.073499719252 0.845 1.46226503687e-38
0.00156382381387 -0.073499719252 0.845 1.43457089506e-38
0.00312764762774 -0.073499719252 0.845 1.49921447478e-38
0.0046803673672 -0.0733257554194 0.843 1.35130910343e-38
0.00624048982293 -0.0733257554194 0.843 1.36024154036e-38
0.00780061227866 -0.0733257554194 0.843 1.48009403749e-38
0.0093607347344 -0.0733257554194 0.843 1.46187043122e-38
0.0108949476832 -0.0731517915869 0.841 1.4711974738e-38
0.0124513687807 -0.0731517915869 0.841 1.3593088361e-38
0.0139411654318 -0.0728038639218 0.837 1.36834889275e-38
0.0154901838131 -0.0728038639218 0.837 1.36838476599e-38
0.0170392021945 -0.0728038639218 0.837 1.34998179352e-38
0.0185882205758 -0.0728038639218 0.837 1.35001766676e-38
0.0201853566129 -0.0729778277543 0.839 1.38671599199e-38
0.0217380763524 -0.0729778277543 0.839 1.34083411715e-38
0.0232907960918 -0.0729778277543 0.839 1.37767593533e-38
0.0249619592917 -0.0733257554194 0.843 1.46965492445e-38
0.0265220817475 -0.0733257554194 0.843 1.3685641322e-38
0.0280822042032 -0.0733257554194 0.843 1.4147688662e-38
0.0296423266589 -0.0733257554194 0.843 1.46972919327e-38
0.0312764762774 -0.073499719252 0.845 1.4796288064e-38
0.0329957571332 -0.0738476469171 0.849 1.41494823241e-38
0.0346484135424 -0.0740216107496 0.851 1.64540269499e-38
0.0362233414307 -0.0740216107496 0.851 1.54409217914e-38
0.037931518212 -0.0742825564985 0.854 2.22705660429e-38
0.0395119981375 -0.0742825564985 0.854 2.22784721688e-38
0.041092478063 -0.0742825564985 0.854 2.13579003531e-38
0.0426729579885 -0.0742825564985 0.854 1.96944778006e-38
0.044253437914 -0.0742825564985 0.854 2.11674722996e-38
0.0458339178395 -0.0742825564985 0.854 2.15412966909e-38
0.047414397765 -0.0742825564985 0.854 2.34853502803e-38
-0.0241791220453 -0.0741493076054 0.871 2.3119094302e-38
-0.0225671805756 -0.0741493076054 0.871 2.34950865021e-38
-0.0209071214501 -0.073979045131 0.869 1.16907556308e-38
-0.0192544650409 -0.0738087826566 0.867 1.69339940947e-38
-0.0176499262875 -0.0738087826566 0.867 1.52802166796e-38
-0.0159158399992 -0.0732128639962 0.86 1.40781394166e-38
-0.014290943776 -0.0730426015218 0.858 1.34295260017e-38
-0.0127030611342 -0.0730426015218 0.858 1.35213418796e-38
-0.0110892689855 -0.0728723390474 0.856 1.37964896357e-38
-0.00948287955299 -0.072702076573 0.854 1.35209831472e-38
-0.0079023996275 -0.072702076573 0.854 1.37950547061e-38
-0.006321919702 -0.072702076573 0.854 1.44414905033e-38
-0.00472478366487 -0.0724466828613 0.851 1.37929023116e-38
-0.00314985577658 -0.0724466828613 0.851 1.48048864314e-38
-0.00157122653015 -0.0722764203869 0.849 1.49028203785e-38
0.0 -0.0722764203869 0.849 1.38890425967e-38
0.00156752517201 -0.0721061579125 0.847 1.5454920763e-38
0.00312764762774 -0.0719358954381 0.845 1.62861009472e-38
0.00469147144162 -0.0719358954381 0.845 1.42571020461e-38
0.00625529525549 -0.0719358954381 0.845 1.44368451988e-38
0.00780061227866 -0.0717656329637 0.843 1.4159168099e-38
0.0093607347344 -0.0717656329637 0.843 1.44357507847e-38
0.0109208571901 -0.0717656329637 0.843 1.31432379228e-38
0.0124809796459 -0.0717656329637 0.843 1.42380892286e-38
0.0140077898783 -0.0715953704893 0.841 1.36834889275e-38
0.0155642109759 -0.0715953704893 0.841 1.36834889275e-38
0.0171206320735 -0.0715953704893 0.841 1.38682361171e-38
0.0186770531711 -0.0715953704893 0.841 1.3958995416e-38
0.0202334742687 -0.0715953704893 0.841 1.46047137484e-38
0.0217898953663 -0.0715953704893 0.841 1.35923708962e-38
0.0233463164639 -0.0715953704893 0.841 1.41437524146e-38
0.0249619592917 -0.0717656329637 0.843 1.39629723011e-38
0.0265220817475 -0.0717656329637 0.843 1.47909000714e-38
0.0280822042032 -0.0717656329637 0.843 1.44235552842e-38
0.0297126524636 -0.0719358954381 0.845 1.47934168035e-38
0.0313505034402 -0.0721061579125 0.847 1.40580546058e-38
0.0330734856541 -0.0724466828613 0.851 1.56221250971e-38
0.0346484135424 -0.0724466828613 0.851 1.4151294203e-38
0.0363510382865 -0.072702076573 0.854 1.64547570264e-38
0.037931518212 -0.072702076573 0.854 2.070178859e-38
0.039604532091 -0.0728723390474 0.856 2.16320027405e-38
0.041092478063 -0.072702076573 0.854 2.02486577121e-38
0.0426729579885 -0.072702076573 0.854 2.20914997173e-38
0.0440979808721 -0.0724466828613 0.851 2.18171422936e-38
0.0456729087604 -0.0724466828613 0.851 2.15412770727e-38
0.0472478366487 -0.0724466828613 0.851 2.34860551335e-38
-0.0241791220453 -0.0725373661358 0.871 2.28435850109e-38
-0.0225671805756 -0.0725373661358 0.871 2.34939990945e-38
-0.0209071214501 -0.0723708050195 0.869 1.33495903321e-38
-0.0192544650409 -0.0722042439032 0.867 1.68386133135e-38
-0.0176499262875 -0.0722042439032 0.867 1.51887637379e-38
-0.0159528535806 -0.0717878411125 0.862 1.3617882936e-38
-0.0143242559993 -0.0716212799963 0.86 1.35213685043e-38
-0.0127030611342 -0.07145471888 0.858 1.28774172093e-38
-0.0111151784924 -0.07145471888 0.858 1.32411718699e-38
-0.00950508770183 -0.0712881577637 0.856 1.41634756905e-38
-0.0079023996275 -0.0711215966475 0.854 1.43525248663e-38
-0.006321919702 -0.0711215966475 0.854 1.36121011786e-38
-0.0047414397765 -0.0711215966475 0.854 1.51779681345e-38
-0.00314985577658 -0.0708717549731 0.851 1.47184319214e-38
-0.00157492788829 -0.0708717549731 0.851 1.53641544576e-38
0.0 -0.0708717549731 0.851 1.48127785444e-38
0.00157122653015 -0.0707051938568 0.849 1.57350795624e-38
0.00313505034402 -0.0705386327405 0.847 1.58269150586e-38
0.00469147144162 -0.0703720716242 0.845 1.69325283365e-38
0.00625529525549 -0.0703720716242 0.845 1.50879263004e-38
0.00781911906936 -0.0703720716242 0.845 1.53637915213e-38
0.00938294288323 -0.0703720716242 0.845 1.4438620644e-38
0.0109208571901 -0.070205510508 0.843 1.37878800579e-38
0.0124809796459 -0.070205510508 0.843 1.44228364181e-38
0.0140411021016 -0.070205510508 0.843 1.41430251407e-38
0.0155642109759 -0.0700389493917 0.841 1.47912545999e-38
0.0171206320735 -0.0700389493917 0.841 1.36849238572e-38
0.0186770531711 -0.0700389493917 0.841 1.39593625562e-38
0.0202334742687 -0.0700389493917 0.841 1.40508309122e-38
0.0217898953663 -0.0700389493917 0.841 1.39600716132e-38
0.0233463164639 -0.0700389493917 0.841 1.41455362676e-38
0.0249619592917 -0.070205510508 0.843 1.39615065429e-38
0.0265850048358 -0.0703720716242 0.845 1.46965492445e-38
0.0281488286497 -0.0703720716242 0.845 1.38714955373e-38
0.0297829782682 -0.0705386327405 0.847 1.42395241582e-38
0.031424530603 -0.0707051938568 0.849 1.49767528855e-38
0.0330734856541 -0.0708717549731 0.851 1.41505585213e-38
0.034770558361 -0.0711215966475 0.854 1.47019442436e-38
0.0363510382865 -0.0711215966475 0.854 1.64561625288e-38
0.037931518212 -0.0711215966475 0.854 1.95901132949e-38
0.039604532091 -0.0712881577637 0.856 2.27386683936e-38
0.0411887133746 -0.0712881577637 0.856 2.10780708589e-38
0.0426729579885 -0.0711215966475 0.854 2.19089329482e-38
0.0440979808721 -0.0708717549731 0.851 2.34777230128e-38
0.0456729087604 -0.0708717549731 0.851 2.20043655775e-38
0.0472478366487 -0.0708717549731 0.851 2.34878656111e-38
-0.0225671805756 -0.0709254246661 0.871 2.34943620308e-38
-0.0209552391059 -0.0709254246661 0.871 1.40867952373e-38
-0.0192988813385 -0.0707625649079 0.869 1.25983584292e-38
-0.0176499262875 -0.0705997051498 0.867 1.56476161175e-38
-0.015989867162 -0.0703554155126 0.864 1.52784384318e-38
-0.0143575682225 -0.0701925557545 0.862 1.31536649847e-38
-0.0127326719993 -0.0700296959964 0.86 1.36138948406e-38
-0.0111410879994 -0.0700296959964 0.86 1.33348010281e-38
-0.00950508770183 -0.0697039764801 0.856 1.43485788099e-38
-0.0079023996275 -0.069541116722 0.854 1.42588957082e-38
-0.006321919702 -0.069541116722 0.854 1.42617655674e-38
-0.0047414397765 -0.069541116722 0.854 1.29681765082e-38
-0.003160959851 -0.069541116722 0.854 1.51822729234e-38
-0.00157492788829 -0.0692968270848 0.851 1.51826316558e-38
0.0 -0.0692968270848 0.851 1.54588556091e-38
0.00157492788829 -0.0692968270848 0.851 1.51822729234e-38
0.0031424530603 -0.0691339673266 0.849 1.65662681543e-38
0.00470257551603 -0.0689711075685 0.847 1.67495832168e-38
0.00627010068805 -0.0689711075685 0.847 1.61031390119e-38
0.00781911906936 -0.0688082478104 0.845 1.46255328397e-38
0.00938294288323 -0.0688082478104 0.845 1.57311335059e-38
0.0109467666971 -0.0688082478104 0.845 1.33251152531e-38
0.0124809796459 -0.0686453880522 0.843 1.44235538829e-38
0.0140411021016 -0.0686453880522 0.843 1.43292072599e-38
0.0156012245573 -0.0686453880522 0.843 1.3958995416e-38
0.0171613470131 -0.0686453880522 0.843 1.45103671254e-38
0.0187214694688 -0.0686453880522 0.843 1.39597128808e-38
0.0202815919245 -0.0686453880522 0.843 1.4144101338e-38
0.0218417143803 -0.0686453880522 0.843 1.43281310627e-38
0.023401836836 -0.0686453880522 0.843 1.39625827401e-38
0.025021181022 -0.0688082478104 0.845 1.36852825896e-38
0.0265850048358 -0.0688082478104 0.845 1.44221189533e-38
0.0282154530962 -0.0689711075685 0.847 1.43288485275e-38
0.0298533040729 -0.0691339673266 0.849 1.460794234e-38
0.031424530603 -0.0691339673266 0.849 1.43335120488e-38
0.0330734856541 -0.0692968270848 0.851 1.44264237422e-38
0.034770558361 -0.069541116722 0.854 1.54377114166e-38
0.0363510382865 -0.069541116722 0.854 1.56278662169e-38
0.037931518212 -0.069541116722 0.854 1.85780913401e-38
0.0396970660444 -0.0698668362382 0.858 2.24606731991e-38
0.0411887133746 -0.0697039764801 0.856 2.26458239626e-38
0.0426729579885 -0.069541116722 0.854 2.17249018222e-38
0.044253437914 -0.069541116722 0.854 2.23720564855e-38
0.0458339178395 -0.069541116722 0.854 2.27419908723e-38
-0.0225671805756 -0.0693134831964 0.871 2.34940046997e-38
-0.0209552391059 -0.0693134831964 0.871 1.26116413374e-38
-0.0192988813385 -0.0691543247964 0.869 1.16764245514e-38
-0.017690641227 -0.0691543247964 0.869 1.72127880294e-38
-0.015989867162 -0.0687564287964 0.864 1.62950888755e-38
-0.0143575682225 -0.0685972703964 0.862 1.51887301068e-38
-0.0127622828645 -0.0685972703964 0.862 1.35224250833e-38
-0.0111410879994 -0.0684381119964 0.86 1.44450848338e-38
-0.00952729585067 -0.0682789535964 0.858 1.34287889187e-38
-0.00793941320889 -0.0682789535964 0.858 1.49035476524e-38
-0.00633672513455 -0.0681197951965 0.856 1.45369133235e-38
-0.0047414397765 -0.0679606367965 0.854 1.48152896712e-38
-0.003160959851 -0.0679606367965 0.854 1.48152896712e-38
-0.0015804799255 -0.0679606367965 0.854 1.57372319569e-38
0.0 -0.0677218991965 0.851 1.5276260814e-38
0.00157492788829 -0.0677218991965 0.851 1.61045739415e-38
0.0031424530603 -0.0675627407965 0.849 1.73081211665e-38
0.00471367959045 -0.0675627407965 0.849 1.56443202635e-38
0.00627010068805 -0.0674035823965 0.847 1.69329024832e-38
0.00783762586006 -0.0674035823965 0.847 1.5920587657e-38
0.00940515103207 -0.0674035823965 0.847 1.45336847318e-38
0.0109467666971 -0.0672444239965 0.845 1.36903048433e-38
0.012510590511 -0.0672444239965 0.845 1.49734906626e-38
0.0140744143248 -0.0672444239965 0.845 1.42348606369e-38
0.0156382381387 -0.0672444239965 0.845 1.43292072599e-38
0.0172020619526 -0.0672444239965 0.845 1.43284897951e-38
0.0187658857665 -0.0672444239965 0.845 1.46050724808e-38
0.0203297095803 -0.0672444239965 0.845 1.36838476599e-38
0.0218935333942 -0.0672444239965 0.845 1.40526245742e-38
0.0234573572081 -0.0672444239965 0.845 1.41455362676e-38
0.0250804027522 -0.0674035823965 0.847 1.38703885115e-38
0.0267108510126 -0.0675627407965 0.849 1.41455362676e-38
0.0282820775427 -0.0675627407965 0.849 1.40522784535e-38
0.0299236298775 -0.0677218991965 0.851 1.48823768352e-38
0.03160959851 -0.0679606367965 0.854 1.41494823241e-38
0.0331900784355 -0.0679606367965 0.854 1.43353057108e-38
0.034770558361 -0.0679606367965 0.854 1.5350888365e-38
0.0364361695237 -0.0681197951965 0.856 1.56274948728e-38
0.0380203508073 -0.0681197951965 0.856 1.51697565255e-38
0.0397895999979 -0.0684381119964 0.86 2.10673705438e-38
0.0412849486862 -0.0682789535964 0.858 2.31982648627e-38
0.0427728946582 -0.0681197951965 0.856 2.17245360833e-38
0.0443570759419 -0.0681197951965 0.856 2.33869048593e-38
0.0459412572255 -0.0681197951965 0.856 2.34838172598e-38
-0.0225671805756 -0.0677015417267 0.871 2.3495076693e-38
-0.0209552391059 -0.0677015417267 0.871 1.35339493619e-38
-0.0193432976362 -0.0677015417267 0.871 1.29635410129e-38
-0.017690641227 -0.0675460846849 0.869 1.42596944483e-38
-0.0160824011154 -0.0675460846849 0.869 1.62011206031e-38
-0.0143908804458 -0.0671574420802 0.864 1.53724109082e-38
-0.0127622828645 -0.0670019850384 0.862 1.3984850774e-38
-0.0111410879994 -0.0668465279965 0.86 1.49078426322e-38
-0.0095495039995 -0.0668465279965 0.86 1.4168853874e-38
-0.00793941320889 -0.0666910709547 0.858 1.44436428977e-38
-0.00635153056711 -0.0666910709547 0.858 1.47230954426e-38
-0.00475254385092 -0.0665356139128 0.856 1.50918723569e-38
-0.00316836256728 -0.0665356139128 0.856 1.47205843158e-38
-0.0015804799255 -0.066380156871 0.854 1.6566280766e-38
0.0 -0.066380156871 0.854 1.51876539095e-38
0.0015804799255 -0.066380156871 0.854 1.67538992161e-38
0.00314985577658 -0.0661469713082 0.851 1.64798080391e-38
0.00471367959045 -0.0659915142663 0.849 1.54617254684e-38
0.0062849061206 -0.0659915142663 0.849 1.73949470207e-38
0.00785613265075 -0.0659915142663 0.849 1.63822328244e-38
0.0094273591809 -0.0659915142663 0.849 1.41641903527e-38
0.0109726762041 -0.0658360572245 0.847 1.48895472794e-38
0.0125402013761 -0.0658360572245 0.847 1.4700495301e-38
0.0141077265481 -0.0658360572245 0.847 1.51636188383e-38
0.0156382381387 -0.0656806001826 0.845 1.39615065429e-38
0.0172020619526 -0.0656806001826 0.845 1.46936793853e-38
0.0187658857665 -0.0656806001826 0.845 1.4970262071e-38
0.0203778272361 -0.0658360572245 0.847 1.40537007714e-38
0.0219453524082 -0.0658360572245 0.847 1.45139544494e-38
0.0235683979523 -0.0659915142663 0.849 1.4145895e-38
0.0251396244824 -0.0659915142663 0.849 1.4145895e-38
0.0267737741009 -0.0661469713082 0.851 1.44210427561e-38
0.0283487019892 -0.0661469713082 0.851 1.42398828906e-38
0.0299236298775 -0.0661469713082 0.851 1.38736171032e-38
0.03160959851 -0.066380156871 0.854 1.4149124993e-38
0.0331900784355 -0.066380156871 0.854 1.41505627252e-38
0.03485198824 -0.0665356139128 0.856 1.46118883965e-38
0.0365213007609 -0.0666910709547 0.858 1.46097486138e-38
0.038198015998 -0.0668465279965 0.86 1.69160869017e-38
0.0398821339514 -0.0670019850384 0.862 1.69221727409e-38
0.0413811839978 -0.0668465279965 0.86 2.17212570449e-38
0.042872831328 -0.0666910709547 0.858 2.34777202102e-38
0.0444607139698 -0.0666910709547 0.858 2.34816326355e-38
0.0460485966116 -0.0666910709547 0.858 2.34859836672e-38
-0.0225671805756 -0.066089600257 0.871 2.34925725726e-38
-0.0209552391059 -0.066089600257 0.871 1.61154494189e-38
-0.0193432976362 -0.066089600257 0.871 1.14891564259e-38
-0.0177313561665 -0.066089600257 0.871 1.20476985795e-38
-0.0160824011154 -0.0659378445733 0.869 1.6752884676e-38
-0.0144741610039 -0.0659378445733 0.869 1.4911438364e-38
-0.0127918937296 -0.065558455364 0.864 1.40799176644e-38
-0.0111669975064 -0.0654066996803 0.862 1.51858742605e-38
-0.0095495039995 -0.0652549439966 0.86 1.51865777123e-38
-0.00795791999959 -0.0652549439966 0.86 1.42621242998e-38
-0.00636633599967 -0.0652549439966 0.86 1.45390657179e-38
-0.00476364792533 -0.0651031883129 0.858 1.52776957437e-38
-0.00317576528356 -0.0651031883129 0.858 1.56439615311e-38
-0.00158418128364 -0.0649514326292 0.856 1.63826153789e-38
0.0 -0.0649514326292 0.856 1.62954265884e-38
0.00158418128364 -0.0649514326292 0.856 1.55560790979e-38
0.003160959851 -0.0647996769455 0.854 1.77708971818e-38
0.0047414397765 -0.0647996769455 0.854 1.76754799667e-38
0.00629971155316 -0.0645720434199 0.851 1.48156680218e-38
0.00787463944145 -0.0645720434199 0.851 1.40641040112e-38
0.00944956732974 -0.0645720434199 0.851 1.48934933359e-38
0.0109985857111 -0.0644202877362 0.849 1.4889188547e-38
0.0125698122412 -0.0644202877362 0.849 1.50696309477e-38
0.0141410387714 -0.0644202877362 0.849 1.48838075609e-38
0.0156752517201 -0.0642685320525 0.847 1.47873085435e-38
0.0172427768921 -0.0642685320525 0.847 1.46936807866e-38
0.0188103020641 -0.0642685320525 0.847 1.46018438891e-38
0.020425944892 -0.0644202877362 0.849 1.46018438891e-38
0.0219971714221 -0.0644202877362 0.849 1.51535743309e-38
0.0236239183244 -0.0645720434199 0.851 1.36834987366e-38
0.0251988462126 -0.0645720434199 0.851 1.44181728968e-38
0.0267737741009 -0.0645720434199 0.851 1.43277723303e-38
0.0283487019892 -0.0645720434199 0.851 1.4515032048e-38
0.0300291185845 -0.0647996769455 0.854 1.39647351345e-38
0.0316836256728 -0.0649514326292 0.856 1.39643960203e-38
0.0333455354773 -0.0651031883129 0.858 1.4702650498e-38
0.0349334181191 -0.0651031883129 0.858 1.44253545514e-38
0.0366064319981 -0.0652549439966 0.86 1.49788814578e-38
0.038198015998 -0.0652549439966 0.86 1.59026426289e-38
0.0398821339514 -0.0654066996803 0.862 1.64594023308e-38
0.0415736546211 -0.065558455364 0.864 1.59987913217e-38
0.0430727046675 -0.0654066996803 0.862 2.07010220798e-38
0.0446679900256 -0.0654066996803 0.862 1.96009159048e-38
-0.0210033567617 -0.0646257131129 0.873 1.80512185318e-38
-0.0193877139339 -0.0646257131129 0.873 1.16778538758e-38
-0.0177313561665 -0.0644776587873 0.871 1.0200568601e-38
-0.0161194146968 -0.0644776587873 0.871 1.7298925846e-38
-0.0145074732272 -0.0644776587873 0.871 1.5003310294e-38
-0.0128659208924 -0.0643296044618 0.869 1.70312063731e-38
-0.0111929070134 -0.0639594686478 0.864 1.49089188294e-38
-0.00957171214834 -0.0638114143223 0.862 1.42614124402e-38
-0.00797642679028 -0.0638114143223 0.862 1.45390657179e-38
-0.00636633599967 -0.0636633599967 0.86 1.61978737945e-38
-0.00477475199975 -0.0636633599967 0.86 1.65666310906e-38
-0.00317576528356 -0.0635153056711 0.858 1.51844295218e-38
-0.00158788264178 -0.0635153056711 0.858 1.6014896445e-38
0.0 -0.0633672513455 0.856 1.62918322579e-38
0.00158418128364 -0.0633672513455 0.856 1.75847164639e-38
0.00316836256728 -0.0633672513455 0.856 1.83223403573e-38
0.0047414397765 -0.06321919702 0.854 1.5371372546e-38
0.006321919702 -0.06321919702 0.854 1.12132575739e-38
0.00787463944145 -0.0629971155316 0.851 1.46136820585e-38
0.00944956732974 -0.0629971155316 0.851 1.5074294469e-38
0.011024495218 -0.0629971155316 0.851 1.47977117833e-38
0.0125994231063 -0.0629971155316 0.851 1.50707071449e-38
0.0141743509946 -0.0629971155316 0.851 1.52504320807e-38
0.0157122653015 -0.062849061206 0.849 1.45125195198e-38
0.0172834918317 -0.062849061206 0.849 1.48780678424e-38
0.0188547183618 -0.062849061206 0.849 1.4510008393e-38
0.0204740625478 -0.0629971155316 0.851 1.51564441901e-38
0.0220489904361 -0.0629971155316 0.851 1.47862323463e-38
0.0236239183244 -0.0629971155316 0.851 1.47865910787e-38
0.0251988462126 -0.0629971155316 0.851 1.44185316292e-38
