# .PCD v0.7 - Point Cloud Data file format
VERSION 0.7
FIELDS x y z rgb
SIZE 4 4 4 4
TYPE F F F F
COUNT 1 1 1 1
WIDTH 854
HEIGHT 1
VIEWPOINT 0 0 0 1 0 0 0
POINTS 854
DATA ascii
0.0360882418586 -0.155901204829 0.78 1.91582681407e-38
0.0375798891887 -0.156101078169 0.781 1.86090067868e-38
0.0390252695422 -0.156101078169 0.781 1.91582975679e-38
0.0404706498956 -0.156101078169 0.781 1.95298840856e-38
-0.0275325525195 -0.155051743136 0.783 1.932887763e-38
-0.0260168463614 -0.154655697815 0.781 2.15433650074e-38
-0.024571466008 -0.154655697815 0.781 8.73800396647e-39
-0.0231260856546 -0.154655697815 0.781 6.15441317221e-39
-0.0216807053012 -0.154655697815 0.781 4.86728129637e-39
-0.0202094154408 -0.154457675155 0.78 6.24481373874e-39
-0.0187658857665 -0.154457675155 0.78 8.63253663885e-39
-0.0172335234968 -0.153665584513 0.776 8.81620763117e-39
-0.0157566815992 -0.153269539192 0.774 8.90804312733e-39
-0.0143057492086 -0.153071516532 0.773 9.45905610427e-39
-0.0128751742877 -0.153071516532 0.773 9.73456259275e-39
-0.0113853776366 -0.15227942589 0.769 1.01019045774e-38
-0.00993629592506 -0.151883380569 0.767 1.07447530505e-38
-0.00851682507863 -0.151883380569 0.767 1.08365885466e-38
-0.00709735423219 -0.151883380569 0.767 1.1020259539e-38
-0.00567048066947 -0.151685357908 0.766 1.13876015236e-38
-0.0042528605021 -0.151685357908 0.766 1.12957660274e-38
-0.00283524033474 -0.151685357908 0.766 1.13876015236e-38
-0.00141391880923 -0.151289312587 0.764 1.12957660274e-38
0.0 -0.151289312587 0.764 1.14794370197e-38
0.00141391880923 -0.151289312587 0.764 1.18467804057e-38
0.00282043490218 -0.150893267267 0.762 1.19386145005e-38
0.00423065235327 -0.150893267267 0.762 1.2214120989e-38
0.00564086980436 -0.150893267267 0.762 1.25814629736e-38
0.00705108725545 -0.150893267267 0.762 1.23977919813e-38
0.00846130470654 -0.150893267267 0.762 1.23977919813e-38
0.00987152215763 -0.150893267267 0.762 1.35923722975e-38
0.0112817396087 -0.150893267267 0.762 7.07133320417e-39
0.0126919570598 -0.150893267267 0.762 2.06366254088e-38
0.0141021745109 -0.150893267267 0.762 1.37136224497e-38
0.015512391962 -0.150893267267 0.762 1.20569961948e-38
0.0169226094131 -0.150893267267 0.762 1.19626593809e-38
0.0183328268642 -0.150893267267 0.762 1.13065658347e-38
0.0198466823432 -0.151685357908 0.766 1.02217786545e-38
0.0212643025105 -0.151685357908 0.766 1.23311448251e-38
0.022711533543 -0.151883380569 0.767 1.64854006212e-38
0.0241310043894 -0.151883380569 0.767 1.83418506359e-38
0.0255504752359 -0.151883380569 0.767 1.8982140338e-38
0.0269699460823 -0.151883380569 0.767 1.82384264014e-38
0.0284634440915 -0.15227942589 0.769 1.87934134608e-38
0.0298866162961 -0.15227942589 0.769 1.92616068959e-38
0.0313912183798 -0.152675471211 0.771 1.56606243711e-38
0.0330309200355 -0.153665584513 0.776 1.63026684989e-38
0.0344670469936 -0.153665584513 0.776 2.22911469135e-38
0.0360882418586 -0.154457675155 0.78 1.95291680221e-38
0.0375798891887 -0.154655697815 0.781 1.76888455515e-38
0.0389753012073 -0.154457675155 0.78 1.94409352643e-38
0.0404188308816 -0.154457675155 0.78 1.45567304864e-38
-0.0274622267148 -0.153210317462 0.781 1.92388848413e-38
-0.0260168463614 -0.153210317462 0.781 2.11760496475e-38
-0.024571466008 -0.153210317462 0.781 1.43608527831e-38
-0.0231260856546 -0.153210317462 0.781 3.489748854e-39
-0.0216807053012 -0.153210317462 0.781 5.60376032897e-39
-0.0202353249478 -0.153210317462 0.781 5.14278778485e-39
-0.0187658857665 -0.15301414548 0.78 8.26519465422e-39
-0.0172779397944 -0.152621801518 0.778 8.81620763117e-39
-0.0157973965387 -0.152229457555 0.776 8.81620763117e-39
-0.0143242559993 -0.151837113592 0.774 9.36722060812e-39
-0.0128751742877 -0.151640941611 0.773 9.82639808891e-39
-0.0113853776366 -0.150856253685 0.769 1.03774110659e-38
-0.00996220543204 -0.150856253685 0.769 1.07447530505e-38
-0.00851682507863 -0.150463909722 0.767 1.1020259539e-38
-0.00709735423219 -0.150463909722 0.767 1.11120950351e-38
-0.00567788338575 -0.150463909722 0.767 1.09284240428e-38
-0.0042528605021 -0.150267737741 0.766 1.1020259539e-38
-0.00283524033474 -0.150267737741 0.766 1.09284240428e-38
-0.00141762016737 -0.150267737741 0.766 1.1020259539e-38
0.0 -0.149875393778 0.764 1.13876015236e-38
0.00141391880923 -0.149875393778 0.764 1.16631080121e-38
0.00282043490218 -0.149483049815 0.762 1.19386145005e-38
0.00423065235327 -0.149483049815 0.762 1.23059606891e-38
0.00564086980436 -0.149483049815 0.762 1.21222854929e-38
0.00705108725545 -0.149483049815 0.762 1.23059564852e-38
0.00846130470654 -0.149483049815 0.762 1.21222854929e-38
0.00987152215763 -0.149483049815 0.762 1.34079824391e-38
0.0112817396087 -0.149483049815 0.762 6.97949770801e-39
0.0126919570598 -0.149483049815 0.762 2.10965091441e-38
0.0141391880923 -0.149875393778 0.764 1.59277188649e-38
0.0155531069015 -0.149875393778 0.764 1.86070926131e-38
0.0170114420084 -0.150267737741 0.766 1.82412009724e-38
0.0184290621758 -0.150267737741 0.766 2.01777968514e-38
0.0198725918501 -0.150463909722 0.767 1.96264405563e-38
0.0212920626966 -0.150463909722 0.767 1.80576883268e-38
0.022711533543 -0.150463909722 0.767 1.69498567933e-38
0.0241939274778 -0.150856253685 0.769 1.50065753194e-38
0.0256170996824 -0.150856253685 0.769 1.90688681012e-38
0.027040271887 -0.150856253685 0.769 1.8611918685e-38
0.0284634440915 -0.150856253685 0.769 2.14659923127e-38
0.029964344817 -0.151248597648 0.771 1.50998093114e-38
0.0314726482588 -0.151640941611 0.773 1.82416886242e-38
0.0330309200355 -0.152229457555 0.776 1.57502584274e-38
0.0344670469936 -0.152229457555 0.776 2.10947112781e-38
0.0360882418586 -0.15301414548 0.78 1.84243030375e-38
0.0375798891887 -0.153210317462 0.781 1.76902902902e-38
0.0389753012073 -0.15301414548 0.78 1.77814363475e-38
0.0404188308816 -0.15301414548 0.78 6.70585214389e-39
-0.0274622267148 -0.151764937108 0.781 1.85023763814e-38
-0.0260168463614 -0.151764937108 0.781 2.08075950319e-38
-0.024571466008 -0.151764937108 0.781 1.49129377534e-38
-0.0231260856546 -0.151764937108 0.781 1.13249592783e-38
-0.0216807053012 -0.151764937108 0.781 2.57139389242e-39
-0.0202353249478 -0.151764937108 0.781 4.49994771953e-39
-0.0187899445944 -0.151764937108 0.781 5.51012976948e-39
-0.0173223560921 -0.151570615806 0.78 7.98968816575e-39
-0.0157973965387 -0.150793330597 0.776 9.36722060812e-39
-0.0143242559993 -0.150404687992 0.774 9.73456259275e-39
-0.0128918303993 -0.150404687992 0.774 1.00100690812e-38
-0.0114149885017 -0.149821724085 0.771 1.06529175543e-38
-0.00996220543204 -0.149433081481 0.769 1.08365885466e-38
-0.00853903322746 -0.149433081481 0.769 1.07447530505e-38
-0.00709735423219 -0.149044438876 0.767 1.1020259539e-38
-0.00567788338575 -0.149044438876 0.767 1.08365885466e-38
-0.00425841253931 -0.149044438876 0.767 1.09284240428e-38
-0.00283894169288 -0.149044438876 0.767 1.07447530505e-38
-0.00141947084644 -0.149044438876 0.767 1.14794370197e-38
0.0 -0.148850117574 0.766 1.12039305313e-38
0.00141391880923 -0.148461474969 0.764 1.15712725159e-38
0.00282783761846 -0.148461474969 0.764 1.18467790044e-38
0.00424175642769 -0.148461474969 0.764 1.20304499967e-38
0.00564086980436 -0.148072832364 0.762 1.21222854929e-38
0.00705108725545 -0.148072832364 0.762 1.21222854929e-38
0.00846130470654 -0.148072832364 0.762 1.2214120989e-38
0.0098974316646 -0.148461474969 0.764 1.32243114468e-38
0.0113113504738 -0.148461474969 0.764 6.97949770801e-39
0.0127585815063 -0.148850117574 0.766 2.14649413389e-38
0.0141947084644 -0.149044438876 0.767 1.50101360188e-38
0.0156141793108 -0.149044438876 0.767 1.2524528217e-38
0.0170336501573 -0.149044438876 0.767 1.68562108196e-38
0.0184531210037 -0.149044438876 0.767 1.44595196093e-38
0.0199244108641 -0.149433081481 0.769 1.64903177776e-38
0.0213475830687 -0.149433081481 0.769 1.32570163516e-38
0.0227707552732 -0.149433081481 0.769 2.15585985231e-38
0.0241939274778 -0.149433081481 0.769 1.57466893202e-38
0.0256170996824 -0.149433081481 0.769 1.78657440683e-38
0.0271105976916 -0.149821724085 0.771 1.38145005249e-38
0.0286114984171 -0.15021036669 0.773 2.05454835554e-38
0.030042073338 -0.15021036669 0.773 1.57452389763e-38
0.0315947930774 -0.150793330597 0.776 1.85128651005e-38
0.0332011825099 -0.151570615806 0.78 1.95342449264e-38
0.0346891284819 -0.151764937108 0.781 1.51953049991e-38
0.0361345088353 -0.151764937108 0.781 2.09117227182e-38
0.0375798891887 -0.151764937108 0.781 1.71346207985e-38
0.0390252695422 -0.151764937108 0.781 1.16865363211e-38
0.0404706498956 -0.151764937108 0.781 1.84170947582e-38
-0.0260834708079 -0.150704498001 0.783 2.07150490774e-38
-0.0246343890964 -0.150704498001 0.783 1.26091035859e-38
-0.0231853073848 -0.150704498001 0.783 1.5381513743e-38
-0.0217917460454 -0.151089439248 0.785 8.92715823968e-39
-0.0202871439617 -0.150704498001 0.783 2.11221641163e-39
-0.0187899445944 -0.150319556755 0.781 3.21424236553e-39
-0.0173223560921 -0.150127086132 0.78 6.79582671569e-39
-0.0158381114782 -0.149742144885 0.778 8.81620763117e-39
-0.0143612695806 -0.149357203639 0.776 1.01019045774e-38
-0.0128918303993 -0.148972262392 0.774 1.0469246562e-38
-0.0114149885017 -0.148394850523 0.771 1.09284240428e-38
-0.00998811493901 -0.148394850523 0.771 1.07447530505e-38
-0.00853903322746 -0.148009909276 0.769 1.0469246562e-38
-0.00711586102289 -0.148009909276 0.769 1.08365885466e-38
-0.00569268881831 -0.148009909276 0.769 1.09284240428e-38
-0.00426951661373 -0.148009909276 0.769 1.07447530505e-38
-0.00284634440915 -0.148009909276 0.769 1.07447530505e-38
-0.00141947084644 -0.14762496803 0.767 1.1020259539e-38
0.0 -0.14762496803 0.767 1.14794370197e-38
0.00141762016737 -0.147432497406 0.766 1.13876015236e-38
0.00283524033474 -0.147432497406 0.766 1.19386145005e-38
0.0042528605021 -0.147432497406 0.766 1.19386145005e-38
0.00565567523691 -0.14704755616 0.764 1.2214120989e-38
0.00706959404614 -0.14704755616 0.764 1.2214120989e-38
0.00848351285537 -0.14704755616 0.764 1.22141462124e-38
0.00992334117158 -0.147432497406 0.766 1.36870860607e-38
0.0113409613389 -0.147432497406 0.766 7.25500419648e-39
0.0127752376179 -0.14762496803 0.767 2.15582327842e-38
0.0141947084644 -0.14762496803 0.767 1.57520366751e-38
0.0156548942503 -0.148009909276 0.769 1.69578077608e-38
0.0170780664549 -0.148009909276 0.769 1.87991966196e-38
0.0185012386595 -0.148009909276 0.769 1.8611918685e-38
0.0199244108641 -0.148009909276 0.769 1.63970081154e-38
0.0213475830687 -0.148009909276 0.769 1.54707806591e-38
0.0227707552732 -0.148009909276 0.769 2.04504110598e-38
0.0241939274778 -0.148009909276 0.769 1.61211470984e-38
0.0256837241289 -0.148394850523 0.771 1.84272149357e-38
0.0271105976916 -0.148394850523 0.771 1.49212446507e-38
0.0286485119985 -0.148972262392 0.774 1.92511546107e-38
0.0300809375984 -0.148972262392 0.774 1.99933607501e-38
0.0316762229565 -0.149742144885 0.778 1.92540412855e-38
0.0332437481285 -0.150319556755 0.781 1.36276093487e-38
0.0346891284819 -0.150319556755 0.781 2.13756393904e-38
0.0361345088353 -0.150319556755 0.781 1.63981501737e-38
0.0375798891887 -0.150319556755 0.781 1.11365546998e-38
0.0390252695422 -0.150319556755 0.781 1.73210803747e-38
0.0405742879235 -0.150704498001 0.783 1.95316244983e-38
0.0423453877931 -0.151859321741 0.789 2.09092438212e-38
-0.0262833441475 -0.150399135955 0.789 1.90537326765e-38
-0.0246973121848 -0.149636656178 0.785 1.34363601343e-38
-0.0232445291151 -0.149636656178 0.785 1.3167742429e-38
-0.0217917460454 -0.149636656178 0.785 1.59328854523e-38
-0.0202871439617 -0.14925541629 0.783 7.4480736976e-39
-0.0188380622502 -0.14925541629 0.783 2.66322938858e-39
-0.017344564241 -0.148874176402 0.781 4.5917748079e-39
-0.0158788264178 -0.148683556457 0.78 8.72437213501e-39
-0.0144352967434 -0.148683556457 0.78 9.55089160043e-39
-0.0129251426226 -0.147921076681 0.776 1.00100690812e-38
-0.0114445993668 -0.147349216848 0.773 1.02855755697e-38
-0.00998811493901 -0.14696797696 0.771 1.0469246562e-38
-0.0085612413763 -0.14696797696 0.771 1.06529175543e-38
-0.00711586102289 -0.146586737071 0.769 1.08365885466e-38
-0.00569268881831 -0.146586737071 0.769 1.07447530505e-38
-0.00426951661373 -0.146586737071 0.769 1.07447530505e-38
-0.00284634440915 -0.146586737071 0.769 1.07447530505e-38
-0.00142317220458 -0.146586737071 0.769 1.12039305313e-38
0.0 -0.146586737071 0.769 1.16631080121e-38
0.00141947084644 -0.146205497183 0.767 1.21222854929e-38
0.00283894169288 -0.146205497183 0.767 1.18467804057e-38
0.00425841253931 -0.146205497183 0.767 1.17549435082e-38
0.00567788338575 -0.146205497183 0.767 1.24896274775e-38
0.00708810083684 -0.146014877239 0.766 1.24896274775e-38
0.00850572100421 -0.146014877239 0.766 1.19386145005e-38
0.00993629592506 -0.146205497183 0.767 1.37778369518e-38
0.0113557667715 -0.146205497183 0.767 7.62234618111e-39
0.0127752376179 -0.146205497183 0.767 2.16475347327e-38
0.0142317220458 -0.146586737071 0.769 1.90685177766e-38
0.0156548942503 -0.146586737071 0.769 9.94407773264e-39
0.0170780664549 -0.146586737071 0.769 1.63033719507e-38
0.0185012386595 -0.146586737071 0.769 1.42762227637e-38
0.019976229878 -0.14696797696 0.771 1.99008554333e-38
0.0214031034407 -0.14696797696 0.771 1.61237479084e-38
0.0228299770035 -0.14696797696 0.771 1.35397689544e-38
0.0242568505662 -0.14696797696 0.771 1.61157745201e-38
0.0256837241289 -0.14696797696 0.771 1.78710914233e-38
0.0271809234963 -0.147349216848 0.773 2.05479414329e-38
0.0286485119985 -0.147539836792 0.774 1.68583646153e-38
0.0301586661194 -0.147921076681 0.776 1.71313964107e-38
0.0317576528356 -0.148683556457 0.78 2.07301831008e-38
0.0332437481285 -0.148874176402 0.781 1.87019661243e-38
0.0346891284819 -0.148874176402 0.781 1.51070175907e-38
0.0361345088353 -0.148874176402 0.781 8.09204320947e-39
0.0376761245004 -0.14925541629 0.783 1.54818537195e-38
0.0391252062119 -0.14925541629 0.783 1.69563434039e-38
0.0406779259514 -0.149636656178 0.785 2.17422288777e-38
0.0423453877931 -0.150399135955 0.789 1.78653629151e-38
-0.0233037508453 -0.148561411639 0.787 1.26177958402e-38
-0.0218472664175 -0.148561411639 0.787 1.41840299364e-38
-0.0203389629757 -0.148183873109 0.785 1.78696845196e-38
-0.0188380622502 -0.147806334578 0.783 6.52858508556e-39
-0.017344564241 -0.147428796048 0.781 2.38772290011e-39
-0.0158991838875 -0.147428796048 0.781 5.6938007618e-39
-0.0144538035341 -0.147428796048 0.781 7.89785266959e-39
-0.0129917670691 -0.147240026783 0.78 9.55089160043e-39
-0.0114890156645 -0.146484949723 0.776 1.01019045774e-38
-0.0100269791995 -0.146107411192 0.774 1.03774110659e-38
-0.00858344952513 -0.145918641927 0.773 1.03774110659e-38
-0.00715287460428 -0.145918641927 0.773 1.07447530505e-38
-0.00572229968342 -0.145918641927 0.773 1.08365885466e-38
-0.00428062068815 -0.145541103397 0.771 1.08365885466e-38
-0.00285374712543 -0.145541103397 0.771 1.11120950351e-38
-0.00142687356272 -0.145541103397 0.771 1.14794370197e-38
0.0 -0.145163564867 0.769 1.12957730339e-38
0.00141947084644 -0.144786026337 0.767 1.14794370197e-38
0.00283894169288 -0.144786026337 0.767 1.17549435082e-38
0.00425841253931 -0.144786026337 0.767 1.18467790044e-38
0.00567788338575 -0.144786026337 0.767 1.28569694621e-38
0.00709735423219 -0.144786026337 0.767 1.28569694621e-38
0.00851682507863 -0.144786026337 0.767 1.23059564852e-38
0.00993629592506 -0.144786026337 0.767 1.33190168022e-38
0.0113557667715 -0.144786026337 0.767 7.80601717343e-39
0.0128085498412 -0.145163564867 0.769 2.18322973365e-38
0.0142317220458 -0.145163564867 0.769 1.45488061435e-38
0.0156956091899 -0.145541103397 0.771 1.15067006827e-38
0.0171224827526 -0.145541103397 0.771 2.08181047704e-38
0.0185493563153 -0.145541103397 0.771 1.2340792765e-38
0.019976229878 -0.145541103397 0.771 2.12855499121e-38
0.0214031034407 -0.145541103397 0.771 1.44605733857e-38
0.0228299770035 -0.145541103397 0.771 1.90764098896e-38
0.0243197736545 -0.145918641927 0.773 1.56641542419e-38
0.0257503485754 -0.145918641927 0.773 1.64921170448e-38
0.0272864122032 -0.146484949723 0.776 1.66739901712e-38
0.0287965663241 -0.146862488253 0.778 1.8608303335e-38
0.0302363946403 -0.146862488253 0.778 1.91626107646e-38
0.0317576528356 -0.147240026783 0.78 1.66739649478e-38
0.0333288793657 -0.147806334578 0.783 1.64027884716e-38
0.0347779610773 -0.147806334578 0.783 3.49228380293e-39
0.0362270427888 -0.147806334578 0.783 1.62154684981e-38
0.037772359812 -0.148183873109 0.785 1.43783802243e-38
0.0392251428817 -0.148183873109 0.785 2.28489687996e-38
0.0406779259514 -0.148183873109 0.785 1.84231890052e-38
0.0423453877931 -0.148938950169 0.789 2.02623722202e-38
-0.0233629725755 -0.147478764383 0.789 1.42733865356e-38
-0.0219027867896 -0.147478764383 0.789 1.64892878232e-38
-0.0203389629757 -0.146731090039 0.785 8.46900931196e-39
-0.018886179906 -0.146731090039 0.785 1.80540729767e-38
-0.0173889805386 -0.146357252867 0.783 5.97541130638e-39
-0.0159398988271 -0.146357252867 0.783 4.49993931174e-39
-0.0144538035341 -0.145983415695 0.781 4.68361030406e-39
-0.0129917670691 -0.145796497109 0.78 8.44886564654e-39
-0.0114890156645 -0.145048822765 0.776 9.64272709659e-39
-0.0100269791995 -0.144674985592 0.774 1.01937400735e-38
-0.00859455359955 -0.144674985592 0.774 1.01019045774e-38
-0.00716212799963 -0.144674985592 0.774 1.07447530505e-38
-0.0057297023997 -0.144674985592 0.774 1.05610820582e-38
-0.00429172476257 -0.144488067006 0.773 1.08365885466e-38
-0.00286114984171 -0.144488067006 0.773 1.11120950351e-38
-0.00142687356272 -0.144114229834 0.771 1.12957660274e-38
0.0 -0.144114229834 0.771 1.15712725159e-38
0.00142317220458 -0.143740392662 0.769 1.16631080121e-38
0.00284634440915 -0.143740392662 0.769 1.15712725159e-38
0.00426951661373 -0.143740392662 0.769 1.21222854929e-38
0.00569268881831 -0.143740392662 0.769 1.24896274775e-38
0.00711586102289 -0.143740392662 0.769 1.25814629736e-38
0.00853903322746 -0.143740392662 0.769 1.23978158034e-38
0.00996220543204 -0.143740392662 0.769 1.34087041078e-38
0.0113853776366 -0.143740392662 0.769 7.89785266959e-39
0.0128085498412 -0.143740392662 0.769 2.19244929664e-38
0.0142687356272 -0.144114229834 0.771 1.61197219779e-38
0.0156956091899 -0.144114229834 0.771 1.73229525095e-38
0.0171224827526 -0.144114229834 0.771 1.85232781493e-38
0.0185493563153 -0.144114229834 0.771 1.4929833209e-38
0.020028048892 -0.144488067006 0.773 1.86144522326e-38
0.0214586238128 -0.144488067006 0.773 1.54761854672e-38
0.0228891987337 -0.144488067006 0.773 1.52889257496e-38
0.0243512351987 -0.144674985592 0.774 1.5756745038e-38
0.0257836607987 -0.144674985592 0.774 1.76042701827e-38
0.0273567380079 -0.145422659937 0.778 1.91658057251e-38
0.0287965663241 -0.145422659937 0.778 2.13709072054e-38
0.0302363946403 -0.145422659937 0.778 1.69512034412e-38
0.0317983677751 -0.145983415695 0.781 1.44642644059e-38
0.0333288793657 -0.146357252867 0.783 3.39791335785e-39
0.0348667936726 -0.146731090039 0.785 1.70468504692e-38
0.0363195767423 -0.146731090039 0.785 1.54854284319e-38
0.037772359812 -0.146731090039 0.785 2.03639831744e-38
0.0393250795514 -0.147104927211 0.787 2.10064841255e-38
0.0408852020072 -0.147478764383 0.789 1.43640575527e-38
0.0423453877931 -0.147478764383 0.789 2.23786159636e-38
-0.0233925834406 -0.146203646504 0.79 1.06752010025e-38
-0.0219305469756 -0.146203646504 0.79 1.59393720629e-38
-0.0204426010036 -0.146018578597 0.789 8.84029314917e-39
-0.0189342975618 -0.145648442783 0.787 6.44289148057e-39
-0.0173889805386 -0.144908171155 0.783 1.83375220249e-38
-0.0159398988271 -0.144908171155 0.783 4.22443282327e-39
-0.0144538035341 -0.144538035341 0.781 2.47955839627e-39
-0.0130084231807 -0.144538035341 0.781 7.62234618111e-39
-0.0115482373947 -0.144352967434 0.78 9.45905610427e-39
-0.0100528887065 -0.143612695806 0.776 1.01019045774e-38
-0.00861676174839 -0.143612695806 0.776 1.01937400735e-38
-0.00718063479032 -0.143612695806 0.776 1.0469246562e-38
-0.00574450783226 -0.143612695806 0.776 1.07447530505e-38
-0.00429727679978 -0.143242559993 0.774 1.07447530505e-38
-0.00286485119985 -0.143242559993 0.774 1.08365885466e-38
-0.00143242559993 -0.143242559993 0.774 1.15712725159e-38
0.0 -0.143057492086 0.773 1.16631080121e-38
0.00143057492086 -0.143057492086 0.773 1.16631080121e-38
0.00285374712543 -0.142687356272 0.771 1.14794370197e-38
0.00428062068815 -0.142687356272 0.771 1.19386145005e-38
0.00570749425087 -0.142687356272 0.771 1.25814629736e-38
0.00713436781358 -0.142687356272 0.771 1.2765133966e-38
0.00853903322746 -0.142317220458 0.769 1.26732998711e-38
0.00996220543204 -0.142317220458 0.769 1.28569694621e-38
0.0114149885017 -0.142687356272 0.771 7.89785266959e-39
0.0128418620644 -0.142687356272 0.771 2.18322945339e-38
0.0143057492086 -0.143057492086 0.773 1.43683805585e-38
0.0157363241294 -0.143057492086 0.773 1.13267038949e-38
0.0171668990503 -0.143057492086 0.773 1.57527751594e-38
0.0185974739711 -0.143057492086 0.773 1.51988054427e-38
0.020053958399 -0.143242559993 0.774 1.85186244371e-38
0.0214863839989 -0.143242559993 0.774 1.34464620949e-38
0.0229188095988 -0.143242559993 0.774 1.89800327851e-38
0.0243512351987 -0.143242559993 0.774 1.72332974337e-38
0.0258502852452 -0.143612695806 0.776 1.60354955324e-38
0.0274270638125 -0.144352967434 0.78 1.5754547802e-38
0.0287965663241 -0.14398283162 0.778 1.74994726757e-38
0.0302363946403 -0.14398283162 0.778 1.26133901579e-38
0.0317983677751 -0.144538035341 0.781 1.57562503796e-38
0.0333288793657 -0.144908171155 0.783 1.30730861191e-38
0.0348667936726 -0.145278306969 0.785 1.87897981108e-38
0.0363195767423 -0.145278306969 0.785 1.61219304243e-38
0.037772359812 -0.145278306969 0.785 1.96221007349e-38
0.0394250162212 -0.146018578597 0.789 1.97160802178e-38
0.0408852020072 -0.146018578597 0.789 1.24283767216e-38
0.0423453877931 -0.146018578597 0.789 2.3029357951e-38
-0.0234518051709 -0.145108044495 0.792 4.04076183095e-39
-0.0219860673477 -0.145108044495 0.792 1.50131474092e-38
-0.0204685105106 -0.144741610039 0.79 1.5015578662e-38
-0.0189824152176 -0.144558392811 0.789 3.67880083242e-39
-0.0174333968363 -0.143825523899 0.785 1.55759789374e-38
-0.0159806137666 -0.143825523899 0.785 1.62134029841e-38
-0.0144908171155 -0.143459089444 0.783 3.58158435016e-39
-0.013041735404 -0.143459089444 0.783 5.32645877716e-39
-0.0115630428273 -0.143092654988 0.781 8.54070114269e-39
-0.0101047077204 -0.14290943776 0.78 1.01019045774e-38
-0.00866117804606 -0.14290943776 0.78 1.01937400735e-38
-0.00719914158102 -0.142543003304 0.778 1.0469246562e-38
-0.00574450783226 -0.142176568848 0.776 1.0469246562e-38
-0.00430838087419 -0.142176568848 0.776 1.06529175543e-38
-0.00287225391613 -0.142176568848 0.776 1.08365885466e-38
-0.00143242559993 -0.141810134393 0.774 1.15712725159e-38
0.0 -0.141810134393 0.774 1.16631080121e-38
0.00143242559993 -0.141810134393 0.774 1.17549435082e-38
0.00286485119985 -0.141810134393 0.774 1.19386229083e-38
0.00429172476257 -0.141626917165 0.773 1.21222854929e-38
0.00570749425087 -0.141260482709 0.771 1.18467790044e-38
0.00713436781358 -0.141260482709 0.771 1.2765133966e-38
0.0085612413763 -0.141260482709 0.771 1.23977919813e-38
0.00998811493901 -0.141260482709 0.771 1.32243114468e-38
0.0114149885017 -0.141260482709 0.771 8.17335915806e-39
0.0128751742877 -0.141626917165 0.773 2.21978344487e-38
0.0143057492086 -0.141626917165 0.773 1.61190213287e-38
0.0157363241294 -0.141626917165 0.773 1.75091612533e-38
0.0171668990503 -0.141626917165 0.773 1.85193825396e-38
0.0185974739711 -0.141626917165 0.773 1.69509133724e-38
0.020053958399 -0.141810134393 0.774 1.63963340908e-38
0.0214863839989 -0.141810134393 0.774 1.81469496377e-38
0.0229188095988 -0.141810134393 0.774 1.59378348385e-38
0.0244141582871 -0.142176568848 0.776 1.61305554163e-38
0.0258502852452 -0.142176568848 0.776 7.10183246524e-39
0.0274270638125 -0.14290943776 0.78 1.04107731797e-38
0.0288705934869 -0.14290943776 0.78 1.48271306432e-38
0.0303141231612 -0.14290943776 0.78 1.66690758175e-38
0.0317983677751 -0.143092654988 0.781 1.09614274242e-38
0.0333288793657 -0.143459089444 0.783 1.92515595859e-38
0.0349556262679 -0.144191958355 0.787 1.99919958854e-38
0.0364121106958 -0.144191958355 0.787 1.88873845358e-38
0.0378685951236 -0.144191958355 0.787 1.82409851724e-38
0.0394250162212 -0.144558392811 0.789 1.55669041285e-38
0.0408852020072 -0.144558392811 0.789 1.84220217236e-38
0.0422380484071 -0.144191958355 0.787 2.21084904612e-38
0.0436945328349 -0.144191958355 0.787 1.63815153596e-38
-0.0267164030498 -0.14545597216 0.802 1.9701658054e-38
-0.0252321584359 -0.14545597216 0.802 1.53727794497e-38
-0.0235110269011 -0.144005039769 0.794 5.14278778485e-39
-0.0219860673477 -0.143642306672 0.792 1.35325662803e-38
-0.0204685105106 -0.143279573574 0.79 1.62163148823e-38
-0.0189824152176 -0.143098207025 0.789 1.3359693694e-38
-0.017477813134 -0.142735473927 0.787 1.39132163965e-38
-0.0160213287061 -0.142735473927 0.787 1.48297650843e-38
-0.0145278306969 -0.14237274083 0.785 1.63964041558e-38
-0.013041735404 -0.142010007732 0.783 3.12240686937e-39
-0.0115630428273 -0.141647274634 0.781 6.61215572338e-39
-0.0101176624739 -0.141647274634 0.781 1.02855755697e-38
-0.00866117804606 -0.141465908086 0.78 1.0469246562e-38
-0.00719914158102 -0.141103174988 0.778 1.0469246562e-38
-0.00575931326482 -0.141103174988 0.778 1.06529175543e-38
-0.00430838087419 -0.14074044189 0.776 1.0469246562e-38
-0.00287225391613 -0.14074044189 0.776 1.07447530505e-38
-0.00143612695806 -0.14074044189 0.776 1.13876015236e-38
0.0 -0.140377708793 0.774 1.15712725159e-38
0.00143242559993 -0.140377708793 0.774 1.15712725159e-38
0.00286485119985 -0.140377708793 0.774 1.16631080121e-38
0.00429727679978 -0.140377708793 0.774 1.21222854929e-38
0.0057297023997 -0.140377708793 0.774 1.17549435082e-38
0.00716212799963 -0.140377708793 0.774 1.2765133966e-38
0.00858344952513 -0.140196342244 0.773 1.25814699801e-38
0.010014024446 -0.140196342244 0.773 1.34998179352e-38
0.0114594047994 -0.140377708793 0.774 8.26519465422e-39
0.0128918303993 -0.140377708793 0.774 2.24744437591e-38
0.0143242559993 -0.140377708793 0.774 1.85153439974e-38
0.0157566815992 -0.140377708793 0.774 1.53868442823e-38
0.0171891071991 -0.140377708793 0.774 1.75077361328e-38
0.0186696504548 -0.14074044189 0.776 1.62223502748e-38
0.0201057774129 -0.14074044189 0.776 1.52086061242e-38
0.021541904371 -0.14074044189 0.776 1.04108432446e-38
0.022978031329 -0.14074044189 0.776 6.24481373874e-39
0.0244141582871 -0.14074044189 0.776 7.89785266959e-39
0.0258502852452 -0.14074044189 0.776 1.80612083885e-38
0.0274270638125 -0.141465908086 0.78 1.66733497778e-38
0.0289076070683 -0.141647274634 0.781 1.4739304262e-38
0.0303529874217 -0.141647274634 0.781 1.98047179508e-38
0.0319612275332 -0.14237274083 0.785 1.81545278598e-38
0.0334140106029 -0.14237274083 0.785 6.71621894993e-39
0.0350444588633 -0.143098207025 0.789 1.86962432214e-38
0.0365046446493 -0.143098207025 0.789 1.62184350469e-38
0.0379648304352 -0.143098207025 0.789 1.76024134622e-38
0.0394250162212 -0.143098207025 0.789 1.49298121895e-38
0.0408852020072 -0.143098207025 0.789 2.00844605646e-38
0.0422380484071 -0.142735473927 0.787 2.00783747253e-38
0.0436945328349 -0.142735473927 0.787 1.6381874092e-38
-0.0267164030498 -0.143971727546 0.802 1.98838436699e-38
-0.0252321584359 -0.143971727546 0.802 1.62936665576e-38
-0.0236886920918 -0.143612695806 0.8 8.45962902004e-39
-0.0220415877198 -0.142535600588 0.794 5.14278778485e-39
-0.0205203295245 -0.142176568848 0.792 8.84214846834e-39
-0.0190064740455 -0.141817537109 0.79 8.83487853191e-39
-0.0175222294316 -0.141638021239 0.789 1.51075108478e-38
-0.0160620436457 -0.141638021239 0.789 1.49237599814e-38
-0.0145648442783 -0.1412789895 0.787 1.59361350635e-38
-0.0130750476272 -0.14091995776 0.785 1.48319553138e-38
-0.0115926536924 -0.140560926021 0.783 3.67341984632e-39
-0.0101435719809 -0.140560926021 0.783 8.26519465422e-39
-0.00867228212048 -0.140201894281 0.781 1.01019045774e-38
-0.00721764837172 -0.140022378411 0.78 1.0469246562e-38
-0.00577411869737 -0.140022378411 0.78 1.06529175543e-38
-0.00431948494861 -0.139663346672 0.778 1.08365885466e-38
-0.00287965663241 -0.139663346672 0.778 1.12039305313e-38
-0.00143612695806 -0.139304314932 0.776 1.17549435082e-38
0.0 -0.139304314932 0.776 1.1387626747e-38
0.00143612695806 -0.139304314932 0.776 1.19386145005e-38
0.00287225391613 -0.139304314932 0.776 1.19386145005e-38
0.00429727679978 -0.138945283193 0.774 1.17549435082e-38
0.0057297023997 -0.138945283193 0.774 1.21222854929e-38
0.00716212799963 -0.138945283193 0.774 1.25814629736e-38
0.00859455359955 -0.138945283193 0.774 1.26732984698e-38
0.0100269791995 -0.138945283193 0.774 1.36834903288e-38
0.0114594047994 -0.138945283193 0.774 8.63253663885e-39
0.0129251426226 -0.139304314932 0.776 2.14606449578e-38
0.0143612695806 -0.139304314932 0.776 5.6938007618e-39
0.0157973965387 -0.139304314932 0.776 6.79582671569e-39
0.0172335234968 -0.139304314932 0.776 5.96930725027e-39
0.0186696504548 -0.139304314932 0.776 7.98968816575e-39
0.0201057774129 -0.139304314932 0.776 1.14105730093e-38
0.021541904371 -0.139304314932 0.776 1.68602759864e-38
0.022978031329 -0.139304314932 0.776 1.2799332655e-38
0.0244770813755 -0.139663346672 0.778 1.43601493313e-38
0.0259169096917 -0.139663346672 0.778 2.1924064169e-38
0.0274270638125 -0.140022378411 0.78 1.91621735595e-38
0.0289076070683 -0.140201894281 0.781 1.75070074576e-38
0.0304307159426 -0.140560926021 0.783 1.00398732983e-38
0.0321240872913 -0.141638021239 0.789 1.6034263791e-38
0.0335842730773 -0.141638021239 0.789 1.7966896798e-38
0.0350444588633 -0.141638021239 0.789 1.81487348919e-38
0.0365046446493 -0.141638021239 0.789 1.49301625141e-38
0.0379648304352 -0.141638021239 0.789 1.19831239437e-38
0.0394749845561 -0.141817537109 0.79 1.81523194134e-38
0.0409370210211 -0.141817537109 0.79 2.01770709788e-38
0.0423453877931 -0.141638021239 0.789 1.95255708889e-38
0.0438055735791 -0.141638021239 0.789 1.53652264509e-38
-0.026749715273 -0.142665148123 0.803 1.83150956443e-38
-0.0252636199801 -0.142665148123 0.803 1.73985679759e-38
-0.023747913822 -0.142487482932 0.802 8.08977590856e-39
-0.0222636692081 -0.142487482932 0.802 5.60483512489e-39
-0.0205721485385 -0.141066161407 0.794 3.21424236553e-39
-0.0190545917013 -0.140710831025 0.792 3.76525534248e-39
-0.0175444375805 -0.140355500644 0.79 3.39791335785e-39
-0.0160620436457 -0.140177835453 0.789 1.49216524285e-38
-0.0145648442783 -0.139822505072 0.787 1.51085365982e-38
-0.0130750476272 -0.13946717469 0.785 1.50166744774e-38
-0.0116222645575 -0.13946717469 0.785 1.26192545919e-38
-0.0101694814878 -0.13946717469 0.785 5.96930725027e-39
-0.00869449026931 -0.139111844309 0.783 8.90804312733e-39
-0.00724540855776 -0.139111844309 0.783 1.01937400735e-38
-0.00578152141365 -0.138756513928 0.781 1.07447530505e-38
-0.00433058902303 -0.138578848737 0.78 1.07447530505e-38
-0.00288705934869 -0.138578848737 0.78 1.12039305313e-38
-0.0014398283162 -0.138223518356 0.778 1.12039305313e-38
0.0 -0.137868187974 0.776 1.16631080121e-38
0.00143612695806 -0.137868187974 0.776 1.18467790044e-38
0.00287225391613 -0.137868187974 0.776 1.16631080121e-38
0.00430838087419 -0.137868187974 0.776 1.2214120989e-38
0.00574450783226 -0.137868187974 0.776 1.2214120989e-38
0.00718063479032 -0.137868187974 0.776 1.28569694621e-38
0.00861676174839 -0.137868187974 0.776 1.29488049583e-38
0.0100528887065 -0.137868187974 0.776 1.31324759506e-38
0.0114890156645 -0.137868187974 0.776 8.90804312733e-39
0.0129251426226 -0.137868187974 0.776 2.28414284126e-38
0.014398283162 -0.138223518356 0.778 1.46428374744e-38
0.0158381114782 -0.138223518356 0.778 1.58514896297e-38
0.0172779397944 -0.138223518356 0.778 1.58464379488e-38
0.0187177681107 -0.138223518356 0.778 1.67619048342e-38
0.0201575964269 -0.138223518356 0.778 1.34424207501e-38
0.0215974247431 -0.138223518356 0.778 1.84228554962e-38
0.0230372530593 -0.138223518356 0.778 1.90703156425e-38
0.0244770813755 -0.138223518356 0.778 1.87019661243e-38
0.0259835341382 -0.138578848737 0.78 1.3258140193e-38
0.0274270638125 -0.138578848737 0.78 1.59281406557e-38
0.0289076070683 -0.138756513928 0.781 1.18761950617e-38
0.0304307159426 -0.139111844309 0.783 1.82442095602e-38
0.0321240872913 -0.140177835453 0.789 1.84264232021e-38
0.0336268386959 -0.140355500644 0.79 1.7041323748e-38
0.035088875161 -0.140355500644 0.79 1.48290462182e-38
0.036550911626 -0.140355500644 0.79 1.53953809926e-38
0.038012948091 -0.140355500644 0.79 1.68677715319e-38
0.0394749845561 -0.140355500644 0.79 1.94362843547e-38
0.0409370210211 -0.140355500644 0.79 1.86986814807e-38
0.0423990574862 -0.140355500644 0.79 1.99886790119e-38
-0.0283764621753 -0.141882310876 0.807 1.95147052206e-38
-0.0268163397195 -0.141530681853 0.805 1.98849002489e-38
-0.0252636199801 -0.14117905283 0.803 1.9243879069e-38
-0.023747913822 -0.141003238318 0.802 4.68361030406e-39
-0.0222636692081 -0.141003238318 0.802 7.17106081327e-39
-0.0207794245943 -0.141003238318 0.802 4.95948253143e-39
-0.0190545917013 -0.139245093202 0.792 5.69631188864e-39
-0.0175444375805 -0.138893464179 0.79 6.1590766935e-39
-0.0160824011154 -0.138893464179 0.79 3.85709083864e-39
-0.0146018578597 -0.138717649667 0.789 1.54786713707e-38
-0.0131083598505 -0.138366020644 0.787 1.06874679693e-38
-0.0116222645575 -0.138014391621 0.785 1.86115627552e-38
-0.0101694814878 -0.138014391621 0.785 6.25485824614e-39
-0.00871669841815 -0.138014391621 0.785 7.16316870032e-39
-0.00724540855776 -0.137662762597 0.783 9.1835496158e-39
-0.00579632684621 -0.137662762597 0.783 1.06529175543e-38
-0.00433614106024 -0.137311133574 0.781 1.07447530505e-38
-0.00288705934869 -0.137135319063 0.78 1.12039305313e-38
-0.0014398283162 -0.136783690039 0.778 1.14794370197e-38
0.0 -0.136783690039 0.778 1.15712725159e-38
0.0014398283162 -0.136783690039 0.778 1.17549435082e-38
0.00287965663241 -0.136783690039 0.778 1.16631108147e-38
0.00431948494861 -0.136783690039 0.778 1.19386145005e-38
0.00575931326482 -0.136783690039 0.778 1.16631080121e-38
0.00719914158102 -0.136783690039 0.778 1.34079992546e-38
0.00863896989722 -0.136783690039 0.778 1.26732984698e-38
0.0100787982134 -0.136783690039 0.778 1.24006618406e-38
0.0115186265296 -0.136783690039 0.778 9.1835496158e-39
0.0129584548458 -0.136783690039 0.778 2.34821343004e-38
0.0144352967434 -0.137135319063 0.78 1.59345698131e-38
0.0158788264178 -0.137135319063 0.78 1.55759060699e-38
0.0173223560921 -0.137135319063 0.78 1.612657713e-38
0.0187658857665 -0.137135319063 0.78 1.75073437692e-38
0.0202094154408 -0.137135319063 0.78 1.77857677611e-38
0.0216529451152 -0.137135319063 0.78 1.42851882712e-38
0.0230964747895 -0.137135319063 0.78 1.33596488524e-38
0.0245400044638 -0.137135319063 0.78 1.03081757113e-38
0.0260168463614 -0.137311133574 0.781 1.57430893844e-38
0.0274622267148 -0.137311133574 0.781 1.92519155157e-38
0.028981634231 -0.137662762597 0.783 1.97167990839e-38
0.0306639015054 -0.138717649667 0.789 2.18340545648e-38
0.0321648022309 -0.138893464179 0.79 1.80565518737e-38
0.0336268386959 -0.138893464179 0.79 1.15014668329e-38
0.035088875161 -0.138893464179 0.79 1.55659106079e-38
0.036550911626 -0.138893464179 0.79 1.44724087526e-38
0.038012948091 -0.138893464179 0.79 1.83356751135e-38
0.0395749212258 -0.139245093202 0.792 1.93444012144e-38
0.041040659049 -0.139245093202 0.792 1.84185044645e-38
-0.0298699601845 -0.140388812867 0.807 1.93310426361e-38
-0.0283764621753 -0.140388812867 0.807 1.91473800516e-38
-0.0268163397195 -0.140040885202 0.805 2.10824316997e-38
-0.0252636199801 -0.139692957537 0.803 1.99786204915e-38
-0.0237775246871 -0.139692957537 0.803 6.70542614916e-39
-0.0222914293942 -0.139692957537 0.803 6.70793727601e-39
-0.0208053341012 -0.139692957537 0.803 4.04076183095e-39
-0.0192951799804 -0.139518993704 0.802 5.33292857217e-39
-0.0176332701758 -0.138127283044 0.794 6.61753670948e-39
-0.016123116055 -0.137779355379 0.792 6.42991966069e-39
-0.0146203646504 -0.137431427714 0.79 3.489748854e-39
-0.0131416720737 -0.137257463881 0.789 3.489748854e-39
-0.0116518754226 -0.136909536216 0.787 6.25309541267e-39
-0.0101953909948 -0.136909536216 0.787 1.92569770058e-38
-0.00873890656699 -0.136909536216 0.787 2.8469003809e-39
-0.00728242213916 -0.136909536216 0.787 7.89785266959e-39
-0.00579632684621 -0.136213680886 0.783 1.01937400735e-38
-0.00433614106024 -0.135865753221 0.781 1.08365885466e-38
-0.00289076070683 -0.135865753221 0.781 1.11120950351e-38
-0.00144352967434 -0.135691789388 0.78 1.15712725159e-38
0.0 -0.135343861723 0.778 1.17549435082e-38
0.0014398283162 -0.135343861723 0.778 1.17549435082e-38
0.00287965663241 -0.135343861723 0.778 1.17549435082e-38
0.00431948494861 -0.135343861723 0.778 1.18467790044e-38
0.00575931326482 -0.135343861723 0.778 1.2214120989e-38
0.00719914158102 -0.135343861723 0.778 1.24896274775e-38
0.00863896989722 -0.135343861723 0.778 1.28569694621e-38
0.0100787982134 -0.135343861723 0.778 1.2765133966e-38
0.0115482373947 -0.135691789388 0.78 9.1835496158e-39
0.0129917670691 -0.135691789388 0.78 2.3114070647e-38
0.0144352967434 -0.135691789388 0.78 1.39955959306e-38
0.0158788264178 -0.135691789388 0.78 1.44616635959e-38
0.0173223560921 -0.135691789388 0.78 1.16024822353e-38
0.0187658857665 -0.135691789388 0.78 1.12319747174e-38
0.0202353249478 -0.135865753221 0.781 9.38802708771e-39
0.0216807053012 -0.135865753221 0.781 1.44635581515e-38
0.0231260856546 -0.135865753221 0.781 1.83353219863e-38
0.024571466008 -0.135865753221 0.781 1.7966896798e-38
0.0260168463614 -0.135865753221 0.781 1.75981395019e-38
0.0274622267148 -0.135865753221 0.781 1.64885633519e-38
0.0291296885566 -0.136909536216 0.787 1.69527280539e-38
0.0306639015054 -0.137257463881 0.789 1.61233975838e-38
0.0321648022309 -0.137431427714 0.79 1.00394851386e-38
0.0336268386959 -0.137431427714 0.79 1.94327698981e-38
0.035088875161 -0.137431427714 0.79 1.88872892475e-38
0.0366434455795 -0.137779355379 0.792 1.42834282404e-38
0.0381091834027 -0.137779355379 0.792 1.91645795889e-38
0.0395749212258 -0.137779355379 0.792 1.63023391938e-38
0.0419215822862 -0.140736740532 0.809 2.16453697266e-38
0.0434187816536 -0.140736740532 0.809 1.80496995242e-38
-0.0297959330217 -0.138551088551 0.805 1.90519348106e-38
-0.0283061363706 -0.138551088551 0.805 1.97916508426e-38
-0.0268163397195 -0.138551088551 0.805 1.90530138104e-38
-0.0253265430684 -0.138551088551 0.805 2.10841917306e-38
-0.0237775246871 -0.138206862244 0.803 6.98093263763e-39
-0.0222914293942 -0.138206862244 0.803 7.07671419027e-39
-0.0208053341012 -0.138206862244 0.803 4.6857626985e-39
-0.0192951799804 -0.13803474909 0.802 4.9630698555e-39
-0.0176776864735 -0.13700207017 0.796 8.3688683198e-39
-0.016123116055 -0.136313617556 0.792 7.07492052823e-39
-0.0146203646504 -0.135969391249 0.79 7.16388616514e-39
-0.0131583281854 -0.135969391249 0.79 5.23462328101e-39
-0.0116814862878 -0.135797278095 0.789 4.5917748079e-40
-0.0102213005018 -0.135797278095 0.789 1.78733152839e-38
-0.00873890656699 -0.135453051788 0.787 9.9459372557e-39
-0.00728242213916 -0.135453051788 0.787 5.14278778485e-39
-0.00581113227877 -0.135108825481 0.785 9.55089160043e-39
-0.00435834920908 -0.135108825481 0.785 1.06529175543e-38
-0.0028981634231 -0.134764599174 0.783 1.1020259539e-38
-0.00144538035341 -0.134420372867 0.781 1.12957660274e-38
0.0 -0.134248259714 0.78 1.14794370197e-38
0.00144352967434 -0.134248259714 0.78 1.17549435082e-38
0.00288705934869 -0.134248259714 0.78 1.18467790044e-38
0.00433058902303 -0.134248259714 0.78 1.16631080121e-38
0.00577411869737 -0.134248259714 0.78 1.23977919813e-38
0.00721764837172 -0.134248259714 0.78 1.24896274775e-38
0.00866117804606 -0.134248259714 0.78 1.2856973666e-38
0.0101047077204 -0.134248259714 0.78 1.28569694621e-38
0.0115482373947 -0.134248259714 0.78 9.55089160043e-39
0.0130084231807 -0.134420372867 0.781 2.29307752027e-38
0.0144538035341 -0.134420372867 0.781 1.41803571331e-38
0.0158991838875 -0.134420372867 0.781 1.78704230039e-38
0.017344564241 -0.134420372867 0.781 1.64896143257e-38
0.0187899445944 -0.134420372867 0.781 1.79669122123e-38
0.0202871439617 -0.134764599174 0.783 1.96228280089e-38
0.0217362256733 -0.134764599174 0.783 1.9256231515e-38
0.0231853073848 -0.134764599174 0.783 1.48294119571e-38
0.0246343890964 -0.134764599174 0.783 1.53818514559e-38
0.0260834708079 -0.134764599174 0.783 1.71396556638e-38
0.0276028783241 -0.135108825481 0.785 1.37309761299e-38
0.0291296885566 -0.135453051788 0.787 1.50137878026e-38
0.0306639015054 -0.135797278095 0.789 2.12844400837e-38
0.0321648022309 -0.135969391249 0.79 1.76931797676e-38
0.0336268386959 -0.135969391249 0.79 1.96220432817e-38
0.035088875161 -0.135969391249 0.79 1.45474300685e-38
0.0366434455795 -0.136313617556 0.792 1.77827591733e-38
0.0381091834027 -0.136313617556 0.792 1.74130223696e-38
0.0396748578956 -0.136657843863 0.794 2.10025184509e-38
0.0419215822862 -0.139239541165 0.809 1.95255961123e-38
-0.0297959330217 -0.1370612919 0.805 1.90530292247e-38
-0.0283061363706 -0.1370612919 0.805 1.82232909767e-38
-0.0268163397195 -0.1370612919 0.805 1.89618775622e-38
-0.0253265430684 -0.1370612919 0.805 2.07175321783e-38
-0.0238367464174 -0.1370612919 0.805 5.87783048652e-39
-0.0223469497663 -0.1370612919 0.805 5.88177654299e-39
-0.0208053341012 -0.136720766951 0.803 1.06741864624e-38
-0.0193192388083 -0.136720766951 0.803 3.67593097317e-39
-0.0177221027712 -0.135869454579 0.798 4.5917748079e-39
-0.0161638309945 -0.135188404681 0.794 7.9035923881e-39
-0.0146573782318 -0.134847879733 0.792 9.28220943548e-39
-0.0131583281854 -0.134507354784 0.79 6.88766221185e-39
-0.0116962917203 -0.134507354784 0.79 2.57139389242e-39
-0.0102213005018 -0.134337092309 0.789 1.43652290382e-38
-0.00876111471582 -0.134337092309 0.789 1.84272093305e-38
-0.00728242213916 -0.13399656736 0.787 4.13259732711e-39
-0.00582593771132 -0.13399656736 0.787 8.81980476433e-39
-0.00436945328349 -0.13399656736 0.787 1.07447530505e-38
-0.00290556613938 -0.133656042412 0.785 1.11120950351e-38
-0.00144908171155 -0.133315517463 0.783 1.12039305313e-38
0.0 -0.132974992514 0.781 1.16631080121e-38
0.00144538035341 -0.132974992514 0.781 1.1663122025e-38
0.00289076070683 -0.132974992514 0.781 1.17549435082e-38
0.00433614106024 -0.132974992514 0.781 1.18467916161e-38
0.00578152141365 -0.132974992514 0.781 1.26732984698e-38
0.00722690176707 -0.132974992514 0.781 1.23059564852e-38
0.00867228212048 -0.132974992514 0.781 1.28569960868e-38
0.0101176624739 -0.132974992514 0.781 1.29488049583e-38
0.0115630428273 -0.132974992514 0.781 9.55089160043e-39
0.0130084231807 -0.132974992514 0.781 2.19202134009e-38
0.0144538035341 -0.132974992514 0.781 1.93476830554e-38
0.0159398988271 -0.133315517463 0.783 1.77778392144e-38
0.0173889805386 -0.133315517463 0.783 1.85135839666e-38
0.0188380622502 -0.133315517463 0.783 1.39059534665e-38
0.0202871439617 -0.133315517463 0.783 1.66689763253e-38
0.0217362256733 -0.133315517463 0.783 1.65846658019e-38
0.0231853073848 -0.133315517463 0.783 1.39175351984e-38
0.0246343890964 -0.133315517463 0.783 1.36311812585e-38
0.0260834708079 -0.133315517463 0.783 1.37211558303e-38
0.0276732041288 -0.13399656736 0.787 2.05515820063e-38
0.0292037157194 -0.134337092309 0.789 2.10089854433e-38
0.0307027657658 -0.134507354784 0.79 2.08202697765e-38
0.0322462321099 -0.134847879733 0.792 1.83345652852e-38
0.0337119699331 -0.134847879733 0.792 1.87930196959e-38
0.0351777077563 -0.134847879733 0.792 1.92518552599e-38
0.0368285134865 -0.13552892963 0.796 2.12801591169e-38
0.0383016540259 -0.13552892963 0.796 1.78682201627e-38
0.0403244462491 -0.137401816849 0.807 2.22929013391e-38
0.0419215822862 -0.137742341797 0.809 1.86032418449e-38
0.0434187816536 -0.137742341797 0.809 1.94301480687e-38
-0.0297959330217 -0.135571495249 0.805 1.88675841885e-38
-0.0283061363706 -0.135571495249 0.805 1.88686351624e-38
-0.0268163397195 -0.135571495249 0.805 1.78544860365e-38
-0.0253265430684 -0.135571495249 0.805 2.01629711136e-38
-0.0238367464174 -0.135571495249 0.805 9.10857594406e-39
-0.0223469497663 -0.135571495249 0.805 2.02038091548e-39
-0.0208571531152 -0.135571495249 0.805 1.41786727724e-38
-0.0193192388083 -0.135234671658 0.803 6.16591643131e-39
-0.0177221027712 -0.134392612681 0.798 5.69488116291e-39
-0.016204545934 -0.134055789091 0.796 5.32645877716e-39
-0.0147314053946 -0.134055789091 0.796 6.52319008647e-39
-0.0132249526319 -0.1337189655 0.794 6.25019472485e-39
-0.0116962917203 -0.133045318319 0.79 2.02038091548e-39
-0.0102342552553 -0.133045318319 0.79 9.02544531396e-39
-0.00876111471582 -0.132876906523 0.789 1.9348798489e-38
-0.00730092892985 -0.132876906523 0.789 1.1020259539e-39
-0.00584074314388 -0.132876906523 0.789 6.70651215547e-39
-0.00438055735791 -0.132876906523 0.789 1.02855755697e-38
-0.00292037157194 -0.132876906523 0.789 1.09284240428e-38
-0.00145648442783 -0.132540082933 0.787 1.12039305313e-38
0.0 -0.132203259342 0.785 1.13876015236e-38
0.00144908171155 -0.131866435751 0.783 1.14794370197e-38
0.0028981634231 -0.131866435751 0.783 1.18467790044e-38
0.00434724513466 -0.131866435751 0.783 1.17549435082e-38
0.00579632684621 -0.131866435751 0.783 1.23059564852e-38
0.00724540855776 -0.131866435751 0.783 1.28569694621e-38
0.00869449026931 -0.131866435751 0.783 1.26732998711e-38
0.0101435719809 -0.131866435751 0.783 1.2765133966e-38
0.0115926536924 -0.131866435751 0.783 9.82639808891e-39
0.013041735404 -0.131866435751 0.783 2.34824790198e-38
0.0144908171155 -0.131866435751 0.783 1.69548748431e-38
0.0159398988271 -0.131866435751 0.783 1.53933154787e-38
0.0174333968363 -0.132203259342 0.785 1.40061000639e-38
0.018886179906 -0.132203259342 0.785 1.2057095687e-38
0.0203907819896 -0.132540082933 0.787 1.07605793153e-38
0.0218472664175 -0.132540082933 0.787 1.42725275396e-38
0.0233037508453 -0.132540082933 0.787 1.92597487741e-38
0.0247602352731 -0.132540082933 0.787 2.07313237578e-38
0.026216719701 -0.132540082933 0.787 2.12830878307e-38
0.0277435299334 -0.132876906523 0.789 1.85211425705e-38
0.0292037157194 -0.132876906523 0.789 1.74180067882e-38
0.0307027657658 -0.133045318319 0.79 1.07785117318e-38
0.032327661989 -0.1337189655 0.794 1.26176949467e-38
0.0337971011703 -0.1337189655 0.794 1.88842470286e-38
0.035355372947 -0.134055789091 0.796 1.67641006689e-38
0.0370135813934 -0.134729436272 0.8 2.05433395688e-38
0.0387347129282 -0.135571495249 0.805 1.78699900027e-38
0.0403244462491 -0.135908318839 0.807 1.94337606161e-38
0.0419215822862 -0.13624514243 0.809 1.9248958776e-38
0.0435261210396 -0.136581966021 0.811 2.06290275686e-38
-0.026882964166 -0.13441482083 0.807 1.85005757129e-38
-0.0253894661568 -0.13441482083 0.807 2.00707754837e-38
-0.0238959681476 -0.13441482083 0.807 1.18719112923e-38
-0.0224024701384 -0.13441482083 0.807 1.05913010596e-38
-0.0208571531152 -0.134081698598 0.805 1.30809347918e-38
-0.0193192388083 -0.133748576365 0.803 1.35401052661e-38
-0.0177665190688 -0.133248893016 0.8 1.46936793853e-39
-0.0162452608736 -0.132915770784 0.798 5.14530311559e-39
-0.0147314053946 -0.132582648551 0.796 4.68361030406e-39
-0.0132249526319 -0.132249526319 0.794 3.12240686937e-39
-0.0117259025854 -0.131916404086 0.792 2.02038091548e-39
-0.0102342552553 -0.131583281854 0.79 1.00388769751e-38
-0.00876111471582 -0.131416720737 0.789 1.87034458955e-38
-0.00730092892985 -0.131416720737 0.789 3.03200630284e-39
-0.00584074314388 -0.131416720737 0.789 5.32645877716e-39
-0.00438055735791 -0.131416720737 0.789 9.91823358506e-39
-0.00292037157194 -0.131416720737 0.789 1.08365885466e-38
-0.00146018578597 -0.131416720737 0.789 1.12039305313e-38
0.0 -0.131083598505 0.787 1.15712725159e-38
0.00145278306969 -0.130750476272 0.785 1.14794398223e-38
0.00290556613938 -0.130750476272 0.785 1.18467790044e-38
0.00434724513466 -0.13041735404 0.783 1.2214120989e-38
0.00579632684621 -0.13041735404 0.783 1.2765133966e-38
0.00724540855776 -0.13041735404 0.783 1.26732984698e-38
0.00869449026931 -0.13041735404 0.783 1.29488049583e-38
0.0101435719809 -0.13041735404 0.783 1.24896274775e-38
0.0115926536924 -0.13041735404 0.783 9.82639808891e-39
0.013041735404 -0.13041735404 0.783 2.23761398692e-38
0.0144908171155 -0.13041735404 0.783 1.29875943011e-38
0.0159806137666 -0.130750476272 0.785 1.58535397294e-38
0.0174333968363 -0.130750476272 0.785 1.71410625675e-38
0.018886179906 -0.130750476272 0.785 2.05494338158e-38
