# .PCD v0.7 - Point Cloud Data file format
VERSION 0.7
FIELDS x y z rgb
SIZE 4 4 4 4
TYPE F F F F
COUNT 1 1 1 1
WIDTH 845
HEIGHT 1
VIEWPOINT 0 0 0 1 0 0 0
POINTS 845
DATA ascii
0.0618404411131 -0.0573155307877 0.815 2.05163617707e-38
0.0644369438478 -0.0583000920528 0.829 2.16240994172e-38
-0.00456932662302 -0.0563550283506 0.823 2.3504762468e-38
-0.00304621774868 -0.0563550283506 0.823 2.03499463677e-38
-0.00152310887434 -0.0563550283506 0.823 2.02509081974e-38
0.0 -0.0562180780994 0.821 1.76665803202e-38
0.0015194075162 -0.0562180780994 0.821 1.64651000104e-38
0.00303141231612 -0.0560811278482 0.819 1.58144070685e-38
0.00452491032535 -0.0558072273459 0.815 1.52597619259e-38
0.00601840833457 -0.0556702770948 0.813 1.48924367569e-38
0.00746749004612 -0.0552594263413 0.807 1.48928024958e-38
0.00893877990651 -0.0551224760902 0.805 1.46162506386e-38
0.0104285765576 -0.0551224760902 0.805 1.31375304342e-38
0.0118887623436 -0.054985525839 0.803 1.24971832788e-38
0.0133748576365 -0.054985525839 0.803 1.31403680635e-38
0.0148424461388 -0.0549170507134 0.802 1.17653579584e-38
0.0163266907526 -0.0549170507134 0.802 1.08491455822e-38
0.0177665190688 -0.0547801004623 0.8 9.92791936005e-39
0.019150827013 -0.05450619996 0.796 1.1947584212e-38
0.0206239675524 -0.05450619996 0.796 1.20358309828e-38
0.022152628464 -0.0546431502111 0.798 1.15741423752e-38
0.0236294703616 -0.0546431502111 0.798 1.52533075452e-38
0.0251063122592 -0.0546431502111 0.798 1.48816551665e-38
0.0265831541568 -0.0546431502111 0.798 1.69138756527e-38
0.0280599960544 -0.0546431502111 0.798 1.53472940345e-38
0.0295368379519 -0.0546431502111 0.798 1.65443798723e-38
0.0309359513286 -0.05450619996 0.796 1.54412917342e-38
0.0324090918681 -0.05450619996 0.796 1.44350459316e-38
0.0338822324075 -0.05450619996 0.796 1.25036180414e-38
0.035355372947 -0.05450619996 0.796 1.36953551229e-38
0.0368285134865 -0.05450619996 0.796 1.35127337032e-38
0.0383016540259 -0.05450619996 0.796 1.49856987749e-38
0.0397747945654 -0.05450619996 0.796 1.38793568217e-38
0.0413515731327 -0.0546431502111 0.798 1.39719195918e-38
0.0429357544164 -0.0547801004623 0.8 1.52612543088e-38
0.0445273384163 -0.0549170507134 0.802 1.48942458332e-38
0.0460689540813 -0.054985525839 0.803 1.36964032942e-38
0.0475550493743 -0.054985525839 0.803 1.50785992578e-38
0.0490411446672 -0.054985525839 0.803 1.53498009574e-38
0.0505272399602 -0.054985525839 0.803 1.61799077469e-38
0.0524019778577 -0.0553963765925 0.809 1.71980057319e-38
0.0540324261181 -0.0555333268436 0.811 1.66401628262e-38
0.0556702770948 -0.0556702770948 0.813 1.87602867651e-38
0.057456182397 -0.0559441775971 0.817 1.94035360096e-38
0.0589681871969 -0.0559441775971 0.817 1.95904426e-38
0.060776300648 -0.0562180780994 0.821 2.00539220671e-38
0.062902730899 -0.056765879104 0.829 1.97759254713e-38
0.0644369438478 -0.056765879104 0.829 2.25431438176e-38
0.0662894735965 -0.0570397796063 0.833 2.34939934893e-38
-0.00304621774868 -0.0548319194762 0.823 1.92475518723e-38
-0.00152310887434 -0.0548319194762 0.823 2.0250497617e-38
0.0 -0.0546986705832 0.821 1.9238226231e-38
0.0015194075162 -0.0546986705832 0.821 1.65580439336e-38
0.00303141231612 -0.0545654216902 0.819 1.65515601256e-38
0.00453601439976 -0.0544321727972 0.817 1.44314459959e-38
0.00601840833457 -0.0541656750111 0.813 1.58147363736e-38
0.00746749004612 -0.0537659283321 0.807 1.48016606423e-38
0.00896098805535 -0.0537659283321 0.807 1.2316359725e-38
0.0104285765576 -0.0536326794391 0.805 9.65423175698e-39
0.0119183732087 -0.0536326794391 0.805 1.01187678031e-38
0.0134081698598 -0.0536326794391 0.805 1.0852032257e-38
0.0148979665109 -0.0536326794391 0.805 1.08520266518e-38
0.0163877631619 -0.0536326794391 0.805 1.08538133074e-38
0.0178331435154 -0.0534994305461 0.803 9.84218231481e-39
0.0193192388083 -0.0534994305461 0.803 1.02098830318e-38
0.0207794245943 -0.0534328060995 0.802 1.00276665873e-38
0.0222636692081 -0.0534328060995 0.802 9.65815679398e-39
0.023747913822 -0.0534328060995 0.802 1.22277612283e-38
0.0251692353475 -0.0532995572065 0.8 1.2776613403e-38
0.0266497786033 -0.0532995572065 0.8 1.49889259652e-38
0.028130321859 -0.0532995572065 0.8 1.5353395288e-38
0.0296108651147 -0.0532995572065 0.8 1.47062406247e-38
0.0310136798495 -0.0531663083135 0.798 1.40662830303e-38
0.0324905217471 -0.0531663083135 0.798 9.92971302208e-39
0.0339673636447 -0.0531663083135 0.798 1.13151557943e-38
0.0354442055423 -0.0531663083135 0.798 1.2139145916e-38
0.0369210474399 -0.0531663083135 0.798 9.64739061788e-39
0.0383978893375 -0.0531663083135 0.798 1.13922650449e-38
0.0398747312351 -0.0531663083135 0.798 8.26519465422e-39
0.0414552111606 -0.0532995572065 0.8 9.91895104988e-39
0.0430430938024 -0.0534328060995 0.802 1.25965297347e-38
0.0445828587884 -0.0534994305461 0.803 1.28698838288e-38
0.0460689540813 -0.0534994305461 0.803 1.46166037658e-38
0.0475550493743 -0.0534994305461 0.803 1.7017975313e-38
0.0491632894858 -0.0536326794391 0.805 1.64651644701e-38
0.0510306246671 -0.0540324261181 0.811 1.38797365736e-38
0.0525315253926 -0.0540324261181 0.811 1.28623504482e-38
0.0541656750111 -0.0541656750111 0.813 1.59991150217e-38
0.0559441775971 -0.0544321727972 0.817 1.84855369778e-38
0.0575968340063 -0.0545654216902 0.819 1.94035514239e-38
0.0592568931318 -0.0546986705832 0.821 1.95897167274e-38
0.0610724092991 -0.0549651683692 0.825 2.00518117116e-38
0.062902730899 -0.0552316661553 0.829 2.0699309693e-38
0.0647478579315 -0.0554981639413 0.833 2.12553519302e-38
0.0662894735965 -0.0554981639413 0.833 2.34969053875e-38
-0.00459153477185 -0.0535679056716 0.827 2.3504762468e-38
-0.00306102318124 -0.0535679056716 0.827 2.02649478068e-38
-0.00152681023248 -0.0534383581368 0.825 2.04345595716e-38
0.0 -0.053179263067 0.821 1.97903013922e-38
0.0015194075162 -0.053179263067 0.821 1.84029878866e-38
0.0030388150324 -0.053179263067 0.821 1.59108794613e-38
0.0045582225486 -0.053179263067 0.821 1.52651793458e-38
0.00604801919968 -0.0529201679972 0.817 1.2685854104e-38
0.00750450362752 -0.0525315253926 0.811 1.1121799027e-38
0.00898319620418 -0.0524019778577 0.809 7.07133320417e-39
0.0104803955715 -0.0524019778577 0.809 6.70399121953e-39
0.0119479840738 -0.0522724303229 0.807 7.5326630794e-39
0.013441482083 -0.0522724303229 0.807 8.45281170301e-39
0.0149349800922 -0.0522724303229 0.807 7.53051068496e-39
0.0164284781015 -0.0522724303229 0.807 8.44886564654e-39
0.017877559813 -0.052142882788 0.805 8.26519465422e-39
0.0193673564641 -0.052142882788 0.805 8.26519465422e-39
0.0208571531152 -0.052142882788 0.805 9.92182090913e-39
0.0223469497663 -0.052142882788 0.805 8.44886564654e-39
0.0237775246871 -0.0520133352531 0.803 9.82926794816e-39
0.0252321584359 -0.0519485614857 0.802 9.46443709038e-39
0.0267164030498 -0.0519485614857 0.802 9.55376145969e-39
0.0282006476636 -0.0519485614857 0.802 1.12039305313e-38
0.0296848922775 -0.0519485614857 0.802 9.82639808891e-39
0.0310914083705 -0.0518190139508 0.8 1.5533529403e-38
0.0325719516262 -0.0518190139508 0.8 1.02884454289e-38
0.0340524948819 -0.0518190139508 0.8 1.28670546072e-38
0.0355330381377 -0.0518190139508 0.8 1.53534667542e-38
0.0370135813934 -0.0518190139508 0.8 1.85867934035e-38
0.0385903599608 -0.0519485614857 0.802 2.21922895107e-38
0.0400746045747 -0.0519485614857 0.802 2.2658399215e-38
0.0415588491885 -0.0519485614857 0.802 2.34921185519e-38
0.0430967634954 -0.0520133352531 0.803 2.34885382343e-38
0.0445828587884 -0.0520133352531 0.803 2.34867613879e-38
0.0460689540813 -0.0520133352531 0.803 2.34882047253e-38
0.0477919362952 -0.0522724303229 0.807 2.20159445067e-38
0.049407579123 -0.0524019778577 0.809 2.3494311584e-38
0.0511564708438 -0.0526610729275 0.813 2.34950598774e-38
0.0526610729275 -0.0526610729275 0.813 1.71288348371e-38
0.0541656750111 -0.0526610729275 0.813 1.01937400735e-38
0.0559441775971 -0.0529201679972 0.817 1.83062086094e-38
0.0577374856156 -0.053179263067 0.821 1.97737730768e-38
0.0592568931318 -0.053179263067 0.821 1.90376373624e-38
0.0615165722759 -0.0538270007414 0.831 2.13418120454e-38
0.0630544865828 -0.0538270007414 0.831 2.03341593392e-38
0.0647478579315 -0.0539565482763 0.833 2.05166980824e-38
0.0662894735965 -0.0539565482763 0.833 2.34971856472e-38
0.0 -0.0517857017275 0.823 1.93260806383e-38
0.00152310887434 -0.0517857017275 0.823 1.85913672417e-38
0.00304621774868 -0.0517857017275 0.823 1.5817588016e-38
0.00456932662302 -0.0517857017275 0.823 1.04728338861e-38
0.0060776300648 -0.0516598555508 0.821 6.98021517282e-39
0.00754151720891 -0.0512823170206 0.815 1.56457986334e-38
0.00902761250186 -0.0511564708438 0.813 1.86036173929e-38
0.0105063050785 -0.0510306246671 0.811 1.98972274715e-38
0.012007205804 -0.0510306246671 0.811 1.70387873978e-38
0.0135081065295 -0.0510306246671 0.811 7.90682097976e-39
0.0149719936736 -0.0509047784904 0.809 2.17365858488e-38
0.016469193041 -0.0509047784904 0.809 2.04493264548e-38
0.0179663924084 -0.0509047784904 0.809 2.06311897721e-38
0.0194635917757 -0.0509047784904 0.809 2.10014044186e-38
0.0209607911431 -0.0509047784904 0.809 2.13702065562e-38
0.0224024701384 -0.0507789323136 0.807 2.07277070064e-38
0.0238367464174 -0.0506530861369 0.805 2.07280741466e-38
0.0252636199801 -0.0505272399602 0.803 2.01723822341e-38
0.026749715273 -0.0505272399602 0.803 2.08177138081e-38
0.028235810566 -0.0505272399602 0.803 2.13694428485e-38
0.0297219058589 -0.0505272399602 0.803 2.20144647356e-38
0.0312080011519 -0.0505272399602 0.803 2.13683890721e-38
0.0326533815053 -0.0504643168718 0.802 2.24729401658e-38
0.0341376261192 -0.0504643168718 0.802 2.2838477278e-38
0.0356662870307 -0.0505272399602 0.803 2.34939038062e-38
0.0371523823236 -0.0505272399602 0.803 1.73079305899e-38
0.0387347129282 -0.0506530861369 0.805 1.54671428882e-38
0.0402245095793 -0.0506530861369 0.805 2.34928906674e-38
0.0417143062304 -0.0506530861369 0.805 2.34845725597e-38
0.0433114422675 -0.0507789323136 0.807 2.3206581569e-38
0.0446938995326 -0.0506530861369 0.805 2.34882061266e-38
0.0461836961836 -0.0506530861369 0.805 2.33952916306e-38
0.0480288232161 -0.0510306246671 0.811 3.94892913739e-39
0.0496518687602 -0.0511564708438 0.813 1.33341508256e-38
0.0512823170206 -0.0512823170206 0.815 2.34888941642e-38
0.0527906204624 -0.0512823170206 0.815 2.34882089292e-38
0.0545654216902 -0.0515340093741 0.819 9.28005704104e-39
0.0562180780994 -0.0516598555508 0.821 1.71123121269e-38
0.0580187888342 -0.0519115479043 0.825 1.95883098238e-38
0.0598343050015 -0.0521632402577 0.829 1.90383856557e-38
0.0616646266014 -0.0524149326112 0.833 2.15283837256e-38
0.0632062422665 -0.0524149326112 0.833 1.93171207359e-38
0.0647478579315 -0.0524149326112 0.833 2.34647399825e-38
0.0662894735965 -0.0524149326112 0.833 2.34943340048e-38
0.0 -0.051850475495 0.849 1.90502154174e-38
0.00157122653015 -0.051850475495 0.849 2.0158320204e-38
0.00306842589751 -0.050629027309 0.829 1.59152150787e-38
0.00460263884627 -0.050629027309 0.829 5.41829427332e-39
0.00610724092991 -0.0503847376718 0.825 2.07223764671e-38
0.0076155443717 -0.0502625928532 0.823 2.14606449578e-38
0.0091164450972 -0.0501404480346 0.821 2.09978269036e-38
0.0105840335994 -0.0498961583974 0.817 1.76841736224e-38
0.0120664275343 -0.0497740135788 0.815 2.14635134158e-38
0.013574730976 -0.0497740135788 0.815 1.95244988956e-38
0.0150460208364 -0.0496518687602 0.813 1.98929086697e-38
0.0165099079805 -0.0495297239416 0.811 2.11797364637e-38
0.018010808706 -0.0495297239416 0.811 2.17321745612e-38
0.0195117094315 -0.0495297239416 0.811 2.25644169296e-38
0.0209607911431 -0.049407579123 0.809 1.36250449725e-38
0.0224579905105 -0.049407579123 0.809 9.84361724443e-39
0.0238959681476 -0.0492854343044 0.807 1.78721830348e-38
0.0253265430684 -0.0491632894858 0.805 2.21095918818e-38
0.0268163397195 -0.0491632894858 0.805 2.2009837648e-38
0.0283061363706 -0.0491632894858 0.805 2.28385347313e-38
0.0297959330217 -0.0491632894858 0.805 2.21016591312e-38
0.0312080011519 -0.0490411446672 0.803 2.20073377316e-38
0.0326940964448 -0.0490411446672 0.803 2.23786005493e-38
0.0341801917378 -0.0490411446672 0.803 2.34863690243e-38
0.0358439522214 -0.0492854343044 0.807 2.34871089099e-38
0.0373374502306 -0.0492854343044 0.807 6.70399121953e-39
0.0388309482398 -0.0492854343044 0.807 1.31532922393e-38
0.0404243829188 -0.049407579123 0.809 2.34868272489e-38
0.0419215822862 -0.049407579123 0.809 2.10903924763e-38
0.0435261210396 -0.0495297239416 0.811 2.01694955593e-38
0.0451380625093 -0.0496518687602 0.813 1.47221201389e-38
0.0466426645929 -0.0496518687602 0.813 1.15802408261e-38
0.048265710137 -0.0497740135788 0.815 1.26944636818e-38
0.0498961583974 -0.0498961583974 0.817 7.16496236236e-39
0.0515340093741 -0.050018303216 0.819 2.34914459287e-38
0.0530497155321 -0.050018303216 0.819 2.21027549466e-38
0.0546986705832 -0.0501404480346 0.821 1.14833830762e-38
0.0563550283506 -0.0502625928532 0.823 1.77519530278e-38
0.0583000920528 -0.050629027309 0.829 1.94049583275e-38
0.0601230109364 -0.0508733169462 0.833 2.05138310257e-38
0.0616646266014 -0.0508733169462 0.833 1.95007707087e-38
0.0632062422665 -0.0508733169462 0.833 1.92217133299e-38
0.0647478579315 -0.0508733169462 0.833 2.34640687606e-38
0.0662894735965 -0.0508733169462 0.833 2.34979563613e-38
-0.0047414397765 -0.050575357616 0.854 2.35047750796e-38
-0.00157122653015 -0.0502792489648 0.849 1.61942962796e-38
0.0 -0.0502792489648 0.849 1.85899477264e-38
0.00157122653015 -0.0502792489648 0.849 2.01576167522e-38
0.00306842589751 -0.0490948143602 0.829 1.73020787675e-38
0.00460263884627 -0.0490948143602 0.829 4.5917748079e-39
0.00612204636247 -0.0489763708998 0.827 2.13702794237e-38
0.00763405116239 -0.0488579274393 0.825 2.02617262216e-38
0.00913865324604 -0.0487394839789 0.823 5.78563625795e-39
0.0106358526134 -0.0486210405184 0.821 3.03057137321e-39
0.0121552601296 -0.0486210405184 0.821 2.10943735652e-38
0.013574730976 -0.048265710137 0.815 2.18265141777e-38
0.0150830344178 -0.048265710137 0.815 2.09963667506e-38
0.0165913378596 -0.048265710137 0.815 2.07183533392e-38
0.0180552250037 -0.0481472666766 0.813 2.05354040156e-38
0.0195598270874 -0.0481472666766 0.813 2.16421018985e-38
0.021064429171 -0.0481472666766 0.813 1.99869063694e-38
0.0225690312546 -0.0481472666766 0.813 7.63310815332e-39
0.0240736333383 -0.0481472666766 0.813 9.09386651408e-39
0.0255153123336 -0.0480288232161 0.811 2.31211598159e-38
0.0270162130591 -0.0480288232161 0.811 2.26580769163e-38
0.0285171137846 -0.0480288232161 0.811 2.2011259966e-38
0.0300920416729 -0.0481472666766 0.813 2.2564066605e-38
0.0314411867146 -0.0479103797556 0.809 2.22882027854e-38
0.032938386082 -0.0479103797556 0.809 2.34871201203e-38
0.0345207166866 -0.0480288232161 0.811 2.34846061909e-38
0.0360216174121 -0.0480288232161 0.811 2.34928206024e-38
0.0375225181376 -0.0480288232161 0.811 2.28442450225e-38
0.0391196541747 -0.0481472666766 0.813 1.69415148636e-38
0.0406242562583 -0.0481472666766 0.813 1.36017525894e-38
0.0422324963699 -0.048265710137 0.815 1.22248829612e-38
0.0436334604256 -0.0481472666766 0.813 1.09334462965e-38
0.0451380625093 -0.0481472666766 0.813 1.51697172892e-38
0.0467574066952 -0.048265710137 0.815 1.54491698341e-38
0.0483841535975 -0.0483841535975 0.817 1.07609100218e-38
0.050018303216 -0.0485025970579 0.819 1.54549782163e-38
0.0516598555508 -0.0486210405184 0.821 2.34950416605e-38
0.053179263067 -0.0486210405184 0.821 1.43579464901e-38
0.0549651683692 -0.0488579274393 0.825 1.64496927338e-38
0.0566289288529 -0.0489763708998 0.827 1.89451082235e-38
0.0584407436621 -0.0492132578207 0.831 1.89457794454e-38
0.0601230109364 -0.0493317012812 0.833 2.01464890411e-38
0.0616646266014 -0.0493317012812 0.833 2.07936605199e-38
0.0630544865828 -0.0492132578207 0.831 1.93163346074e-38
0.0645924008897 -0.0492132578207 0.831 2.30964156877e-38
0.0661303151966 -0.0492132578207 0.831 2.34993814819e-38
-0.006321919702 -0.0489948776905 0.854 2.34993702715e-38
-0.0047414397765 -0.0489948776905 0.854 2.35008066024e-38
-0.003160959851 -0.0489948776905 0.854 2.34990031313e-38
-0.00157122653015 -0.0487080224347 0.849 1.65627382835e-38
0.0 -0.0487080224347 0.849 1.89594715327e-38
0.00157122653015 -0.0487080224347 0.849 1.85891812161e-38
0.0031424530603 -0.0487080224347 0.849 1.93274707263e-38
0.00462484699511 -0.0477900856161 0.833 5.96930725027e-39
0.00612204636247 -0.0474458593092 0.827 2.18250918598e-38
0.00765255795309 -0.0474458593092 0.827 2.0538669041e-38
0.00916086139487 -0.0473311172068 0.825 4.22443282327e-39
0.0106876716274 -0.0473311172068 0.825 5.87747175411e-39
0.0121848709947 -0.0472163751045 0.823 1.48138701559e-38
0.0136413554225 -0.0469868908999 0.819 2.0448233442e-38
0.0151570615806 -0.0469868908999 0.819 2.07259483768e-38
0.0166727677387 -0.0469868908999 0.819 2.22910894602e-38
0.0180996413014 -0.0467574066952 0.815 2.16460703758e-38
0.0196079447432 -0.0467574066952 0.815 2.06319226512e-38
0.0211162481849 -0.0467574066952 0.815 2.00794831524e-38
0.0226245516267 -0.0467574066952 0.815 1.92511672224e-38
0.0241328550685 -0.0467574066952 0.815 1.82308635936e-38
0.0256411585103 -0.0467574066952 0.815 1.73075256147e-38
0.0271494619521 -0.0467574066952 0.815 1.70319953041e-38
0.0286577653939 -0.0467574066952 0.815 1.84167023946e-38
0.0302400959984 -0.0468721487976 0.817 2.08158935214e-38
0.0315966437565 -0.0466426645929 0.813 2.16489192156e-38
0.0331012458401 -0.0466426645929 0.813 2.2386491261e-38
0.0346058479238 -0.0466426645929 0.813 2.34939374373e-38
0.0361104500074 -0.0466426645929 0.813 1.14095220355e-38
0.0376150520911 -0.0466426645929 0.813 7.80603258771e-39
0.0391196541747 -0.0466426645929 0.813 1.31403862804e-38
0.0406242562583 -0.0466426645929 0.813 1.51711522188e-38
0.0423361343978 -0.0468721487976 0.817 1.59126689194e-38
0.0438481391977 -0.0468721487976 0.817 1.49971670015e-38
0.0454711847418 -0.0469868908999 0.819 1.52751916233e-38
0.0471016330022 -0.0471016330022 0.821 1.36128228473e-38
0.0486210405184 -0.0471016330022 0.821 8.26519465422e-39
0.0501404480346 -0.0471016330022 0.821 2.34817965874e-38
0.0517857017275 -0.0472163751045 0.823 2.34867768022e-38
0.0534383581368 -0.0473311172068 0.825 9.73850864922e-39
0.0553649150483 -0.0476753435138 0.831 1.79291037784e-38
0.0570397796063 -0.0477900856161 0.833 1.98649051212e-38
0.05886269849 -0.0480195698208 0.837 1.94089211996e-38
0.0604117168713 -0.0480195698208 0.837 1.95018398994e-38
0.061812680927 -0.0479048277184 0.835 2.04248920135e-38
0.0630544865828 -0.0476753435138 0.831 2.1252477867e-38
0.0645924008897 -0.0476753435138 0.831 2.34731001292e-38
0.0661303151966 -0.0476753435138 0.831 2.35015422841e-38
-0.0047414397765 -0.047414397765 0.854 2.34993534559e-38
-0.003160959851 -0.047414397765 0.854 2.35044037356e-38
-0.0015804799255 -0.047414397765 0.854 1.71162021314e-38
0.0 -0.0471367959045 0.849 1.80364390369e-38
0.00157122653015 -0.0471367959045 0.849 1.89565568319e-38
0.0031424530603 -0.0471367959045 0.849 2.01547300773e-38
0.00462484699511 -0.0462484699511 0.833 1.16803271676e-38
0.00613685179503 -0.0460263884627 0.829 1.60974581479e-38
0.00767106474379 -0.0460263884627 0.829 2.10950672079e-38
0.00918306954371 -0.0459153477185 0.827 1.3536452081e-38
0.0107135811343 -0.0459153477185 0.827 8.2748804292e-39
0.0122440927249 -0.0459153477185 0.827 9.19539899561e-39
0.0136746676458 -0.045582225486 0.821 8.26591211903e-39
0.015194075162 -0.045582225486 0.821 1.13000708163e-38
0.0166727677387 -0.0454711847418 0.819 1.12046479961e-38
0.0181440575991 -0.0453601439976 0.817 1.23977919813e-38
0.019656062399 -0.0453601439976 0.817 1.24896274775e-38
0.0211162481849 -0.0452491032535 0.815 1.12053654609e-38
0.0226245516267 -0.0452491032535 0.815 1.33269089151e-38
0.0241920767987 -0.0453601439976 0.817 1.37929023116e-38
0.0257040815987 -0.0453601439976 0.817 1.26876477661e-38
0.0272160863986 -0.0453601439976 0.817 1.0665831921e-38
0.0287280911985 -0.0453601439976 0.817 9.83464893426e-39
0.0303141231612 -0.0454711847418 0.819 9.64918427991e-39
0.0318298293193 -0.0454711847418 0.819 7.7156166069e-39
0.0333455354773 -0.0454711847418 0.819 7.98968816575e-39
0.0348612416354 -0.0454711847418 0.819 1.80400683999e-38
0.0361992826028 -0.0452491032535 0.815 4.40810381558e-39
0.0377075860445 -0.0452491032535 0.815 1.18715889937e-38
0.039312124798 -0.0453601439976 0.817 1.38011825843e-38
0.0408241295979 -0.0453601439976 0.817 1.43532549428e-38
0.0424397724257 -0.0454711847418 0.819 1.51765514218e-38
0.0439554785838 -0.0454711847418 0.819 1.42563901865e-38
0.045582225486 -0.045582225486 0.821 9.92791936005e-39
0.0472163751045 -0.0456932662302 0.823 1.26804801244e-38
0.0487394839789 -0.0456932662302 0.823 2.24718079167e-38
0.0502625928532 -0.0456932662302 0.823 2.34961094499e-38
0.0519115479043 -0.0458043069744 0.825 9.6534890688e-39
0.0536974532065 -0.0460263884627 0.829 1.68188325843e-38
0.0554981639413 -0.0462484699511 0.833 1.79337883192e-38
0.0573136801086 -0.0464705514394 0.837 1.90383436168e-38
0.0591440017085 -0.0466926329278 0.841 1.90404932086e-38
0.0607004228061 -0.0466926329278 0.841 1.71097883884e-38
0.0622568439037 -0.0466926329278 0.841 2.00575542327e-38
0.0638132650013 -0.0466926329278 0.841 2.17159867614e-38
0.0653696860989 -0.0466926329278 0.841 2.32851173415e-38
0.0669261071965 -0.0466926329278 0.841 2.35033331435e-38
-0.006321919702 -0.0458339178395 0.854 2.35025862514e-38
-0.0047414397765 -0.0458339178395 0.854 2.35011555257e-38
-0.003160959851 -0.0458339178395 0.854 2.350655613e-38
-0.0015804799255 -0.0458339178395 0.854 1.75783475624e-38
0.0 -0.0456729087604 0.851 1.86814749369e-38
0.00156382381387 -0.0453508906023 0.845 1.95979563624e-38
0.00311284219519 -0.0451362118302 0.841 1.71086939743e-38
0.00463595106953 -0.0448141936721 0.835 1.84969617642e-38
0.00615165722759 -0.0445995149 0.831 6.3366492349e-39
0.00767106474379 -0.044492175514 0.829 2.15506349439e-38
0.00920527769254 -0.044492175514 0.829 2.04468209331e-38
0.0107394906413 -0.044492175514 0.829 6.15513063703e-39
0.0122440927249 -0.0443848361279 0.827 9.46767268853e-39
0.0137746043156 -0.0443848361279 0.827 9.19682271485e-39
0.0152310887434 -0.0441701573558 0.823 1.22338512714e-38
0.0167541976177 -0.0441701573558 0.823 1.31515125902e-38
0.0182328901944 -0.0440628179698 0.821 1.35213685043e-38
0.0197522977106 -0.0440628179698 0.821 1.36139172614e-38
0.0212717052268 -0.0440628179698 0.821 1.32444004615e-38
0.0227355923709 -0.0439554785838 0.819 1.45239989568e-38
0.024251298529 -0.0439554785838 0.819 1.4613689065e-38
0.0258299277754 -0.0440628179698 0.821 1.51715347733e-38
0.0273493352916 -0.0440628179698 0.821 1.46288104768e-38
0.0288687428078 -0.0440628179698 0.821 1.38004370935e-38
0.030388150324 -0.0440628179698 0.821 1.35292424004e-38
0.0319075578402 -0.0440628179698 0.821 1.01152071037e-38
0.0334269653564 -0.0440628179698 0.821 1.23264630869e-38
0.0349463728726 -0.0440628179698 0.821 6.06114274643e-39
0.0364657803888 -0.0440628179698 0.821 1.09435090208e-38
0.037985187905 -0.0440628179698 0.821 1.01133840144e-38
0.0395045954212 -0.0440628179698 0.821 1.10382003632e-38
0.0411239396072 -0.0441701573558 0.823 1.10381961593e-38
0.0426470484815 -0.0441701573558 0.823 1.03899667001e-38
0.0442774967419 -0.0442774967419 0.825 9.19036553153e-39
0.0458043069744 -0.0442774967419 0.825 1.66495361117e-38
0.0473311172068 -0.0442774967419 0.825 2.21009977183e-38
0.0488579274393 -0.0442774967419 0.825 2.34911208274e-38
0.0503847376718 -0.0442774967419 0.825 1.39859592011e-38
0.0521632402577 -0.044492175514 0.829 1.47998641777e-38
0.0540860958111 -0.0448141936721 0.835 1.7108382886e-38
0.0557646617273 -0.0449215330581 0.837 1.89486633177e-38
0.0574506303598 -0.0450288724442 0.839 1.6923962199e-38
0.0592846533178 -0.0452435512162 0.843 1.97787925279e-38
0.0608447757736 -0.0452435512162 0.843 1.49940028696e-38
0.0622568439037 -0.0451362118302 0.841 2.00622415761e-38
0.0638132650013 -0.0451362118302 0.841 2.16238009406e-38
0.0653696860989 -0.0451362118302 0.841 2.29159466623e-38
-0.00475254385092 -0.0443570759419 0.856 2.35018926087e-38
-0.00316836256728 -0.0443570759419 0.856 2.350872534e-38
-0.00158418128364 -0.0443570759419 0.856 1.61064586879e-38
0.0 -0.044253437914 0.854 1.997319046e-38
0.00156382381387 -0.0437870667884 0.845 1.89533380493e-38
0.00311284219519 -0.0435797907326 0.841 1.88596906743e-38
0.00464705514394 -0.0433725146768 0.837 1.96011625333e-38
0.00616646266014 -0.043165238621 0.833 1.37053716044e-38
0.00768957153448 -0.0430616005931 0.831 1.00100690812e-38
0.00922748584138 -0.0430616005931 0.831 2.18283708982e-38
0.0107654001483 -0.0430616005931 0.831 1.90621138426e-38
0.0122737035901 -0.0429579625652 0.829 6.24481373874e-39
0.0138079165388 -0.0429579625652 0.829 1.09366917037e-38
0.0153421294876 -0.0429579625652 0.829 1.0949261351e-38
0.0168763424363 -0.0429579625652 0.829 1.13154963098e-38
0.0184105553851 -0.0429579625652 0.829 1.26087350444e-38
0.019896650678 -0.0428543245373 0.827 1.3250877263e-38
0.0213235242407 -0.0426470484815 0.823 1.38955236021e-38
0.0228466331151 -0.0426470484815 0.823 1.48131639014e-38
0.0243697419894 -0.0426470484815 0.823 1.58222991814e-38
0.0258928508638 -0.0426470484815 0.823 1.5178326867e-38
0.0273493352916 -0.0425434104536 0.821 1.4259613173e-38
0.0288687428078 -0.0425434104536 0.821 1.27827118539e-38
0.030388150324 -0.0425434104536 0.821 1.27823573254e-38
0.0319075578402 -0.0425434104536 0.821 1.22367631696e-38
0.0334269653564 -0.0425434104536 0.821 1.00280057016e-38
0.0349463728726 -0.0425434104536 0.821 7.34683969264e-39
0.0365546129841 -0.0426470484815 0.823 1.97135144403e-38
0.0380777218585 -0.0426470484815 0.823 1.33452042679e-38
0.0396970660444 -0.0427506865094 0.825 1.10350026001e-38
0.0412238762769 -0.0427506865094 0.825 1.33387723079e-38
0.0427506865094 -0.0427506865094 0.825 1.75859426001e-38
0.0443848361279 -0.0428543245373 0.827 2.09106507248e-38
0.0459153477185 -0.0428543245373 0.827 2.34892767186e-38
0.0474458593092 -0.0428543245373 0.827 2.34918382922e-38
0.0490948143602 -0.0429579625652 0.829 1.57405530342e-38
0.050629027309 -0.0429579625652 0.829 1.09355986909e-38
0.0524149326112 -0.043165238621 0.833 1.79345772502e-38
0.0540860958111 -0.0432688766489 0.835 1.79341862879e-38
0.0557646617273 -0.0433725146768 0.837 1.70111355752e-38
0.057587580611 -0.0435797907326 0.841 1.9501509193e-38
0.0594253049271 -0.0437870667884 0.845 2.34847883597e-38
0.060989128741 -0.0437870667884 0.845 1.43593407821e-38
0.0625529525549 -0.0437870667884 0.845 2.06121909675e-38
0.0641167763688 -0.0437870667884 0.845 2.21733635736e-38
0.0656806001826 -0.0437870667884 0.845 2.3007441643e-38
-0.00476364792533 -0.042872831328 0.858 2.34982870678e-38
-0.00316836256728 -0.0427728946582 0.856 2.35083624037e-38
-0.00158418128364 -0.0427728946582 0.856 1.67517888606e-38
0.0 -0.0426729579885 0.854 1.89583575004e-38
0.00157122653015 -0.0424231163141 0.849 1.9877773245e-38
0.00312764762774 -0.0422232429745 0.845 1.95976060378e-38
0.00466926329278 -0.042023369635 0.841 1.85859400128e-38
0.00619607352526 -0.0418234962955 0.837 2.02465893956e-38
0.00770807832518 -0.041623622956 0.833 1.12128988414e-38
0.00922748584138 -0.0415236862862 0.831 1.47198934757e-38
0.0107654001483 -0.0415236862862 0.831 2.34900236107e-38
0.0123033144552 -0.0415236862862 0.831 2.1274394175e-38
0.0138079165388 -0.0414237496164 0.829 1.0854525167e-38
0.0153421294876 -0.0414237496164 0.829 6.88766221185e-39
0.0169170573759 -0.0415236862862 0.831 9.83932646854e-39
0.0184549716828 -0.0415236862862 0.831 1.09424552443e-38
0.0199447683338 -0.0414237496164 0.829 1.12147009113e-38
0.0214789812826 -0.0414237496164 0.829 1.39780558777e-38
0.0229576738593 -0.0413238129467 0.827 1.25976171423e-38
0.0244881854499 -0.0413238129467 0.827 1.26854995755e-38
0.0260186970405 -0.0413238129467 0.827 1.29649479166e-38
0.0274825841846 -0.0412238762769 0.825 1.14988351944e-38
0.0289390686124 -0.0411239396072 0.823 1.29746392968e-38
0.0304621774868 -0.0411239396072 0.823 1.30650342581e-38
0.0319852863611 -0.0411239396072 0.823 9.47341100574e-39
0.0335083952355 -0.0411239396072 0.823 6.24481373874e-39
0.0350315041098 -0.0411239396072 0.823 2.03545706526e-38
0.0366434455795 -0.0412238762769 0.825 2.22007029067e-38
0.038170255812 -0.0412238762769 0.825 2.21027493414e-38
0.0397933013561 -0.0413238129467 0.827 2.24708115935e-38
0.0414237496164 -0.0414237496164 0.829 2.33963229863e-38
0.0429579625652 -0.0414237496164 0.829 2.3028283155e-38
0.044492175514 -0.0414237496164 0.829 2.34917976546e-38
0.0461374292069 -0.0415236862862 0.831 2.34896312471e-38
0.0476753435138 -0.0415236862862 0.831 1.14066353606e-38
0.0492132578207 -0.0415236862862 0.831 1.15712725159e-38
0.0507511721276 -0.0415236862862 0.831 1.63704689238e-38
0.0526666249647 -0.0418234962955 0.837 1.83004408649e-38
0.054215643346 -0.0418234962955 0.837 1.64568687832e-38
0.0558979106203 -0.0419234329653 0.839 1.5814386049e-38
0.0577245308621 -0.0421233063048 0.843 2.34913562456e-38
0.0595659565364 -0.0423231796443 0.847 9.93150668412e-39
0.0611334817084 -0.0423231796443 0.847 1.70215584332e-38
0.0627010068805 -0.0423231796443 0.847 1.99646411381e-38
-0.00476364792533 -0.0412849486862 0.858 2.34997332078e-38
-0.00316836256728 -0.0411887133746 0.856 2.35036848694e-38
-0.00158418128364 -0.0411887133746 0.856 1.85985951392e-38
0.0 -0.041092478063 0.854 1.9418200598e-38
0.00157492788829 -0.0409481250955 0.851 1.84026978178e-38
0.0031424530603 -0.0408518897839 0.849 1.85827604666e-38
0.00470257551603 -0.0407556544723 0.847 1.90426189784e-38
0.00625529525549 -0.0406594191607 0.845 1.83968838305e-38
0.00774509190657 -0.0402744779142 0.837 1.95064487701e-38
0.00927190213905 -0.0401782426026 0.835 8.81692509598e-39
0.0107913096553 -0.0400820072909 0.833 1.37028688853e-38
0.0123329253203 -0.0400820072909 0.833 2.34846594402e-38
0.0138412287621 -0.0399857719793 0.831 2.27495466736e-38
0.015379143069 -0.0399857719793 0.831 1.64838633968e-38
0.0169577723154 -0.0400820072909 0.833 8.27236930236e-39
0.0184993879804 -0.0400820072909 0.833 1.07551562903e-38
0.0199928859897 -0.0399857719793 0.831 8.17587028491e-39
0.0215308002966 -0.0399857719793 0.831 1.03013597956e-38
0.0230131942314 -0.0398895366677 0.829 9.83823625833e-39
0.0245474071801 -0.0398895366677 0.829 1.1033532638e-38
0.0260186970405 -0.0397933013561 0.827 1.16803271676e-38
0.0275492086311 -0.0397933013561 0.827 1.01144602116e-38
0.0290093944171 -0.0396970660444 0.825 8.73369917759e-39
0.0305362046496 -0.0396970660444 0.825 8.0815236619e-39
0.0319852863611 -0.0396008307328 0.823 1.38790387269e-38
0.0335083952355 -0.0396008307328 0.823 2.01702620695e-38
0.035116635347 -0.0396970660444 0.825 2.10003926811e-38
0.0367322781748 -0.0397933013561 0.827 2.25622659364e-38
0.0382627897654 -0.0397933013561 0.827 2.31140272068e-38
0.0398895366677 -0.0398895366677 0.829 2.34853292609e-38
0.0415236862862 -0.0399857719793 0.831 2.03549181747e-38
0.0430616005931 -0.0399857719793 0.831 1.67629291834e-38
0.0445995149 -0.0399857719793 0.831 2.03589469077e-38
0.0462484699511 -0.0400820072909 0.833 9.19467032041e-39
0.0479048277184 -0.0401782426026 0.835 8.81692509598e-39
0.0494501447416 -0.0401782426026 0.835 1.55464255528e-38
0.0511176065834 -0.0402744779142 0.837 1.27787714026e-38
0.0527924711414 -0.0403707132258 0.839 1.69160294484e-38
0.0543451908809 -0.0403707132258 0.839 2.03348824092e-38
0.0560311595134 -0.0404669485374 0.841 1.6934680731e-38
0.0577245308621 -0.040563183849 0.843 2.34935128439e-38
0.0595659565364 -0.0407556544723 0.847 1.7666494841e-38
0.0611334817084 -0.0407556544723 0.847 1.55439368467e-38
-0.00477475199975 -0.0397895999979 0.86 2.3496842329e-38
-0.00317576528356 -0.0396970660444 0.858 2.35043981304e-38
-0.00158788264178 -0.0396970660444 0.858 2.02617136099e-38
0.0 -0.039604532091 0.856 1.95108376369e-38
0.00158418128364 -0.039604532091 0.856 1.71126596489e-38
0.003160959851 -0.0395119981375 0.854 1.7387807405e-38
0.0047414397765 -0.0395119981375 0.854 1.78484128089e-38
0.00629971155316 -0.0393731972073 0.851 1.8768183082e-38
0.00787463944145 -0.0393731972073 0.851 1.92306480089e-38
0.00944956732974 -0.0393731972073 0.851 1.83097020465e-38
0.011024495218 -0.0393731972073 0.851 1.20412119689e-38
0.0123329253203 -0.0385403916259 0.833 1.14794370197e-38
0.0138745409853 -0.0385403916259 0.833 1.98896996962e-38
0.0154161566504 -0.0385403916259 0.833 2.25705476104e-38
0.0169984872549 -0.0386329255794 0.835 2.16457172486e-38
0.0185438042781 -0.0386329255794 0.835 1.8696138124e-38
0.0200410036455 -0.0385403916259 0.833 1.64848541148e-38
0.0215826193105 -0.0385403916259 0.833 1.43597261392e-38
0.0230687146034 -0.0384478576724 0.831 1.33423526255e-38
0.0246066289103 -0.0384478576724 0.831 1.49057827234e-38
0.0261445432172 -0.0384478576724 0.831 1.46302776363e-38
0.0276158330776 -0.0383553237189 0.829 1.35264510138e-38
0.0290797202217 -0.0382627897654 0.827 1.74039924023e-38
0.0306102318124 -0.0382627897654 0.827 1.98968715417e-38
0.032140743403 -0.0382627897654 0.827 2.27502319085e-38
0.0336712549936 -0.0382627897654 0.827 2.2840998214e-38
0.0352868978214 -0.0383553237189 0.829 2.34860397192e-38
0.0368211107702 -0.0383553237189 0.829 2.34860158971e-38
0.0384478576724 -0.0384478576724 0.831 2.21956512257e-38
0.0399857719793 -0.0384478576724 0.831 1.09402622122e-38
0.0415236862862 -0.0384478576724 0.831 1.15712725159e-38
0.043165238621 -0.0385403916259 0.833 5.23462328101e-39
0.044706854286 -0.0385403916259 0.833 1.06679955258e-38
0.0463595106953 -0.0386329255794 0.835 2.3493442779e-38
0.0480195698208 -0.0387254595329 0.837 7.7263785791e-39
0.0495685882021 -0.0387254595329 0.837 7.81032196231e-39
0.0513618962206 -0.0389105274398 0.841 1.85005616999e-38
0.0529183173182 -0.0389105274398 0.841 2.34830507496e-38
0.0544747384158 -0.0389105274398 0.841 2.34913520417e-38
0.0561644084064 -0.0390030613933 0.843 6.88766221185e-39
0.0577245308621 -0.0390030613933 0.843 2.34903501133e-38
0.0595659565364 -0.0391881293003 0.847 2.3489142194e-38
0.0611334817084 -0.0391881293003 0.847 1.43435929899e-38
-0.00478585607417 -0.0382868485934 0.862 2.3499363265e-38
-0.00318316799983 -0.038198015998 0.86 2.3500100348e-38
-0.00159158399992 -0.038198015998 0.86 2.22889356645e-38
0.0 -0.0381091834027 0.858 1.84044998876e-38
0.00158788264178 -0.0381091834027 0.858 1.96037241069e-38
0.00317576528356 -0.0381091834027 0.858 1.49028988512e-38
0.00476364792533 -0.0381091834027 0.858 1.13908301153e-38
0.00635153056711 -0.0381091834027 0.858 1.41642800358e-38
0.00787463944145 -0.037798269319 0.851 1.5087567568e-38
0.00944956732974 -0.037798269319 0.851 1.73906562448e-38
0.0109726762041 -0.0376206041283 0.847 1.76604454355e-38
0.0125402013761 -0.0376206041283 0.847 1.62789178912e-38
0.0141077265481 -0.0376206041283 0.847 9.27538511196e-39
0.0154901838131 -0.0371764411516 0.837 1.57265064184e-38
0.0170392021945 -0.0371764411516 0.837 2.05393752954e-38
0.0185882205758 -0.0371764411516 0.837 2.17396911262e-38
0.0200891213013 -0.0370876085562 0.835 2.28442884628e-38
0.0216344383245 -0.0370876085562 0.835 2.34874690436e-38
0.0231242349755 -0.0369987759609 0.833 7.07420306342e-39
0.0246658506406 -0.0369987759609 0.833 1.34206389668e-38
0.0262074663056 -0.0369987759609 0.833 1.96066135843e-38
0.0277490819706 -0.0369987759609 0.833 2.06319198486e-38
0.029220371831 -0.0369099433655 0.831 2.15564153e-38
0.0307582861379 -0.0369099433655 0.831 2.23839885419e-38
0.0322962004448 -0.0369099433655 0.831 2.33027176502e-38
0.0338341147517 -0.0369099433655 0.831 2.34885480434e-38
0.0354571602958 -0.0369987759609 0.833 2.0447176863e-38
0.0369987759609 -0.0369987759609 0.833 1.26944748922e-38
0.0385403916259 -0.0369987759609 0.833 1.35916534314e-38
0.0400820072909 -0.0369987759609 0.833 1.80073172522e-38
0.041623622956 -0.0369987759609 0.833 1.90311549557e-38
0.0432688766489 -0.0370876085562 0.835 6.70399121953e-39
0.0448141936721 -0.0370876085562 0.835 2.34820936627e-38
0.0464705514394 -0.0371764411516 0.837 2.348812345e-38
0.0480195698208 -0.0371764411516 0.837 5.14278778485e-39
0.0495685882021 -0.0371764411516 0.837 1.94197434276e-38
0.0513618962206 -0.0373541063422 0.841 2.34855478634e-38
0.0530441634949 -0.0374429389376 0.843 1.90537130583e-38
0.0544747384158 -0.0373541063422 0.841 2.34881276539e-38
0.0560311595134 -0.0373541063422 0.841 5.32645877716e-39
0.0577245308621 -0.0374429389376 0.843 2.01576966262e-38
0.0592846533178 -0.0374429389376 0.843 2.05336061496e-38
-0.00319057071611 -0.0366915632353 0.862 2.35022373281e-38
-0.00159158399992 -0.0366064319981 0.86 2.20163200547e-38
0.0 -0.0366064319981 0.86 1.84992290651e-38
0.00158788264178 -0.0365213007609 0.858 1.97866888448e-38
0.00317576528356 -0.0365213007609 0.858 1.72999642082e-38
0.00476364792533 -0.0365213007609 0.858 7.44154504805e-39
0.00635153056711 -0.0365213007609 0.858 1.84223874625e-38
0.00787463944145 -0.0362233414307 0.851 1.45437292392e-38
0.00944956732974 -0.0362233414307 0.851 1.30525038472e-38
0.0109726762041 -0.0360530789563 0.847 1.48066800934e-38
0.0125402013761 -0.0360530789563 0.847 1.73899149579e-38
0.0140744143248 -0.0359679477191 0.845 1.72923369406e-38
0.0155271973945 -0.0357125540074 0.839 1.2863067913e-38
0.017079917134 -0.0357125540074 0.839 1.09284240428e-38
0.0185882205758 -0.0356274227702 0.837 1.30442277785e-38
0.0201372389571 -0.0356274227702 0.837 1.72963922984e-38
0.0216862573384 -0.0356274227702 0.837 2.12776577991e-38
0.0232352757197 -0.0356274227702 0.837 5.5162282204e-39
0.024784294101 -0.0356274227702 0.837 1.04775128217e-38
0.0263333124823 -0.0356274227702 0.837 1.35141672315e-38
0.0278823308637 -0.0356274227702 0.837 1.2765133966e-38
0.0293610234403 -0.035542291533 0.835 1.30406404544e-38
0.0309063404635 -0.035542291533 0.835 1.50613801023e-38
0.0324516574867 -0.035542291533 0.835 1.5434506647e-38
0.0339969745099 -0.035542291533 0.835 1.33161637585e-38
0.035542291533 -0.035542291533 0.835 8.63253663885e-39
0.0370876085562 -0.035542291533 0.835 1.40641306359e-38
0.0386329255794 -0.035542291533 0.835 1.37886199435e-38
0.0401782426026 -0.035542291533 0.835 1.39687148222e-38
0.0417235596257 -0.035542291533 0.835 1.69203426451e-38
0.0432688766489 -0.035542291533 0.835 6.3366492349e-39
0.0449215330581 -0.0356274227702 0.837 2.34874704449e-38
0.0464705514394 -0.0356274227702 0.837 2.34898848822e-38
0.0480195698208 -0.0356274227702 0.837 4.86728129637e-39
0.0495685882021 -0.0356274227702 0.837 2.34928850622e-38
0.0514840410392 -0.0358828164819 0.843 1.80395765441e-38
0.0530441634949 -0.0358828164819 0.843 2.02551695461e-38
0.0544747384158 -0.0357976852446 0.841 1.40784687218e-38
0.0560311595134 -0.0357976852446 0.841 1.72056063748e-38
0.0577245308621 -0.0358828164819 0.843 2.14562462819e-38
0.0592846533178 -0.0358828164819 0.843 1.35249292037e-38
-0.00319797343239 -0.0351777077563 0.864 2.35072595818e-38
-0.0015989867162 -0.0351777077563 0.864 2.17408023559e-38
0.0 -0.0350962778772 0.862 1.74846721613e-38
0.00159158399992 -0.0350148479982 0.86 2.07075507293e-38
0.00317576528356 -0.0349334181191 0.858 1.55503912274e-38
0.00476364792533 -0.0349334181191 0.858 6.97949770801e-39
0.00635153056711 -0.0349334181191 0.858 2.14623601471e-38
0.0079023996275 -0.034770558361 0.854 1.92434825016e-38
0.00944956732974 -0.0346484135424 0.851 1.70369194669e-38
0.011024495218 -0.0346484135424 0.851 1.67610542461e-38
0.0125698122412 -0.0345669836633 0.849 1.09416971419e-38
0.0140744143248 -0.0344041239052 0.845 1.70147060837e-38
0.0155642109759 -0.0342412641471 0.841 1.8307981252e-38
0.0171206320735 -0.0342412641471 0.841 1.14851767383e-38
0.0186326368734 -0.034159834268 0.839 1.19465066135e-38
0.0201372389571 -0.0340784043889 0.837 8.54070114269e-39
0.0216862573384 -0.0340784043889 0.837 9.27538511196e-39
0.0232352757197 -0.0340784043889 0.837 9.64272709659e-39
0.024784294101 -0.0340784043889 0.837 7.80924576509e-39
0.0263333124823 -0.0340784043889 0.837 1.74760373602e-38
0.0278823308637 -0.0340784043889 0.837 1.69074492979e-38
0.029431349245 -0.0340784043889 0.837 1.73683924148e-38
0.0309803676263 -0.0340784043889 0.837 1.49799632602e-38
0.0325293860076 -0.0340784043889 0.837 1.24917952862e-38
0.0340784043889 -0.0340784043889 0.837 1.24996719849e-38
0.0356274227702 -0.0340784043889 0.837 8.54357100195e-39
0.0371764411516 -0.0340784043889 0.837 1.03809983899e-38
0.0387254595329 -0.0340784043889 0.837 1.37046541395e-38
0.0402744779142 -0.0340784043889 0.837 1.75761419186e-38
0.0418234962955 -0.0340784043889 0.837 2.34891155693e-38
0.0433725146768 -0.0340784043889 0.837 3.30607786169e-39
0.0449215330581 -0.0340784043889 0.837 2.34917331948e-38
0.0464705514394 -0.0340784043889 0.837 2.31142261911e-38
0.0480195698208 -0.0340784043889 0.837 9.64954301232e-39
0.0495685882021 -0.0340784043889 0.837 2.34917079715e-38
0.0514840410392 -0.0343226940261 0.843 1.99752966116e-38
0.0530441634949 -0.0343226940261 0.843 1.12150540385e-38
0.0547338334855 -0.0344041239052 0.845 2.26547670494e-38
0.0562976572994 -0.0344041239052 0.845 1.6664204904e-38
0.0578614811133 -0.0344041239052 0.845 1.36132166122e-38
-0.0015989867162 -0.0335787210401 0.864 2.33095770062e-38
0.0 -0.0335009925192 0.862 1.88672310613e-38
0.00159528535806 -0.0335009925192 0.862 1.86821587705e-38
0.00318316799983 -0.0334232639983 0.86 1.82250510076e-38
0.00477475199975 -0.0334232639983 0.86 4.77544580022e-39
0.00636633599967 -0.0334232639983 0.86 2.11861488055e-38
0.00792090641819 -0.0332678069564 0.856 1.78630956142e-38
0.00948287955299 -0.0331900784355 0.854 5.05095228869e-39
0.0110633594785 -0.0331900784355 0.854 2.2010536896e-38
0.0125994231063 -0.0330734856541 0.851 1.9706250109e-38
0.0141410387714 -0.0329957571332 0.849 6.52211388925e-39
0.0156382381387 -0.0328403000913 0.845 1.64669819542e-38
0.0171613470131 -0.0327625715704 0.843 1.53612958087e-38
0.0186770531711 -0.0326848430495 0.841 6.61215572338e-39
0.0202334742687 -0.0326848430495 0.841 1.86976879601e-38
0.0217380763524 -0.0326071145285 0.839 2.22002404782e-38
0.0232907960918 -0.0326071145285 0.839 2.10892392076e-38
0.0248435158313 -0.0326071145285 0.839 5.41829427332e-39
0.0263962355707 -0.0326071145285 0.839 1.34270232826e-38
0.0279489553102 -0.0326071145285 0.839 1.24921386043e-38
0.0295016750496 -0.0326071145285 0.839 1.20304499967e-38
0.0309803676263 -0.0325293860076 0.837 1.20358309828e-38
0.0325293860076 -0.0325293860076 0.837 8.35703015038e-39
0.034159834268 -0.0326071145285 0.839 5.78563625795e-39
0.0356274227702 -0.0325293860076 0.837 1.72881134271e-38
0.0371764411516 -0.0325293860076 0.837 2.29323572687e-38
0.0387254595329 -0.0325293860076 0.837 1.82368793679e-38
0.0402744779142 -0.0325293860076 0.837 2.3304359972e-38
0.0418234962955 -0.0325293860076 0.837 2.34866002386e-38
0.0433725146768 -0.0325293860076 0.837 4.68361030406e-39
0.0450288724442 -0.0326071145285 0.839 2.34910675781e-38
0.0465815921836 -0.0326071145285 0.839 2.26517990992e-38
0.0481343119231 -0.0326071145285 0.839 1.26901588929e-38
0.0496870316625 -0.0326071145285 0.839 2.34899493419e-38
0.051239751402 -0.0326071145285 0.839 2.11741803153e-38
0.0534217020251 -0.0329957571332 0.849 2.18252866403e-38
0.0549929285553 -0.0329957571332 0.849 1.10381961593e-38
0.0565641550854 -0.0329957571332 0.849 1.55453717763e-38
0.00159528535806 -0.0319057071611 0.862 1.81292974809e-38
0.00319057071611 -0.0319057071611 0.862 1.8687175419e-38
0.00477475199975 -0.0318316799983 0.86 5.32645877716e-39
0.00636633599967 -0.0318316799983 0.86 2.12765073331e-38
0.00793941320889 -0.0317576528356 0.858 1.75850695911e-38
0.00950508770183 -0.0316836256728 0.856 5.41829427332e-39
0.0110633594785 -0.03160959851 0.854 2.05393318552e-38
0.012643839404 -0.03160959851 0.854 2.24699329793e-38
0.0141743509946 -0.0314985577658 0.851 2.47955839627e-39
0.0156382381387 -0.0312764762774 0.845 1.35206650525e-38
0.0172020619526 -0.0312764762774 0.845 1.00118627433e-38
0.0187214694688 -0.0312024491147 0.843 1.22234480316e-38
0.0202815919245 -0.0312024491147 0.843 6.42848473106e-39
0.0217898953663 -0.0311284219519 0.841 1.9145931109e-38
0.0233463164639 -0.0311284219519 0.841 1.48981568572e-38
0.0249027375615 -0.0311284219519 0.841 6.15297824259e-39
0.0264591586591 -0.0311284219519 0.841 1.71327178351e-38
0.0280155797567 -0.0311284219519 0.841 1.83229751456e-38
0.0295720008543 -0.0311284219519 0.841 1.85995578312e-38
0.0310543947891 -0.0310543947891 0.839 2.22873409868e-38
0.0326071145285 -0.0310543947891 0.839 1.90612464389e-38
0.034159834268 -0.0310543947891 0.839 3.76525534248e-39
0.0357125540074 -0.0310543947891 0.839 2.34932143673e-38
0.0372652737469 -0.0310543947891 0.839 2.33883566045e-38
0.0388179934863 -0.0310543947891 0.839 4.77544580022e-39
0.0402744779142 -0.0309803676263 0.837 2.34910045196e-38
0.0418234962955 -0.0309803676263 0.837 2.34830171184e-38
0.0433725146768 -0.0309803676263 0.837 5.6938007618e-39
0.0450288724442 -0.0310543947891 0.839 2.34928388193e-38
0.0465815921836 -0.0310543947891 0.839 2.08061208659e-38
0.0481343119231 -0.0310543947891 0.839 1.85848498026e-38
0.0509306879973 -0.0318316799983 0.86 2.16412499091e-38
0.0521558375415 -0.03160959851 0.854 1.93360354625e-38
0.053736317467 -0.03160959851 0.854 1.28745473501e-38
0.0553167973925 -0.03160959851 0.854 1.52641227667e-38
0.056897277318 -0.03160959851 0.854 1.73831747123e-38
0.0015989867162 -0.0303807476077 0.864 1.77580318606e-38
0.00319797343239 -0.0303807476077 0.864 1.82230121183e-38
0.00478585607417 -0.0303104218031 0.862 6.15297824259e-39
0.00636633599967 -0.0302400959984 0.86 2.09073941072e-38
0.00793941320889 -0.0301697701938 0.858 1.8872600837e-38
0.00950508770183 -0.0300994443891 0.856 1.76790504752e-38
0.0110892689855 -0.0300994443891 0.856 2.06293204399e-38
0.012643839404 -0.0300291185845 0.854 2.24692519483e-38
0.0142243193295 -0.0300291185845 0.854 7.25895025296e-39
0.0157492788829 -0.0299236298775 0.851 2.13718670949e-38
0.0172020619526 -0.0297126524636 0.845 1.90591178665e-38
0.0187658857665 -0.0297126524636 0.845 2.24721610439e-38
0.0203297095803 -0.0297126524636 0.845 1.1127879261e-38
0.0218935333942 -0.0297126524636 0.845 2.34938393464e-38
0.023401836836 -0.0296423266589 0.843 1.67520859359e-38
0.0249619592917 -0.0296423266589 0.843 7.16316870032e-39
0.0265220817475 -0.0296423266589 0.843 2.34920512896e-38
0.0280822042032 -0.0296423266589 0.843 2.29247944608e-38
0.0296423266589 -0.0296423266589 0.843 1.74896397644e-38
0.0311284219519 -0.0295720008543 0.841 2.31149534651e-38
0.0326848430495 -0.0295720008543 0.841 2.34798067436e-38
0.0342412641471 -0.0295720008543 0.841 9.92253837395e-39
0.0357976852446 -0.0295720008543 0.841 2.27527108055e-38
0.0373541063422 -0.0295720008543 0.841 1.97005075879e-38
0.0389105274398 -0.0295720008543 0.841 5.41829427332e-39
0.0403707132258 -0.0295016750496 0.839 2.34870934956e-38
0.0419234329653 -0.0295016750496 0.839 2.34826752016e-38
0.0434761527047 -0.0295016750496 0.839 6.88766221185e-39
0.0453508906023 -0.0297126524636 0.845 2.34924856921e-38
0.0469147144162 -0.0297126524636 0.845 2.34815709784e-38
0.0493391039974 -0.0302400959984 0.86 1.6562341716e-38
0.0509306879973 -0.0302400959984 0.86 9.09171411964e-39
0.0525222719973 -0.0302400959984 0.86 1.36967620266e-38
0.0541138559972 -0.0302400959984 0.86 1.55367650011e-38
0.055834987532 -0.0303104218031 0.862 1.66373490189e-38
0.05743027289 -0.0303104218031 0.862 2.23548275209e-38
0.059367933876 -0.0304862363147 0.867 2.05145625035e-38
0.00159528535806 -0.028715136445 0.862 1.83119469266e-38
0.00638114143223 -0.028715136445 0.862 2.00761858971e-38
0.00795791999959 -0.0286485119985 0.86 1.97005075879e-38
0.00952729585067 -0.028581887552 0.858 1.7215926938e-38
0.0110892689855 -0.0285152631055 0.856 1.76815616021e-38
0.0126734502691 -0.0285152631055 0.856 9.84038865277e-39
0.0142243193295 -0.028448638659 0.854 8.72437213501e-39
0.015804799255 -0.028448638659 0.854 2.20151107342e-38
0.0173242067712 -0.0283487019892 0.851 2.04394963461e-38
0.0187658857665 -0.0281488286497 0.845 8.17335915806e-39
0.0203297095803 -0.0281488286497 0.845 1.54506846378e-38
0.0218935333942 -0.0281488286497 0.845 2.26604801432e-38
0.0234573572081 -0.0281488286497 0.845 1.41720824657e-38
0.025021181022 -0.0281488286497 0.845 7.71418167727e-39
0.0265850048358 -0.0281488286497 0.845 2.31204017135e-38
0.0281488286497 -0.0281488286497 0.845 2.09901505906e-38
0.0297126524636 -0.0281488286497 0.845 5.96930725027e-39
