# .PCD v0.7 - Point Cloud Data file format
VERSION 0.7
FIELDS x y z rgb
SIZE 4 4 4 4
TYPE F F F F
COUNT 1 1 1 1
WIDTH 850
HEIGHT 1
VIEWPOINT 0 0 0 1 0 0 0
POINTS 850
DATA ascii
-0.00491355292998 -0.139217333016 0.885 9.73456259275e-39
-0.00327570195332 -0.139217333016 0.885 9.55089160043e-39
-0.00163785097666 -0.139217333016 0.885 1.01937400735e-38
0.0 -0.139217333016 0.885 1.02855755697e-38
0.00163785097666 -0.139217333016 0.885 1.1020259539e-38
0.00327570195332 -0.139217333016 0.885 1.14794370197e-38
0.00492465700439 -0.139531948458 0.887 1.18474964692e-38
0.00656620933919 -0.139531948458 0.887 1.21262315493e-38
0.00820776167399 -0.139531948458 0.887 1.09284240428e-38
0.00984931400879 -0.139531948458 0.887 1.16631080121e-38
0.0114908663436 -0.139531948458 0.887 1.17549435082e-38
0.0131620295435 -0.1398465639 0.889 1.1020259539e-38
0.0148072832364 -0.1398465639 0.889 1.06529175543e-38
0.0164525369294 -0.1398465639 0.889 1.0469246562e-38
0.0181385055618 -0.140161179342 0.891 1.06529175543e-38
0.0198540850594 -0.140633102504 0.894 1.02855755697e-38
0.0215567098035 -0.140947717946 0.896 1.08365885466e-38
0.02321491825 -0.140947717946 0.896 1.09284240428e-38
0.0248731266964 -0.140947717946 0.896 1.01937400735e-38
0.026590556873 -0.141262333388 0.898 1.08365885466e-38
-0.0298477520357 -0.1392895095 0.896 2.0989490579e-38
-0.0281895435892 -0.1392895095 0.896 6.61394938541e-39
-0.0264721134126 -0.138978595416 0.894 6.06114274643e-39
-0.0247343257662 -0.13851222429 0.891 6.70399121953e-39
-0.0230853707151 -0.13851222429 0.891 6.70399121953e-39
-0.0213882980082 -0.138201310207 0.889 7.25500419648e-39
-0.0197430443153 -0.138201310207 0.889 6.88766221185e-39
-0.0180977906223 -0.138201310207 0.889 7.07133320417e-39
-0.0164525369294 -0.138201310207 0.889 7.53051068496e-39
-0.0147739710132 -0.137890396123 0.887 7.62234618111e-39
-0.0131324186784 -0.137890396123 0.887 7.62234618111e-39
-0.0114908663436 -0.137890396123 0.887 7.71418167727e-39
-0.00982710585995 -0.137579482039 0.885 8.26519465422e-39
-0.00818925488329 -0.137579482039 0.885 8.54070114269e-39
-0.00655140390664 -0.137579482039 0.885 8.90804312733e-39
-0.00491355292998 -0.137579482039 0.885 8.99987862348e-39
-0.00327570195332 -0.137579482039 0.885 9.55089160043e-39
-0.00163785097666 -0.137579482039 0.885 9.45905610427e-39
0.0 -0.137579482039 0.885 9.64272709659e-39
0.00163785097666 -0.137579482039 0.885 9.73456259275e-39
0.00327570195332 -0.137579482039 0.885 1.08365885466e-38
0.00492465700439 -0.137890396123 0.887 9.91823358506e-39
0.00656620933919 -0.137890396123 0.887 1.00100690812e-38
0.00820776167399 -0.137890396123 0.887 1.01937400735e-38
0.00984931400879 -0.137890396123 0.887 9.91823358506e-39
0.0114908663436 -0.137890396123 0.887 9.73456259275e-39
0.0131620295435 -0.138201310207 0.889 9.73456259275e-39
0.0148072832364 -0.138201310207 0.889 9.45905610427e-39
0.0164525369294 -0.138201310207 0.889 1.05610820582e-38
0.0180977906223 -0.138201310207 0.889 1.02855755697e-38
0.0197874606129 -0.13851222429 0.891 1.01019045774e-38
0.0215085921477 -0.138978595416 0.894 1.01937400735e-38
0.023163099236 -0.138978595416 0.894 1.03774110659e-38
0.0248176063243 -0.138978595416 0.894 1.01019045774e-38
0.0265313351428 -0.1392895095 0.896 1.45211683339e-38
-0.0298477520357 -0.137631301053 0.896 2.10820547504e-38
-0.0281895435892 -0.137631301053 0.896 1.00254945747e-38
-0.0264721134126 -0.137324088328 0.894 6.15297824259e-39
-0.0247343257662 -0.136863269239 0.891 7.07133320417e-39
-0.0230853707151 -0.136863269239 0.891 6.70399121953e-39
-0.0213882980082 -0.136556056514 0.889 7.16316870032e-39
-0.0197430443153 -0.136556056514 0.889 7.25500419648e-39
-0.0180977906223 -0.136556056514 0.889 7.25500419648e-39
-0.0164525369294 -0.136556056514 0.889 7.71418167727e-39
-0.0147739710132 -0.136248843788 0.887 7.34683969264e-39
-0.0131324186784 -0.136248843788 0.887 7.53051068496e-39
-0.0114908663436 -0.136248843788 0.887 7.71418167727e-39
-0.00982710585995 -0.135941631063 0.885 7.98968816575e-39
-0.00818925488329 -0.135941631063 0.885 8.35703015038e-39
-0.00655140390664 -0.135941631063 0.885 8.35703015038e-39
-0.00491355292998 -0.135941631063 0.885 8.26519465422e-39
-0.00327570195332 -0.135941631063 0.885 8.54070114269e-39
-0.00163785097666 -0.135941631063 0.885 8.26519465422e-39
0.0 -0.135941631063 0.885 8.44886564654e-39
0.00163785097666 -0.135941631063 0.885 8.72437213501e-39
0.00327570195332 -0.135941631063 0.885 8.90804312733e-39
0.00491355292998 -0.135941631063 0.885 8.81620763117e-39
0.00655140390664 -0.135941631063 0.885 8.99987862348e-39
0.00820776167399 -0.136248843788 0.887 9.45905610427e-39
0.00984931400879 -0.136248843788 0.887 9.82639808891e-39
0.0114908663436 -0.136248843788 0.887 9.82639808891e-39
0.0131620295435 -0.136556056514 0.889 9.91823358506e-39
0.0148072832364 -0.136556056514 0.889 9.73456259275e-39
0.0164525369294 -0.136556056514 0.889 9.91823358506e-39
0.0180977906223 -0.136556056514 0.889 1.01937400735e-38
0.0197874606129 -0.136863269239 0.891 1.01019045774e-38
0.021436415664 -0.136863269239 0.891 1.03774110659e-38
0.0230853707151 -0.136863269239 0.891 1.03774110659e-38
0.0247343257662 -0.136863269239 0.891 1.01019045774e-38
0.0265313351428 -0.137631301053 0.896 1.55342426639e-38
-0.0298477520357 -0.135973092607 0.896 2.15422481726e-38
-0.0281895435892 -0.135973092607 0.896 7.07563799305e-39
-0.0264721134126 -0.135669581239 0.894 6.06114274643e-39
-0.0247343257662 -0.135214314188 0.891 6.61215572338e-39
-0.0230853707151 -0.135214314188 0.891 7.07133320417e-39
-0.021436415664 -0.135214314188 0.891 7.4386751888e-39
-0.0197430443153 -0.134910802821 0.889 6.88766221185e-39
-0.0180977906223 -0.134910802821 0.889 7.07133320417e-39
-0.0164525369294 -0.134910802821 0.889 7.71418167727e-39
-0.0147739710132 -0.134607291453 0.887 7.53051068496e-39
-0.0131324186784 -0.134607291453 0.887 7.62234618111e-39
-0.0114908663436 -0.134607291453 0.887 7.71418167727e-39
-0.00982710585995 -0.134303780086 0.885 8.26519465422e-39
-0.00818925488329 -0.134303780086 0.885 8.26519465422e-39
-0.00655140390664 -0.134303780086 0.885 8.54070114269e-39
-0.00491355292998 -0.134303780086 0.885 8.54070114269e-39
-0.00327570195332 -0.134303780086 0.885 8.81621183506e-39
-0.00163785097666 -0.134303780086 0.885 8.54070114269e-39
0.0 -0.134303780086 0.885 8.35703015038e-39
0.00163785097666 -0.134303780086 0.885 8.81620763117e-39
0.00327570195332 -0.134303780086 0.885 8.72437213501e-39
0.00491355292998 -0.134303780086 0.885 8.72437213501e-39
0.00655140390664 -0.134303780086 0.885 8.72437213501e-39
0.00820776167399 -0.134607291453 0.887 9.09171411964e-39
0.00984931400879 -0.134607291453 0.887 9.45905610427e-39
0.0114908663436 -0.134607291453 0.887 9.45905610427e-39
0.0131324186784 -0.134607291453 0.887 9.73456259275e-39
0.0148072832364 -0.134910802821 0.889 9.82639808891e-39
0.0164525369294 -0.134910802821 0.889 1.01019045774e-38
0.0180977906223 -0.134910802821 0.889 1.07447530505e-38
0.0197874606129 -0.135214314188 0.891 1.0469246562e-38
0.021436415664 -0.135214314188 0.891 1.08365885466e-38
0.0230853707151 -0.135214314188 0.891 1.07447530505e-38
0.0247343257662 -0.135214314188 0.891 1.00100690812e-38
0.0264721134126 -0.135669581239 0.894 1.87596463717e-38
-0.0298477520357 -0.13431488416 0.896 2.19110376985e-38
-0.0281895435892 -0.13431488416 0.896 9.19682271485e-39
-0.0265313351428 -0.13431488416 0.896 6.06114274643e-39
-0.0248176063243 -0.134015074151 0.894 6.42848473106e-39
-0.023163099236 -0.134015074151 0.894 6.52032022722e-39
-0.021436415664 -0.133565359137 0.891 7.4386751888e-39
-0.0197430443153 -0.133265549128 0.889 7.53051068496e-39
-0.0180977906223 -0.133265549128 0.889 7.16316870032e-39
-0.0164525369294 -0.133265549128 0.889 7.80601717343e-39
-0.0147739710132 -0.132965739119 0.887 7.53051068496e-39
-0.0131324186784 -0.132965739119 0.887 7.25500419648e-39
-0.0114908663436 -0.132965739119 0.887 7.71418167727e-39
-0.00982710585995 -0.132665929109 0.885 7.71418167727e-39
-0.00818925488329 -0.132665929109 0.885 8.26519465422e-39
-0.00655140390664 -0.132665929109 0.885 8.26519465422e-39
-0.00491355292998 -0.132665929109 0.885 8.17335915806e-39
-0.00327570195332 -0.132665929109 0.885 8.26519465422e-39
-0.00163785097666 -0.132665929109 0.885 8.26519465422e-39
0.0 -0.132665929109 0.885 8.35703015038e-39
0.00163785097666 -0.132665929109 0.885 8.72437213501e-39
0.00327570195332 -0.132665929109 0.885 8.81620763117e-39
0.00491355292998 -0.132665929109 0.885 8.72437213501e-39
0.00655140390664 -0.132665929109 0.885 8.63253663885e-39
0.00818925488329 -0.132665929109 0.885 9.1835496158e-39
0.00984931400879 -0.132965739119 0.887 9.55089160043e-39
0.0114908663436 -0.132965739119 0.887 9.55089160043e-39
0.0131324186784 -0.132965739119 0.887 9.45905610427e-39
0.0148072832364 -0.133265549128 0.889 1.01019045774e-38
0.0164525369294 -0.133265549128 0.889 1.01019045774e-38
0.0180977906223 -0.133265549128 0.889 1.07447530505e-38
0.0197874606129 -0.133565359137 0.891 1.03774110659e-38
0.021436415664 -0.133565359137 0.891 1.06529175543e-38
0.0230853707151 -0.133565359137 0.891 1.07447530505e-38
0.0247343257662 -0.133565359137 0.891 9.73456259275e-39
0.0264721134126 -0.134015074151 0.894 2.02340575834e-38
-0.0281895435892 -0.132656675714 0.896 6.42956092828e-39
-0.0265313351428 -0.132656675714 0.896 5.60196526564e-39
-0.0248176063243 -0.132360567063 0.894 7.07133320417e-39
-0.023163099236 -0.132360567063 0.894 7.16316870032e-39
-0.021436415664 -0.131916404086 0.891 7.62234618111e-39
-0.0197430443153 -0.131620295435 0.889 7.25500419648e-39
-0.0180977906223 -0.131620295435 0.889 7.16316870032e-39
-0.0164525369294 -0.131620295435 0.889 7.71418167727e-39
-0.0147739710132 -0.131324186784 0.887 7.62234618111e-39
-0.0131324186784 -0.131324186784 0.887 7.62234618111e-39
-0.0114908663436 -0.131324186784 0.887 7.98968816575e-39
-0.00982710585995 -0.131028078133 0.885 8.26519465422e-39
-0.00818925488329 -0.131028078133 0.885 7.98968816575e-39
-0.00655140390664 -0.131028078133 0.885 8.17335915806e-39
-0.00491355292998 -0.131028078133 0.885 8.35703015038e-39
-0.00327570195332 -0.131028078133 0.885 8.26519465422e-39
-0.00163785097666 -0.131028078133 0.885 8.63253663885e-39
0.0 -0.131028078133 0.885 8.99987862348e-39
0.00163785097666 -0.131028078133 0.885 8.81620763117e-39
0.00327570195332 -0.131028078133 0.885 8.81620763117e-39
0.00491355292998 -0.131028078133 0.885 8.81620763117e-39
0.00655140390664 -0.131028078133 0.885 8.63253663885e-39
0.00818925488329 -0.131028078133 0.885 8.72437213501e-39
0.00984931400879 -0.131324186784 0.887 8.90804312733e-39
0.0114908663436 -0.131324186784 0.887 9.36722060812e-39
0.0131324186784 -0.131324186784 0.887 9.45905610427e-39
0.0148072832364 -0.131620295435 0.889 1.01937400735e-38
0.0164525369294 -0.131620295435 0.889 9.82639808891e-39
0.0181385055618 -0.131916404086 0.891 1.02855755697e-38
0.0197874606129 -0.131916404086 0.891 1.01937400735e-38
0.021436415664 -0.131916404086 0.891 1.07447530505e-38
0.0230853707151 -0.131916404086 0.891 1.11120950351e-38
0.0247343257662 -0.131916404086 0.891 9.64272709659e-39
-0.0281895435892 -0.130998467268 0.896 6.61287318819e-39
-0.0265313351428 -0.130998467268 0.896 5.32645877716e-39
-0.0248731266964 -0.130998467268 0.896 7.16316870032e-39
-0.023163099236 -0.130706059975 0.894 7.16316870032e-39
-0.021436415664 -0.130267449035 0.891 7.16316870032e-39
-0.0197874606129 -0.130267449035 0.891 7.34683969264e-39
-0.0180977906223 -0.129975041742 0.889 7.53051068496e-39
-0.0164525369294 -0.129975041742 0.889 7.53051068496e-39
-0.0147739710132 -0.129682634449 0.887 7.34683969264e-39
-0.0131324186784 -0.129682634449 0.887 7.25500419648e-39
-0.0114908663436 -0.129682634449 0.887 7.80601717343e-39
-0.00982710585995 -0.129390227156 0.885 8.17335915806e-39
-0.00818925488329 -0.129390227156 0.885 7.71418167727e-39
-0.00655140390664 -0.129390227156 0.885 8.17335915806e-39
-0.00491355292998 -0.129390227156 0.885 8.35703015038e-39
-0.00327570195332 -0.129390227156 0.885 8.26519465422e-39
-0.00163785097666 -0.129390227156 0.885 8.81620763117e-39
0.0 -0.129390227156 0.885 8.81620763117e-39
0.00163785097666 -0.129390227156 0.885 8.72437213501e-39
0.00327570195332 -0.129390227156 0.885 8.81620763117e-39
0.00491355292998 -0.129390227156 0.885 8.63253663885e-39
0.00655140390664 -0.129390227156 0.885 8.63253663885e-39
0.00818925488329 -0.129390227156 0.885 8.72437213501e-39
0.00984931400879 -0.129682634449 0.887 8.99987862348e-39
0.0114908663436 -0.129682634449 0.887 9.55089160043e-39
0.0131324186784 -0.129682634449 0.887 9.73456259275e-39
0.0148072832364 -0.129975041742 0.889 1.00100690812e-38
0.0164895505108 -0.130267449035 0.891 9.73456259275e-39
0.0181385055618 -0.130267449035 0.891 1.01937400735e-38
0.0198540850594 -0.130706059975 0.894 1.01937400735e-38
0.021436415664 -0.130267449035 0.891 1.05610820582e-38
0.0230853707151 -0.130267449035 0.891 1.08365885466e-38
0.0247343257662 -0.130267449035 0.891 9.64272709659e-39
-0.0282524666776 -0.129628964756 0.898 6.42848473106e-39
-0.0265313351428 -0.129340258821 0.896 5.05095228869e-39
-0.0248731266964 -0.129340258821 0.896 7.25500419648e-39
-0.02321491825 -0.129340258821 0.896 7.25500419648e-39
-0.0215567098035 -0.129340258821 0.896 7.07133320417e-39
-0.0197874606129 -0.128618493984 0.891 6.97949770801e-39
-0.0181385055618 -0.128618493984 0.891 7.71418167727e-39
-0.0164525369294 -0.128329788049 0.889 7.53051068496e-39
-0.0148072832364 -0.128329788049 0.889 7.62234618111e-39
-0.0131324186784 -0.128041082114 0.887 7.71418167727e-39
-0.0114908663436 -0.128041082114 0.887 7.80601717343e-39
-0.00984931400879 -0.128041082114 0.887 7.98968816575e-39
-0.00820776167399 -0.128041082114 0.887 8.17335915806e-39
-0.00656620933919 -0.128041082114 0.887 8.26519465422e-39
-0.00491355292998 -0.127752376179 0.885 8.44886564654e-39
-0.00327570195332 -0.127752376179 0.885 8.26519465422e-39
-0.00163785097666 -0.127752376179 0.885 8.99987862348e-39
0.0 -0.127752376179 0.885 9.09171411964e-39
0.00163785097666 -0.127752376179 0.885 9.09171411964e-39
0.00327570195332 -0.127752376179 0.885 9.09171411964e-39
0.00491355292998 -0.127752376179 0.885 9.1835496158e-39
0.00655140390664 -0.127752376179 0.885 8.81620763117e-39
0.00820776167399 -0.128041082114 0.887 8.63253663885e-39
0.00984931400879 -0.128041082114 0.887 8.99987862348e-39
0.0114908663436 -0.128041082114 0.887 9.55089160043e-39
0.0131324186784 -0.128041082114 0.887 9.55089160043e-39
0.0148072832364 -0.128329788049 0.889 9.91823358506e-39
0.0164895505108 -0.128618493984 0.891 9.91823358506e-39
0.0181995779711 -0.129051552886 0.894 1.03774110659e-38
0.0198540850594 -0.129051552886 0.894 1.05610820582e-38
0.021436415664 -0.128618493984 0.891 1.08365885466e-38
0.0230853707151 -0.128618493984 0.891 1.1020259539e-38
0.0247343257662 -0.128618493984 0.891 9.64272709659e-39
-0.0282524666776 -0.127967054951 0.898 6.42920219587e-39
-0.026590556873 -0.127967054951 0.898 5.51012976948e-39
-0.0249286470685 -0.127967054951 0.898 6.79582671569e-39
-0.02321491825 -0.127682050375 0.896 7.16316870032e-39
-0.0215567098035 -0.127682050375 0.896 7.16316870032e-39
-0.0198985013571 -0.127682050375 0.896 7.16316870032e-39
-0.0181385055618 -0.126969538933 0.891 7.53051068496e-39
-0.0164525369294 -0.126684534356 0.889 7.25500419648e-39
-0.0148072832364 -0.126684534356 0.889 7.25500419648e-39
-0.0131620295435 -0.126684534356 0.889 7.71418167727e-39
-0.0114908663436 -0.126399529779 0.887 7.71418167727e-39
-0.00984931400879 -0.126399529779 0.887 7.98968816575e-39
-0.00820776167399 -0.126399529779 0.887 7.98968816575e-39
-0.00656620933919 -0.126399529779 0.887 8.35703015038e-39
-0.00492465700439 -0.126399529779 0.887 8.35703015038e-39
-0.0032831046696 -0.126399529779 0.887 8.35703015038e-39
-0.0016415523348 -0.126399529779 0.887 9.1835496158e-39
0.0 -0.126399529779 0.887 8.81620763117e-39
0.00163785097666 -0.126114525203 0.885 9.09171411964e-39
0.00327570195332 -0.126114525203 0.885 8.90804312733e-39
0.00492465700439 -0.126399529779 0.887 8.90804312733e-39
0.00656620933919 -0.126399529779 0.887 8.90804312733e-39
0.00820776167399 -0.126399529779 0.887 8.99987862348e-39
0.00987152215763 -0.126684534356 0.889 8.54070114269e-39
0.0115167758506 -0.126684534356 0.889 9.1835496158e-39
0.0131620295435 -0.126684534356 0.889 9.91823358506e-39
0.0148405954597 -0.126969538933 0.891 1.01019045774e-38
0.0165450708829 -0.127397045798 0.894 1.01019045774e-38
0.0182402929107 -0.127682050375 0.896 1.01937400735e-38
0.0198985013571 -0.127682050375 0.896 1.06529175543e-38
0.0215085921477 -0.127397045798 0.894 1.12039305313e-38
0.023163099236 -0.127397045798 0.894 1.06529175543e-38
0.0248176063243 -0.127397045798 0.894 9.27538511196e-39
-0.0283468513102 -0.126727099975 0.901 6.613590653e-39
-0.0266793894684 -0.126727099975 0.901 5.78563625795e-39
-0.0249286470685 -0.126305145147 0.898 6.52032022722e-39
-0.02321491825 -0.126023841928 0.896 6.79582671569e-39
-0.0215567098035 -0.126023841928 0.896 7.07133320417e-39
-0.0198985013571 -0.126023841928 0.896 6.70399121953e-39
-0.0181995779711 -0.12574253871 0.894 7.25500419648e-39
-0.0164895505108 -0.125320583882 0.891 7.62234618111e-39
-0.0148072832364 -0.125039280663 0.889 7.62234618111e-39
-0.0131620295435 -0.125039280663 0.889 7.80601717343e-39
-0.0114908663436 -0.124757977445 0.887 7.80601717343e-39
-0.00984931400879 -0.124757977445 0.887 7.71418167727e-39
-0.00820776167399 -0.124757977445 0.887 7.89785266959e-39
-0.00656620933919 -0.124757977445 0.887 8.35703015038e-39
-0.00492465700439 -0.124757977445 0.887 8.54070114269e-39
-0.0032831046696 -0.124757977445 0.887 8.44886564654e-39
-0.0016415523348 -0.124757977445 0.887 9.09171411964e-39
0.0 -0.124757977445 0.887 8.99987862348e-39
0.00163785097666 -0.124476674226 0.885 9.09171411964e-39
0.00327570195332 -0.124476674226 0.885 9.73456259275e-39
0.00492465700439 -0.124757977445 0.887 8.99987862348e-39
0.00656620933919 -0.124757977445 0.887 9.09171411964e-39
0.00820776167399 -0.124757977445 0.887 9.55089160043e-39
0.00987152215763 -0.125039280663 0.889 8.81620763117e-39
0.0115167758506 -0.125039280663 0.889 9.09171411964e-39
0.0131916404086 -0.125320583882 0.891 9.82639808891e-39
0.0148905637946 -0.12574253871 0.894 1.01019045774e-38
0.0165820844643 -0.126023841928 0.896 9.91823358506e-39
0.0182402929107 -0.126023841928 0.896 1.07447530505e-38
0.0198985013571 -0.126023841928 0.896 1.07447530505e-38
0.0215085921477 -0.12574253871 0.894 1.09284240428e-38
0.023163099236 -0.12574253871 0.894 1.08365885466e-38
0.0248176063243 -0.12574253871 0.894 9.27538511196e-39
-0.0284097743985 -0.125337239993 0.903 6.52139642444e-39
-0.0266793894684 -0.125059638133 0.901 5.60196526564e-39
-0.0249286470685 -0.124643235342 0.898 6.52032022722e-39
-0.0232667372639 -0.124643235342 0.898 6.79582671569e-39
-0.0216048274593 -0.124643235342 0.898 7.07133320417e-39
-0.0198985013571 -0.124365633482 0.896 7.07133320417e-39
-0.0182402929107 -0.124365633482 0.896 7.16316870032e-39
-0.0165450708829 -0.124088031621 0.894 7.16316870032e-39
-0.0148405954597 -0.123671628831 0.891 7.34683969264e-39
-0.0131620295435 -0.12339402697 0.889 7.71418167727e-39
-0.0115167758506 -0.12339402697 0.889 7.80601717343e-39
-0.00987152215763 -0.12339402697 0.889 7.71418167727e-39
-0.00820776167399 -0.12311642511 0.887 8.0815236619e-39
-0.00656620933919 -0.12311642511 0.887 8.44886564654e-39
-0.00492465700439 -0.12311642511 0.887 8.63255625703e-39
-0.0032831046696 -0.12311642511 0.887 8.72437213501e-39
-0.0016415523348 -0.12311642511 0.887 9.36722060812e-39
0.0 -0.12311642511 0.887 9.55089160043e-39
0.0016415523348 -0.12311642511 0.887 9.09171411964e-39
0.0032831046696 -0.12311642511 0.887 9.55089160043e-39
0.00492465700439 -0.12311642511 0.887 9.36722060812e-39
0.00656620933919 -0.12311642511 0.887 8.90804312733e-39
0.00822626846469 -0.12339402697 0.889 9.55089160043e-39
0.00987152215763 -0.12339402697 0.889 8.90804312733e-39
0.0115167758506 -0.12339402697 0.889 8.90804312733e-39
0.0132360567063 -0.124088031621 0.894 9.64272709659e-39
0.0149238760178 -0.124365633482 0.896 9.91823358506e-39
0.0165820844643 -0.124365633482 0.896 1.01019045774e-38
0.0182810078502 -0.124643235342 0.898 1.0469246562e-38
0.0199429176548 -0.124643235342 0.898 1.05610820582e-38
0.0215567098035 -0.124365633482 0.896 1.0469246562e-38
0.02321491825 -0.124365633482 0.896 1.02855755697e-38
0.0248731266964 -0.124365633482 0.896 8.72437213501e-39
-0.0284097743985 -0.123666076794 0.903 6.06221894365e-39
-0.0267386111986 -0.123666076794 0.903 5.60196526564e-39
-0.0250119276266 -0.123392176291 0.901 6.97949770801e-39
-0.0232667372639 -0.122981325538 0.898 6.97949770801e-39
-0.0216048274593 -0.122981325538 0.898 6.97949770801e-39
-0.0199429176548 -0.122981325538 0.898 6.97949770801e-39
-0.0182402929107 -0.122707425035 0.896 7.34683969264e-39
-0.0165820844643 -0.122707425035 0.896 7.53051068496e-39
-0.0148905637946 -0.122433524533 0.894 7.53051068496e-39
-0.0131916404086 -0.12202267378 0.891 7.62234618111e-39
-0.0115167758506 -0.121748773277 0.889 7.71418167727e-39
-0.00987152215763 -0.121748773277 0.889 8.0815236619e-39
-0.00822626846469 -0.121748773277 0.889 8.17336896715e-39
-0.00658101477175 -0.121748773277 0.889 8.0815236619e-39
-0.00492465700439 -0.121474872775 0.887 8.54070114269e-39
-0.0032831046696 -0.121474872775 0.887 8.63253663885e-39
-0.0016415523348 -0.121474872775 0.887 8.72437213501e-39
0.0 -0.121474872775 0.887 9.36722060812e-39
0.0016415523348 -0.121474872775 0.887 9.09171411964e-39
0.0032831046696 -0.121474872775 0.887 9.1835496158e-39
0.00493576107881 -0.121748773277 0.889 9.09171411964e-39
0.00658101477175 -0.121748773277 0.889 8.99987862348e-39
0.00822626846469 -0.121748773277 0.889 9.09171411964e-39
0.00987152215763 -0.121748773277 0.889 8.90804312733e-39
0.0115167758506 -0.121748773277 0.889 8.90804312733e-39
0.0132656675714 -0.122707425035 0.896 9.55089160043e-39
0.0149238760178 -0.122707425035 0.896 9.82639808891e-39
0.0166190980456 -0.122981325538 0.898 1.01937400735e-38
0.0182810078502 -0.122981325538 0.898 1.01019045774e-38
0.0199429176548 -0.122981325538 0.898 1.01019045774e-38
0.0216048274593 -0.122981325538 0.898 1.02855755697e-38
0.0232667372639 -0.122981325538 0.898 1.00100690812e-38
0.0249286470685 -0.122981325538 0.898 8.17335915806e-39
-0.0301808742682 -0.12240021231 0.906 2.26500853112e-38
-0.0285041590311 -0.12240021231 0.906 6.24624866837e-39
-0.0267386111986 -0.121994913594 0.903 5.41829427332e-39
-0.0250119276266 -0.121724714449 0.901 6.97949770801e-39
-0.0233444657848 -0.121724714449 0.901 7.16316870032e-39
-0.0216770039431 -0.121724714449 0.901 7.07133320417e-39
-0.0199429176548 -0.121319415733 0.898 7.34683969264e-39
-0.0182810078502 -0.121319415733 0.898 7.62234618111e-39
-0.0165820844643 -0.121049216589 0.896 7.53051068496e-39
-0.0149238760178 -0.121049216589 0.896 7.53051068496e-39
-0.0132360567063 -0.120779017445 0.894 7.71418167727e-39
-0.011581549618 -0.120779017445 0.894 7.98968816575e-39
-0.00989373030646 -0.120373718729 0.891 7.98968816575e-39
-0.00824477525538 -0.120373718729 0.891 8.26519465422e-39
-0.00658101477175 -0.120103519584 0.889 8.35703015038e-39
-0.00493576107881 -0.120103519584 0.889 8.54070114269e-39
-0.00329050738588 -0.120103519584 0.889 8.72437213501e-39
-0.00164525369294 -0.120103519584 0.889 8.81620763117e-39
0.0 -0.120103519584 0.889 9.09171411964e-39
0.00164525369294 -0.120103519584 0.889 8.99987862348e-39
0.00329050738588 -0.120103519584 0.889 8.99987862348e-39
0.00493576107881 -0.120103519584 0.889 9.55089160043e-39
0.00658101477175 -0.120103519584 0.889 9.36722060812e-39
0.00822626846469 -0.120103519584 0.889 9.45905610427e-39
0.00989373030646 -0.120373718729 0.891 9.55089160043e-39
0.011581549618 -0.120779017445 0.894 9.27538511196e-39
0.0132656675714 -0.121049216589 0.896 9.45905610427e-39
0.0149571882411 -0.121319415733 0.898 9.55089160043e-39
0.0166190980456 -0.121319415733 0.898 9.82639808891e-39
0.0183420802595 -0.121724714449 0.901 9.55089160043e-39
0.0200095421013 -0.121724714449 0.901 9.73456259275e-39
0.0216770039431 -0.121724714449 0.901 1.01019045774e-38
0.0232667372639 -0.121319415733 0.898 1.0469246562e-38
0.0249286470685 -0.121319415733 0.898 8.44886564654e-39
-0.0301808742682 -0.120723497073 0.906 2.16363033255e-38
-0.0285041590311 -0.120723497073 0.906 1.01184062681e-38
-0.0267386111986 -0.120323750394 0.903 5.60196526564e-39
-0.0250119276266 -0.120057252608 0.901 6.79582671569e-39
-0.0233444657848 -0.120057252608 0.901 7.16316870032e-39
-0.0216770039431 -0.120057252608 0.901 7.16316870032e-39
-0.0199429176548 -0.119657505929 0.898 7.25500419648e-39
-0.0182810078502 -0.119657505929 0.898 7.25500419648e-39
-0.0166190980456 -0.119657505929 0.898 7.53051068496e-39
-0.0149238760178 -0.119391008143 0.896 7.62234618111e-39
-0.0132656675714 -0.119391008143 0.896 7.62234618111e-39
-0.011581549618 -0.119124510357 0.894 7.71418167727e-39
-0.00992704252972 -0.119124510357 0.894 8.0815236619e-39
-0.00824477525538 -0.118724763678 0.891 8.35703015038e-39
-0.00659582020431 -0.118724763678 0.891 8.17335915806e-39
-0.00493576107881 -0.118458265892 0.889 8.63253663885e-39
-0.00329050738588 -0.118458265892 0.889 8.63253663885e-39
-0.00164525369294 -0.118458265892 0.889 8.63253663885e-39
0.0 -0.118458265892 0.889 8.81620763117e-39
0.00164525369294 -0.118458265892 0.889 8.81620763117e-39
0.00329050738588 -0.118458265892 0.889 8.72437213501e-39
0.00494686515323 -0.118724763678 0.891 8.90804312733e-39
0.00659582020431 -0.118724763678 0.891 8.99987862348e-39
0.00827253544143 -0.119124510357 0.894 9.45905610427e-39
0.00992704252972 -0.119124510357 0.894 9.27538511196e-39
0.011581549618 -0.119124510357 0.894 9.27538511196e-39
0.0132656675714 -0.119391008143 0.896 9.36722060812e-39
0.0149571882411 -0.119657505929 0.898 9.73456259275e-39
0.0166190980456 -0.119657505929 0.898 9.91823358506e-39
0.0183420802595 -0.120057252608 0.901 9.73456259275e-39
0.0200095421013 -0.120057252608 0.901 9.82639808891e-39
0.0216770039431 -0.120057252608 0.901 9.91823358506e-39
0.0233444657848 -0.120057252608 0.901 1.0469246562e-38
0.0250119276266 -0.120057252608 0.901 8.54070114269e-39
-0.0319982411146 -0.119572374691 0.91 1.82232475364e-38
-0.0302474987147 -0.119309578264 0.908 2.06185178301e-38
-0.0285041590311 -0.119046781836 0.906 1.19612146422e-38
-0.0267386111986 -0.118652587194 0.903 7.99902361611e-39
-0.0250674479987 -0.118652587194 0.903 6.42848473106e-39
-0.0233962847988 -0.118652587194 0.903 6.97949770801e-39
-0.0217251215989 -0.118652587194 0.903 7.25500419648e-39
-0.0199429176548 -0.117995596124 0.898 7.25500419648e-39
-0.0182810078502 -0.117995596124 0.898 7.34683969264e-39
-0.0166190980456 -0.117995596124 0.898 7.71418167727e-39
-0.0149571882411 -0.117995596124 0.898 7.71418167727e-39
-0.0132656675714 -0.117732799696 0.896 7.62234618111e-39
-0.011607459125 -0.117732799696 0.896 7.80601717343e-39
-0.00992704252972 -0.117470003268 0.894 8.17335915806e-39
-0.00827253544143 -0.117470003268 0.894 8.17335915806e-39
-0.00661802835314 -0.117470003268 0.894 8.54070114269e-39
-0.00494686515323 -0.117075808626 0.891 8.54070114269e-39
-0.00329791010215 -0.117075808626 0.891 8.72437213501e-39
-0.00164895505108 -0.117075808626 0.891 8.72437213501e-39
0.0 -0.117075808626 0.891 8.54070114269e-39
0.00164525369294 -0.116813012199 0.889 8.81620763117e-39
0.00329050738588 -0.116813012199 0.889 8.54070114269e-39
0.00494686515323 -0.117075808626 0.891 8.81620763117e-39
0.00659582020431 -0.117075808626 0.891 8.90804312733e-39
0.00827253544143 -0.117470003268 0.894 9.45905610427e-39
0.00992704252972 -0.117470003268 0.894 9.27538511196e-39
0.011607459125 -0.117732799696 0.896 9.27538511196e-39
0.0132656675714 -0.117732799696 0.896 9.55089160043e-39
0.0149571882411 -0.117995596124 0.898 9.73456259275e-39
0.0166190980456 -0.117995596124 0.898 1.01937400735e-38
0.0183420802595 -0.118389790766 0.901 1.00100690812e-38
0.0200095421013 -0.118389790766 0.901 9.73456259275e-39
0.0217251215989 -0.118652587194 0.903 1.01019045774e-38
0.0233962847988 -0.118652587194 0.903 1.0469246562e-38
-0.0319982411146 -0.117888256738 0.91 1.76675710382e-38
-0.0303141231612 -0.117888256738 0.91 2.03419351444e-38
-0.0285041590311 -0.117370066599 0.906 1.16853494213e-38
-0.026827443794 -0.117370066599 0.906 9.10822001425e-39
-0.0250674479987 -0.116981423994 0.903 6.3366492349e-39
-0.0233962847988 -0.116981423994 0.903 7.07133320417e-39
-0.0217251215989 -0.116981423994 0.903 7.34683969264e-39
-0.0200095421013 -0.116722328924 0.901 7.16316870032e-39
-0.0182810078502 -0.11633368632 0.898 7.34683969264e-39
-0.0166190980456 -0.11633368632 0.898 7.62234618111e-39
-0.0149238760178 -0.11607459125 0.896 7.71418167727e-39
-0.0132656675714 -0.11607459125 0.896 7.98968816575e-39
-0.011607459125 -0.11607459125 0.896 8.17335915806e-39
-0.00994925067855 -0.11607459125 0.896 8.26519465422e-39
-0.00827253544143 -0.11581549618 0.894 8.35703015038e-39
-0.00661802835314 -0.11581549618 0.894 8.26519465422e-39
-0.00496352126486 -0.11581549618 0.894 8.35703015038e-39
-0.00329791010215 -0.115426853575 0.891 9.1835496158e-39
-0.00164895505108 -0.115426853575 0.891 8.90804312733e-39
0.0 -0.115426853575 0.891 8.81620763117e-39
0.00164895505108 -0.115426853575 0.891 8.99987862348e-39
0.00330901417657 -0.11581549618 0.894 8.90804312733e-39
0.00496352126486 -0.11581549618 0.894 8.90804312733e-39
0.00661802835314 -0.11581549618 0.894 9.64272709659e-39
0.00827253544143 -0.11581549618 0.894 9.55089160043e-39
0.00992704252972 -0.11581549618 0.894 9.36722060812e-39
0.011607459125 -0.11607459125 0.896 9.27538511196e-39
0.0132656675714 -0.11607459125 0.896 9.45905610427e-39
0.0149571882411 -0.11633368632 0.898 9.73456259275e-39
0.0166746184177 -0.116722328924 0.901 1.01937400735e-38
0.0183420802595 -0.116722328924 0.901 1.01937400735e-38
0.020053958399 -0.116981423994 0.903 9.36722060812e-39
0.0217251215989 -0.116981423994 0.903 9.91823358506e-39
0.0233962847988 -0.116981423994 0.903 1.38822280822e-38
-0.0319982411146 -0.116204138785 0.91 1.87760541754e-38
-0.0303141231612 -0.116204138785 0.91 2.08983333113e-38
-0.0285041590311 -0.115693351361 0.906 1.04868244499e-38
-0.026827443794 -0.115693351361 0.906 9.20149744653e-39
-0.0251507285568 -0.115693351361 0.906 6.15297824259e-39
-0.0233962847988 -0.115310260794 0.903 6.88766221185e-39
-0.0217251215989 -0.115310260794 0.903 1.03860206436e-38
-0.0200095421013 -0.115054867082 0.901 6.88766221185e-39
-0.0182810078502 -0.114671776515 0.898 6.97949770801e-39
-0.0166190980456 -0.114671776515 0.898 7.25500419648e-39
-0.0149238760178 -0.114416382803 0.896 7.89785266959e-39
-0.0132656675714 -0.114416382803 0.896 8.17335915806e-39
-0.011607459125 -0.114416382803 0.896 8.26519465422e-39
-0.00994925067855 -0.114416382803 0.896 8.26519465422e-39
-0.00829104223213 -0.114416382803 0.896 8.26519465422e-39
-0.0066328337857 -0.114416382803 0.896 8.0815236619e-39
-0.00496352126486 -0.114160989092 0.894 8.26519465422e-39
-0.00330901417657 -0.114160989092 0.894 8.72437213501e-39
-0.00165450708829 -0.114160989092 0.894 8.81620763117e-39
0.0 -0.114160989092 0.894 8.81620763117e-39
0.00165450708829 -0.114160989092 0.894 8.99987862348e-39
0.00330901417657 -0.114160989092 0.894 9.36722060812e-39
0.00497462533928 -0.114416382803 0.896 9.36722060812e-39
0.0066328337857 -0.114416382803 0.896 9.45905610427e-39
0.00829104223213 -0.114416382803 0.896 9.36722060812e-39
0.00994925067855 -0.114416382803 0.896 9.27538511196e-39
0.011607459125 -0.114416382803 0.896 9.27538511196e-39
0.0132952784365 -0.114671776515 0.898 9.45905610427e-39
0.0149571882411 -0.114671776515 0.898 1.01019045774e-38
0.0166746184177 -0.115054867082 0.901 1.03774110659e-38
0.0183420802595 -0.115054867082 0.901 9.45905610427e-39
0.020053958399 -0.115310260794 0.903 1.05610820582e-38
0.0217251215989 -0.115310260794 0.903 1.45351532926e-38
0.0233962847988 -0.115310260794 0.903 1.15849043474e-38
-0.0321037298216 -0.114897559361 0.913 1.80385003469e-38
-0.0303141231612 -0.114520020831 0.91 2.01582599482e-38
-0.0285670821194 -0.114268328478 0.908 1.1222225884e-38
-0.0268866655242 -0.114268328478 0.908 8.462497478e-39
-0.0251507285568 -0.114016636124 0.906 6.3366492349e-39
-0.0234740133197 -0.114016636124 0.906 7.07133320417e-39
-0.0217972980826 -0.114016636124 0.906 1.0478584815e-38
-0.0200095421013 -0.113387405241 0.901 8.64119666336e-39
-0.0183420802595 -0.113387405241 0.901 9.65313033639e-39
-0.0166746184177 -0.113387405241 0.901 7.71418167727e-39
-0.015007156576 -0.113387405241 0.901 8.0815236619e-39
-0.0132952784365 -0.11300986671 0.898 8.17335915806e-39
-0.011633368632 -0.11300986671 0.898 8.0815236619e-39
-0.00994925067855 -0.112758174357 0.896 8.26519465422e-39
-0.00829104223213 -0.112758174357 0.896 8.17335915806e-39
-0.0066328337857 -0.112758174357 0.896 8.35703015038e-39
-0.00497462533928 -0.112758174357 0.896 8.63253663885e-39
-0.00331641689285 -0.112758174357 0.896 8.81620763117e-39
-0.00165820844643 -0.112758174357 0.896 8.63253663885e-39
0.0 -0.112758174357 0.896 8.90804312733e-39
0.00165820844643 -0.112758174357 0.896 9.36722060812e-39
0.00331641689285 -0.112758174357 0.896 9.55089160043e-39
0.00497462533928 -0.112758174357 0.896 9.55089160043e-39
0.0066328337857 -0.112758174357 0.896 9.55089160043e-39
0.00829104223213 -0.112758174357 0.896 9.09171411964e-39
0.00994925067855 -0.112758174357 0.896 8.72437213501e-39
0.011633368632 -0.11300986671 0.898 8.54070114269e-39
0.0132952784365 -0.11300986671 0.898 8.99987862348e-39
0.015007156576 -0.113387405241 0.901 8.90804312733e-39
0.0166746184177 -0.113387405241 0.901 9.91823358506e-39
0.018382795199 -0.113639097594 0.903 1.59977375453e-38
0.020053958399 -0.113639097594 0.903 1.34353497981e-38
0.0217251215989 -0.113639097594 0.903 7.98968816575e-39
0.0233962847988 -0.113639097594 0.903 1.06529175543e-38
0.0250674479987 -0.113639097594 0.903 9.55089160043e-39
-0.0321037298216 -0.113207889371 0.913 1.84076359936e-38
-0.0303141231612 -0.112835902878 0.91 2.12671340477e-38
-0.0286300052078 -0.112835902878 0.91 1.09445810141e-38
-0.0268866655242 -0.112587911883 0.908 9.29368046471e-39
-0.0252062489289 -0.112587911883 0.908 6.15297824259e-39
-0.0234740133197 -0.112339920887 0.906 7.16316870032e-39
-0.0217972980826 -0.112339920887 0.906 7.62234618111e-39
-0.020053958399 -0.111967934394 0.903 6.88766221185e-39
-0.0183420802595 -0.111719943399 0.901 1.17689677033e-38
-0.0166746184177 -0.111719943399 0.901 7.71418167727e-39
-0.015007156576 -0.111719943399 0.901 8.26878197829e-39
-0.0133396947342 -0.111719943399 0.901 1.14023291705e-38
-0.011633368632 -0.111347956906 0.898 9.65097794195e-39
-0.00997145882739 -0.111347956906 0.898 8.17335915806e-39
-0.00830954902282 -0.111347956906 0.898 8.0815236619e-39
-0.00664763921826 -0.111347956906 0.898 1.09334645134e-38
-0.00498572941369 -0.111347956906 0.898 7.80601717343e-39
-0.00331641689285 -0.11109996591 0.896 8.26519465422e-39
-0.00165820844643 -0.11109996591 0.896 8.81620763117e-39
0.0 -0.11109996591 0.896 9.27538511196e-39
0.00165820844643 -0.11109996591 0.896 8.99987862348e-39
0.00331641689285 -0.11109996591 0.896 8.72437213501e-39
0.00497462533928 -0.11109996591 0.896 8.26519465422e-39
0.0066328337857 -0.11109996591 0.896 1.19425647609e-38
0.00829104223213 -0.11109996591 0.896 9.27538511196e-39
0.00994925067855 -0.11109996591 0.896 1.20401623964e-38
0.011633368632 -0.111347956906 0.898 1.04792910694e-38
0.0132952784365 -0.111347956906 0.898 1.31590319578e-38
0.015007156576 -0.111719943399 0.901 1.28810633879e-38
0.0167116319991 -0.111967934394 0.903 1.21434507049e-38
0.018382795199 -0.111967934394 0.903 1.02870259136e-38
0.020053958399 -0.111967934394 0.903 1.01019115839e-38
0.0217972980826 -0.112339920887 0.906 1.19432780218e-38
0.0233962847988 -0.111967934394 0.903 1.03774110659e-38
0.0250674479987 -0.111967934394 0.903 9.73456259275e-39
-0.0321037298216 -0.11151821938 0.913 1.99753134272e-38
-0.0303141231612 -0.111151784924 0.91 1.96073366543e-38
-0.0286300052078 -0.111151784924 0.91 1.14069730736e-38
-0.0268866655242 -0.110907495287 0.908 8.46357367522e-39
-0.0252062489289 -0.110907495287 0.908 5.87747175411e-39
-0.0234740133197 -0.11066320565 0.906 7.16316870032e-39
-0.0217972980826 -0.11066320565 0.906 8.44886564654e-39
-0.0201205828455 -0.11066320565 0.906 8.0815236619e-39
-0.018382795199 -0.110296771194 0.903 7.4386751888e-39
-0.0167116319991 -0.110296771194 0.903 6.97949770801e-39
-0.015007156576 -0.110052481557 0.901 7.89785266959e-39
-0.0133396947342 -0.110052481557 0.901 1.12104087341e-38
-0.011633368632 -0.109686047101 0.898 7.62234618111e-39
-0.00997145882739 -0.109686047101 0.898 1.14891970636e-38
-0.00830954902282 -0.109686047101 0.898 6.97951732619e-39
-0.00664763921826 -0.109686047101 0.898 1.27791945948e-38
-0.00498572941369 -0.109686047101 0.898 1.16882332935e-38
-0.00332381960913 -0.109686047101 0.898 1.15942650211e-38
-0.00166190980456 -0.109686047101 0.898 1.23329300793e-38
0.0 -0.109686047101 0.898 1.30614525392e-38
0.00166190980456 -0.109686047101 0.898 1.07608960088e-38
0.00332381960913 -0.109686047101 0.898 1.25958402959e-38
0.00498572941369 -0.109686047101 0.898 7.89785266959e-39
0.00664763921826 -0.109686047101 0.898 1.57348077105e-38
0.00830954902282 -0.109686047101 0.898 1.37114700553e-38
0.00997145882739 -0.109686047101 0.898 1.16828915438e-38
0.011633368632 -0.109686047101 0.898 1.02995661336e-38
0.0132952784365 -0.109686047101 0.898 9.00490087718e-39
0.015007156576 -0.110052481557 0.901 1.04692633776e-38
0.0167116319991 -0.110296771194 0.903 8.90804312733e-39
0.018382795199 -0.110296771194 0.903 1.18514635451e-38
0.020053958399 -0.110296771194 0.903 1.38851091519e-38
0.0217972980826 -0.11066320565 0.906 9.27538511196e-39
0.0234740133197 -0.11066320565 0.906 1.25850769224e-38
-0.0321740556262 -0.110069137669 0.915 1.97902004987e-38
-0.030414059831 -0.10982854939 0.913 2.02523179037e-38
-0.0287243898404 -0.10982854939 0.913 1.12236608137e-38
-0.0269458872544 -0.109467666971 0.91 9.29476787232e-39
-0.0252062489289 -0.109227078692 0.908 5.78563625795e-39
-0.0235258323337 -0.109227078692 0.908 6.97949770801e-39
-0.0218454157384 -0.109227078692 0.908 9.46265043483e-39
-0.0201649991431 -0.109227078692 0.908 7.71418167727e-39
-0.0184438676083 -0.108986490413 0.906 8.0815236619e-39
-0.0167116319991 -0.108625607994 0.903 8.72688326186e-39
-0.0150404687992 -0.108625607994 0.903 1.01101554227e-38
-0.0133396947342 -0.108385019715 0.901 9.73850864922e-39
-0.0116722328924 -0.108385019715 0.901 7.71418167727e-39
-0.0100047710506 -0.108385019715 0.901 9.55089160043e-39
-0.00830954902282 -0.108024137297 0.898 7.80601717343e-39
-0.00664763921826 -0.108024137297 0.898 8.0815236619e-39
-0.00498572941369 -0.108024137297 0.898 8.63253663885e-39
-0.00332381960913 -0.108024137297 0.898 7.98968816575e-39
-0.00166190980456 -0.108024137297 0.898 8.17337877624e-39
0.0 -0.108024137297 0.898 1.04721164213e-38
0.00166190980456 -0.108024137297 0.898 9.27538511196e-39
0.00332381960913 -0.108024137297 0.898 1.12975596895e-38
0.00498572941369 -0.108024137297 0.898 8.99987862348e-39
0.00664763921826 -0.108024137297 0.898 8.54070114269e-39
0.00830954902282 -0.108024137297 0.898 8.81620763117e-39
0.0100047710506 -0.108385019715 0.901 9.09171411964e-39
0.0116722328924 -0.108385019715 0.901 8.72437213501e-39
0.0133693055993 -0.108625607994 0.903 1.13036763573e-38
0.0150404687992 -0.108625607994 0.903 1.2780228753e-38
0.0167671523712 -0.108986490413 0.906 1.00132976729e-38
0.0184438676083 -0.108986490413 0.906 9.55089160043e-39
0.0201205828455 -0.108986490413 0.906 1.16641842093e-38
0.0218454157384 -0.109227078692 0.908 1.12086122694e-38
-0.0322795443332 -0.108731096701 0.918 1.88671722068e-38
-0.0304806842775 -0.10837576632 0.915 2.14507966322e-38
-0.0287243898404 -0.108138879399 0.913 1.03946302214e-38
-0.0270347198498 -0.108138879399 0.913 8.18699239082e-39
-0.025261769301 -0.107783549018 0.91 6.15297824259e-39
-0.0235776513476 -0.107783549018 0.91 7.25500419648e-39
-0.0218454157384 -0.107546662097 0.908 7.53051068496e-39
-0.0201649991431 -0.107546662097 0.908 8.26519465422e-39
-0.0184845825479 -0.107546662097 0.908 7.89785266959e-39
-0.0167671523712 -0.107309775176 0.906 9.09422524649e-39
-0.0150404687992 -0.106954444794 0.903 7.62234618111e-39
-0.0133693055993 -0.106954444794 0.903 8.17335915806e-39
-0.0116722328924 -0.106717557874 0.901 8.17335915806e-39
-0.0100047710506 -0.106717557874 0.901 1.04717632941e-38
-0.00833730920887 -0.106717557874 0.901 1.06608110686e-38
-0.00666984736709 -0.106717557874 0.901 1.04757107518e-38
-0.00498572941369 -0.106362227492 0.898 1.00147354051e-38
-0.00332381960913 -0.106362227492 0.898 1.10310355241e-38
-0.00166190980456 -0.106362227492 0.898 9.92616913827e-39
0.0 -0.106362227492 0.898 1.1306900745e-38
0.00166190980456 -0.106362227492 0.898 8.0815236619e-39
0.00332381960913 -0.106362227492 0.898 1.12132757907e-38
0.00498572941369 -0.106362227492 0.898 1.12172190446e-38
0.00664763921826 -0.106362227492 0.898 1.15831106853e-38
0.00833730920887 -0.106717557874 0.901 1.19518875996e-38
0.0100047710506 -0.106717557874 0.901 9.09171832354e-39
0.0116981423994 -0.106954444794 0.903 1.08409059472e-38
0.0133693055993 -0.106954444794 0.903 9.09171411964e-39
0.0150904371341 -0.107309775176 0.906 1.16724350546e-38
0.0167671523712 -0.107309775176 0.906 1.18575409766e-38
0.0184438676083 -0.107309775176 0.906 9.91930978228e-39
0.0201205828455 -0.107309775176 0.906 1.08365885466e-38
0.0218454157384 -0.107546662097 0.908 1.01019045774e-38
-0.0324553588448 -0.107615137222 0.923 1.90519193963e-38
-0.0304806842775 -0.106682394971 0.915 2.18188602855e-38
-0.0287243898404 -0.106449209408 0.913 1.08552426318e-38
-0.0270347198498 -0.106449209408 0.913 8.83199185707e-39
-0.0253450498591 -0.106449209408 0.913 6.42848473106e-39
-0.0235776513476 -0.106099431064 0.91 7.4386751888e-39
-0.0218935333942 -0.106099431064 0.91 7.62234618111e-39
-0.0201649991431 -0.105866245501 0.908 9.55412719859e-39
-0.0184845825479 -0.105866245501 0.908 7.53158688218e-39
-0.0168041659526 -0.105866245501 0.908 7.80601717343e-39
-0.0150904371341 -0.105633059939 0.906 8.63253663885e-39
-0.013413721897 -0.105633059939 0.906 9.46013510409e-39
-0.0116981423994 -0.105283281595 0.903 1.01987735376e-38
-0.0100269791995 -0.105283281595 0.903 9.73960726722e-39
-0.00835581599956 -0.105283281595 0.903 8.0815236619e-39
-0.00666984736709 -0.105050096032 0.901 1.0747638324e-38
-0.00500238552532 -0.105050096032 0.901 8.90804312733e-39
-0.00333492368355 -0.105050096032 0.901 8.63253663885e-39
-0.00166746184177 -0.105050096032 0.901 8.99987862348e-39
0.0 -0.105050096032 0.901 9.36722060812e-39
0.00166746184177 -0.105050096032 0.901 8.63253663885e-39
0.00333492368355 -0.105050096032 0.901 9.36722060812e-39
0.00500238552532 -0.105050096032 0.901 9.09171411964e-39
0.00666984736709 -0.105050096032 0.901 1.05610820582e-38
0.00833730920887 -0.105050096032 0.901 1.12060885309e-38
0.0100269791995 -0.105283281595 0.903 1.14898626803e-38
0.0116981423994 -0.105283281595 0.903 9.73456259275e-39
0.013413721897 -0.105633059939 0.906 1.06536350191e-38
0.0150904371341 -0.105633059939 0.906 1.08365885466e-38
0.0167671523712 -0.105633059939 0.906 9.55089160043e-39
0.0184845825479 -0.105866245501 0.908 1.36935726713e-38
0.0201649991431 -0.105866245501 0.908 1.12107926899e-38
0.0218454157384 -0.105866245501 0.908 1.11142474296e-38
-0.0324553588448 -0.105906960441 0.923 1.90508431991e-38
-0.0306472453938 -0.105562734134 0.92 2.0895815178e-38
-0.0287873129287 -0.104989023622 0.915 1.11307491203e-38
-0.02709394158 -0.104989023622 0.915 8.55289804453e-39
-0.0253450498591 -0.104759539418 0.913 6.42848473106e-39
-0.0236553798685 -0.104759539418 0.913 7.4386751888e-39
-0.0219657098779 -0.104759539418 0.913 8.08155449047e-39
-0.0202094154408 -0.104415313111 0.91 7.89785266959e-39
-0.0184845825479 -0.104185828906 0.908 7.98968816575e-39
-0.0168041659526 -0.104185828906 0.908 7.53051068496e-39
-0.0151237493574 -0.104185828906 0.908 9.36866674813e-39
-0.013413721897 -0.103956344702 0.906 8.63613377201e-39
-0.0117370066599 -0.103956344702 0.906 9.09566017612e-39
-0.0100269791995 -0.103612118395 0.903 7.98968816575e-39
-0.00835581599956 -0.103612118395 0.903 8.0815236619e-39
-0.00668465279965 -0.103612118395 0.903 9.09171411964e-39
-0.00501348959974 -0.103612118395 0.903 9.09243158445e-39
-0.00334232639983 -0.103612118395 0.903 1.12143351724e-38
-0.00167116319991 -0.103612118395 0.903 9.18677820746e-39
0.0 -0.103612118395 0.903 1.07461893814e-38
0.00167116319991 -0.103612118395 0.903 1.1396237726e-38
0.00333492368355 -0.10338263419 0.901 9.36722060812e-39
0.00500238552532 -0.10338263419 0.901 9.73456259275e-39
0.00668465279965 -0.103612118395 0.903 1.11124537675e-38
0.00835581599956 -0.103612118395 0.903 9.09171411964e-39
0.0100269791995 -0.103612118395 0.903 9.36722060812e-39
0.0117370066599 -0.103956344702 0.906 8.81620763117e-39
0.013413721897 -0.103956344702 0.906 1.28674077344e-38
0.0150904371341 -0.103956344702 0.906 1.20397938549e-38
0.0168041659526 -0.104185828906 0.908 9.73456259275e-39
0.0184845825479 -0.104185828906 0.908 1.06529175543e-38
0.0202094154408 -0.104415313111 0.91 1.23138485981e-38
0.0218935333942 -0.104415313111 0.91 9.91823358506e-39
-0.0324553588448 -0.10419878366 0.923 1.90522781287e-38
-0.0306472453938 -0.10386010939 0.92 2.12656865064e-38
-0.0288816975613 -0.103634326543 0.918 1.10389136241e-38
-0.02709394158 -0.103295652274 0.915 7.54127265716e-39
-0.0254005702312 -0.103295652274 0.915 6.52032022722e-39
-0.0236553798685 -0.103069869427 0.913 7.07133320417e-39
-0.0219657098779 -0.103069869427 0.913 7.71418167727e-39
-0.0202760398873 -0.103069869427 0.913 7.89785266959e-39
-0.0185252974874 -0.102731195157 0.91 9.00023735589e-39
-0.016841179534 -0.102731195157 0.91 8.35703015038e-39
-0.0151237493574 -0.102505412311 0.908 7.80601717343e-39
-0.013413721897 -0.102279629464 0.906 8.63253663885e-39
-0.0117370066599 -0.102279629464 0.906 8.99987862348e-39
-0.0100602914227 -0.102279629464 0.906 1.03813627275e-38
-0.00835581599956 -0.101940955195 0.903 7.53051068496e-39
-0.00668465279965 -0.101940955195 0.903 1.010335352e-38
-0.00501348959974 -0.101940955195 0.903 1.204518465e-38
-0.00334232639983 -0.101940955195 0.903 1.10324564408e-38
-0.00167116319991 -0.101940955195 0.903 1.10328502057e-38
0.0 -0.101940955195 0.903 8.35703015038e-39
0.00167116319991 -0.101940955195 0.903 9.45905610427e-39
0.00334232639983 -0.101940955195 0.903 9.36793807293e-39
0.00501348959974 -0.101940955195 0.903 1.21334594468e-38
0.00668465279965 -0.101940955195 0.903 1.13065658347e-38
0.00838357618561 -0.102279629464 0.906 1.12121967909e-38
0.0100602914227 -0.102279629464 0.906 1.05650281146e-38
0.0117370066599 -0.102279629464 0.906 8.81620763117e-39
0.013413721897 -0.102279629464 0.906 9.55089160043e-39
0.0150904371341 -0.102279629464 0.906 1.39737370759e-38
0.0168041659526 -0.102505412311 0.908 1.06597713051e-38
0.0185252974874 -0.102731195157 0.91 1.2035113518e-38
0.0202094154408 -0.102731195157 0.91 9.64272709659e-39
0.0218935333942 -0.102731195157 0.91 9.73456259275e-39
-0.0342375627889 -0.102712688367 0.925 1.82200287539e-38
-0.0324553588448 -0.102490606878 0.923 1.87742605134e-38
-0.0307471820635 -0.102490606878 0.923 2.08039796818e-38
-0.0289446206497 -0.102157484646 0.92 1.13151375774e-38
-0.0271827741753 -0.101935403157 0.918 7.44979589341e-39
-0.0254005702312 -0.101602280925 0.915 6.79582671569e-39
-0.0236553798685 -0.101380199437 0.913 7.25500419648e-39
-0.0219657098779 -0.101380199437 0.913 7.62234618111e-39
-0.0202760398873 -0.101380199437 0.913 8.72544833223e-39
-0.0185252974874 -0.101047077204 0.91 8.26520025941e-39
-0.016841179534 -0.101047077204 0.91 7.80601717343e-39
-0.0151237493574 -0.100824995716 0.908 8.35703015038e-39
-0.013413721897 -0.100602914227 0.906 8.44886564654e-39
-0.0117370066599 -0.100602914227 0.906 1.15806387948e-38
-0.0100602914227 -0.100602914227 0.906 9.83500766667e-39
-0.00838357618561 -0.100602914227 0.906 7.89785266959e-39
-0.00668465279965 -0.100269791995 0.903 1.08434226793e-38
-0.00501348959974 -0.100269791995 0.903 8.63325410366e-39
-0.00335343047424 -0.100602914227 0.906 9.1835496158e-39
-0.00167671523712 -0.100602914227 0.906 1.02855755697e-38
