# .PCD v0.7 - Point Cloud Data file format
VERSION 0.7
FIELDS x y z rgb
SIZE 4 4 4 4
TYPE F F F F
COUNT 1 1 1 1
WIDTH 837
HEIGHT 1
VIEWPOINT 0 0 0 1 0 0 0
POINTS 837
DATA ascii
-0.0328069878681 -0.0759740771681 0.933 2.26559259232e-38
-0.0310803042961 -0.0759740771681 0.933 2.28446387874e-38
-0.0292592360915 -0.0757297875309 0.93 6.97949770801e-39
-0.0274788828265 -0.0755669277728 0.928 8.63253663885e-39
-0.0257614526498 -0.0755669277728 0.928 9.18499015062e-39
-0.0239662939522 -0.0753226381356 0.925 9.00238975033e-39
-0.0222544158128 -0.0753226381356 0.925 8.26591211903e-39
-0.0206091621199 -0.0755669277728 0.928 8.81692509598e-39
-0.0188917319432 -0.0755669277728 0.928 8.99987862348e-39
-0.0171187813945 -0.0753226381356 0.925 8.81620763117e-39
-0.015406903255 -0.0753226381356 0.925 8.35703015038e-39
-0.0136950251156 -0.0753226381356 0.925 7.98968816575e-39
-0.0119572374691 -0.0751597783775 0.923 8.90804312733e-39
-0.0102490606878 -0.0751597783775 0.923 8.54070114269e-39
-0.00854088390653 -0.0751597783775 0.923 1.16702826602e-38
-0.00683270712523 -0.0751597783775 0.923 1.16728049974e-38
-0.00512453034392 -0.0751597783775 0.923 1.03820745871e-38
-0.00340524948819 -0.0749154887403 0.92 1.22245382418e-38
-0.0017026247441 -0.0749154887403 0.92 1.17675089516e-38
0.0 -0.0749154887403 0.92 1.19537275045e-38
0.00170817678131 -0.0751597783775 0.923 9.36722060812e-39
0.00341635356261 -0.0751597783775 0.923 9.27538511196e-39
0.00512453034392 -0.0751597783775 0.923 1.01937400735e-38
0.00683270712523 -0.0751597783775 0.923 1.01937400735e-38
0.00855939069723 -0.0753226381356 0.925 1.01937400735e-38
0.0102712688367 -0.0753226381356 0.925 1.03774110659e-38
0.0119831469761 -0.0753226381356 0.925 1.03774110659e-38
0.0136950251156 -0.0753226381356 0.925 1.0469246562e-38
0.015406903255 -0.0753226381356 0.925 1.08365885466e-38
0.0171187813945 -0.0753226381356 0.925 1.09284240428e-38
0.0188306595339 -0.0753226381356 0.925 1.20311674615e-38
0.0206091621199 -0.0755669277728 0.928 1.25882971063e-38
0.0223747099523 -0.0757297875309 0.93 1.0469246562e-38
0.0240958414871 -0.0757297875309 0.93 2.34760106261e-38
-0.0328069878681 -0.0742473935961 0.933 2.17339920453e-38
-0.0310803042961 -0.0742473935961 0.933 2.34885732668e-38
-0.0292592360915 -0.0740086559961 0.93 7.16388616514e-39
-0.0274788828265 -0.0738494975962 0.928 8.35703015038e-39
-0.0257614526498 -0.0738494975962 0.928 7.53051068496e-39
-0.0239662939522 -0.0736107599962 0.925 8.54070114269e-39
-0.0222544158128 -0.0736107599962 0.925 8.90804312733e-39
-0.0206091621199 -0.0738494975962 0.928 9.64810808269e-39
-0.0188917319432 -0.0738494975962 0.928 1.03824459312e-38
-0.0171187813945 -0.0736107599962 0.925 8.54071235308e-39
-0.015406903255 -0.0736107599962 0.925 1.01962512004e-38
-0.0136950251156 -0.0736107599962 0.925 9.55089160043e-39
-0.0119831469761 -0.0736107599962 0.925 9.55089160043e-39
-0.0102490606878 -0.0734516015962 0.923 8.63253663885e-39
-0.00854088390653 -0.0734516015962 0.923 9.09171411964e-39
-0.00683270712523 -0.0734516015962 0.923 9.36722060812e-39
-0.00512453034392 -0.0734516015962 0.923 9.45905610427e-39
-0.00341635356261 -0.0734516015962 0.923 9.36722060812e-39
-0.0017026247441 -0.0732128639962 0.92 9.36722060812e-39
0.0 -0.0732128639962 0.92 9.09171411964e-39
0.00170817678131 -0.0734516015962 0.923 9.64272709659e-39
0.00342375627889 -0.0736107599962 0.925 9.91823358506e-39
0.00513563441834 -0.0736107599962 0.925 9.82639808891e-39
0.00684751255778 -0.0736107599962 0.925 1.01019045774e-38
0.00855939069723 -0.0736107599962 0.925 1.00100690812e-38
0.0102712688367 -0.0736107599962 0.925 9.91823358506e-39
0.0120220112366 -0.0738494975962 0.928 1.01019045774e-38
0.0137394414132 -0.0738494975962 0.928 1.03774110659e-38
0.0154568715899 -0.0738494975962 0.928 1.07447530505e-38
0.0171743017665 -0.0738494975962 0.928 1.12039305313e-38
0.0188917319432 -0.0738494975962 0.928 1.16631080121e-38
0.0206091621199 -0.0738494975962 0.928 1.36010211116e-38
0.0223747099523 -0.0740086559961 0.93 1.03774110659e-38
0.0240958414871 -0.0740086559961 0.93 2.34821483133e-38
-0.0331586168913 -0.0732979952334 0.943 2.25640834205e-38
-0.0310803042961 -0.0725207100241 0.933 2.34896368523e-38
-0.0293536207241 -0.0725207100241 0.933 6.3366492349e-39
-0.0274788828265 -0.0721320674195 0.928 8.63253663885e-39
-0.0257614526498 -0.0721320674195 0.928 8.54249480473e-39
-0.0240440224732 -0.0721320674195 0.928 8.44886564654e-39
-0.0223265922965 -0.0721320674195 0.928 8.54070114269e-39
-0.0206091621199 -0.0721320674195 0.928 8.90804312733e-39
-0.0188917319432 -0.0721320674195 0.928 9.6434445614e-39
-0.0171743017665 -0.0721320674195 0.928 9.46013230149e-39
-0.0154568715899 -0.0721320674195 0.928 1.10288691167e-38
-0.0136950251156 -0.0718988818567 0.925 9.55305100136e-39
-0.0119831469761 -0.0718988818567 0.925 1.12125499181e-38
-0.0102712688367 -0.0718988818567 0.925 8.44886564654e-39
-0.00855939069723 -0.0718988818567 0.925 9.92074471191e-39
-0.00683270712523 -0.0717434248149 0.923 8.99987862348e-39
-0.00512453034392 -0.0717434248149 0.923 9.09171411964e-39
-0.00341635356261 -0.0717434248149 0.923 9.55089160043e-39
-0.00170817678131 -0.0717434248149 0.923 1.08365885466e-38
0.0 -0.0717434248149 0.923 1.01019045774e-38
0.00171187813945 -0.0718988818567 0.925 9.36722200941e-39
0.00342375627889 -0.0718988818567 0.925 1.00100746864e-38
0.00513563441834 -0.0718988818567 0.925 1.1020269348e-38
0.00684751255778 -0.0718988818567 0.925 1.27791245298e-38
0.00858715088327 -0.0721320674195 0.928 1.33362990161e-38
0.0103045810599 -0.0721320674195 0.928 9.27538511196e-39
0.0120220112366 -0.0721320674195 0.928 1.01019045774e-38
0.0137394414132 -0.0721320674195 0.928 1.03774110659e-38
0.0154568715899 -0.0721320674195 0.928 1.11120950351e-38
0.0171743017665 -0.0721320674195 0.928 1.14794370197e-38
0.0188917319432 -0.0721320674195 0.928 1.18467790044e-38
0.020720202864 -0.0725207100241 0.933 1.27698213093e-38
0.022446886436 -0.0725207100241 0.933 1.06529175543e-38
0.024225389022 -0.072676167066 0.935 2.34828517652e-38
0.0259557739521 -0.072676167066 0.935 2.34878614072e-38
-0.0331586168913 -0.0715528048707 0.943 2.32094304088e-38
-0.0314134265286 -0.0715528048707 0.943 2.34910899988e-38
-0.0294165438124 -0.0709457821358 0.935 6.06114274643e-39
-0.0275381045567 -0.0705663929266 0.93 1.02005559893e-38
-0.0258169730219 -0.0705663929266 0.93 7.71418167727e-39
-0.0240440224732 -0.0704146372428 0.928 8.35703015038e-39
-0.0223265922965 -0.0704146372428 0.928 8.90983678936e-39
-0.0206535784175 -0.0705663929266 0.93 9.0009548207e-39
-0.0188917319432 -0.0704146372428 0.928 9.1835496158e-39
-0.0171743017665 -0.0704146372428 0.928 8.99987862348e-39
-0.0154568715899 -0.0704146372428 0.928 8.81620763117e-39
-0.0136950251156 -0.0701870037173 0.925 1.01051359716e-38
-0.0119831469761 -0.0701870037173 0.925 9.45905610427e-39
-0.0102712688367 -0.0701870037173 0.925 8.63253663885e-39
-0.00855939069723 -0.0701870037173 0.925 9.64272709659e-39
-0.00684751255778 -0.0701870037173 0.925 9.09171411964e-39
-0.00513563441834 -0.0701870037173 0.925 8.99987862348e-39
-0.00342375627889 -0.0701870037173 0.925 9.64272709659e-39
-0.00171187813945 -0.0701870037173 0.925 1.36943559971e-38
0.0 -0.0701870037173 0.925 8.63253663885e-39
0.00171187813945 -0.0701870037173 0.925 1.25987087538e-38
0.00343486035331 -0.0704146372428 0.928 1.02062957078e-38
0.00515229052996 -0.0704146372428 0.928 1.09320113669e-38
0.00686972070662 -0.0704146372428 0.928 9.91823358506e-39
0.00858715088327 -0.0704146372428 0.928 1.06550699488e-38
0.0103045810599 -0.0704146372428 0.928 1.20354736517e-38
0.0120220112366 -0.0704146372428 0.928 1.01019045774e-38
0.0137394414132 -0.0704146372428 0.928 1.07447530505e-38
0.0154901838131 -0.0705663929266 0.93 1.09284240428e-38
0.01726683572 -0.0707940264521 0.933 1.14794370197e-38
0.018993519292 -0.0707940264521 0.933 1.18467790044e-38
0.0207646191617 -0.0709457821358 0.935 1.21248204418e-38
0.0224950040919 -0.0709457821358 0.935 1.07447530505e-38
0.024225389022 -0.0709457821358 0.935 2.348573844e-38
0.0259557739521 -0.0709457821358 0.935 2.30250783854e-38
-0.0331586168913 -0.069807614508 0.943 2.31165341297e-38
-0.0314134265286 -0.069807614508 0.943 2.33949525164e-38
-0.0294165438124 -0.0692153972057 0.935 6.79582671569e-39
-0.027626937152 -0.0690673428801 0.933 9.18749567227e-39
-0.02590025358 -0.0690673428801 0.933 9.28400730141e-39
-0.0240958414871 -0.0688452613918 0.93 7.25500419648e-39
-0.0223747099523 -0.0688452613918 0.93 8.44886564654e-39
-0.0206535784175 -0.0688452613918 0.93 8.54070114269e-39
-0.0189324468827 -0.0688452613918 0.93 8.63253663885e-39
-0.0172113153479 -0.0688452613918 0.93 9.1835496158e-39
-0.0154568715899 -0.0686972070662 0.928 1.10292348556e-38
-0.0137394414132 -0.0686972070662 0.928 9.36901707275e-39
-0.0120220112366 -0.0686972070662 0.928 1.0654352484e-38
-0.0103045810599 -0.0686972070662 0.928 9.09171411964e-39
-0.00858715088327 -0.0686972070662 0.928 8.90804592992e-39
-0.00684751255778 -0.0684751255778 0.925 9.09171411964e-39
-0.00513563441834 -0.0684751255778 0.925 9.1835496158e-39
-0.00342375627889 -0.0684751255778 0.925 9.36722060812e-39
-0.00171187813945 -0.0684751255778 0.925 1.32447619965e-38
0.0 -0.0684751255778 0.925 8.54070114269e-39
0.00171743017665 -0.0686972070662 0.928 1.21319922873e-38
0.00343486035331 -0.0686972070662 0.928 1.40760290612e-38
0.00515229052996 -0.0686972070662 0.928 1.2139145916e-38
0.00686972070662 -0.0686972070662 0.928 1.31533300743e-38
0.00858715088327 -0.0686972070662 0.928 1.1954039994e-38
0.0103045810599 -0.0686972070662 0.928 1.0752286431e-38
0.0120479207436 -0.0688452613918 0.93 1.02855755697e-38
0.0137690522784 -0.0688452613918 0.93 1.02855755697e-38
0.015540152148 -0.0690673428801 0.933 1.07447530505e-38
0.01726683572 -0.0690673428801 0.933 1.12957660274e-38
0.0190342342316 -0.0692153972057 0.935 1.20347603908e-38
0.0207646191617 -0.0692153972057 0.935 1.23131311333e-38
0.0225671805756 -0.0694374786941 0.938 1.12957660274e-38
0.0243031175429 -0.0694374786941 0.938 2.34853755037e-38
0.0260390545103 -0.0694374786941 0.938 2.3487841789e-38
-0.0315133631984 -0.0682789535964 0.946 2.23818753838e-38
-0.029510928445 -0.0677015417267 0.938 6.88766221185e-39
-0.0276861588823 -0.0674850122756 0.935 1.07540800931e-38
-0.02590025358 -0.0673406593081 0.933 7.99184056019e-39
-0.024173570008 -0.0673406593081 0.933 1.02963417458e-38
-0.022446886436 -0.0673406593081 0.933 8.63397156848e-39
-0.020720202864 -0.0673406593081 0.933 8.99987862348e-39
-0.018993519292 -0.0673406593081 0.933 8.81620763117e-39
-0.01726683572 -0.0673406593081 0.933 8.54070114269e-39
-0.0154901838131 -0.067124129857 0.93 9.36722060812e-39
-0.0137690522784 -0.067124129857 0.93 8.99987862348e-39
-0.0120220112366 -0.0669797768895 0.928 9.82711555372e-39
-0.0103045810599 -0.0669797768895 0.928 8.99987862348e-39
-0.00858715088327 -0.0669797768895 0.928 8.99987862348e-39
-0.00686972070662 -0.0669797768895 0.928 9.64272709659e-39
-0.00515229052996 -0.0669797768895 0.928 9.55089160043e-39
-0.00343486035331 -0.0669797768895 0.928 9.73456259275e-39
-0.00171743017665 -0.0669797768895 0.928 1.02855755697e-38
0.0 -0.0669797768895 0.928 9.55089160043e-39
0.00171743017665 -0.0669797768895 0.928 9.55125033284e-39
0.00343486035331 -0.0669797768895 0.928 1.00100690812e-38
0.00516339460438 -0.067124129857 0.93 1.0469246562e-38
0.00688452613918 -0.067124129857 0.93 9.64272709659e-39
0.00860565767397 -0.067124129857 0.93 9.91823358506e-39
0.0103267892088 -0.067124129857 0.93 9.91823358506e-39
0.0120479207436 -0.067124129857 0.93 9.91823358506e-39
0.013813468576 -0.0673406593081 0.933 9.73456259275e-39
0.015540152148 -0.0673406593081 0.933 1.27705247612e-38
0.0173038493014 -0.0674850122756 0.935 1.5549267386e-38
0.0190342342316 -0.0674850122756 0.935 1.13065854529e-38
0.0208312436082 -0.0677015417267 0.938 1.14841075475e-38
0.0225671805756 -0.0677015417267 0.938 1.11120950351e-38
0.0243549365569 -0.0678458946941 0.94 2.34893453823e-38
0.0260945748824 -0.0678458946941 0.94 2.29339547489e-38
-0.0315133631984 -0.0665282111965 0.946 2.23843781029e-38
-0.0295738515333 -0.0661062563686 0.94 6.3366492349e-39
-0.0276861588823 -0.0657546273454 0.935 9.00023735589e-39
-0.0259557739521 -0.0657546273454 0.935 9.00382748256e-39
-0.024173570008 -0.0656139757361 0.933 8.26519465422e-39
-0.022446886436 -0.0656139757361 0.933 9.27610257677e-39
-0.0207646191617 -0.0657546273454 0.935 8.81620763117e-39
-0.0190342342316 -0.0657546273454 0.935 8.26519465422e-39
-0.01726683572 -0.0656139757361 0.933 8.72437213501e-39
-0.0154901838131 -0.0654029983222 0.93 9.82639808891e-39
-0.0137690522784 -0.0654029983222 0.93 1.02002056647e-38
-0.0120479207436 -0.0654029983222 0.93 1.03838682492e-38
-0.0103267892088 -0.0654029983222 0.93 8.72437213501e-39
-0.00860565767397 -0.0654029983222 0.93 9.55089160043e-39
-0.00686972070662 -0.0652623467129 0.928 8.99987862348e-39
-0.00515229052996 -0.0652623467129 0.928 9.55089160043e-39
-0.00343486035331 -0.0652623467129 0.928 1.01019045774e-38
-0.00171743017665 -0.0652623467129 0.928 1.35110591515e-38
0.0 -0.0652623467129 0.928 9.82639808891e-39
0.00172113153479 -0.0654029983222 0.93 1.23207177632e-38
0.00344226306959 -0.0654029983222 0.93 1.13065279996e-38
0.00516339460438 -0.0654029983222 0.93 9.82639808891e-39
0.00688452613918 -0.0654029983222 0.93 9.91823358506e-39
0.00860565767397 -0.0654029983222 0.93 1.0469246562e-38
0.0103267892088 -0.0654029983222 0.93 1.0469246562e-38
0.012086785004 -0.0656139757361 0.933 1.42549580595e-38
0.013813468576 -0.0656139757361 0.933 1.3522437695e-38
0.015540152148 -0.0656139757361 0.933 1.3334148023e-38
0.0173593696735 -0.0659656047594 0.938 1.00100690812e-38
0.0190953066409 -0.0659656047594 0.938 1.30446131356e-38
0.0208756599059 -0.0661062563686 0.94 1.08365885466e-38
0.0226152982314 -0.0661062563686 0.94 1.19386145005e-38
0.0243549365569 -0.0661062563686 0.94 2.34914837637e-38
0.0260945748824 -0.0661062563686 0.94 2.34857048088e-38
-0.0315133631984 -0.0647774687966 0.946 2.17386583692e-38
-0.0296682361659 -0.0645720434199 0.943 6.98021517282e-39
-0.0277749914776 -0.064229667792 0.938 1.10346088352e-38
-0.0259557739521 -0.0640242424153 0.935 9.65206394826e-39
-0.024225389022 -0.0640242424153 0.935 7.71418167727e-39
-0.0224950040919 -0.0640242424153 0.935 8.81620763117e-39
-0.0207646191617 -0.0640242424153 0.935 8.72437213501e-39
-0.0190342342316 -0.0640242424153 0.935 8.81620763117e-39
-0.01726683572 -0.0638872921641 0.933 8.72437213501e-39
-0.015540152148 -0.0638872921641 0.933 8.90804312733e-39
-0.0137690522784 -0.0636818667874 0.93 8.81620763117e-39
-0.0120479207436 -0.0636818667874 0.93 9.09171411964e-39
-0.0103267892088 -0.0636818667874 0.93 8.99987862348e-39
-0.00860565767397 -0.0636818667874 0.93 9.45905610427e-39
-0.00688452613918 -0.0636818667874 0.93 9.09171411964e-39
-0.00516339460438 -0.0636818667874 0.93 9.64272709659e-39
-0.00344226306959 -0.0636818667874 0.93 9.45905610427e-39
-0.00172113153479 -0.0636818667874 0.93 9.73456259275e-39
0.0 -0.0636818667874 0.93 1.06529203569e-38
0.00172113153479 -0.0636818667874 0.93 1.19547574588e-38
0.00344226306959 -0.0636818667874 0.93 1.19543987264e-38
0.00516339460438 -0.0636818667874 0.93 1.43518354275e-38
0.00688452613918 -0.0636818667874 0.93 1.20458754902e-38
0.00860565767397 -0.0636818667874 0.93 1.32459180678e-38
0.010360101432 -0.0638872921641 0.933 1.10320977084e-38
0.012086785004 -0.0638872921641 0.933 1.03774110659e-38
0.0138430794411 -0.0640242424153 0.935 1.05610820582e-38
0.0155734643713 -0.0640242424153 0.935 1.09284240428e-38
0.0173593696735 -0.064229667792 0.938 1.21222854929e-38
0.0191360215804 -0.0643666180432 0.94 1.22155559186e-38
0.0209422843524 -0.0645720434199 0.943 1.21273091478e-38
0.0226874747151 -0.0645720434199 0.943 1.26740159346e-38
0.0245103935987 -0.0647774687966 0.946 2.34918270818e-38
0.0262611359986 -0.0647774687966 0.946 2.34857132166e-38
-0.0334399201099 -0.0633598486293 0.951 2.33019987841e-38
-0.0315799876449 -0.0631599752897 0.948 2.15546132302e-38
-0.0296682361659 -0.0628268530572 0.943 7.07240940139e-39
-0.0279230458032 -0.0628268530572 0.943 9.36829680534e-39
-0.0260390545103 -0.0624937308247 0.938 9.00525960959e-39
-0.024225389022 -0.0622938574851 0.935 8.0815236619e-39
-0.0224950040919 -0.0622938574851 0.935 8.63253663885e-39
-0.0208312436082 -0.0624937308247 0.938 8.72437213501e-39
-0.0190342342316 -0.0622938574851 0.935 8.90804312733e-39
-0.0173038493014 -0.0622938574851 0.935 9.27538511196e-39
-0.0155734643713 -0.0622938574851 0.935 1.01984035948e-38
-0.013813468576 -0.0621606085921 0.933 8.44886564654e-39
-0.012086785004 -0.0621606085921 0.933 9.1835496158e-39
-0.010360101432 -0.0621606085921 0.933 9.1835496158e-39
-0.00863341786002 -0.0621606085921 0.933 9.36722060812e-39
-0.00690673428801 -0.0621606085921 0.933 9.27538511196e-39
-0.00516339460438 -0.0619607352526 0.93 9.91823358506e-39
-0.00344226306959 -0.0619607352526 0.93 9.55089160043e-39
-0.00172113153479 -0.0619607352526 0.93 9.91823358506e-39
0.0 -0.0619607352526 0.93 9.82639808891e-39
0.00172113153479 -0.0619607352526 0.93 1.01019045774e-38
0.00344226306959 -0.0619607352526 0.93 9.36722060812e-39
0.00518005071601 -0.0621606085921 0.933 1.01019045774e-38
0.00690673428801 -0.0621606085921 0.933 9.73456259275e-39
0.00863341786002 -0.0621606085921 0.933 9.73456259275e-39
0.010360101432 -0.0621606085921 0.933 1.01019045774e-38
0.012112694511 -0.0622938574851 0.935 1.01937400735e-38
0.0138430794411 -0.0622938574851 0.935 1.07447530505e-38
0.0155734643713 -0.0622938574851 0.935 1.11120950351e-38
0.0173593696735 -0.0624937308247 0.938 1.17549435082e-38
0.0191360215804 -0.0626269797177 0.94 1.31367835421e-38
0.0209422843524 -0.0628268530572 0.943 1.14801544846e-38
0.0226874747151 -0.0628268530572 0.943 1.34101348335e-38
0.0244326650778 -0.0628268530572 0.943 2.34936263491e-38
-0.0334399201099 -0.061599852834 0.951 2.21942247039e-38
-0.0316799243146 -0.061599852834 0.951 2.15538971667e-38
-0.0297626207984 -0.0612759839968 0.946 6.52032022722e-39
-0.0279230458032 -0.0610816626945 0.943 9.36757934052e-39
-0.0260945748824 -0.0608873413922 0.94 1.0849891073e-38
-0.0243031175429 -0.0607577938573 0.938 8.54070114269e-39
-0.0225671805756 -0.0607577938573 0.938 8.54070114269e-39
-0.0208312436082 -0.0607577938573 0.938 8.44886564654e-39
-0.0190953066409 -0.0607577938573 0.938 8.44886564654e-39
-0.0173593696735 -0.0607577938573 0.938 8.99987862348e-39
-0.0155734643713 -0.060563472555 0.935 9.45905610427e-39
-0.0138430794411 -0.060563472555 0.935 9.45905610427e-39
-0.012112694511 -0.060563472555 0.935 1.06583041456e-38
-0.0103823095809 -0.060563472555 0.935 8.54070674789e-39
-0.00863341786002 -0.0604339250201 0.933 9.36722060812e-39
-0.00690673428801 -0.0604339250201 0.933 9.64272709659e-39
-0.00518005071601 -0.0604339250201 0.933 9.55089160043e-39
-0.00345336714401 -0.0604339250201 0.933 9.91823358506e-39
-0.001726683572 -0.0604339250201 0.933 1.01019045774e-38
0.0 -0.0604339250201 0.933 1.01937400735e-38
0.001726683572 -0.0604339250201 0.933 1.01937400735e-38
0.00345336714401 -0.0604339250201 0.933 9.91823358506e-39
0.00518005071601 -0.0604339250201 0.933 1.02855755697e-38
0.00690673428801 -0.0604339250201 0.933 1.01937400735e-38
0.00863341786002 -0.0604339250201 0.933 1.01019045774e-38
0.0103823095809 -0.060563472555 0.935 1.05610820582e-38
0.012112694511 -0.060563472555 0.935 1.03774110659e-38
0.0138430794411 -0.060563472555 0.935 1.03774110659e-38
0.0155734643713 -0.060563472555 0.935 1.11120950351e-38
0.0173963832549 -0.0608873413922 0.94 1.23978031917e-38
0.0191970939897 -0.0610816626945 0.943 1.52591033156e-38
0.0209422843524 -0.0610816626945 0.943 9.91930978228e-39
0.0226874747151 -0.0610816626945 0.943 1.51607713998e-38
0.0244326650778 -0.0610816626945 0.943 2.34924955012e-38
-0.0316799243146 -0.0598398570387 0.951 2.1645366924e-38
-0.0297626207984 -0.0595252415969 0.946 7.16316870032e-39
-0.0280118783985 -0.0595252415969 0.946 8.81620763117e-39
-0.0261778554405 -0.0593364723318 0.943 8.81692509598e-39
-0.0244326650778 -0.0593364723318 0.943 8.72437213501e-39
-0.0226874747151 -0.0593364723318 0.943 8.81620763117e-39
-0.0208756599059 -0.0591477030667 0.94 8.54070114269e-39
-0.0190953066409 -0.0590218568899 0.938 8.54070114269e-39
-0.0173593696735 -0.0590218568899 0.938 8.99987862348e-39
-0.0156234327062 -0.0590218568899 0.938 9.91895104988e-39
-0.0138430794411 -0.0588330876248 0.935 1.00111452784e-38
-0.012112694511 -0.0588330876248 0.935 9.82819175094e-39
-0.0103823095809 -0.0588330876248 0.935 9.27538511196e-39
-0.00865192465071 -0.0588330876248 0.935 9.1835496158e-39
-0.00692153972057 -0.0588330876248 0.935 9.73456259275e-39
-0.00519115479043 -0.0588330876248 0.935 1.01019045774e-38
-0.00346076986028 -0.0588330876248 0.935 9.91823358506e-39
-0.00173038493014 -0.0588330876248 0.935 1.01019045774e-38
0.0 -0.0588330876248 0.935 9.55089160043e-39
0.001726683572 -0.0587072414481 0.933 9.73456259275e-39
0.00345336714401 -0.0587072414481 0.933 1.01019045774e-38
0.00518005071601 -0.0587072414481 0.933 1.02855755697e-38
0.00690673428801 -0.0587072414481 0.933 1.02855755697e-38
0.00863341786002 -0.0587072414481 0.933 1.05610820582e-38
0.0103823095809 -0.0588330876248 0.935 1.03774110659e-38
0.012112694511 -0.0588330876248 0.935 1.0469246562e-38
0.0138430794411 -0.0588330876248 0.935 1.08365885466e-38
0.0156234327062 -0.0590218568899 0.938 1.38872615463e-38
0.017451903627 -0.0593364723318 0.943 1.37968637824e-38
0.0191970939897 -0.0593364723318 0.943 1.54531635348e-38
0.0210089087989 -0.0595252415969 0.946 1.07494165718e-38
0.0227596511988 -0.0595252415969 0.946 1.52526040934e-38
0.0245103935987 -0.0595252415969 0.946 2.34928766544e-38
-0.0316799243146 -0.0580798612435 0.951 2.10921903422e-38
-0.0297626207984 -0.057774499197 0.946 7.25500419648e-39
-0.0280118783985 -0.057774499197 0.946 9.92612569801e-39
-0.0262611359986 -0.057774499197 0.946 8.44886564654e-39
-0.0244326650778 -0.0575912819691 0.943 8.63253663885e-39
-0.0226874747151 -0.0575912819691 0.943 8.72437213501e-39
-0.0208756599059 -0.0574080647412 0.94 8.81620763117e-39
-0.0191360215804 -0.0574080647412 0.94 8.99987862348e-39
-0.0173963832549 -0.0574080647412 0.94 9.1835496158e-39
-0.0156234327062 -0.0572859199226 0.938 1.08473505188e-38
-0.0138874957388 -0.0572859199226 0.938 8.90947805695e-39
-0.0121515587715 -0.0572859199226 0.938 1.01937400735e-38
-0.0104156218041 -0.0572859199226 0.938 1.01019045774e-38
-0.00867968483676 -0.0572859199226 0.938 8.99987862348e-39
-0.00694374786941 -0.0572859199226 0.938 1.00100690812e-38
-0.00520781090205 -0.0572859199226 0.938 9.64272709659e-39
-0.00346076986028 -0.0571027026947 0.935 9.91823358506e-39
-0.00173038493014 -0.0571027026947 0.935 1.03774110659e-38
0.0 -0.0571027026947 0.935 9.82639808891e-39
0.00173038493014 -0.0571027026947 0.935 1.05610820582e-38
0.00346076986028 -0.0571027026947 0.935 1.0469246562e-38
0.00519115479043 -0.0571027026947 0.935 1.08365969544e-38
0.00692153972057 -0.0571027026947 0.935 9.91823358506e-39
0.00865192465071 -0.0571027026947 0.935 1.04692549698e-38
0.0104156218041 -0.0572859199226 0.938 1.3785049435e-38
0.0121515587715 -0.0572859199226 0.938 1.02855755697e-38
0.0138874957388 -0.0572859199226 0.938 1.55382265554e-38
0.0156567449294 -0.0574080647412 0.94 1.23253308377e-38
0.0175074239991 -0.057774499197 0.946 1.04713989565e-38
0.019258166399 -0.057774499197 0.946 1.2403537305e-38
0.0210089087989 -0.057774499197 0.946 1.08365885466e-38
0.0227596511988 -0.057774499197 0.946 1.65437086503e-38
0.0245103935987 -0.057774499197 0.946 2.34943073801e-38
-0.0316799243146 -0.0563198654482 0.951 2.11843887746e-38
-0.0298255438868 -0.0561422002575 0.948 6.97949770801e-39
-0.0280118783985 -0.0560237567971 0.946 1.07540927047e-38
-0.0262611359986 -0.0560237567971 0.946 7.89785266959e-39
-0.0244326650778 -0.0558460916064 0.943 8.72437213501e-39
-0.0226874747151 -0.0558460916064 0.943 8.63253663885e-39
-0.0209422843524 -0.0558460916064 0.943 8.72437213501e-39
-0.0191360215804 -0.0556684264157 0.94 8.99987862348e-39
-0.0173963832549 -0.0556684264157 0.94 9.36722060812e-39
-0.0156234327062 -0.0555499829552 0.938 9.45905610427e-39
-0.0138874957388 -0.0555499829552 0.938 8.99987862348e-39
-0.0121515587715 -0.0555499829552 0.938 1.3050357058e-38
-0.0104156218041 -0.0555499829552 0.938 9.09171411964e-39
-0.00867968483676 -0.0555499829552 0.938 8.35703015038e-39
-0.00694374786941 -0.0555499829552 0.938 9.1835496158e-39
-0.00520781090205 -0.0555499829552 0.938 9.91823358506e-39
-0.0034718739347 -0.0555499829552 0.938 1.01937400735e-38
-0.00173038493014 -0.0553723177646 0.935 1.24121412776e-38
0.0 -0.0553723177646 0.935 8.63253663885e-39
0.00173038493014 -0.0553723177646 0.935 1.47127272353e-38
0.00346076986028 -0.0553723177646 0.935 1.07497753042e-38
0.00520781090205 -0.0555499829552 0.938 1.26909296071e-38
0.00694374786941 -0.0555499829552 0.938 8.54428846676e-39
0.00867968483676 -0.0555499829552 0.938 1.31493419789e-38
0.0104156218041 -0.0555499829552 0.938 1.16735112519e-38
0.0121515587715 -0.0555499829552 0.938 9.55089160043e-39
0.0138874957388 -0.0555499829552 0.938 8.63253663885e-39
0.0157566815992 -0.0560237567971 0.946 1.01937400735e-38
0.0175074239991 -0.0560237567971 0.946 2.043928475e-38
0.0192988813385 -0.0561422002575 0.948 1.32563100972e-38
0.0210533250966 -0.0561422002575 0.948 1.08365885466e-38
0.0228077688546 -0.0561422002575 0.948 1.66351854141e-38
-0.0316799243146 -0.054559869653 0.951 2.11825937113e-38
-0.0299199285194 -0.054559869653 0.951 7.07133320417e-39
-0.0280118783985 -0.0542730143972 0.946 9.46013230149e-39
-0.0262611359986 -0.0542730143972 0.946 9.83572513148e-39
-0.0245103935987 -0.0542730143972 0.946 8.63253663885e-39
-0.0227596511988 -0.0542730143972 0.946 8.72437213501e-39
-0.0210089087989 -0.0542730143972 0.946 8.90804312733e-39
-0.0191970939897 -0.0541009012437 0.943 9.1835496158e-39
-0.0173963832549 -0.0539287880902 0.94 8.81620763117e-39
-0.0156567449294 -0.0539287880902 0.94 9.45905610427e-39
-0.0138874957388 -0.0538140459879 0.938 1.08412688835e-38
-0.0121515587715 -0.0538140459879 0.938 1.00100788903e-38
-0.0104156218041 -0.0538140459879 0.938 9.45905610427e-39
-0.00867968483676 -0.0538140459879 0.938 8.90911932455e-39
-0.00694374786941 -0.0538140459879 0.938 9.1835496158e-39
-0.00520781090205 -0.0538140459879 0.938 9.73456259275e-39
-0.0034718739347 -0.0538140459879 0.938 1.0469246562e-38
-0.00173593696735 -0.0538140459879 0.938 1.05614407906e-38
0.0 -0.0538140459879 0.938 9.1835496158e-39
0.00173593696735 -0.0538140459879 0.938 9.82639808891e-39
0.0034718739347 -0.0538140459879 0.938 1.16638268782e-38
0.00520781090205 -0.0538140459879 0.938 9.09171411964e-39
0.00694374786941 -0.0538140459879 0.938 8.17335915806e-39
0.00867968483676 -0.0538140459879 0.938 8.72437213501e-39
0.0104378299529 -0.0539287880902 0.94 1.03774110659e-38
0.0122163325389 -0.0541009012437 0.943 1.64673504957e-38
0.0139615229016 -0.0541009012437 0.943 1.78667950422e-38
0.0157566815992 -0.0542730143972 0.946 1.80512045188e-38
0.0175074239991 -0.0542730143972 0.946 1.96167519787e-38
0.0192988813385 -0.0543877564995 0.948 1.11347147949e-38
0.0210533250966 -0.0543877564995 0.948 1.12957660274e-38
0.0228077688546 -0.0543877564995 0.948 1.78319265325e-38
-0.0316799243146 -0.0527998738577 0.951 2.016879491e-38
-0.0299199285194 -0.0527998738577 0.951 8.44958311135e-39
-0.0280118783985 -0.0525222719973 0.946 1.03849444464e-38
-0.0262611359986 -0.0525222719973 0.946 8.54213607232e-39
-0.0245103935987 -0.0525222719973 0.946 9.09243158445e-39
-0.0227596511988 -0.0525222719973 0.946 9.73746047797e-39
-0.0210089087989 -0.0525222719973 0.946 8.44886564654e-39
-0.0191970939897 -0.052355710881 0.943 9.1835496158e-39
-0.017451903627 -0.052355710881 0.943 8.63253663885e-39
-0.0157067132643 -0.052355710881 0.943 1.08409059472e-38
-0.0139171066039 -0.0521891497647 0.94 9.27538511196e-39
-0.0121515587715 -0.0520781090205 0.938 1.0469246562e-38
-0.0104156218041 -0.0520781090205 0.938 1.01019045774e-38
-0.00867968483676 -0.0520781090205 0.938 8.90805153512e-39
-0.00694374786941 -0.0520781090205 0.938 9.64272709659e-39
-0.00520781090205 -0.0520781090205 0.938 9.1835496158e-39
-0.0034718739347 -0.0520781090205 0.938 9.45905610427e-39
-0.00173593696735 -0.0520781090205 0.938 1.19454332189e-38
0.0 -0.0520781090205 0.938 1.22238109679e-38
0.00173593696735 -0.0520781090205 0.938 1.36114593839e-38
0.0034718739347 -0.0520781090205 0.938 1.40810092759e-38
0.00520781090205 -0.0520781090205 0.938 1.57440983193e-38
0.00694374786941 -0.0520781090205 0.938 1.74061854344e-38
0.00869819162745 -0.0521891497647 0.94 1.7684204451e-38
0.0104378299529 -0.0521891497647 0.94 1.76842366808e-38
0.0122163325389 -0.052355710881 0.943 1.68551850691e-38
0.0139615229016 -0.052355710881 0.943 1.35383074001e-38
0.0157566815992 -0.0525222719973 0.946 1.4089352607e-38
0.0175074239991 -0.0525222719973 0.946 1.76831478719e-38
0.0192988813385 -0.0526333127414 0.948 9.93511502766e-39
0.0210533250966 -0.0526333127414 0.948 1.1020259539e-38
0.0228077688546 -0.0526333127414 0.948 1.86620459337e-38
-0.0299199285194 -0.0510398780625 0.951 8.26519465422e-39
-0.0280711001288 -0.0508788689834 0.948 1.04785736046e-38
-0.0262611359986 -0.0507715295974 0.946 8.35703995947e-39
-0.0245103935987 -0.0507715295974 0.946 9.09171552094e-39
-0.0227596511988 -0.0507715295974 0.946 8.54070114269e-39
-0.0210089087989 -0.0507715295974 0.946 8.99987862348e-39
-0.019258166399 -0.0507715295974 0.946 9.9200272471e-39
-0.0175074239991 -0.0507715295974 0.946 9.64489350401e-39
-0.0157067132643 -0.0506105205183 0.943 9.64559695584e-39
-0.0139171066039 -0.0504495114392 0.94 9.64595568825e-39
-0.0121515587715 -0.0503421720532 0.938 1.33287362083e-38
-0.0104156218041 -0.0503421720532 0.938 9.64272709659e-39
-0.00867968483676 -0.0503421720532 0.938 9.27538511196e-39
-0.00694374786941 -0.0503421720532 0.938 1.01019045774e-38
-0.00520781090205 -0.0503421720532 0.938 9.27538511196e-39
-0.0034718739347 -0.0503421720532 0.938 9.92111045081e-39
-0.00173593696735 -0.0503421720532 0.938 1.92497673252e-38
0.0 -0.0503421720532 0.938 1.5748866938e-38
0.00173593696735 -0.0503421720532 0.938 1.63038231688e-38
0.0034718739347 -0.0503421720532 0.938 1.56595257531e-38
0.00520781090205 -0.0503421720532 0.938 1.47379169765e-38
0.00695855330196 -0.0504495114392 0.94 1.41844223e-38
0.00869819162745 -0.0504495114392 0.94 1.39982261678e-38
0.0104711421762 -0.0506105205183 0.943 1.26167364586e-38
0.0122163325389 -0.0506105205183 0.943 1.28061850045e-38
0.0140059391993 -0.0507715295974 0.946 9.58008345004e-39
0.0157566815992 -0.0507715295974 0.946 1.38188557605e-38
0.0175444375805 -0.0508788689834 0.948 1.86069118456e-38
0.0192988813385 -0.0508788689834 0.948 8.46178421708e-39
0.0211199495431 -0.0510398780625 0.951 1.08365885466e-38
0.0228799453383 -0.0510398780625 0.951 1.86631165257e-38
-0.0300143131519 -0.0494353393091 0.954 8.72437213501e-39
-0.0281599327241 -0.0492798822672 0.951 1.02009147217e-38
-0.0263166563707 -0.0491244252253 0.948 1.02063097208e-38
-0.0245103935987 -0.0490207871974 0.946 8.17335915806e-39
-0.0227596511988 -0.0490207871974 0.946 8.99987862348e-39
-0.0210089087989 -0.0490207871974 0.946 8.81620763117e-39
-0.019258166399 -0.0490207871974 0.946 8.99987862348e-39
-0.0175074239991 -0.0490207871974 0.946 8.81620763117e-39
-0.0157067132643 -0.0488653301556 0.943 9.45905610427e-39
-0.0139171066039 -0.0487098731137 0.94 9.643085829e-39
-0.0121774682784 -0.0487098731137 0.94 9.73599752237e-39
-0.0104156218041 -0.0486062350858 0.938 1.19493960909e-38
-0.00867968483676 -0.0486062350858 0.938 8.63289537126e-39
-0.00695855330196 -0.0487098731137 0.94 9.91823358506e-39
-0.00521891497647 -0.0487098731137 0.94 9.27538511196e-39
-0.00347927665098 -0.0487098731137 0.94 1.00133088833e-38
-0.00173593696735 -0.0486062350858 0.938 1.78668132591e-38
0.0 -0.0486062350858 0.938 1.17883798909e-38
0.00173963832549 -0.0487098731137 0.94 1.13328373783e-38
0.00347927665098 -0.0487098731137 0.94 1.11480929914e-38
0.00521891497647 -0.0487098731137 0.94 1.0780029338e-38
0.00695855330196 -0.0487098731137 0.94 9.94921489281e-39
0.00869819162745 -0.0487098731137 0.94 1.14196576273e-38
0.0104711421762 -0.0488653301556 0.943 1.09586850831e-38
0.0122551967994 -0.0490207871974 0.946 1.29880805516e-38
0.0140059391993 -0.0490207871974 0.946 1.30823809318e-38
0.0157899938224 -0.0491244252253 0.948 1.55662735442e-38
0.0175444375805 -0.0491244252253 0.948 1.79594040551e-38
0.0193599537478 -0.0492798822672 0.951 7.53876153031e-39
0.0211199495431 -0.0492798822672 0.951 1.19386145005e-38
0.0228799453383 -0.0492798822672 0.951 1.95911642688e-38
-0.0317798609844 -0.0476697914766 0.954 1.80500918878e-38
-0.0300143131519 -0.0476697914766 0.954 9.27538511196e-39
-0.0281599327241 -0.0475198864719 0.951 1.01101554227e-38
-0.0263166563707 -0.0473699814673 0.948 9.4666034978e-39
-0.0245103935987 -0.0472700447975 0.946 8.82158861727e-39
-0.0227596511988 -0.0472700447975 0.946 8.81620763117e-39
-0.0210533250966 -0.0473699814673 0.948 9.1835496158e-39
-0.019258166399 -0.0472700447975 0.946 8.81620763117e-39
-0.0175074239991 -0.0472700447975 0.946 8.81620763117e-39
-0.0157566815992 -0.0472700447975 0.946 9.09171411964e-39
-0.0139615229016 -0.0471201397929 0.943 9.64272709659e-39
-0.0121774682784 -0.0469702347883 0.94 9.55089160043e-39
-0.0104378299529 -0.0469702347883 0.94 9.55089160043e-39
-0.00869819162745 -0.0469702347883 0.94 9.64272709659e-39
-0.00695855330196 -0.0469702347883 0.94 1.00100690812e-38
-0.00521891497647 -0.0469702347883 0.94 9.09171411964e-39
-0.00347927665098 -0.0469702347883 0.94 1.21330867014e-38
-0.00173963832549 -0.0469702347883 0.94 1.83274382812e-38
0.0 -0.0469702347883 0.94 1.04036713991e-38
0.00173963832549 -0.0469702347883 0.94 1.03158338074e-38
0.0034903807254 -0.0471201397929 0.943 1.25274499243e-38
0.0052355710881 -0.0471201397929 0.943 1.25281379619e-38
0.0069807614508 -0.0471201397929 0.943 1.38181312892e-38
0.0087259518135 -0.0471201397929 0.943 1.44638538254e-38
0.0105044543995 -0.0472700447975 0.946 1.38177809646e-38
0.0122551967994 -0.0472700447975 0.946 1.44602805144e-38
0.0140059391993 -0.0472700447975 0.946 1.49169384605e-38
0.0157899938224 -0.0473699814673 0.948 1.60250866874e-38
0.0175444375805 -0.0473699814673 0.948 1.76831450693e-38
0.0193599537478 -0.0475198864719 0.951 7.16962588365e-39
0.0211199495431 -0.0475198864719 0.951 1.11120950351e-38
0.0228799453383 -0.0475198864719 0.951 2.06978649543e-38
-0.0317798609844 -0.0459042436441 0.954 1.86036314059e-38
-0.0300143131519 -0.0459042436441 0.954 7.62234618111e-39
-0.0281599327241 -0.0457598906767 0.951 1.10295907854e-38
-0.0263166563707 -0.0456155377093 0.948 8.91306538102e-39
-0.0245103935987 -0.0455193023976 0.946 1.04789477513e-38
-0.0227596511988 -0.0455193023976 0.946 9.18964806672e-39
-0.0210533250966 -0.0456155377093 0.948 8.81620763117e-39
-0.019258166399 -0.0455193023976 0.946 9.09171411964e-39
-0.0175074239991 -0.0455193023976 0.946 9.09171411964e-39
-0.0157566815992 -0.0455193023976 0.946 9.1835496158e-39
-0.0140059391993 -0.0455193023976 0.946 9.1835496158e-39
-0.0122163325389 -0.0453749494302 0.943 9.91823358506e-39
-0.0104711421762 -0.0453749494302 0.943 9.64272709659e-39
-0.0087259518135 -0.0453749494302 0.943 9.91823358506e-39
-0.0069807614508 -0.0453749494302 0.943 1.01019045774e-38
-0.0052355710881 -0.0453749494302 0.943 9.09171411964e-39
-0.00347927665098 -0.0452305964628 0.94 1.2318556961e-38
-0.00173963832549 -0.0452305964628 0.94 1.70366994631e-38
0.0 -0.0453749494302 0.943 1.40893133706e-38
0.0017451903627 -0.0453749494302 0.943 1.35376193626e-38
0.0034903807254 -0.0453749494302 0.943 1.36272982604e-38
0.0052355710881 -0.0453749494302 0.943 1.41779539063e-38
0.00700296959964 -0.0455193023976 0.946 1.39971177407e-38
0.00875371199954 -0.0455193023976 0.946 1.4091493791e-38
0.0105044543995 -0.0455193023976 0.946 1.47390169958e-38
0.0122551967994 -0.0455193023976 0.946 1.4551733456e-38
0.0140355500644 -0.0456155377093 0.948 1.52875034316e-38
0.0157899938224 -0.0456155377093 0.948 1.56570118237e-38
0.0175999579526 -0.0457598906767 0.951 1.81441232187e-38
0.0193599537478 -0.0457598906767 0.951 6.70865474082e-39
0.0211199495431 -0.0457598906767 0.951 1.21222854929e-38
0.0228799453383 -0.0457598906767 0.951 2.07936605199e-38
-0.0318464854309 -0.0442312297651 0.956 1.75898508215e-38
-0.0300143131519 -0.0441386958117 0.954 8.72544833223e-39
-0.0282487653195 -0.0441386958117 0.954 9.92397330357e-39
-0.0263999369289 -0.0439998948814 0.951 9.37118348017e-39
-0.0245622126127 -0.0438610939512 0.948 1.02941865488e-38
-0.0228077688546 -0.0438610939512 0.948 8.35774761519e-39
-0.0210533250966 -0.0438610939512 0.948 9.27538511196e-39
-0.0192988813385 -0.0438610939512 0.948 8.99987862348e-39
-0.0175074239991 -0.0437685599977 0.946 9.1835496158e-39
-0.0157566815992 -0.0437685599977 0.946 1.1027438391e-38
-0.0140059391993 -0.0437685599977 0.946 1.13054518024e-38
-0.0122163325389 -0.0436297590675 0.943 1.13083454837e-38
-0.0104711421762 -0.0436297590675 0.943 1.06651144562e-38
-0.0087259518135 -0.0436297590675 0.943 8.72437213501e-39
-0.0069807614508 -0.0436297590675 0.943 1.00100690812e-38
-0.0052355710881 -0.0436297590675 0.943 9.27538511196e-39
-0.0034903807254 -0.0436297590675 0.943 1.323763219e-38
-0.0017451903627 -0.0436297590675 0.943 1.78664601318e-38
0.0 -0.0437685599977 0.946 1.4547770584e-38
0.00175074239991 -0.0437685599977 0.946 1.46421466343e-38
0.00350148479982 -0.0437685599977 0.946 1.4826537894e-38
0.00525222719973 -0.0437685599977 0.946 1.41811558733e-38
0.00700296959964 -0.0437685599977 0.946 1.59353713558e-38
0.00875371199954 -0.0437685599977 0.946 1.38152824494e-38
0.0105044543995 -0.0437685599977 0.946 1.54737093728e-38
0.0122811063063 -0.0438610939512 0.948 1.4550676877e-38
0.0140355500644 -0.0438610939512 0.948 1.49190880524e-38
0.0157899938224 -0.0438610939512 0.948 1.51974714066e-38
0.0175999579526 -0.0439998948814 0.951 1.96174736474e-38
0.0193599537478 -0.0439998948814 0.951 6.52283135407e-39
0.0211199495431 -0.0439998948814 0.951 1.11120950351e-38
0.0229521218221 -0.0441386958117 0.954 2.20848071159e-38
-0.0318464854309 -0.0424619805745 0.956 1.73128813774e-38
-0.0300772362403 -0.0424619805745 0.956 9.37080793218e-39
-0.0282487653195 -0.0423731479792 0.954 1.10346102365e-38
-0.026483217487 -0.0423731479792 0.954 8.26519465422e-39
-0.0246399411336 -0.0422398990862 0.951 8.90804312733e-39
-0.0228799453383 -0.0422398990862 0.951 1.00136564053e-38
-0.0210533250966 -0.0421066501932 0.948 8.90804312733e-39
-0.0192988813385 -0.0421066501932 0.948 8.99987862348e-39
-0.0175444375805 -0.0421066501932 0.948 1.04739128859e-38
-0.0157566815992 -0.0420178175978 0.946 1.14044619467e-38
-0.0140059391993 -0.0420178175978 0.946 9.64990174473e-39
-0.0122551967994 -0.0420178175978 0.946 9.09171411964e-39
-0.0105044543995 -0.0420178175978 0.946 1.08423478833e-38
-0.00875371199954 -0.0420178175978 0.946 1.21438094373e-38
-0.00700296959964 -0.0420178175978 0.946 9.46013230149e-39
-0.00525222719973 -0.0420178175978 0.946 8.90804312733e-39
-0.00350148479982 -0.0420178175978 0.946 1.46198477718e-38
-0.00175074239991 -0.0420178175978 0.946 1.7498403485e-38
0.0 -0.0420178175978 0.946 1.45474174568e-38
0.00175074239991 -0.0420178175978 0.946 1.50098403448e-38
0.00350148479982 -0.0420178175978 0.946 1.45499327875e-38
0.00525222719973 -0.0420178175978 0.946 1.51953078017e-38
0.00700296959964 -0.0420178175978 0.946 1.43684366104e-38
0.00875371199954 -0.0420178175978 0.946 1.49234096568e-38
0.0105266625483 -0.0421066501932 0.948 1.40028770774e-38
0.0122811063063 -0.0421066501932 0.948 1.39099765944e-38
0.0140355500644 -0.0421066501932 0.948 1.05920353399e-38
0.0158399621573 -0.0422398990862 0.951 1.56563504108e-38
0.0175999579526 -0.0422398990862 0.951 1.98022152318e-38
0.0193599537478 -0.0422398990862 0.951 7.07240940139e-39
0.0211865739896 -0.0423731479792 0.954 1.13876015236e-38
0.0229521218221 -0.0423731479792 0.954 2.28227196768e-38
-0.0318464854309 -0.0406927313839 0.956 1.67572006753e-38
-0.0300772362403 -0.0406927313839 0.956 8.35703015038e-39
-0.0283079870497 -0.0406927313839 0.956 1.12168533057e-38
-0.026483217487 -0.0406076001467 0.954 8.82266481449e-39
-0.0246399411336 -0.0404799032909 0.951 1.00165304684e-38
-0.0228799453383 -0.0404799032909 0.951 8.81620763117e-39
-0.0211199495431 -0.0404799032909 0.951 8.90804312733e-39
-0.0193599537478 -0.0404799032909 0.951 8.99987862348e-39
-0.0175444375805 -0.0403522064351 0.948 9.55089160043e-39
-0.0157899938224 -0.0403522064351 0.948 1.03878143057e-38
-0.0140059391993 -0.0402670751979 0.946 1.21366375917e-38
-0.0122551967994 -0.0402670751979 0.946 1.00165262645e-38
-0.0105044543995 -0.0402670751979 0.946 1.31415101218e-38
-0.00875371199954 -0.0402670751979 0.946 9.1835496158e-39
-0.00700296959964 -0.0402670751979 0.946 1.14808831598e-38
-0.00525222719973 -0.0402670751979 0.946 9.45905610427e-39
-0.00350148479982 -0.0402670751979 0.946 1.5357414212e-38
-0.00175074239991 -0.0402670751979 0.946 1.73140094227e-38
0.0 -0.0402670751979 0.946 1.27993172407e-38
0.00175074239991 -0.0402670751979 0.946 1.25270617647e-38
0.00350148479982 -0.0402670751979 0.946 1.22490455506e-38
0.00525222719973 -0.0402670751979 0.946 1.31692067859e-38
0.00700296959964 -0.0402670751979 0.946 1.17873667521e-38
0.00875371199954 -0.0402670751979 0.946 1.08672083194e-38
0.0105266625483 -0.0403522064351 0.948 1.10551883045e-38
0.0122811063063 -0.0403522064351 0.948 1.087152572e-38
0.0140355500644 -0.0403522064351 0.948 1.16065726255e-38
0.0158399621573 -0.0404799032909 0.951 1.44588792159e-38
0.0176554783247 -0.0406076001467 0.954 1.8881685455e-38
0.0194210261571 -0.0406076001467 0.954 7.34970955189e-39
0.0211865739896 -0.0406076001467 0.954 1.11120950351e-38
0.0229521218221 -0.0406076001467 0.954 2.33794835827e-38
-0.0338970378401 -0.0392492017096 0.964 2.34871033047e-38
-0.0319464221007 -0.0390456270119 0.959 1.62980147867e-38
-0.0300772362403 -0.0389234821933 0.956 1.0105133169e-38
-0.0283079870497 -0.0389234821933 0.956 1.03874555732e-38
-0.0265387378591 -0.0389234821933 0.956 1.03910428973e-38
-0.0247176696545 -0.0388420523143 0.954 8.0815236619e-39
-0.0229521218221 -0.0388420523143 0.954 8.72437213501e-39
-0.0211199495431 -0.0387199074957 0.951 8.99987862348e-39
-0.0193599537478 -0.0387199074957 0.951 8.99987862348e-39
-0.0175444375805 -0.0385977626771 0.948 1.11142474296e-38
-0.0157899938224 -0.0385977626771 0.948 1.03784984735e-38
-0.0140355500644 -0.0385977626771 0.948 1.26901855176e-38
-0.0122551967994 -0.038516332798 0.946 1.07569919913e-38
-0.0105044543995 -0.038516332798 0.946 1.39805740111e-38
-0.00875371199954 -0.038516332798 0.946 1.0289206334e-38
-0.00700296959964 -0.038516332798 0.946 1.06543594904e-38
-0.00525222719973 -0.038516332798 0.946 9.09171411964e-39
-0.00350148479982 -0.038516332798 0.946 1.58201930298e-38
-0.00175074239991 -0.038516332798 0.946 1.75902431851e-38
0.0 -0.038516332798 0.946 1.06816876131e-38
0.00175074239991 -0.038516332798 0.946 9.95423714651e-39
0.0035088875161 -0.0385977626771 0.948 1.07814810832e-38
0.00526333127414 -0.0385977626771 0.948 1.13328527926e-38
0.00701777503219 -0.0385977626771 0.948 1.18849363616e-38
0.00877221879024 -0.0385977626771 0.948 1.17948889222e-38
0.0105266625483 -0.0385977626771 0.948 1.13346548624e-38
0.0122811063063 -0.0385977626771 0.948 1.16079921409e-38
0.0140799663621 -0.0387199074957 0.951 1.15122217986e-38
0.0158399621573 -0.0387199074957 0.951 1.50138480584e-38
0.0176554783247 -0.0388420523143 0.954 1.91579150134e-38
0.0194210261571 -0.0388420523143 0.954 7.16352743273e-39
0.0211865739896 -0.0388420523143 0.954 1.23977919813e-38
0.0230002394779 -0.0389234821933 0.956 2.34727427981e-38
-0.0356810924633 -0.0374651470864 0.964 2.23782600338e-38
-0.0338970378401 -0.0374651470864 0.964 2.34867655918e-38
-0.0319464221007 -0.0372708257841 0.959 1.55618818748e-38
-0.0300772362403 -0.0371542330027 0.956 9.27538511196e-39
-0.0283079870497 -0.0371542330027 0.956 1.03849444464e-38
-0.0265387378591 -0.0371542330027 0.956 9.55807045246e-39
-0.0247176696545 -0.0370765044818 0.954 8.72508959982e-39
-0.0229521218221 -0.0370765044818 0.954 8.54070114269e-39
-0.0211865739896 -0.0370765044818 0.954 8.99987862348e-39
-0.0194210261571 -0.0370765044818 0.954 9.1835496158e-39
-0.0175999579526 -0.0369599117004 0.951 9.55125033284e-39
-0.0157899938224 -0.036843318919 0.948 1.12139848478e-38
-0.0140355500644 -0.036843318919 0.948 8.91127171899e-39
-0.0122811063063 -0.036843318919 0.948 9.36722060812e-39
-0.0105044543995 -0.0367655903981 0.946 9.91823358506e-39
-0.00875371199954 -0.0367655903981 0.946 1.19440080983e-38
-0.00700296959964 -0.0367655903981 0.946 1.03774110659e-38
-0.00525222719973 -0.0367655903981 0.946 8.90804312733e-39
-0.00350148479982 -0.0367655903981 0.946 1.61886154156e-38
-0.00175074239991 -0.0367655903981 0.946 1.80508541942e-38
0.0 -0.0367655903981 0.946 1.03132722338e-38
0.00175444375805 -0.036843318919 0.948 9.772020702e-39
0.0035088875161 -0.036843318919 0.948 9.770922084e-39
0.00526333127414 -0.036843318919 0.948 1.15168755108e-38
0.00701777503219 -0.036843318919 0.948 1.16047551414e-38
0.00877221879024 -0.036843318919 0.948 1.17930924576e-38
0.0105599747715 -0.0369599117004 0.951 1.24417016687e-38
0.0123199705668 -0.0369599117004 0.951 1.1148481151e-38
0.0140799663621 -0.0369599117004 0.951 1.15129154414e-38
0.0158899304922 -0.0370765044818 0.954 1.54708549279e-38
0.0176554783247 -0.0370765044818 0.954 1.96160485269e-38
0.0194617410967 -0.0371542330027 0.956 6.97949770801e-39
0.0212309902873 -0.0371542330027 0.956 1.14794370197e-38
-0.0356810924633 -0.0356810924633 0.964 2.28388752468e-38
-0.0338970378401 -0.0356810924633 0.964 2.33934881595e-38
-0.0321129832169 -0.0356810924633 0.964 1.54693359203e-38
-0.0301716208728 -0.0354960245563 0.959 8.17335915806e-39
-0.028396819645 -0.0354960245563 0.959 1.02916740206e-38
-0.0265387378591 -0.0353849838121 0.956 9.64990174473e-39
-0.0247176696545 -0.0353109566493 0.954 1.02055908546e-38
-0.0229521218221 -0.0353109566493 0.954 1.01083617607e-38
-0.0211865739896 -0.0353109566493 0.954 9.27538511196e-39
-0.0194210261571 -0.0353109566493 0.954 8.54070114269e-39
-0.0175999579526 -0.0351999159051 0.951 9.1835496158e-39
-0.0157899938224 -0.035088875161 0.948 1.08451981244e-38
-0.0140355500644 -0.035088875161 0.948 1.02945438799e-38
-0.0122811063063 -0.035088875161 0.948 1.05682595089e-38
-0.0105266625483 -0.035088875161 0.948 1.15838379592e-38
-0.00877221879024 -0.035088875161 0.948 1.03849626633e-38
-0.00701777503219 -0.035088875161 0.948 1.06557874136e-38
-0.00526333127414 -0.035088875161 0.948 8.99987862348e-39
-0.0035088875161 -0.035088875161 0.948 1.70162152821e-38
-0.00175444375805 -0.035088875161 0.948 1.76820660695e-38
0.0 -0.035088875161 0.948 1.04998341049e-38
0.00175444375805 -0.035088875161 0.948 9.13063238189e-39
0.0035088875161 -0.035088875161 0.948 9.49794774185e-39
0.00526333127414 -0.035088875161 0.948 1.13321339265e-38
0.00701777503219 -0.035088875161 0.948 1.28926030808e-38
0.00879997897629 -0.0351999159051 0.951 1.24341304531e-38
0.0105599747715 -0.0351999159051 0.951 1.12409920731e-38
0.0123199705668 -0.0351999159051 0.951 1.23484340455e-38
0.0141243826597 -0.0353109566493 0.954 1.23441152437e-38
0.0158899304922 -0.0353109566493 0.954 1.60240146941e-38
0.0176924919061 -0.0353849838121 0.956 1.9710001385e-38
0.0194617410967 -0.0353849838121 0.956 6.97949770801e-39
0.0212976147338 -0.0354960245563 0.959 1.17549435082e-38
0.0233370630686 -0.0359031739516 0.97 2.34796091605e-38
-0.0357921332074 -0.0340025265471 0.967 2.17328808157e-38
-0.0338970378401 -0.0338970378401 0.964 2.34853180505e-38
-0.0321129832169 -0.0338970378401 0.964 1.69441282852e-38
-0.0302660055054 -0.0338267120354 0.962 7.8985701344e-39
-0.028396819645 -0.0337212233285 0.959 8.72508959982e-39
-0.0266220184172 -0.0337212233285 0.959 9.18427128451e-39
-0.0247694886685 -0.0336157346215 0.956 1.05711335721e-38
-0.0230002394779 -0.0336157346215 0.956 9.19108299634e-39
-0.0212309902873 -0.0336157346215 0.956 9.73922611404e-39
-0.0194617410967 -0.0336157346215 0.956 1.08444806596e-38
