# .PCD v0.7 - Point Cloud Data file format
VERSION 0.7
FIELDS x y z rgb
SIZE 4 4 4 4
TYPE F F F F
COUNT 1 1 1 1
WIDTH 840
HEIGHT 1
VIEWPOINT 0 0 0 1 0 0 0
POINTS 840
DATA ascii
0.0254005702312 -0.101602280925 0.915 7.80601717343e-39
-0.0287873129287 -0.0999089095762 0.915 1.80410226841e-38
-0.0270347198498 -0.099690529446 0.913 8.82266481449e-39
-0.0253450498591 -0.099690529446 0.913 1.05887731171e-38
-0.0236553798685 -0.099690529446 0.913 1.14138646594e-38
-0.0219657098779 -0.099690529446 0.913 1.28890101515e-38
-0.0202094154408 -0.0993629592506 0.91 4.68361030406e-39
-0.0185252974874 -0.0993629592506 0.91 6.24481373874e-39
-0.0168041659526 -0.0991445791204 0.908 7.62234618111e-39
-0.0151237493574 -0.0991445791204 0.908 7.89785266959e-39
-0.013413721897 -0.0989261989902 0.906 9.83034694798e-39
-0.0117370066599 -0.0989261989902 0.906 6.97949770801e-39
-0.0100269791995 -0.0985986287949 0.903 9.27538511196e-39
-0.00835581599956 -0.0985986287949 0.903 8.26519465422e-39
-0.00668465279965 -0.0985986287949 0.903 1.13969285662e-38
-0.00501348959974 -0.0985986287949 0.903 9.46156723112e-39
-0.00334232639983 -0.0985986287949 0.903 1.11189319703e-38
-0.00167671523712 -0.0989261989902 0.906 1.1125376542e-38
0.0 -0.0989261989902 0.906 1.04775254333e-38
0.00167671523712 -0.0989261989902 0.906 8.72437213501e-39
0.00335343047424 -0.0989261989902 0.906 1.16656443623e-38
0.00503014571137 -0.0989261989902 0.906 1.20397966575e-38
0.00670686094849 -0.0989261989902 0.906 1.0751577374e-38
0.00838357618561 -0.0989261989902 0.906 1.01987623272e-38
0.0100602914227 -0.0989261989902 0.906 9.643085829e-39
0.0117370066599 -0.0989261989902 0.906 9.64272709659e-39
0.013413721897 -0.0989261989902 0.906 9.36722060812e-39
0.0150904371341 -0.0989261989902 0.906 1.23160009926e-38
0.0168041659526 -0.0991445791204 0.908 1.01019045774e-38
0.0184845825479 -0.0991445791204 0.908 1.01019045774e-38
0.0202094154408 -0.0993629592506 0.91 9.55089160043e-39
0.0218935333942 -0.0993629592506 0.91 1.28670391929e-38
0.0236553798685 -0.099690529446 0.913 9.82639808891e-39
0.0254005702312 -0.0999089095762 0.915 7.80601717343e-39
-0.0288816975613 -0.0985375563856 0.918 1.7397451141e-38
-0.02709394158 -0.0982155382274 0.915 6.42848473106e-39
-0.0253450498591 -0.0980008594554 0.913 1.09560982862e-38
-0.0236553798685 -0.0980008594554 0.913 1.13220165516e-38
-0.0219657098779 -0.0980008594554 0.913 1.30733663788e-38
-0.0202760398873 -0.0980008594554 0.913 4.49993931174e-39
-0.0185252974874 -0.0976788412972 0.91 6.61215572338e-39
-0.016841179534 -0.0976788412972 0.91 7.71418167727e-39
-0.0151237493574 -0.0974641625252 0.908 7.98968816575e-39
-0.013413721897 -0.0972494837531 0.906 8.63253663885e-39
-0.0117370066599 -0.0972494837531 0.906 8.7243791415e-39
-0.0100602914227 -0.0972494837531 0.906 1.13058413634e-38
-0.00838357618561 -0.0972494837531 0.906 8.63293040372e-39
-0.00670686094849 -0.0972494837531 0.906 9.82675682131e-39
-0.00503014571137 -0.0972494837531 0.906 1.08437730039e-38
-0.00335343047424 -0.0972494837531 0.906 9.18570201024e-39
-0.00167671523712 -0.0972494837531 0.906 1.14041032143e-38
0.0 -0.0972494837531 0.906 8.36133493926e-39
0.00167671523712 -0.0972494837531 0.906 1.19483002755e-38
0.00335343047424 -0.0972494837531 0.906 9.36722060812e-39
0.00503014571137 -0.0972494837531 0.906 1.13011610265e-38
0.00670686094849 -0.0972494837531 0.906 9.55089160043e-39
0.00838357618561 -0.0972494837531 0.906 1.2409673591e-38
0.0100602914227 -0.0972494837531 0.906 1.01094379579e-38
0.0117370066599 -0.0972494837531 0.906 1.0292032753e-38
0.0134433327621 -0.0974641625252 0.908 9.36722060812e-39
0.0151237493574 -0.0974641625252 0.908 1.0469246562e-38
0.0168041659526 -0.0974641625252 0.908 1.03774110659e-38
0.0185252974874 -0.0976788412972 0.91 1.09284240428e-38
0.0202094154408 -0.0976788412972 0.91 1.29610242809e-38
0.0219657098779 -0.0980008594554 0.913 1.02923914854e-38
0.0236553798685 -0.0980008594554 0.913 1.23116962037e-38
0.0254005702312 -0.0982155382274 0.915 8.90804312733e-39
-0.0289446206497 -0.0970496104135 0.92 1.6476220715e-38
-0.02709394158 -0.0965221668787 0.915 9.74388963533e-39
-0.0254005702312 -0.0965221668787 0.915 1.11390728332e-38
-0.0237071988825 -0.0965221668787 0.915 1.15986244606e-38
-0.0220138275337 -0.0965221668787 0.915 1.30733635762e-38
-0.0202760398873 -0.0963111894648 0.913 4.49993931174e-39
-0.0185863698967 -0.0963111894648 0.913 6.61215572338e-39
-0.0168966999061 -0.0963111894648 0.913 7.71418167727e-39
-0.0151570615806 -0.0959947233438 0.91 8.17335915806e-39
-0.0134433327621 -0.0957837459299 0.908 9.27935078661e-39
-0.0117629161668 -0.0957837459299 0.908 9.55412019209e-39
-0.0100602914227 -0.095572768516 0.906 8.54070114269e-39
-0.00838357618561 -0.095572768516 0.906 7.98968816575e-39
-0.00670686094849 -0.095572768516 0.906 8.81620763117e-39
-0.00503014571137 -0.095572768516 0.906 8.54070114269e-39
-0.00335343047424 -0.095572768516 0.906 9.09171411964e-39
-0.00167671523712 -0.095572768516 0.906 9.09171411964e-39
0.0 -0.095572768516 0.906 8.81620763117e-39
0.00167671523712 -0.095572768516 0.906 8.90804312733e-39
0.00335343047424 -0.095572768516 0.906 9.91823358506e-39
0.00504124978578 -0.0957837459299 0.908 9.55089160043e-39
0.00672166638105 -0.0957837459299 0.908 1.07447530505e-38
0.00840208297631 -0.0957837459299 0.908 9.36722060812e-39
0.0100824995716 -0.0957837459299 0.908 8.54070114269e-39
0.0117629161668 -0.0957837459299 0.908 1.15766717189e-38
0.0134433327621 -0.0957837459299 0.908 1.09320113669e-38
0.0151237493574 -0.0957837459299 0.908 1.40677473872e-38
0.016841179534 -0.0959947233438 0.91 9.36722060812e-39
0.0185252974874 -0.0959947233438 0.91 1.24946665468e-38
0.0202760398873 -0.0963111894648 0.913 1.08390996735e-38
0.0219657098779 -0.0963111894648 0.913 1.04692493646e-38
0.0236553798685 -0.0963111894648 0.913 1.00100690812e-38
0.0254005702312 -0.0965221668787 0.915 8.81620763117e-39
-0.0307471820635 -0.0956578997532 0.923 2.3207266804e-38
-0.0290390052822 -0.0956578997532 0.923 1.87883757928e-38
-0.0272419959056 -0.0953469856695 0.92 1.01115973589e-38
-0.0254838507894 -0.0951397096136 0.918 1.11379910307e-38
-0.0237071988825 -0.0948287955299 0.915 1.17822716309e-38
-0.0220138275337 -0.0948287955299 0.915 1.35332403049e-38
-0.020320456185 -0.0948287955299 0.915 4.49993931174e-39
-0.0185863698967 -0.0946215194741 0.913 6.88766221185e-39
-0.0168966999061 -0.0946215194741 0.913 7.71418167727e-39
-0.0151570615806 -0.0943106053904 0.91 7.98968816575e-39
-0.0134433327621 -0.0941033293346 0.908 1.01966099328e-38
-0.0117629161668 -0.0941033293346 0.908 8.99987862348e-39
-0.0100824995716 -0.0941033293346 0.908 1.1124291937e-38
-0.00840208297631 -0.0941033293346 0.908 9.92723832899e-39
-0.00672166638105 -0.0941033293346 0.908 8.35703015038e-39
-0.00504124978578 -0.0941033293346 0.908 8.17335915806e-39
-0.00336083319052 -0.0941033293346 0.908 1.21309357083e-38
-0.00168041659526 -0.0941033293346 0.908 1.11221395425e-38
0.0 -0.0941033293346 0.908 1.12089780083e-38
0.00168041659526 -0.0941033293346 0.908 1.20434274218e-38
0.00336083319052 -0.0941033293346 0.908 1.09341679652e-38
0.00504124978578 -0.0941033293346 0.908 1.15820611128e-38
0.00672166638105 -0.0941033293346 0.908 1.10296272192e-38
0.00840208297631 -0.0941033293346 0.908 9.1835496158e-39
0.0100824995716 -0.0941033293346 0.908 8.81620763117e-39
0.0117629161668 -0.0941033293346 0.908 9.82639808891e-39
0.0134433327621 -0.0941033293346 0.908 1.06572223432e-38
0.0151237493574 -0.0941033293346 0.908 1.02855755697e-38
0.016841179534 -0.0943106053904 0.91 1.41559983619e-38
0.0185863698967 -0.0946215194741 0.913 1.20390791926e-38
0.0202760398873 -0.0946215194741 0.913 1.08419695327e-38
0.0220138275337 -0.0948287955299 0.915 1.17664649842e-38
0.0237071988825 -0.0948287955299 0.915 9.64273830698e-39
0.0254838507894 -0.0951397096136 0.918 9.09171411964e-39
-0.0307471820635 -0.0939497229719 0.923 2.3116897066e-38
-0.0290390052822 -0.0939497229719 0.923 1.8050473041e-38
-0.0272419959056 -0.0936443609254 0.92 9.64595568825e-39
-0.0255393711615 -0.0936443609254 0.92 1.16907402165e-38
-0.0237849274034 -0.0934407862277 0.918 1.23343636076e-38
-0.0220860040175 -0.0934407862277 0.918 1.37176792088e-38
-0.020320456185 -0.0931354241812 0.915 4.40810381558e-39
-0.0185863698967 -0.0929318494835 0.913 6.61215572338e-39
-0.0168966999061 -0.0929318494835 0.913 7.89785266959e-39
-0.0151570615806 -0.092626487437 0.91 7.89785266959e-39
-0.0134433327621 -0.0924229127394 0.908 1.0752286431e-38
-0.0117629161668 -0.0924229127394 0.908 1.11221493516e-38
-0.0100824995716 -0.0924229127394 0.908 1.05747208961e-38
-0.00840208297631 -0.0924229127394 0.908 9.65098775104e-39
-0.00672166638105 -0.0924229127394 0.908 1.24178978117e-38
-0.00504124978578 -0.0924229127394 0.908 7.90072252884e-39
-0.00336083319052 -0.0924229127394 0.908 1.14873669678e-38
-0.00168041659526 -0.0924229127394 0.908 8.72688326186e-39
0.0 -0.0924229127394 0.908 1.1298303779e-38
0.00168041659526 -0.0924229127394 0.908 9.1835496158e-39
0.00336083319052 -0.0924229127394 0.908 1.13937097836e-38
0.00504124978578 -0.0924229127394 0.908 9.27933116843e-39
0.00672166638105 -0.0924229127394 0.908 1.11199885494e-38
0.00840208297631 -0.0924229127394 0.908 1.1767506149e-38
0.0100824995716 -0.0924229127394 0.908 8.72437213501e-39
0.0117629161668 -0.0924229127394 0.908 1.24046513373e-38
0.0134433327621 -0.0924229127394 0.908 1.02880866965e-38
0.0151570615806 -0.092626487437 0.91 1.06529175543e-38
0.0168966999061 -0.0929318494835 0.913 1.17574616416e-38
0.0185863698967 -0.0929318494835 0.913 1.28713327714e-38
0.020320456185 -0.0931354241812 0.915 1.02877279641e-38
0.0220138275337 -0.0931354241812 0.915 1.17667816776e-38
0.0237849274034 -0.0934407862277 0.918 9.27538511196e-39
0.0254838507894 -0.0934407862277 0.918 1.14841173566e-38
-0.03081380651 -0.0924414195301 0.925 2.29317715259e-38
-0.0291019283706 -0.0924414195301 0.925 1.74969335229e-38
-0.0273308285009 -0.0922415461905 0.923 9.55304399487e-39
-0.0255393711615 -0.0919417361813 0.92 1.15071322826e-38
-0.0237849274034 -0.0917418628417 0.918 1.19673859606e-38
-0.0220860040175 -0.0917418628417 0.918 1.37169379219e-38
-0.020320456185 -0.0914420528324 0.915 4.49993931174e-39
-0.0185863698967 -0.0912421794929 0.913 6.42848473106e-39
-0.0168966999061 -0.0912421794929 0.913 7.71418167727e-39
-0.0152070299155 -0.0912421794929 0.913 8.17335915806e-39
-0.0134729436272 -0.0909423694836 0.91 1.0472490568e-38
-0.0117888256738 -0.0909423694836 0.91 8.91055425417e-39
-0.0100824995716 -0.0907424961441 0.908 9.46336089316e-39
-0.00840208297631 -0.0907424961441 0.908 8.17335915806e-39
-0.00672166638105 -0.0907424961441 0.908 9.1835496158e-39
-0.00504124978578 -0.0907424961441 0.908 9.37116666459e-39
-0.00336083319052 -0.0907424961441 0.908 8.63253663885e-39
-0.00168041659526 -0.0907424961441 0.908 1.12972107661e-38
0.0 -0.0907424961441 0.908 9.82639808891e-39
0.00168041659526 -0.0907424961441 0.908 9.64272709659e-39
0.00336083319052 -0.0907424961441 0.908 9.45905610427e-39
0.00504124978578 -0.0907424961441 0.908 1.10270754547e-38
0.00672166638105 -0.0907424961441 0.908 9.55089160043e-39
0.00840208297631 -0.0907424961441 0.908 9.55089160043e-39
0.0100824995716 -0.0907424961441 0.908 9.27538511196e-39
0.0117888256738 -0.0909423694836 0.91 1.12060941361e-38
0.0134729436272 -0.0909423694836 0.91 1.21359187256e-38
0.0152070299155 -0.0912421794929 0.913 1.09352848001e-38
0.0168966999061 -0.0912421794929 0.913 1.07458334516e-38
0.0186270848362 -0.0914420528324 0.915 1.16735112519e-38
0.020320456185 -0.0914420528324 0.915 1.22206132048e-38
0.0220860040175 -0.0917418628417 0.918 1.08405346031e-38
0.0237849274034 -0.0917418628417 0.918 9.73456259275e-39
0.0254838507894 -0.0917418628417 0.918 1.21312888355e-38
-0.0309137431798 -0.0910237993627 0.928 2.32080291104e-38
-0.0291019283706 -0.0907295413906 0.925 1.64834836449e-38
-0.0273308285009 -0.0905333694092 0.923 9.27538511196e-39
-0.0256226517196 -0.0905333694092 0.923 1.14149366527e-38
-0.0238367464174 -0.0902391114372 0.92 1.22439658437e-38
-0.0221341216733 -0.0902391114372 0.92 1.39024137866e-38
-0.0203870806315 -0.0900429394558 0.918 4.22443282327e-39
-0.0186270848362 -0.0897486814837 0.915 6.61215572338e-39
-0.0169337134875 -0.0897486814837 0.915 7.62234618111e-39
-0.0152070299155 -0.0895525095023 0.913 8.26519465422e-39
-0.0134729436272 -0.0892582515302 0.91 9.27538511196e-39
-0.0117888256738 -0.0892582515302 0.91 8.54070114269e-39
-0.0101047077204 -0.0892582515302 0.91 8.81620763117e-39
-0.008420589767 -0.0892582515302 0.91 1.06536560386e-38
-0.0067364718136 -0.0892582515302 0.91 1.01991238622e-38
-0.00504124978578 -0.0890620795488 0.908 1.04767799426e-38
-0.00336083319052 -0.0890620795488 0.908 8.0815236619e-39
-0.00168041659526 -0.0890620795488 0.908 1.40648943436e-38
0.0 -0.0890620795488 0.908 1.0111616977e-38
0.00168041659526 -0.0890620795488 0.908 1.15845568253e-38
0.00336083319052 -0.0890620795488 0.908 1.04793261019e-38
0.00504124978578 -0.0890620795488 0.908 1.2505442532e-38
0.0067364718136 -0.0892582515302 0.91 1.14905591257e-38
0.008420589767 -0.0892582515302 0.91 1.01973273976e-38
0.0101047077204 -0.0892582515302 0.91 9.45905610427e-39
0.0117888256738 -0.0892582515302 0.91 9.45905610427e-39
0.0134729436272 -0.0892582515302 0.91 1.08434044624e-38
0.0152070299155 -0.0895525095023 0.913 1.00100690812e-38
0.0169337134875 -0.0897486814837 0.915 1.39708812296e-38
0.0186881572455 -0.0900429394558 0.918 1.02891628938e-38
0.0203870806315 -0.0900429394558 0.918 1.2498606998e-38
0.0220860040175 -0.0900429394558 0.918 1.14819537518e-38
0.0237849274034 -0.0900429394558 0.918 8.72437213501e-39
0.0255393711615 -0.0902391114372 0.92 1.49003975334e-38
-0.0309137431798 -0.089306369186 0.928 2.34867585853e-38
-0.0291019283706 -0.0890176632512 0.925 1.36257736477e-38
-0.0273900502311 -0.0890176632512 0.925 8.0815236619e-39
-0.0256226517196 -0.0888251926279 0.923 1.21485486287e-38
-0.0239144749383 -0.0888251926279 0.923 1.28893380553e-38
-0.022206298157 -0.0888251926279 0.923 1.39031172385e-38
-0.0204314969292 -0.0885364866931 0.92 4.40810381558e-39
-0.0186881572455 -0.0883440160698 0.918 6.79582671569e-39
-0.0169337134875 -0.0880553101349 0.915 7.53051068496e-39
-0.0152403421387 -0.0880553101349 0.915 8.26519465422e-39
-0.0135173599249 -0.0878628395117 0.913 8.72437213501e-39
-0.0118276899343 -0.0878628395117 0.913 1.01973456145e-38
-0.0101047077204 -0.0875741335768 0.91 1.00143822779e-38
-0.008420589767 -0.0875741335768 0.91 1.08462911372e-38
-0.0067364718136 -0.0875741335768 0.91 9.55664813452e-39
-0.0050523538602 -0.0875741335768 0.91 1.05686252478e-38
-0.0033682359068 -0.0875741335768 0.91 1.11232661865e-38
-0.0016841179534 -0.0875741335768 0.91 9.46156723112e-39
0.0 -0.0875741335768 0.91 8.54070114269e-39
0.0016841179534 -0.0875741335768 0.91 1.13929825097e-38
0.0033682359068 -0.0875741335768 0.91 1.02884454289e-38
0.0050523538602 -0.0875741335768 0.91 1.11192696833e-38
0.0067364718136 -0.0875741335768 0.91 1.1394777573e-38
0.008420589767 -0.0875741335768 0.91 1.04757317713e-38
0.0101047077204 -0.0875741335768 0.91 1.13043952234e-38
0.0117888256738 -0.0875741335768 0.91 1.10324564408e-38
0.0135173599249 -0.0878628395117 0.913 9.55160906524e-39
0.0152403421387 -0.0880553101349 0.915 1.09284240428e-38
0.0169892338596 -0.0883440160698 0.918 1.31378933705e-38
0.0186881572455 -0.0883440160698 0.918 1.32405482921e-38
0.0203870806315 -0.0883440160698 0.918 9.82747428613e-39
0.0220860040175 -0.0883440160698 0.918 1.14794370197e-38
0.0238367464174 -0.0885364866931 0.92 8.63253663885e-39
0.0255393711615 -0.0885364866931 0.92 1.93193039589e-38
0.0272419959056 -0.0885364866931 0.92 2.34914431261e-38
-0.0309803676263 -0.0877777082745 0.93 2.34885592538e-38
-0.0291963130031 -0.0875889390094 0.928 1.58381114333e-38
-0.0274788828265 -0.0875889390094 0.928 7.53051068496e-39
-0.0256781720917 -0.0873057851117 0.925 1.36189997709e-38
-0.0239144749383 -0.0871170158466 0.923 1.21525016916e-38
-0.022206298157 -0.0871170158466 0.923 1.33496169567e-38
-0.0204314969292 -0.086833861949 0.92 4.5917748079e-39
-0.0186881572455 -0.0866450926839 0.918 6.97949770801e-39
-0.0169892338596 -0.0866450926839 0.918 7.62234618111e-39
-0.0152403421387 -0.0863619387862 0.915 8.0815236619e-39
-0.0135173599249 -0.0861731695211 0.913 1.11207480531e-38
-0.0118276899343 -0.0861731695211 0.913 9.92576696561e-39
-0.0101380199437 -0.0861731695211 0.913 9.27717877399e-39
-0.00844834995305 -0.0861731695211 0.913 9.27574384436e-39
-0.00675867996244 -0.0861731695211 0.913 9.83034414538e-39
-0.00506900997183 -0.0861731695211 0.913 8.54070114269e-39
-0.00337933998122 -0.0861731695211 0.913 9.91967271859e-39
-0.00168966999061 -0.0861731695211 0.913 1.01019045774e-38
0.0 -0.0858900156234 0.91 9.45905610427e-39
0.0016841179534 -0.0858900156234 0.91 1.04703255618e-38
0.0033682359068 -0.0858900156234 0.91 9.36865553774e-39
0.0050523538602 -0.0858900156234 0.91 9.64272709659e-39
0.0067364718136 -0.0858900156234 0.91 9.45905610427e-39
0.008420589767 -0.0858900156234 0.91 9.91823358506e-39
0.0101380199437 -0.0861731695211 0.913 1.11135397738e-38
0.0118276899343 -0.0861731695211 0.913 1.08387409411e-38
0.0135173599249 -0.0861731695211 0.913 1.31458289237e-38
0.0152903104736 -0.0866450926839 0.918 9.92146217672e-39
0.0169892338596 -0.0866450926839 0.918 1.09284240428e-38
0.0187288721851 -0.086833861949 0.92 1.05610820582e-38
0.0203870806315 -0.0866450926839 0.918 1.12957660274e-38
0.0220860040175 -0.0866450926839 0.918 1.05610820582e-38
0.0238367464174 -0.086833861949 0.92 9.73456259275e-39
0.0255393711615 -0.086833861949 0.92 2.22634502493e-38
-0.0362603550121 -0.0863341786002 0.933 2.16421425362e-38
-0.0345336714401 -0.0863341786002 0.933 2.13662815192e-38
-0.0327014991611 -0.0860565767397 0.93 2.17357618853e-38
-0.0309803676263 -0.0860565767397 0.93 2.33938440893e-38
-0.0291963130031 -0.0858715088327 0.928 1.61143550048e-38
-0.0274788828265 -0.0858715088327 0.928 7.07133320417e-39
-0.0256781720917 -0.0855939069723 0.925 1.36175326114e-38
-0.0239662939522 -0.0855939069723 0.925 1.2335811149e-38
-0.0222544158128 -0.0855939069723 0.925 1.44552064126e-38
-0.0204981213757 -0.0854088390653 0.923 4.5917748079e-39
-0.0187288721851 -0.0851312372049 0.92 7.07133320417e-39
-0.0169892338596 -0.0849461692979 0.918 7.71418167727e-39
-0.0152403421387 -0.0846685674374 0.915 9.1835496158e-39
-0.01354697079 -0.0846685674374 0.915 8.72477711027e-39
-0.0118535994412 -0.0846685674374 0.915 8.90804312733e-39
-0.0101602280925 -0.0846685674374 0.915 9.82711555372e-39
-0.00844834995305 -0.0844834995305 0.913 9.09171411964e-39
-0.00675867996244 -0.0844834995305 0.913 1.18554614497e-38
-0.00506900997183 -0.0844834995305 0.913 1.07605610985e-38
-0.00337933998122 -0.0844834995305 0.913 1.17736550466e-38
-0.00168966999061 -0.0844834995305 0.913 1.16789076523e-38
0.0 -0.0844834995305 0.913 1.02049322444e-38
0.00168966999061 -0.0844834995305 0.913 8.35703015038e-39
0.00337933998122 -0.0844834995305 0.913 1.20423105869e-38
0.00506900997183 -0.0844834995305 0.913 1.11218018296e-38
0.00675867996244 -0.0844834995305 0.913 1.04713989565e-38
0.00844834995305 -0.0844834995305 0.913 1.01937400735e-38
0.0101380199437 -0.0844834995305 0.913 1.12975596895e-38
0.0118535994412 -0.0846685674374 0.915 1.08365885466e-38
0.01354697079 -0.0846685674374 0.915 1.01937400735e-38
0.0152903104736 -0.0849461692979 0.918 1.01937400735e-38
0.0169892338596 -0.0849461692979 0.918 1.07447530505e-38
0.0187288721851 -0.0851312372049 0.92 1.1020259539e-38
0.0204314969292 -0.0851312372049 0.92 1.10202749532e-38
0.0221341216733 -0.0851312372049 0.92 1.37882864345e-38
0.0238367464174 -0.0851312372049 0.92 8.0815236619e-39
0.0255393711615 -0.0851312372049 0.92 2.3371968419e-38
-0.0362603550121 -0.0846074950282 0.933 2.20127075073e-38
-0.0345336714401 -0.0846074950282 0.933 2.12747893412e-38
-0.0327014991611 -0.0843354452049 0.93 2.13662408816e-38
-0.0309803676263 -0.0843354452049 0.93 2.32087325622e-38
-0.0291963130031 -0.0841540786561 0.928 1.76820506552e-38
-0.0274788828265 -0.0841540786561 0.928 6.88766221185e-39
-0.0256781720917 -0.0838820288328 0.925 1.34396854155e-38
-0.0239662939522 -0.0838820288328 0.925 1.27971242086e-38
-0.0222544158128 -0.0838820288328 0.925 1.39953422956e-38
-0.0205425376733 -0.0838820288328 0.925 4.5917748079e-39
-0.0187288721851 -0.0834286124608 0.92 7.25500419648e-39
-0.017026247441 -0.0834286124608 0.92 7.71418167727e-39
-0.0152903104736 -0.0832472459119 0.918 7.98968816575e-39
-0.01354697079 -0.0829751960887 0.915 8.63253663885e-39
-0.0118535994412 -0.0829751960887 0.915 8.81620763117e-39
-0.0101602280925 -0.0829751960887 0.915 1.17643448196e-38
-0.00846685674374 -0.0829751960887 0.915 8.17335915806e-39
-0.006773485395 -0.0829751960887 0.915 1.28688720913e-38
-0.00508011404625 -0.0829751960887 0.915 1.04850307879e-38
-0.0033867426975 -0.0829751960887 0.915 1.01094491683e-38
-0.00169337134875 -0.0829751960887 0.915 1.04774974074e-38
0.0 -0.0829751960887 0.915 1.07566108381e-38
0.00169337134875 -0.0829751960887 0.915 1.03824333195e-38
0.0033867426975 -0.0829751960887 0.915 1.10270754547e-38
0.00508011404625 -0.0829751960887 0.915 1.06604551388e-38
0.006773485395 -0.0829751960887 0.915 1.13043826117e-38
0.00846685674374 -0.0829751960887 0.915 1.27802189439e-38
0.0101602280925 -0.0829751960887 0.915 9.55092943549e-39
0.0118535994412 -0.0829751960887 0.915 1.03774110659e-38
0.0135913870877 -0.0832472459119 0.918 1.02855755697e-38
0.0152903104736 -0.0832472459119 0.918 1.01937400735e-38
0.017026247441 -0.0834286124608 0.92 1.13876197405e-38
0.0187288721851 -0.0834286124608 0.92 1.53627503565e-38
0.0204981213757 -0.083700662284 0.923 1.213561044e-38
0.022206298157 -0.083700662284 0.923 1.26876477661e-38
0.0239662939522 -0.0838820288328 0.925 9.27538511196e-39
0.0256781720917 -0.0838820288328 0.925 2.34623395583e-38
-0.0345336714401 -0.0828808114561 0.933 2.18279631204e-38
-0.0327014991611 -0.0826143136701 0.93 2.18261638531e-38
-0.0309803676263 -0.0826143136701 0.93 2.3487841789e-38
-0.0291963130031 -0.0824366484794 0.928 1.685228298e-38
-0.0273900502311 -0.0821701506934 0.925 8.81620763117e-39
-0.0256781720917 -0.0821701506934 0.925 1.25220044785e-38
-0.0239662939522 -0.0821701506934 0.925 1.25212617903e-38
-0.0222544158128 -0.0821701506934 0.925 1.39020606594e-38
-0.0205425376733 -0.0821701506934 0.925 4.95911679253e-39
-0.0187899445944 -0.0819924855027 0.923 7.25500419648e-39
-0.017026247441 -0.0817259877167 0.92 7.53051068496e-39
-0.0152903104736 -0.081548322526 0.918 9.55197620544e-39
-0.0135913870877 -0.081548322526 0.918 1.06654970106e-38
-0.0118535994412 -0.08128182474 0.915 7.98968816575e-39
-0.0101602280925 -0.08128182474 0.915 7.62234618111e-39
-0.00846685674374 -0.08128182474 0.915 8.44886564654e-39
-0.006773485395 -0.08128182474 0.915 8.54070114269e-39
-0.00508011404625 -0.08128182474 0.915 8.72437213501e-39
-0.0033867426975 -0.08128182474 0.915 8.35703015038e-39
-0.00169337134875 -0.08128182474 0.915 8.54070114269e-39
0.0 -0.08128182474 0.915 8.99987862348e-39
0.00169337134875 -0.08128182474 0.915 9.27538511196e-39
0.0033867426975 -0.08128182474 0.915 8.54070114269e-39
0.00508011404625 -0.08128182474 0.915 9.1835496158e-39
0.00679569354383 -0.081548322526 0.918 9.64272709659e-39
0.00846685674374 -0.08128182474 0.915 9.64272709659e-39
0.0101602280925 -0.08128182474 0.915 8.90804312733e-39
0.0118924637017 -0.081548322526 0.918 9.82639808891e-39
0.0135913870877 -0.081548322526 0.918 1.59973872207e-38
0.0152903104736 -0.081548322526 0.918 1.38000769598e-38
0.017026247441 -0.0817259877167 0.92 1.14931094889e-38
0.0187288721851 -0.0817259877167 0.92 1.06539937515e-38
0.0204981213757 -0.0819924855027 0.923 1.53620188787e-38
0.022206298157 -0.0819924855027 0.923 9.64272709659e-39
0.0239662939522 -0.0821701506934 0.925 9.82639808891e-39
0.0256781720917 -0.0821701506934 0.925 2.34709981815e-38
-0.0345336714401 -0.0811541278841 0.933 2.16435662554e-38
-0.0328069878681 -0.0811541278841 0.933 2.33012925296e-38
-0.0309803676263 -0.0808931821353 0.93 2.34860369166e-38
-0.0291963130031 -0.0807192183028 0.928 1.74980055162e-38
-0.0273900502311 -0.0804582725539 0.925 7.89785266959e-39
-0.0256781720917 -0.0804582725539 0.925 1.27038776049e-38
-0.0239662939522 -0.0804582725539 0.925 1.27045740502e-38
-0.0222544158128 -0.0804582725539 0.925 1.45474300685e-38
-0.0205425376733 -0.0804582725539 0.925 4.77544580022e-39
-0.0187899445944 -0.0802843087214 0.923 7.53051068496e-39
-0.0170817678131 -0.0802843087214 0.923 7.98968816575e-39
-0.0152903104736 -0.07984939914 0.918 7.71418167727e-39
-0.0135913870877 -0.07984939914 0.918 9.55340272728e-39
-0.0118535994412 -0.0795884533912 0.915 9.9254110358e-39
-0.0101602280925 -0.0795884533912 0.915 8.17479408769e-39
-0.00846685674374 -0.0795884533912 0.915 1.20455784149e-38
-0.006773485395 -0.0795884533912 0.915 1.16828382944e-38
-0.00508011404625 -0.0795884533912 0.915 1.14974254881e-38
-0.00339784677192 -0.07984939914 0.918 1.00158087997e-38
-0.00169892338596 -0.07984939914 0.918 1.31594033019e-38
0.0 -0.07984939914 0.918 1.09449859894e-38
0.00169892338596 -0.07984939914 0.918 1.11232157397e-38
0.00339784677192 -0.07984939914 0.918 1.22306773304e-38
0.00509677015787 -0.07984939914 0.918 9.83429020186e-39
0.00679569354383 -0.07984939914 0.918 1.31529587302e-38
0.00849461692979 -0.07984939914 0.918 1.21427920946e-38
0.0101935403157 -0.07984939914 0.918 1.0469246562e-38
0.0118924637017 -0.07984939914 0.918 1.0469246562e-38
0.0135913870877 -0.07984939914 0.918 1.00100690812e-38
0.0152903104736 -0.07984939914 0.918 1.29570558036e-38
0.017026247441 -0.0800233629726 0.92 1.15791688328e-38
0.0187288721851 -0.0800233629726 0.92 1.50815265703e-38
0.0204981213757 -0.0802843087214 0.923 9.46120849871e-39
0.022206298157 -0.0802843087214 0.923 1.05610820582e-38
0.0239144749383 -0.0802843087214 0.923 1.0469246562e-38
-0.0345336714401 -0.0794274443121 0.933 2.21953037037e-38
-0.0327014991611 -0.0791720506005 0.93 2.2378613161e-38
-0.0309803676263 -0.0791720506005 0.93 2.34882103305e-38
-0.0291963130031 -0.0790017881261 0.928 1.67607908019e-38
-0.0273900502311 -0.0787463944145 0.925 6.52032022722e-39
-0.0256781720917 -0.0787463944145 0.925 1.3343110728e-38
-0.0239662939522 -0.0787463944145 0.925 1.17840442734e-38
-0.0222544158128 -0.0787463944145 0.925 1.48254140526e-38
-0.0205425376733 -0.0787463944145 0.925 4.95911679253e-39
-0.0187899445944 -0.0785761319401 0.923 7.62234618111e-39
-0.0170817678131 -0.0785761319401 0.923 7.98968816575e-39
-0.0153236226969 -0.0783207382285 0.92 9.73637026777e-39
-0.0135913870877 -0.0781504757541 0.918 1.19547868861e-38
-0.0118924637017 -0.0781504757541 0.918 9.46949017264e-39
-0.0101935403157 -0.0781504757541 0.918 9.74353090292e-39
-0.00849461692979 -0.0781504757541 0.918 9.8314203426e-39
-0.00679569354383 -0.0781504757541 0.918 7.89785266959e-39
-0.00509677015787 -0.0781504757541 0.918 8.54070114269e-39
-0.00339784677192 -0.0781504757541 0.918 9.1835496158e-39
-0.00169892338596 -0.0781504757541 0.918 8.72437213501e-39
0.0 -0.0781504757541 0.918 8.35703015038e-39
0.00169892338596 -0.0781504757541 0.918 9.91823358506e-39
0.00339784677192 -0.0781504757541 0.918 9.73456259275e-39
0.00509677015787 -0.0781504757541 0.918 8.72437213501e-39
0.00679569354383 -0.0781504757541 0.918 9.64272709659e-39
0.00849461692979 -0.0781504757541 0.918 1.13890406571e-38
0.0101935403157 -0.0781504757541 0.918 1.24121412776e-38
0.0119183732087 -0.0783207382285 0.92 1.45340967136e-38
0.0136209979528 -0.0783207382285 0.92 1.25083334107e-38
0.0153236226969 -0.0783207382285 0.92 1.22223718344e-38
0.017026247441 -0.0783207382285 0.92 1.01937400735e-38
0.0187899445944 -0.0785761319401 0.923 1.19386145005e-38
0.0205425376733 -0.0787463944145 0.925 1.39762145715e-38
0.0222544158128 -0.0787463944145 0.925 1.05653868471e-38
0.0239662939522 -0.0787463944145 0.925 1.12957660274e-38
-0.0345336714401 -0.0777007607401 0.933 2.30254315127e-38
-0.0327014991611 -0.0774509190657 0.93 2.24708115935e-38
-0.0309803676263 -0.0774509190657 0.93 2.3488189311e-38
-0.0291963130031 -0.0772843579495 0.928 1.53775032268e-38
-0.0273900502311 -0.0770345162751 0.925 9.46156723112e-39
-0.0256781720917 -0.0770345162751 0.925 1.29750793045e-38
-0.0239662939522 -0.0770345162751 0.925 1.27967542658e-38
-0.0222544158128 -0.0770345162751 0.925 1.41804117838e-38
-0.0205425376733 -0.0770345162751 0.925 4.77544580022e-39
-0.0188306595339 -0.0770345162751 0.925 7.62234618111e-39
-0.0170817678131 -0.0768679551588 0.923 7.98968816575e-39
-0.0153735910318 -0.0768679551588 0.923 7.98968816575e-39
-0.0135913870877 -0.0764515523681 0.918 7.98968816575e-39
-0.0118924637017 -0.0764515523681 0.918 8.81620763117e-39
-0.0101935403157 -0.0764515523681 0.918 8.35703015038e-39
-0.00849461692979 -0.0764515523681 0.918 1.08437730039e-38
-0.00679569354383 -0.0764515523681 0.918 1.14959387105e-38
-0.00509677015787 -0.0764515523681 0.918 1.12211875219e-38
-0.00339784677192 -0.0764515523681 0.918 1.32422480671e-38
-0.00169892338596 -0.0764515523681 0.918 1.25094096079e-38
0.0 -0.0764515523681 0.918 1.25093577599e-38
0.00169892338596 -0.0764515523681 0.918 1.29717750427e-38
0.00340524948819 -0.0766181134844 0.92 1.15867820873e-38
0.00510787423229 -0.0766181134844 0.92 1.23224777941e-38
0.00681049897639 -0.0766181134844 0.92 1.23235708069e-38
0.00851312372049 -0.0766181134844 0.92 9.73456259275e-39
0.0102157484646 -0.0766181134844 0.92 9.82639808891e-39
0.0119183732087 -0.0766181134844 0.92 9.27538511196e-39
0.0136209979528 -0.0766181134844 0.92 9.55089160043e-39
0.0153236226969 -0.0766181134844 0.92 1.28637895817e-38
0.017026247441 -0.0766181134844 0.92 1.46252231527e-38
0.0187899445944 -0.0768679551588 0.923 1.24078364887e-38
0.0205425376733 -0.0770345162751 0.925 1.12993533515e-38
0.0222544158128 -0.0770345162751 0.925 1.13876183392e-38
0.0239662939522 -0.0770345162751 0.925 1.4802771872e-38
-0.0328069878681 -0.0759740771681 0.933 2.24708115935e-38
-0.0309803676263 -0.0757297875309 0.93 2.34878445916e-38
-0.0291963130031 -0.0755669277728 0.928 1.54693359203e-38
-0.0273900502311 -0.0753226381356 0.925 1.2964597592e-38
-0.0256781720917 -0.0753226381356 0.925 1.30722691621e-38
-0.0239662939522 -0.0753226381356 0.925 1.22447141371e-38
-0.0222544158128 -0.0753226381356 0.925 1.40878616254e-38
-0.0206091621199 -0.0755669277728 0.928 4.49993931174e-39
-0.0188306595339 -0.0753226381356 0.925 7.53051068496e-39
-0.0171187813945 -0.0753226381356 0.925 8.17335915806e-39
-0.0153735910318 -0.0751597783775 0.923 8.99987862348e-39
-0.0135913870877 -0.0747526289822 0.918 9.7431833809e-39
-0.0118924637017 -0.0747526289822 0.918 1.01998385245e-38
-0.0101935403157 -0.0747526289822 0.918 1.01097966903e-38
-0.00849461692979 -0.0747526289822 0.918 8.35703015038e-39
-0.00679569354383 -0.0747526289822 0.918 8.81620763117e-39
-0.00509677015787 -0.0747526289822 0.918 8.26519465422e-39
-0.00339784677192 -0.0747526289822 0.918 8.72437213501e-39
-0.00169892338596 -0.0747526289822 0.918 8.72437213501e-39
0.0 -0.0747526289822 0.918 9.09171411964e-39
0.0017026247441 -0.0749154887403 0.92 8.99987862348e-39
0.00340524948819 -0.0749154887403 0.92 9.1835496158e-39
0.00510787423229 -0.0749154887403 0.92 9.64272709659e-39
0.00681049897639 -0.0749154887403 0.92 1.12957660274e-38
0.00851312372049 -0.0749154887403 0.92 9.45905610427e-39
0.0102157484646 -0.0749154887403 0.92 1.25911557551e-38
0.0119183732087 -0.0749154887403 0.92 1.31497525594e-38
0.0136209979528 -0.0749154887403 0.92 1.03774124672e-38
0.0153236226969 -0.0749154887403 0.92 1.13876057275e-38
0.0171187813945 -0.0753226381356 0.925 1.07447530505e-38
0.0188306595339 -0.0753226381356 0.925 1.12039305313e-38
0.0206091621199 -0.0755669277728 0.928 1.30449634602e-38
0.0223265922965 -0.0755669277728 0.928 1.59127572012e-38
0.0240440224732 -0.0755669277728 0.928 1.14905577244e-38
-0.0310803042961 -0.0742473935961 0.933 2.34878501968e-38
-0.0292592360915 -0.0740086559961 0.93 1.45484586215e-38
-0.0274788828265 -0.0738494975962 0.928 1.08387409411e-38
-0.0256781720917 -0.0736107599962 0.925 1.32556066454e-38
-0.0239662939522 -0.0736107599962 0.925 1.27960536166e-38
-0.0222544158128 -0.0736107599962 0.925 1.33503260138e-38
-0.0206091621199 -0.0738494975962 0.928 5.14278778485e-39
-0.0188306595339 -0.0736107599962 0.925 7.62234618111e-39
-0.0171187813945 -0.0736107599962 0.925 8.35703015038e-39
-0.015406903255 -0.0736107599962 0.925 8.17335915806e-39
-0.0136654142505 -0.0734516015962 0.923 7.80601717343e-39
-0.0119183732087 -0.0732128639962 0.92 8.26519465422e-39
-0.0102157484646 -0.0732128639962 0.92 8.90804312733e-39
-0.00851312372049 -0.0732128639962 0.92 9.36722060812e-39
-0.00681049897639 -0.0732128639962 0.92 1.16695665967e-38
-0.00510787423229 -0.0732128639962 0.92 1.15849099526e-38
-0.00339784677192 -0.0730537055962 0.918 1.08495505574e-38
-0.00169892338596 -0.0730537055962 0.918 1.20451664332e-38
0.0 -0.0730537055962 0.918 1.16724350546e-38
0.0017026247441 -0.0732128639962 0.92 1.15823932205e-38
0.00340524948819 -0.0732128639962 0.92 1.17664649842e-38
0.00510787423229 -0.0732128639962 0.92 1.01948162708e-38
0.00683270712523 -0.0734516015962 0.923 1.19450716839e-38
0.00854088390653 -0.0734516015962 0.923 9.45905610427e-39
0.0102490606878 -0.0734516015962 0.923 9.36722060812e-39
0.0119831469761 -0.0736107599962 0.925 9.27538511196e-39
0.0136950251156 -0.0736107599962 0.925 1.03774110659e-38
0.015406903255 -0.0736107599962 0.925 1.12039305313e-38
0.0171187813945 -0.0736107599962 0.925 1.12957660274e-38
0.0188306595339 -0.0736107599962 0.925 1.12957660274e-38
0.0205425376733 -0.0736107599962 0.925 1.39737398785e-38
0.0223265922965 -0.0738494975962 0.928 1.25929690353e-38
0.0240440224732 -0.0738494975962 0.928 1.24003031082e-38
-0.0310803042961 -0.0725207100241 0.933 2.34882229422e-38
-0.0292592360915 -0.0722875244614 0.93 1.32577170008e-38
-0.0274788828265 -0.0721320674195 0.928 8.72437213501e-39
-0.0257614526498 -0.0721320674195 0.928 1.37098025101e-38
-0.0239662939522 -0.0718988818567 0.925 1.32573638736e-38
-0.0222544158128 -0.0718988818567 0.925 1.41811530707e-38
-0.0206091621199 -0.0721320674195 0.928 5.41829427332e-39
-0.0188306595339 -0.0718988818567 0.925 7.80601717343e-39
-0.0171187813945 -0.0718988818567 0.925 8.17335915806e-39
-0.015406903255 -0.0718988818567 0.925 1.07490760562e-38
-0.0136654142505 -0.0717434248149 0.923 9.09422524649e-39
-0.0119572374691 -0.0717434248149 0.923 8.63253663885e-39
-0.0102157484646 -0.0715102392521 0.92 8.99987862348e-39
-0.00851312372049 -0.0715102392521 0.92 9.73456259275e-39
-0.00681049897639 -0.0715102392521 0.92 9.36722060812e-39
-0.00510787423229 -0.0715102392521 0.92 9.09171411964e-39
-0.00339784677192 -0.0713547822102 0.918 9.27538511196e-39
-0.00169892338596 -0.0713547822102 0.918 9.27538511196e-39
0.0 -0.0713547822102 0.918 9.09171411964e-39
0.0017026247441 -0.0715102392521 0.92 9.27538511196e-39
0.00340524948819 -0.0715102392521 0.92 9.55089160043e-39
0.00510787423229 -0.0715102392521 0.92 9.73456259275e-39
0.00683270712523 -0.0717434248149 0.923 9.91823358506e-39
0.00855939069723 -0.0718988818567 0.925 9.91823358506e-39
0.0102712688367 -0.0718988818567 0.925 1.08365913492e-38
0.0119831469761 -0.0718988818567 0.925 1.05610848608e-38
0.0136950251156 -0.0718988818567 0.925 1.01937400735e-38
0.0154568715899 -0.0721320674195 0.928 1.24056840943e-38
0.0171743017665 -0.0721320674195 0.928 1.07447530505e-38
0.0188306595339 -0.0718988818567 0.925 1.15712725159e-38
0.0205425376733 -0.0718988818567 0.925 1.27812769243e-38
0.0223265922965 -0.0721320674195 0.928 1.37004068039e-38
0.0240440224732 -0.0721320674195 0.928 1.17549435082e-38
-0.0329828023797 -0.0711734156614 0.938 2.27477291895e-38
-0.0312468654123 -0.0711734156614 0.938 2.34907172535e-38
-0.0293536207241 -0.0707940264521 0.933 1.25212239553e-38
-0.0275381045567 -0.0705663929266 0.93 8.44886564654e-39
-0.0258169730219 -0.0705663929266 0.93 1.21449234695e-38
-0.0240440224732 -0.0704146372428 0.928 1.26098644909e-38
-0.0223265922965 -0.0704146372428 0.928 1.40911098352e-38
-0.0206091621199 -0.0704146372428 0.928 5.51012976948e-39
-0.0188917319432 -0.0704146372428 0.928 7.71418167727e-39
-0.0171187813945 -0.0701870037173 0.925 7.89785266959e-39
-0.015406903255 -0.0701870037173 0.925 9.82747428613e-39
-0.0136950251156 -0.0701870037173 0.925 9.0009548207e-39
-0.0119572374691 -0.0700352480336 0.923 9.73671498719e-39
-0.0102490606878 -0.0700352480336 0.923 9.36793807293e-39
-0.00854088390653 -0.0700352480336 0.923 8.90804312733e-39
-0.00681049897639 -0.069807614508 0.92 1.03774110659e-38
-0.00510787423229 -0.069807614508 0.92 1.12096702498e-38
-0.00340524948819 -0.069807614508 0.92 1.09334490991e-38
-0.00169892338596 -0.0696558588243 0.918 1.18582724544e-38
0.0 -0.0696558588243 0.918 1.13969285662e-38
0.0017026247441 -0.069807614508 0.92 1.00150913349e-38
0.00340524948819 -0.069807614508 0.92 1.10249230602e-38
0.00512453034392 -0.0700352480336 0.923 1.01937400735e-38
0.00684751255778 -0.0701870037173 0.925 1.14844592734e-38
0.00855939069723 -0.0701870037173 0.925 1.08416108003e-38
0.0102712688367 -0.0701870037173 0.925 1.27784154728e-38
0.0120220112366 -0.0704146372428 0.928 1.04728450965e-38
0.0137394414132 -0.0704146372428 0.928 1.02866517669e-38
0.0154568715899 -0.0704146372428 0.928 1.14826656114e-38
0.0171743017665 -0.0704146372428 0.928 1.11120950351e-38
0.0188917319432 -0.0704146372428 0.928 1.20318905315e-38
0.0206091621199 -0.0704146372428 0.928 1.20369436138e-38
0.0223747099523 -0.0705663929266 0.93 1.46284629547e-38
0.024225389022 -0.0709457821358 0.935 1.27834377265e-38
0.0259557739521 -0.0709457821358 0.935 2.34850055609e-38
-0.0328069878681 -0.0690673428801 0.933 2.21938687741e-38
-0.0310803042961 -0.0690673428801 0.933 2.34910801898e-38
-0.0293536207241 -0.0690673428801 0.933 1.22439139957e-38
-0.0275381045567 -0.0688452613918 0.93 7.16316870032e-39
-0.0258169730219 -0.0688452613918 0.93 1.38134103147e-38
-0.0240440224732 -0.0686972070662 0.928 1.04011000164e-38
-0.0223265922965 -0.0686972070662 0.928 1.42744277003e-38
-0.0206091621199 -0.0686972070662 0.928 5.6938007618e-39
-0.0188917319432 -0.0686972070662 0.928 8.0815236619e-39
-0.0171187813945 -0.0684751255778 0.925 7.89785266959e-39
-0.015406903255 -0.0684751255778 0.925 9.55161186784e-39
-0.0136950251156 -0.0684751255778 0.925 1.04764296179e-38
-0.0119831469761 -0.0684751255778 0.925 8.44922437894e-39
-0.0102712688367 -0.0684751255778 0.925 1.03827962559e-38
-0.00854088390653 -0.0683270712523 0.923 1.02938264151e-38
-0.00683270712523 -0.0683270712523 0.923 1.04792910694e-38
-0.00510787423229 -0.0681049897639 0.92 1.1674591653e-38
-0.00340524948819 -0.0681049897639 0.92 1.1217244268e-38
-0.0017026247441 -0.0681049897639 0.92 9.92433203598e-39
0.0 -0.0681049897639 0.92 1.19486954417e-38
0.0017026247441 -0.0681049897639 0.92 1.06640382589e-38
0.00340524948819 -0.0681049897639 0.92 1.02934704852e-38
0.00512453034392 -0.0683270712523 0.923 1.18607737721e-38
0.00684751255778 -0.0684751255778 0.925 1.08459352074e-38
0.00855939069723 -0.0684751255778 0.925 9.55160906524e-39
0.0103045810599 -0.0686972070662 0.928 1.08365885466e-38
0.0120220112366 -0.0686972070662 0.928 1.07447530505e-38
0.0137394414132 -0.0686972070662 0.928 1.01937400735e-38
0.0154568715899 -0.0686972070662 0.928 1.27762546706e-38
0.0171743017665 -0.0686972070662 0.928 1.08365885466e-38
0.0188917319432 -0.0686972070662 0.928 1.19396935004e-38
0.020720202864 -0.0690673428801 0.933 1.21276917023e-38
0.0224950040919 -0.0692153972057 0.935 1.41659840148e-38
0.024225389022 -0.0692153972057 0.935 1.21330488664e-38
0.0259557739521 -0.0692153972057 0.935 2.3485724427e-38
-0.0311469287426 -0.0674850122756 0.935 2.34874844579e-38
-0.0294165438124 -0.0674850122756 0.935 1.32577198034e-38
-0.027626937152 -0.0673406593081 0.933 8.35703015038e-39
-0.02590025358 -0.0673406593081 0.933 1.29815364878e-38
-0.0240958414871 -0.067124129857 0.93 1.32570261607e-38
-0.0223747099523 -0.067124129857 0.93 1.36265527696e-38
-0.0206535784175 -0.067124129857 0.93 5.96930725027e-39
-0.0188917319432 -0.0669797768895 0.928 8.0815236619e-39
-0.0171743017665 -0.0669797768895 0.928 8.0815236619e-39
-0.0154568715899 -0.0669797768895 0.928 9.09171552094e-39
-0.0136950251156 -0.0667632474384 0.925 9.73635625478e-39
-0.0119831469761 -0.0667632474384 0.925 9.1835496158e-39
-0.0102712688367 -0.0667632474384 0.925 9.55089160043e-39
-0.00855939069723 -0.0667632474384 0.925 8.99987862348e-39
-0.00683270712523 -0.0666188944709 0.923 9.82675682131e-39
-0.00512453034392 -0.0666188944709 0.923 9.45905610427e-39
-0.00340524948819 -0.0664023650198 0.92 1.06561545538e-38
-0.0017026247441 -0.0664023650198 0.92 1.01083617607e-38
0.0 -0.0664023650198 0.92 1.0199479792e-38
0.00170817678131 -0.0666188944709 0.923 9.73886738163e-39
0.00341635356261 -0.0666188944709 0.923 1.01019045774e-38
0.00512453034392 -0.0666188944709 0.923 1.00100690812e-38
0.00684751255778 -0.0667632474384 0.925 1.01019045774e-38
0.00855939069723 -0.0667632474384 0.925 1.16649016741e-38
0.0102712688367 -0.0667632474384 0.925 1.05610820582e-38
0.0120220112366 -0.0669797768895 0.928 1.1852528532e-38
0.0137394414132 -0.0669797768895 0.928 1.0195183411e-38
0.0154568715899 -0.0669797768895 0.928 1.18485726664e-38
0.0171743017665 -0.0669797768895 0.928 1.09284240428e-38
0.0189324468827 -0.067124129857 0.93 1.21233616901e-38
0.0207646191617 -0.0674850122756 0.935 1.21269700336e-38
0.0224950040919 -0.0674850122756 0.935 1.416060443e-38
0.0243031175429 -0.0677015417267 0.938 1.34126459604e-38
0.0260390545103 -0.0677015417267 0.938 2.34900166042e-38
-0.0314134265286 -0.0663172337826 0.943 2.34874844579e-38
-0.0294165438124 -0.0657546273454 0.935 1.35339437567e-38
-0.0276861588823 -0.0657546273454 0.935 1.43500403642e-38
-0.02590025358 -0.0656139757361 0.933 1.27960536166e-38
-0.024173570008 -0.0656139757361 0.933 1.34403440258e-38
-0.022446886436 -0.0656139757361 0.933 1.408644211e-38
-0.020720202864 -0.0656139757361 0.933 6.06114274643e-39
-0.0189324468827 -0.0654029983222 0.93 8.81620763117e-39
-0.0171743017665 -0.0652623467129 0.928 8.35703015038e-39
-0.0154568715899 -0.0652623467129 0.928 9.55089160043e-39
-0.0137394414132 -0.0652623467129 0.928 9.55412719859e-39
-0.0120220112366 -0.0652623467129 0.928 8.99987862348e-39
-0.0102712688367 -0.0650513692989 0.925 1.05610820582e-38
-0.00855939069723 -0.0650513692989 0.925 1.19447143528e-38
-0.00684751255778 -0.0650513692989 0.925 1.00169186281e-38
-0.00513563441834 -0.0650513692989 0.925 8.90911932455e-39
-0.00341635356261 -0.0649107176896 0.923 9.64272709659e-39
-0.00170817678131 -0.0649107176896 0.923 1.01022633098e-38
0.0 -0.0649107176896 0.923 1.01091044489e-38
0.00170817678131 -0.0649107176896 0.923 1.08423282652e-38
0.00341635356261 -0.0649107176896 0.923 1.23188806609e-38
0.00513563441834 -0.0650513692989 0.925 9.82641490449e-39
0.00684751255778 -0.0650513692989 0.925 1.08365885466e-38
0.00855939069723 -0.0650513692989 0.925 1.24028590766e-38
0.0102712688367 -0.0650513692989 0.925 9.45905610427e-39
0.0120220112366 -0.0652623467129 0.928 1.12039305313e-38
0.0137394414132 -0.0652623467129 0.928 1.08365885466e-38
0.0154568715899 -0.0652623467129 0.928 1.18478552016e-38
0.0171743017665 -0.0652623467129 0.928 1.13876015236e-38
0.0190342342316 -0.0657546273454 0.935 1.18471377368e-38
0.0208312436082 -0.0659656047594 0.938 1.22162747848e-38
0.0225671805756 -0.0659656047594 0.938 1.29541901483e-38
0.0243031175429 -0.0659656047594 0.938 1.55324279824e-38
0.0260390545103 -0.0659656047594 0.938 2.34885592538e-38
-0.0314134265286 -0.0645720434199 0.943 2.34892655082e-38
-0.029510928445 -0.064229667792 0.938 1.2242854614e-38
-0.0276861588823 -0.0640242424153 0.935 1.46216106053e-38
-0.0259557739521 -0.0640242424153 0.935 1.30722817738e-38
-0.024173570008 -0.0638872921641 0.933 1.27031545349e-38
-0.022446886436 -0.0638872921641 0.933 1.50083759879e-38
-0.020720202864 -0.0638872921641 0.933 5.6938007618e-39
-0.0189324468827 -0.0636818667874 0.93 8.54070114269e-39
-0.0172113153479 -0.0636818667874 0.93 8.35703015038e-39
-0.0154568715899 -0.0635449165362 0.928 9.45905610427e-39
-0.0137394414132 -0.0635449165362 0.928 8.81620763117e-39
-0.0120220112366 -0.0635449165362 0.928 1.00143738701e-38
-0.0103045810599 -0.0635449165362 0.928 8.72437213501e-39
-0.00858715088327 -0.0635449165362 0.928 8.90804312733e-39
-0.00684751255778 -0.0633394911595 0.925 8.90804312733e-39
-0.00513563441834 -0.0633394911595 0.925 9.73456259275e-39
-0.00342375627889 -0.0633394911595 0.925 9.55089160043e-39
-0.00170817678131 -0.0632025409083 0.923 9.45905610427e-39
0.0 -0.0632025409083 0.923 9.55089160043e-39
0.00171187813945 -0.0633394911595 0.925 1.00100690812e-38
0.00342375627889 -0.0633394911595 0.925 1.01019045774e-38
0.00513563441834 -0.0633394911595 0.925 1.01937400735e-38
0.00684751255778 -0.0633394911595 0.925 1.01019045774e-38
0.00855939069723 -0.0633394911595 0.925 1.01937400735e-38
0.0102712688367 -0.0633394911595 0.925 1.24021149871e-38
0.0120220112366 -0.0635449165362 0.928 1.12064584737e-38
0.0137394414132 -0.0635449165362 0.928 1.1020259539e-38
0.0154568715899 -0.0635449165362 0.928 1.13890406571e-38
0.0172113153479 -0.0636818667874 0.93 1.15712725159e-38
0.0190342342316 -0.0640242424153 0.935 1.21222854929e-38
0.0208312436082 -0.064229667792 0.938 1.3783950817e-38
0.0225671805756 -0.064229667792 0.938 1.09316526345e-38
0.0243549365569 -0.0643666180432 0.94 1.74692550756e-38
0.0260945748824 -0.0643666180432 0.94 2.34899997886e-38
-0.0315133631984 -0.0630267263967 0.946 2.34878473942e-38
-0.0295738515333 -0.0626269797177 0.94 1.23354033711e-38
-0.0277749914776 -0.0624937308247 0.938 1.44365074859e-38
-0.0259557739521 -0.0622938574851 0.935 1.32570261607e-38
-0.024173570008 -0.0621606085921 0.933 1.34414426438e-38
-0.022446886436 -0.0621606085921 0.933 1.41800740708e-38
-0.020720202864 -0.0621606085921 0.933 6.24481373874e-39
-0.0189324468827 -0.0619607352526 0.93 8.90804312733e-39
-0.0172113153479 -0.0619607352526 0.93 8.72437213501e-39
-0.0154901838131 -0.0619607352526 0.93 9.27538511196e-39
-0.0137394414132 -0.0618274863596 0.928 8.63253663885e-39
-0.0120220112366 -0.0618274863596 0.928 1.01101554227e-38
-0.0103045810599 -0.0618274863596 0.928 8.35703015038e-39
-0.00858715088327 -0.0618274863596 0.928 9.1835496158e-39
-0.00684751255778 -0.06162761302 0.925 9.45905610427e-39
-0.00513563441834 -0.06162761302 0.925 9.64272709659e-39
-0.00342375627889 -0.06162761302 0.925 9.91823358506e-39
-0.00171187813945 -0.06162761302 0.925 8.72437213501e-39
0.0 -0.06162761302 0.925 1.01019045774e-38
0.00171187813945 -0.06162761302 0.925 1.00100690812e-38
0.00342375627889 -0.06162761302 0.925 9.91823358506e-39
0.00513563441834 -0.06162761302 0.925 1.01937400735e-38
0.00684751255778 -0.06162761302 0.925 1.03774110659e-38
0.00855939069723 -0.06162761302 0.925 1.01019045774e-38
0.0103045810599 -0.0618274863596 0.928 1.01937400735e-38
0.0120220112366 -0.0618274863596 0.928 1.01937400735e-38
0.0137690522784 -0.0619607352526 0.93 1.11120950351e-38
0.015540152148 -0.0621606085921 0.933 1.12039305313e-38
0.0173038493014 -0.0622938574851 0.935 1.13876015236e-38
0.0190953066409 -0.0624937308247 0.938 1.18485726664e-38
0.0208312436082 -0.0624937308247 0.938 1.23999471784e-38
0.0225671805756 -0.0624937308247 0.938 1.26776130678e-38
0.0243549365569 -0.0626269797177 0.94 1.73838767628e-38
0.0260945748824 -0.0626269797177 0.94 2.34863998529e-38
-0.0315799876449 -0.0614055315317 0.948 2.34878473942e-38
-0.0295738515333 -0.0608873413922 0.94 1.28885771503e-38
-0.0277749914776 -0.0607577938573 0.938 1.27863047832e-38
-0.0259557739521 -0.060563472555 0.935 1.30729880282e-38
-0.024225389022 -0.060563472555 0.935 1.30715629076e-38
-0.0224950040919 -0.060563472555 0.935 1.44545155725e-38
-0.0207646191617 -0.060563472555 0.935 6.06114274643e-39
-0.018993519292 -0.0604339250201 0.933 8.72437213501e-39
-0.01726683572 -0.0604339250201 0.933 8.99987862348e-39
-0.0154901838131 -0.0602396037178 0.93 9.09171411964e-39
-0.0137690522784 -0.0602396037178 0.93 8.81620763117e-39
-0.0120479207436 -0.0602396037178 0.93 8.90804312733e-39
-0.0103045810599 -0.0601100561829 0.928 9.0009548207e-39
-0.00858715088327 -0.0601100561829 0.928 1.05610820582e-38
