# .PCD v0.7 - Point Cloud Data file format
VERSION 0.7
FIELDS x y z rgb
SIZE 4 4 4 4
TYPE F F F F
COUNT 1 1 1 1
WIDTH 841
HEIGHT 1
VIEWPOINT 0 0 0 1 0 0 0
POINTS 841
DATA ascii
0.020425944892 -0.0817037795678 0.849 1.767976794e-38
0.0219971714221 -0.0817037795678 0.849 2.05385289111e-38
0.0235683979523 -0.0817037795678 0.849 7.6424351959e-39
0.0251396244824 -0.0817037795678 0.849 3.96291689866e-39
0.0267737741009 -0.0818962501911 0.851 1.03182398369e-38
0.0283487019892 -0.0818962501911 0.851 1.40028532554e-38
0.0300291185845 -0.082184956126 0.854 7.54814742743e-39
0.0316836256728 -0.0823774267492 0.856 8.83995543624e-39
0.0333455354773 -0.0825698973724 0.858 1.89728048876e-38
0.0350148479982 -0.0827623679957 0.86 2.03579477819e-38
0.0366064319981 -0.0827623679957 0.86 1.95288877624e-38
0.038198015998 -0.0827623679957 0.86 1.95285402404e-38
0.0398821339514 -0.0829548386189 0.862 2.07263617599e-38
0.0414774193095 -0.0829548386189 0.862 1.50073362244e-38
-0.0096716488181 -0.0822090149539 0.871 1.2982237137e-38
-0.00804120055772 -0.0820202456888 0.869 1.26126740943e-38
-0.00641815501362 -0.0818314764236 0.867 9.84792203332e-39
-0.00479696014859 -0.081548322526 0.864 7.45481814711e-39
-0.00319057071611 -0.0813595532609 0.862 1.05915967335e-38
-0.00159158399992 -0.0811707839958 0.86 4.05044760594e-39
0.0 -0.0809820147307 0.858 5.62205428042e-39
0.00158788264178 -0.0809820147307 0.858 1.55657676755e-38
0.00316836256728 -0.0807932454656 0.856 1.51011993995e-38
0.00475254385092 -0.0807932454656 0.856 1.58401881576e-38
0.00633672513455 -0.0807932454656 0.856 1.66674250879e-38
0.0079023996275 -0.0806044762005 0.854 1.27120415697e-38
0.00948287955299 -0.0806044762005 0.854 1.17068733657e-38
0.0110633594785 -0.0806044762005 0.854 1.55704213877e-38
0.012643839404 -0.0806044762005 0.854 1.29875480582e-38
0.0142243193295 -0.0806044762005 0.854 1.27113241049e-38
0.0157492788829 -0.0803213223028 0.851 1.70423074595e-38
0.0173242067712 -0.0803213223028 0.851 1.6853607207e-38
0.0188991346595 -0.0803213223028 0.851 1.72202317268e-38
0.0204740625478 -0.0803213223028 0.851 1.76794092076e-38
0.0219971714221 -0.0801325530377 0.849 1.83247688076e-38
0.0235683979523 -0.0801325530377 0.849 1.6580304961e-38
0.0251988462126 -0.0803213223028 0.851 4.4192245202e-39
0.0268681587335 -0.0806044762005 0.854 6.90742472409e-39
0.028448638659 -0.0806044762005 0.854 1.26113274465e-38
0.0300994443891 -0.0807932454656 0.856 1.40910832106e-38
0.0316836256728 -0.0807932454656 0.856 1.0868243879e-38
0.0333455354773 -0.0809820147307 0.858 1.48308637023e-38
0.0350148479982 -0.0811707839958 0.86 2.09139353684e-38
0.0366064319981 -0.0811707839958 0.86 2.03565030432e-38
0.038198015998 -0.0811707839958 0.86 2.00809923509e-38
0.0398821339514 -0.0813595532609 0.862 2.12806145389e-38
0.0414774193095 -0.0813595532609 0.862 1.43623227452e-38
-0.00969385696694 -0.0807821413911 0.873 1.45484838449e-38
-0.00805970734842 -0.0805970734842 0.871 9.66568597063e-39
-0.00643296044618 -0.0804120055772 0.869 1.30836911459e-38
-0.00481361626021 -0.0802269376702 0.867 1.45512654223e-38
-0.00319057071611 -0.0797642679028 0.862 8.38106522164e-39
-0.00159528535806 -0.0797642679028 0.862 1.27185253777e-38
0.0 -0.0795791999959 0.86 4.32810648885e-39
0.00159158399992 -0.0795791999959 0.86 1.6120398805e-38
0.00317576528356 -0.0793941320889 0.858 1.12290417998e-38
0.00476364792533 -0.0793941320889 0.858 1.16989812528e-38
0.00635153056711 -0.0793941320889 0.858 1.54735664404e-38
0.00792090641819 -0.0792090641819 0.856 8.93100200136e-39
0.00950508770183 -0.0792090641819 0.856 9.76900090381e-39
0.0110633594785 -0.079023996275 0.854 1.51937803864e-38
0.012643839404 -0.079023996275 0.854 1.6580253113e-38
0.0142243193295 -0.079023996275 0.854 1.7038713129e-38
0.015804799255 -0.079023996275 0.854 1.72220253889e-38
0.0173852791805 -0.079023996275 0.854 1.75918785004e-38
0.0188991346595 -0.0787463944145 0.851 1.7498966807e-38
0.0204740625478 -0.0787463944145 0.851 1.67632066405e-38
0.0220489904361 -0.0787463944145 0.851 1.79595792174e-38
0.0236239183244 -0.0787463944145 0.851 2.13718670949e-38
0.025287678808 -0.079023996275 0.854 2.6639468534e-39
0.0268681587335 -0.079023996275 0.854 5.98834248861e-39
0.028448638659 -0.079023996275 0.854 1.84223874625e-38
0.0300994443891 -0.0792090641819 0.856 1.52839315218e-38
0.0317576528356 -0.0793941320889 0.858 1.0299601166e-38
0.0334232639983 -0.0795791999959 0.86 1.39809621707e-38
0.0350148479982 -0.0795791999959 0.86 1.29678892421e-38
0.0366915632353 -0.0797642679028 0.862 1.9223826488e-38
0.0382868485934 -0.0797642679028 0.862 2.06334556717e-38
0.0398821339514 -0.0797642679028 0.862 2.1372064678e-38
0.0418142429001 -0.0804120055772 0.869 1.34403678479e-38
0.0434224830117 -0.0804120055772 0.869 1.87546087037e-38
-0.00969385696694 -0.0791664985633 0.873 1.46428220601e-38
-0.00805970734842 -0.0789851320145 0.871 1.14177350458e-38
-0.00644776587873 -0.0789851320145 0.871 4.97274862399e-39
-0.00482472033463 -0.0788037654657 0.869 1.63033453261e-38
-0.00319797343239 -0.0783503490936 0.864 1.25219133941e-38
-0.0015989867162 -0.0783503490936 0.864 1.05865520591e-38
0.0 -0.0781689825448 0.862 1.14173763134e-38
0.00159528535806 -0.0781689825448 0.862 1.34453060237e-38
0.00318316799983 -0.0779876159959 0.86 8.38106522164e-39
0.00477475199975 -0.0779876159959 0.86 7.83543323079e-39
0.00636633599967 -0.0779876159959 0.86 1.17904762334e-38
0.00795791999959 -0.0779876159959 0.86 9.84899823054e-39
0.00952729585067 -0.0778062494471 0.858 1.48317913619e-38
0.0110892689855 -0.0776248828983 0.856 1.13215947607e-38
0.0126734502691 -0.0776248828983 0.856 7.82754111784e-39
0.0142576315527 -0.0776248828983 0.856 1.24276046062e-38
0.015804799255 -0.0774435163495 0.854 1.08620585475e-38
0.0173852791805 -0.0774435163495 0.854 1.11386412332e-38
0.018965759106 -0.0774435163495 0.854 7.63597801257e-39
0.0205462390315 -0.0774435163495 0.854 8.09838408503e-39
0.022126718957 -0.0774435163495 0.854 1.7870620587e-38
0.0237071988825 -0.0774435163495 0.854 2.05385289111e-38
0.025287678808 -0.0774435163495 0.854 7.36656997502e-39
0.0269940049102 -0.0778062494471 0.858 3.50804420675e-39
0.028581887552 -0.0778062494471 0.858 9.11327029392e-39
0.0301697701938 -0.0778062494471 0.858 1.59123466207e-38
0.0317576528356 -0.0778062494471 0.858 1.53609454841e-38
0.0334232639983 -0.0779876159959 0.86 1.6283630458e-38
0.0350962778772 -0.0781689825448 0.862 1.67399562964e-38
0.0366915632353 -0.0781689825448 0.862 2.18131920332e-38
0.0382868485934 -0.0781689825448 0.862 2.0174259974e-38
0.0399746679049 -0.0783503490936 0.864 2.10025955223e-38
0.0418142429001 -0.0788037654657 0.869 1.28871730492e-38
0.0434224830117 -0.0788037654657 0.869 1.8292548752e-38
-0.00974937733903 -0.0779950187122 0.878 1.4641741659e-38
-0.00807821413911 -0.0775508557355 0.873 1.2705225654e-38
-0.00644776587873 -0.0773731905448 0.871 7.82397060935e-39
-0.00482472033463 -0.0771955253541 0.869 1.35407134296e-38
-0.00320907750681 -0.0770178601634 0.867 1.43625693737e-38
-0.0016045387534 -0.0770178601634 0.867 1.46427393835e-38
0.0 -0.0767513623774 0.864 1.68546890094e-38
0.0015989867162 -0.0767513623774 0.864 7.35616673522e-39
0.00319057071611 -0.0765736971867 0.862 7.000676933e-39
0.00478585607417 -0.0765736971867 0.862 4.51787593208e-39
0.00636633599967 -0.076396031996 0.86 1.25316131821e-38
0.00795791999959 -0.076396031996 0.86 1.10496840041e-38
0.0095495039995 -0.076396031996 0.86 1.68604567539e-38
0.0111151784924 -0.0762183668053 0.858 8.18699098952e-39
0.0127030611342 -0.0762183668053 0.858 4.52110452375e-39
0.0142576315527 -0.0760407016146 0.856 1.57570561262e-38
0.0158418128364 -0.0760407016146 0.856 1.54760747647e-38
0.01742599412 -0.0760407016146 0.856 1.51141137661e-38
0.0190101754037 -0.0760407016146 0.856 1.65841991695e-39
0.0205462390315 -0.075863036424 0.854 1.63080200577e-38
0.022126718957 -0.075863036424 0.854 1.76844314613e-38
0.0237627192546 -0.0760407016146 0.856 2.00761088257e-38
0.0254061222684 -0.0762183668053 0.858 1.40917740507e-38
0.0269940049102 -0.0762183668053 0.858 2.39633247787e-39
0.028581887552 -0.0762183668053 0.858 8.47149101154e-39
0.0302400959984 -0.076396031996 0.86 1.47231318764e-38
0.0318316799983 -0.076396031996 0.86 1.47101880825e-38
0.0335009925192 -0.0765736971867 0.862 1.60009044798e-38
0.0351777077563 -0.0767513623774 0.864 1.80367487238e-38
0.0367766944725 -0.0767513623774 0.864 2.14600045644e-38
0.0383756811887 -0.0767513623774 0.864 2.03586512338e-38
0.0402060027886 -0.0771955253541 0.869 2.14639071806e-38
0.0418142429001 -0.0771955253541 0.869 1.27942739675e-38
0.0434224830117 -0.0771955253541 0.869 1.70936454301e-38
-0.0131324186784 -0.0771529597355 0.887 2.31198131681e-38
-0.0114649568366 -0.076978995903 0.885 2.34907578911e-38
-0.00974937733903 -0.076370122489 0.878 1.44559196735e-38
-0.00807821413911 -0.0759352129077 0.873 1.52813279093e-38
-0.00646257131129 -0.0759352129077 0.873 1.28006484742e-38
-0.00483582440905 -0.0757612490751 0.871 1.04039642705e-38
-0.00321648022309 -0.0755872852426 0.869 1.01234285218e-38
-0.00160824011154 -0.0755872852426 0.869 1.54678295245e-38
0.0 -0.07541332141 0.867 1.20641708429e-38
0.0015989867162 -0.0751523756612 0.864 1.5015109227e-38
0.00319797343239 -0.0751523756612 0.864 1.44612207856e-38
0.00478585607417 -0.0749784118287 0.862 1.31715777829e-38
0.00638114143223 -0.0749784118287 0.862 1.575409238e-38
0.00797642679028 -0.0749784118287 0.862 6.1590766935e-39
0.00957171214834 -0.0749784118287 0.862 1.26209571696e-38
0.0111410879994 -0.0748044479961 0.86 6.72156910747e-39
0.0127030611342 -0.0746304841636 0.858 1.66415963546e-39
0.014290943776 -0.0746304841636 0.858 1.5755604381e-38
0.0158788264178 -0.0746304841636 0.858 1.83287148641e-38
0.01742599412 -0.074456520331 0.856 5.14745130614e-39
0.0190101754037 -0.074456520331 0.856 1.26252885831e-38
0.0205943566873 -0.074456520331 0.856 1.40081417558e-38
0.0222303569849 -0.0746304841636 0.858 1.72241777833e-38
0.0238737599988 -0.0748044479961 0.86 1.90626813685e-38
0.0254653439987 -0.0748044479961 0.86 1.87004134856e-38
0.0270569279986 -0.0748044479961 0.86 1.74595062422e-39
0.0286485119985 -0.0748044479961 0.86 1.08700221267e-38
0.0303104218031 -0.0749784118287 0.862 1.43521913573e-38
0.0319057071611 -0.0749784118287 0.862 1.77587170955e-38
0.0335787210401 -0.0751523756612 0.864 1.91423577979e-38
0.0352998525749 -0.07541332141 0.867 2.08102687093e-38
0.0369043913283 -0.07541332141 0.867 2.10025955223e-38
0.0385977626771 -0.0755872852426 0.869 2.08196293831e-38
0.0402060027886 -0.0755872852426 0.869 2.14646456649e-38
0.0418142429001 -0.0755872852426 0.869 1.42690523194e-38
0.0434224830117 -0.0755872852426 0.869 1.68163354705e-38
-0.0131324186784 -0.0755114074007 0.887 2.24747968863e-38
-0.0114649568366 -0.0753411449263 0.885 2.34947137567e-38
-0.00974937733903 -0.0747452262659 0.878 1.38105502645e-38
-0.00812448111586 -0.0747452262659 0.878 1.6570994734e-38
-0.00647737674385 -0.0744898325543 0.875 1.47309875556e-38
-0.00483582440905 -0.0741493076054 0.871 9.20257224245e-39
-0.00322388293937 -0.0741493076054 0.871 1.11361301064e-38
-0.00160824011154 -0.073979045131 0.869 1.2514738746e-38
0.0 -0.073979045131 0.869 1.65447386047e-39
0.0016045387534 -0.0738087826566 0.867 1.40954412488e-38
0.00320907750681 -0.0738087826566 0.867 1.58412643548e-38
0.00479696014859 -0.073553388945 0.864 1.65759567319e-38
0.00638114143223 -0.0733831264706 0.862 1.63919185994e-38
0.00797642679028 -0.0733831264706 0.862 1.17926104109e-38
0.00957171214834 -0.0733831264706 0.862 1.33645758178e-38
0.0111410879994 -0.0732128639962 0.86 1.40949549982e-38
0.0127326719993 -0.0732128639962 0.86 1.14238334967e-38
0.0143242559993 -0.0732128639962 0.86 1.60260367678e-38
0.0158788264178 -0.0730426015218 0.858 1.79599379498e-38
0.0174667090596 -0.0730426015218 0.858 1.25158149432e-38
0.0190545917013 -0.0730426015218 0.858 1.18751188645e-38
0.0206424743431 -0.0730426015218 0.858 1.28924993847e-38
0.0222821759988 -0.0732128639962 0.86 1.70408655234e-38
0.0238737599988 -0.0732128639962 0.86 1.767976794e-38
0.0254653439987 -0.0732128639962 0.86 2.0726141756e-38
0.0270569279986 -0.0732128639962 0.86 8.26519465422e-40
0.0286485119985 -0.0732128639962 0.86 1.42776871206e-38
0.0303104218031 -0.0733831264706 0.862 1.84080129429e-38
0.0319057071611 -0.0733831264706 0.862 1.60019764731e-38
0.0335787210401 -0.073553388945 0.864 1.67399366782e-38
0.0352998525749 -0.0738087826566 0.867 1.85016238842e-38
0.0369043913283 -0.0738087826566 0.867 1.80432885838e-38
0.0385977626771 -0.073979045131 0.869 2.05383901826e-38
0.0402985367421 -0.0741493076054 0.871 2.11887692336e-38
0.0419104782118 -0.0741493076054 0.871 1.40853897349e-38
0.0435224196815 -0.0741493076054 0.871 1.86580900681e-38
-0.0131324186784 -0.0738698550659 0.887 2.33045547525e-38
-0.0114649568366 -0.0737032939496 0.885 2.34932620115e-38
-0.00982710585995 -0.0737032939496 0.885 1.79600626654e-38
-0.00816149469725 -0.0734534522752 0.882 1.51902084766e-38
-0.00649958489268 -0.0731203300427 0.878 1.49153760127e-38
-0.00484692848347 -0.072703927252 0.873 1.39048268226e-38
-0.00322388293937 -0.0725373661358 0.871 1.14191699754e-38
-0.00161194146968 -0.0725373661358 0.871 1.47435698145e-38
0.0 -0.0723708050195 0.869 2.94949784926e-39
0.00160824011154 -0.0723708050195 0.869 1.20772001161e-38
0.00321648022309 -0.0723708050195 0.869 7.27222335201e-39
0.00481361626021 -0.0722042439032 0.867 1.1326258282e-38
0.00639594686478 -0.0719544022288 0.864 1.34456493418e-38
0.00799493358098 -0.0719544022288 0.864 8.65549551289e-39
0.00957171214834 -0.0717878411125 0.862 1.4927931647e-38
0.0111669975064 -0.0717878411125 0.862 1.75918785004e-38
0.0127326719993 -0.0716212799963 0.86 1.75897261059e-38
0.0143242559993 -0.0716212799963 0.86 1.76822790669e-38
0.0159158399992 -0.0716212799963 0.86 1.70379956642e-38
0.0175074239991 -0.0716212799963 0.86 1.7959220485e-38
0.019099007999 -0.0716212799963 0.86 1.85127445888e-38
0.0207387096547 -0.0717878411125 0.862 1.73149370823e-38
0.0223339950128 -0.0717878411125 0.862 1.8051773446e-38
0.0239292803708 -0.0717878411125 0.862 1.82343682411e-38
0.0255245657289 -0.0717878411125 0.862 2.12767974019e-38
0.027119851087 -0.0717878411125 0.862 1.37753244237e-39
0.028715136445 -0.0717878411125 0.862 1.38108879774e-38
0.0303104218031 -0.0717878411125 0.862 1.49885574237e-38
0.0319797343239 -0.0719544022288 0.864 1.72858881651e-38
0.0336953138215 -0.0722042439032 0.867 1.52669491857e-38
0.035381282454 -0.0723708050195 0.869 1.1584193889e-38
0.0369895225655 -0.0723708050195 0.869 1.58269402819e-38
0.0386865952724 -0.0725373661358 0.871 2.10032765533e-38
0.0402985367421 -0.0725373661358 0.871 2.1372078691e-38
0.0420067135234 -0.072703927252 0.873 1.43616164908e-38
0.0436223563512 -0.072703927252 0.873 1.86598893353e-38
-0.0131028078133 -0.072065442973 0.885 2.20152438575e-38
-0.0114649568366 -0.072065442973 0.885 2.34936417633e-38
-0.00982710585995 -0.072065442973 0.885 1.93419433369e-38
-0.00816149469725 -0.0718211533358 0.882 1.50972939807e-38
-0.00649958489268 -0.0714954338195 0.878 1.27045081892e-38
-0.00485803255789 -0.0712511441823 0.875 1.45498276901e-38
-0.00323128565565 -0.0710882844242 0.873 1.15095705419e-38
-0.00161194146968 -0.0709254246661 0.871 1.17861532276e-38
0.0 -0.0709254246661 0.871 3.22177574607e-39
0.00160824011154 -0.0707625649079 0.869 1.08753316466e-38
0.00321648022309 -0.0707625649079 0.869 1.18794797053e-38
0.00482472033463 -0.0707625649079 0.869 1.29965163684e-38
0.00641815501362 -0.0705997051498 0.867 1.20720629559e-38
0.00802269376702 -0.0705997051498 0.867 5.97899302525e-39
0.00959392029717 -0.0703554155126 0.864 9.85186808979e-39
0.0111669975064 -0.0701925557545 0.862 1.61171688121e-38
0.0127622828645 -0.0701925557545 0.862 7.91722421956e-39
0.0143575682225 -0.0701925557545 0.862 1.94336653279e-38
0.0159528535806 -0.0701925557545 0.862 8.56114888988e-39
0.0175481389386 -0.0701925557545 0.862 1.75022290298e-38
0.0191434242967 -0.0701925557545 0.862 7.45015462582e-39
0.0207387096547 -0.0701925557545 0.862 1.2150277831e-38
0.0223339950128 -0.0701925557545 0.862 1.16882192805e-38
0.0239292803708 -0.0701925557545 0.862 1.9064885611e-38
0.0255245657289 -0.0701925557545 0.862 2.081653952e-38
0.0271827741753 -0.0703554155126 0.864 1.46936793853e-39
0.0287817608915 -0.0703554155126 0.864 1.26152370692e-38
0.0304862363147 -0.0705997051498 0.867 1.6743842097e-38
0.0320907750681 -0.0705997051498 0.867 1.32278987708e-38
0.0337730423424 -0.0707625649079 0.869 1.33355184929e-38
0.035381282454 -0.0707625649079 0.869 1.63865376133e-38
0.0370746538027 -0.0709254246661 0.871 2.04457895775e-38
0.0386865952724 -0.0709254246661 0.871 2.09107558222e-38
0.0403910706956 -0.0710882844242 0.873 2.07237833707e-38
0.0420067135234 -0.0710882844242 0.873 1.53761215465e-38
0.0436223563512 -0.0710882844242 0.873 1.88450022638e-38
-0.0131028078133 -0.0704275919963 0.885 2.34882201396e-38
-0.0114649568366 -0.0704275919963 0.885 2.34918144702e-38
-0.00982710585995 -0.0704275919963 0.885 2.03553918135e-38
-0.00816149469725 -0.0701888543963 0.882 1.44508679926e-38
-0.00651439032524 -0.0700296959964 0.88 1.35367673731e-38
-0.00487468866951 -0.0698705375964 0.878 9.30085791544e-39
-0.00323868837192 -0.0696317999964 0.875 1.40006153817e-38
-0.00161564282782 -0.0694726415964 0.873 1.60263856911e-38
0.0 -0.0693134831964 0.871 9.5752854041e-39
0.00161194146968 -0.0693134831964 0.871 1.57530329983e-38
0.00322388293937 -0.0693134831964 0.871 8.55935522785e-39
0.00482472033463 -0.0691543247964 0.869 1.25351864932e-38
0.00643296044618 -0.0691543247964 0.869 1.17032860416e-38
0.00804120055772 -0.0691543247964 0.869 1.02224666921e-38
0.00964944066926 -0.0691543247964 0.869 1.65853118004e-38
0.0111929070134 -0.0687564287964 0.864 8.83701411077e-39
0.0127918937296 -0.0687564287964 0.864 2.03329528212e-39
0.0143908804458 -0.0687564287964 0.864 1.85214382445e-38
0.015989867162 -0.0687564287964 0.864 3.77135379339e-39
0.0175888538782 -0.0687564287964 0.864 1.64002577265e-38
0.0191878405943 -0.0687564287964 0.864 5.70097540993e-39
0.0207868273105 -0.0687564287964 0.864 1.86139449626e-38
0.0223858140267 -0.0687564287964 0.864 2.8469003809e-39
0.0239848007429 -0.0687564287964 0.864 1.80564818088e-38
0.0255837874591 -0.0687564287964 0.864 2.08161891954e-38
0.0271827741753 -0.0687564287964 0.864 1.28569694621e-39
0.0288816975613 -0.0689951663964 0.867 1.17005030629e-38
0.0304862363147 -0.0689951663964 0.867 1.7124871965e-38
0.0321648022309 -0.0691543247964 0.869 1.33427001475e-38
0.0337730423424 -0.0691543247964 0.869 1.75811585671e-38
0.035462712333 -0.0693134831964 0.871 2.01648993003e-38
0.0370746538027 -0.0693134831964 0.871 1.79514250616e-38
0.0386865952724 -0.0693134831964 0.871 1.53667482611e-38
0.0403910706956 -0.0694726415964 0.873 2.31155223922e-38
0.0420067135234 -0.0694726415964 0.873 1.35336382737e-38
-0.0131324186784 -0.0689451980615 0.887 2.34875208917e-38
-0.0114908663436 -0.0689451980615 0.887 2.34907522859e-38
-0.00982710585995 -0.0687897410197 0.885 2.12762663098e-38
-0.00818925488329 -0.0687897410197 0.885 1.53699894644e-38
-0.0065291957578 -0.0685565554569 0.882 1.24300778979e-38
-0.00487468866951 -0.0682456413732 0.878 7.55346955899e-39
-0.00324979244634 -0.0682456413732 0.878 6.7233627695e-39
-0.00161934418596 -0.0680124558104 0.875 1.19773576005e-38
0.0 -0.0678569987686 0.873 1.54760747647e-38
0.00161564282782 -0.0678569987686 0.873 1.63018767653e-38
0.00323128565565 -0.0678569987686 0.873 1.19701829523e-38
0.00483582440905 -0.0677015417267 0.871 8.74374368498e-39
0.00644776587873 -0.0677015417267 0.871 1.43654490421e-38
0.00805970734842 -0.0677015417267 0.871 9.20650848984e-39
0.00964944066926 -0.0675460846849 0.869 1.26270219893e-38
0.0112576807808 -0.0675460846849 0.869 8.74986735927e-39
0.0128363100272 -0.067390627643 0.867 3.5991622381e-39
0.0144408487806 -0.067390627643 0.867 1.67726107545e-38
0.016045387534 -0.067390627643 0.867 3.31468743945e-39
0.0176499262875 -0.067390627643 0.867 1.69487567741e-38
0.0192544650409 -0.067390627643 0.867 3.5837367446e-39
0.0208590037943 -0.067390627643 0.867 1.00402026034e-38
0.0224635425477 -0.067390627643 0.867 1.574766042e-38
0.0240680813011 -0.067390627643 0.867 1.84216265574e-38
0.0256726200545 -0.067390627643 0.867 2.14611900629e-38
0.0272771588079 -0.067390627643 0.867 1.65303893084e-39
0.0289483220078 -0.0675460846849 0.869 1.52150927348e-38
0.0305565621193 -0.0675460846849 0.869 2.01761152932e-38
0.0321648022309 -0.0675460846849 0.869 3.94892633479e-39
0.0338507708634 -0.0677015417267 0.871 1.14913102216e-38
0.035462712333 -0.0677015417267 0.871 1.57379550269e-38
0.0370746538027 -0.0677015417267 0.871 1.60091511213e-38
0.0387754278677 -0.0678569987686 0.873 2.16424928608e-38
0.0404836046491 -0.0680124558104 0.875 2.19248853299e-38
0.042102948835 -0.0680124558104 0.875 1.35325634777e-38
-0.0114908663436 -0.0673036457267 0.887 2.3490386547e-38
-0.00984931400879 -0.0673036457267 0.887 2.17383206563e-38
-0.00818925488329 -0.067151890043 0.885 1.40799569008e-38
-0.00655140390664 -0.067151890043 0.885 1.29839607341e-38
-0.00489689681835 -0.0669242565174 0.882 7.82718238543e-39
-0.00324979244634 -0.06662074515 0.878 1.07845877619e-38
-0.00161934418596 -0.0663931116244 0.875 4.61186382268e-39
0.0 -0.0662413559407 0.873 7.36441758058e-39
0.00161564282782 -0.0662413559407 0.873 1.30775968988e-38
0.00323128565565 -0.0662413559407 0.873 1.52016444734e-38
0.00483582440905 -0.066089600257 0.871 1.66706536795e-38
0.00644776587873 -0.066089600257 0.871 1.62997243708e-38
0.00805970734842 -0.066089600257 0.871 1.59341760482e-38
0.0096716488181 -0.066089600257 0.871 1.4093878801e-38
0.0112576807808 -0.0659378445733 0.869 1.49229093933e-38
0.0128659208924 -0.0659378445733 0.869 1.38198072422e-38
0.0144741610039 -0.0659378445733 0.869 1.12326291238e-38
0.016045387534 -0.0657860888896 0.867 9.11180313443e-39
0.0176499262875 -0.0657860888896 0.867 1.77763146016e-38
0.0192544650409 -0.0657860888896 0.867 1.15971012492e-38
0.0208590037943 -0.0657860888896 0.867 1.65824055074e-38
0.0224635425477 -0.0657860888896 0.867 1.76822790669e-38
0.0240680813011 -0.0657860888896 0.867 1.76790504752e-38
0.0257318417847 -0.0659378445733 0.869 2.12757282111e-38
0.0273400818963 -0.0659378445733 0.869 1.83670992316e-39
0.0289483220078 -0.0659378445733 0.869 1.5761782706e-38
0.0305565621193 -0.0659378445733 0.869 1.93434497327e-38
0.0322388293937 -0.066089600257 0.871 1.53702487046e-38
0.0338507708634 -0.066089600257 0.871 1.14094856017e-38
0.035462712333 -0.066089600257 0.871 1.05757900869e-38
0.0371597850399 -0.0662413559407 0.873 1.97028169278e-38
0.0387754278677 -0.0662413559407 0.873 2.12788124691e-38
0.0406224055793 -0.06662074515 0.878 2.15568286831e-38
0.0425841253931 -0.067151890043 0.885 1.20581354505e-38
-0.0114908663436 -0.0656620933919 0.887 2.34929271011e-38
-0.00984931400879 -0.0656620933919 0.887 2.23840459951e-38
-0.00820776167399 -0.0656620933919 0.887 1.19602015034e-38
-0.00656620933919 -0.0656620933919 0.887 1.62993656384e-38
-0.00491355292998 -0.0655140390664 0.885 9.57385047447e-39
-0.00325719516262 -0.0651439032524 0.88 9.67179142804e-39
-0.00162489622317 -0.0649958489268 0.878 9.58174258742e-39
0.0 -0.0647737674385 0.875 1.02324831735e-38
0.00161934418596 -0.0647737674385 0.875 3.13675616565e-39
0.00323868837192 -0.0647737674385 0.875 8.66159396381e-39
0.00484692848347 -0.0646257131129 0.873 1.13241058876e-38
0.00646257131129 -0.0646257131129 0.873 1.45512654223e-38
0.00805970734842 -0.0644776587873 0.871 1.44612207856e-38
0.0096716488181 -0.0644776587873 0.871 1.62104000015e-38
0.0112835902878 -0.0644776587873 0.871 1.68550421367e-38
0.0128955317575 -0.0644776587873 0.871 1.67624891757e-38
0.0144741610039 -0.0643296044618 0.869 1.64855477576e-38
0.0160824011154 -0.0643296044618 0.869 1.76840727289e-38
0.017690641227 -0.0643296044618 0.869 1.72220253889e-38
0.0192988813385 -0.0643296044618 0.869 1.73127846878e-38
0.0209071214501 -0.0643296044618 0.869 1.77748320279e-38
0.0225153615616 -0.0643296044618 0.869 1.74042614516e-38
0.0241236016732 -0.0643296044618 0.869 1.84166043037e-38
0.0257318417847 -0.0643296044618 0.869 2.08143899281e-38
0.0274030049846 -0.0644776587873 0.871 2.75757601159e-39
0.0290149464543 -0.0644776587873 0.871 1.23429563698e-38
0.030626887924 -0.0644776587873 0.871 1.68475087561e-38
0.0322388293937 -0.0644776587873 0.871 1.08512965753e-38
0.0338507708634 -0.0644776587873 0.871 1.57354929455e-38
0.0355441422121 -0.0646257131129 0.873 1.44522776988e-38
0.0372449162771 -0.0647737674385 0.875 1.77707094078e-38
0.0389975093561 -0.0649958489268 0.878 2.04504937364e-38
0.0407149395328 -0.0651439032524 0.88 2.15564727533e-38
0.0425841253931 -0.0655140390664 0.885 1.19652181519e-38
-0.0115167758506 -0.0641648940246 0.889 2.34889474135e-38
-0.00987152215763 -0.0641648940246 0.889 2.30294154042e-38
-0.00820776167399 -0.0640205410571 0.887 1.2240028195e-38
-0.00656620933919 -0.0640205410571 0.887 1.50082877061e-38
-0.00491355292998 -0.0638761880897 0.885 1.52852319268e-38
-0.00325719516262 -0.0635153056711 0.88 1.1505265753e-38
-0.00162859758131 -0.0635153056711 0.88 8.93207819859e-39
0.0 -0.0633709527037 0.878 1.11572953184e-38
0.00162489622317 -0.0633709527037 0.878 6.36211923579e-39
0.00323868837192 -0.0631544232525 0.875 8.29927423287e-39
0.00484692848347 -0.0630100702851 0.873 8.10555873316e-39
0.00646257131129 -0.0630100702851 0.873 1.58424176235e-38
0.00807821413911 -0.0630100702851 0.873 4.59966692085e-39
0.00969385696694 -0.0630100702851 0.873 5.33757948178e-39
0.0113094997948 -0.0630100702851 0.873 7.82682365303e-39
0.0128955317575 -0.0628657173177 0.871 7.82502999099e-39
0.0145074732272 -0.0628657173177 0.871 1.12355045883e-38
0.0161194146968 -0.0628657173177 0.871 1.16932415342e-38
0.0177313561665 -0.0628657173177 0.871 1.33548900429e-38
0.0193432976362 -0.0628657173177 0.871 1.3633625123e-38
0.0209552391059 -0.0628657173177 0.871 1.50133099598e-38
0.0225671805756 -0.0628657173177 0.871 1.78659500592e-38
0.0241791220453 -0.0628657173177 0.871 1.79567093581e-38
0.0257910635149 -0.0628657173177 0.871 2.09987825892e-38
0.0274030049846 -0.0628657173177 0.871 2.20405190779e-39
0.0290149464543 -0.0628657173177 0.871 1.45538620284e-38
0.030626887924 -0.0628657173177 0.871 1.01234285218e-38
0.0323868837192 -0.0631544232525 0.875 6.24772003176e-39
0.0340062279052 -0.0631544232525 0.875 8.64652860402e-39
0.0357477169098 -0.0633709527037 0.878 8.2799026829e-39
0.0373726131329 -0.0633709527037 0.878 1.9893764863e-38
0.0389975093561 -0.0633709527037 0.878 1.97150838945e-38
0.0407149395328 -0.0635153056711 0.88 2.14642603078e-38
0.0426803607048 -0.0640205410571 0.887 1.26106057778e-38
-0.0115426853575 -0.0626602919409 0.891 2.34893187576e-38
-0.00987152215763 -0.0625196403316 0.889 2.34911152222e-38
-0.00822626846469 -0.0625196403316 0.889 1.03982609857e-38
-0.00658101477175 -0.0625196403316 0.889 1.47363685417e-38
-0.00492465700439 -0.0623789887223 0.887 1.32583910254e-38
-0.0032645978789 -0.0620273596991 0.882 1.60235032201e-38
-0.00162859758131 -0.0618867080898 0.88 1.06776700904e-38
0.0 -0.0617460564805 0.878 1.01349079588e-38
0.00162489622317 -0.0617460564805 0.878 5.62528287208e-39
0.00324979244634 -0.0617460564805 0.878 9.21798792686e-39
0.00485803255789 -0.0615350790666 0.875 1.105469785e-38
0.00647737674385 -0.0615350790666 0.875 1.66674811398e-38
0.00807821413911 -0.0613944274573 0.873 1.52913275751e-38
0.00969385696694 -0.0613944274573 0.873 3.86821154325e-39
0.0113094997948 -0.0613944274573 0.873 1.18974569633e-38
0.0129251426226 -0.0613944274573 0.873 6.91743700162e-39
0.0145407854504 -0.0613944274573 0.873 1.56637618784e-38
0.0161194146968 -0.061253775848 0.871 8.38285888367e-39
0.0177313561665 -0.061253775848 0.871 8.02305027958e-39
0.0193432976362 -0.061253775848 0.871 1.08782015058e-38
0.0210033567617 -0.0613944274573 0.873 1.35464531481e-38
0.0226189995895 -0.0613944274573 0.873 1.74074914445e-38
0.0242346424173 -0.0613944274573 0.873 1.79567093581e-38
0.0258502852452 -0.0613944274573 0.873 2.09080218889e-38
0.027465928073 -0.0613944274573 0.873 3.40150068191e-39
0.0291481953473 -0.0615350790666 0.875 9.67433198215e-39
0.0307675395333 -0.0615350790666 0.875 6.90418211945e-39
0.0324979244634 -0.0617460564805 0.878 7.91404327204e-39
0.0341228206866 -0.0617460564805 0.878 1.40860483452e-38
0.0358291467888 -0.0618867080898 0.88 2.07299588931e-38
0.0374577443701 -0.0618867080898 0.88 1.99909575232e-38
0.0390863419515 -0.0618867080898 0.88 1.9988073651e-38
0.0408074734862 -0.0620273596991 0.882 2.19241790755e-38
0.0426803607048 -0.0623789887223 0.887 1.14109653729e-38
0.0443219130396 -0.0623789887223 0.887 1.95832875701e-38
-0.0115426853575 -0.0610113368898 0.891 2.34871579554e-38
-0.00987152215763 -0.0608743866387 0.889 2.34922026298e-38
-0.00822626846469 -0.0608743866387 0.889 8.37175219204e-39
-0.00658101477175 -0.0608743866387 0.889 1.52899010533e-38
-0.00493576107881 -0.0608743866387 0.889 1.29803734101e-38
-0.00327570195332 -0.0606004861364 0.885 1.47306288232e-38
-0.00163229893945 -0.0603950607596 0.882 1.56543647709e-38
0.0 -0.0602581105085 0.88 1.49203982664e-38
0.00162489622317 -0.0601211602573 0.878 1.06823336117e-38
0.00324979244634 -0.0601211602573 0.878 9.75895639641e-39
0.00485803255789 -0.0599157348806 0.875 1.17911796852e-38
0.00647737674385 -0.0599157348806 0.875 1.32677516991e-38
0.00809672092981 -0.0599157348806 0.875 1.27145526966e-38
0.00971606511577 -0.0599157348806 0.875 7.92511633251e-39
0.0113354093017 -0.0599157348806 0.875 9.95808651339e-39
0.0129547534877 -0.0599157348806 0.875 1.05994664257e-38
0.0145740976737 -0.0599157348806 0.875 1.61182323976e-38
0.0161564282782 -0.0597787846294 0.873 8.83952523761e-39
0.0177720711061 -0.0597787846294 0.873 8.20851493393e-39
0.0193877139339 -0.0597787846294 0.873 1.08778427734e-38
0.0210033567617 -0.0597787846294 0.873 1.3729765408e-38
0.0226189995895 -0.0597787846294 0.873 1.74078487756e-38
0.0242346424173 -0.0597787846294 0.873 1.84169630362e-38
0.0259095069754 -0.0599157348806 0.875 2.12767974019e-38
0.0275288511614 -0.0599157348806 0.875 2.75685854677e-39
0.0292481320171 -0.0601211602573 0.878 1.17937132328e-38
0.0308730282403 -0.0601211602573 0.878 1.11314665851e-38
0.0324979244634 -0.0601211602573 0.878 9.92182090913e-39
0.0342005492075 -0.0602581105085 0.88 9.64272709659e-39
0.0358291467888 -0.0602581105085 0.88 2.04471894746e-38
0.0375428756073 -0.0603950607596 0.882 2.07267120845e-38
0.0391751745468 -0.0603950607596 0.882 2.10022255795e-38
0.0409462744165 -0.0606004861364 0.885 2.22000274808e-38
0.0427765960164 -0.0608743866387 0.889 1.33463729508e-38
0.0444218497093 -0.0608743866387 0.889 1.8292548752e-38
-0.0132360567063 -0.0595622551783 0.894 2.21063646915e-38
-0.0115426853575 -0.0593623818388 0.891 2.32120059954e-38
-0.00989373030646 -0.0593623818388 0.891 2.34936417633e-38
-0.00822626846469 -0.0592291329458 0.889 8.00154595335e-39
-0.00658101477175 -0.0592291329458 0.889 1.45509122951e-38
-0.00493576107881 -0.0592291329458 0.889 1.4823899249e-38
-0.0032831046696 -0.0590958840527 0.887 1.44551223347e-38
-0.00163785097666 -0.0589626351597 0.885 1.16003298409e-38
0.0 -0.0587627618202 0.882 1.5194130711e-38
0.00162859758131 -0.0586295129272 0.88 1.62089650719e-38
0.00325719516262 -0.0586295129272 0.88 1.61156946461e-38
0.00487468866951 -0.0584962640342 0.878 1.34470842714e-38
0.00649958489268 -0.0584962640342 0.878 1.0864210942e-38
0.00812448111586 -0.0584962640342 0.878 9.57098061522e-39
0.00971606511577 -0.0582963906946 0.875 8.28241380975e-39
0.0113354093017 -0.0582963906946 0.875 9.85832527312e-39
0.0129547534877 -0.0582963906946 0.875 9.30515990173e-39
0.0145740976737 -0.0582963906946 0.875 1.21614013382e-38
0.0161934418596 -0.0582963906946 0.875 7.37015729909e-39
0.0178127860456 -0.0582963906946 0.875 8.20600380709e-39
0.0194321302315 -0.0582963906946 0.875 1.10586467091e-38
0.0211236509012 -0.0584962640342 0.878 1.34495953983e-38
0.0227485471244 -0.0584962640342 0.878 1.76837139965e-38
0.0243734433476 -0.0584962640342 0.878 1.83244100752e-38
0.0259983395707 -0.0584962640342 0.878 2.08179870613e-38
0.0276232357939 -0.0584962640342 0.878 9.1835496158e-40
0.0293147564636 -0.0586295129272 0.88 1.4271158471e-38
0.0309433540449 -0.0586295129272 0.88 1.57304160411e-38
0.0325719516262 -0.0586295129272 0.88 1.84091059557e-38
0.0342782777284 -0.0587627618202 0.882 1.3066151093e-38
0.0359105766679 -0.0587627618202 0.882 1.84138087133e-38
0.0375428756073 -0.0587627618202 0.882 2.09074361462e-38
0.0393084234398 -0.0589626351597 0.885 1.87880254682e-38
0.0409462744165 -0.0589626351597 0.885 2.34936501711e-38
0.0426803607048 -0.0590958840527 0.887 1.15021072263e-38
0.0443219130396 -0.0590958840527 0.887 1.90311955933e-38
-0.0132360567063 -0.05790774809 0.894 2.34871509489e-38
-0.011581549618 -0.05790774809 0.894 2.33956741851e-38
-0.00992704252972 -0.05790774809 0.894 2.34936361582e-38
-0.00824477525538 -0.0577134267877 0.891 6.15656556665e-39
-0.00658101477175 -0.0575838792528 0.889 1.56537047593e-38
-0.00493576107881 -0.0575838792528 0.889 1.48242579814e-38
-0.00329050738588 -0.0575838792528 0.889 1.28892553787e-38
-0.0016415523348 -0.0574543317179 0.887 1.47338588161e-38
0.0 -0.0574543317179 0.887 1.2524424521e-38
0.00163785097666 -0.0573247841831 0.885 1.52855878566e-38
0.0032645978789 -0.0571304628807 0.882 1.5193393628e-38
0.00488579274393 -0.0570009153459 0.88 1.55650404016e-38
0.00651439032524 -0.0570009153459 0.88 1.69458014356e-38
0.00812448111586 -0.056871367811 0.878 1.70376369317e-38
0.00974937733903 -0.056871367811 0.878 1.63929947966e-38
0.0113742735622 -0.056871367811 0.878 1.60267290092e-38
0.0129991697854 -0.056871367811 0.878 1.50161798191e-38
0.0146240660085 -0.056871367811 0.878 1.46477616372e-38
0.0162489622317 -0.056871367811 0.878 1.48321500943e-38
0.0178738584549 -0.056871367811 0.878 1.54775096943e-38
0.0194987546781 -0.056871367811 0.878 1.60295988685e-38
0.0211236509012 -0.056871367811 0.878 1.70394305938e-38
0.0227485471244 -0.056871367811 0.878 1.82329333114e-38
0.0243734433476 -0.056871367811 0.878 1.85077223351e-38
0.026057561301 -0.0570009153459 0.88 1.8424188131e-38
0.0276861588823 -0.0570009153459 0.88 1.37753244237e-39
0.0293813809101 -0.0571304628807 0.882 1.59321245473e-38
0.0310136798495 -0.0571304628807 0.882 1.95132885079e-38
0.032645978789 -0.0571304628807 0.882 1.54556270175e-38
0.0343948705098 -0.0573247841831 0.885 1.4159168099e-38
0.0360327214865 -0.0573247841831 0.885 2.06276220662e-38
0.0376705724632 -0.0573247841831 0.885 1.26987754772e-38
0.0393972560352 -0.0574543317179 0.887 1.51844673568e-38
0.04103880837 -0.0574543317179 0.887 2.31248732569e-38
0.0426803607048 -0.0574543317179 0.887 1.23311420225e-38
0.0443219130396 -0.0574543317179 0.887 2.02286597817e-38
-0.011633368632 -0.0565049333552 0.898 2.26563168855e-38
-0.00994925067855 -0.0563790871785 0.896 2.34957983617e-38
-0.00827253544143 -0.0562532410017 0.894 8.18557147418e-39
-0.00659582020431 -0.0560644717366 0.891 1.57430291286e-38
-0.00493576107881 -0.0559386255599 0.889 1.46402282567e-38
-0.00329050738588 -0.0559386255599 0.889 1.51011993995e-38
-0.00164525369294 -0.0559386255599 0.889 1.33469979299e-38
0.0 -0.0558127793831 0.887 1.28892553787e-38
0.0016415523348 -0.0558127793831 0.887 1.72198912113e-38
0.00327570195332 -0.0556869332064 0.885 1.29789384805e-38
0.00489689681835 -0.0554981639413 0.882 1.2799572277e-38
0.00651439032524 -0.0553723177646 0.88 1.32609021523e-38
0.00814298790655 -0.0553723177646 0.88 1.51955460225e-38
0.00977158548786 -0.0553723177646 0.88 1.56575933625e-38
0.0113742735622 -0.0552464715878 0.878 1.60267290092e-38
0.0129991697854 -0.0552464715878 0.878 1.54724874406e-38
0.0146240660085 -0.0552464715878 0.878 1.71301898927e-38
0.0162489622317 -0.0552464715878 0.878 1.75911610355e-38
0.0178738584549 -0.0552464715878 0.878 1.74060551136e-38
0.0194987546781 -0.0552464715878 0.878 1.72213079241e-38
0.021171768557 -0.0553723177646 0.88 1.75886499087e-38
0.0227485471244 -0.0552464715878 0.878 1.79545569637e-38
0.0243734433476 -0.0552464715878 0.878 1.97058941792e-38
0.026057561301 -0.0553723177646 0.88 1.40917712481e-38
0.0276861588823 -0.0553723177646 0.88 5.98437401136e-39
0.0293813809101 -0.0554981639413 0.882 1.58337407834e-38
0.0310136798495 -0.0554981639413 0.882 1.69210488995e-38
0.0327570195332 -0.0556869332064 0.885 1.44372011287e-38
0.0343948705098 -0.0556869332064 0.885 2.21912749706e-38
0.0361141513656 -0.0558127793831 0.887 1.52831846297e-38
0.0377557037004 -0.0558127793831 0.887 7.16747348921e-39
0.0394860886305 -0.0559386255599 0.889 2.06284208063e-38
0.0411313423234 -0.0559386255599 0.889 2.22954629127e-38
0.0427765960164 -0.0559386255599 0.889 1.12255175341e-38
0.0444218497093 -0.0559386255599 0.889 2.07807475546e-38
-0.011633368632 -0.0548430235506 0.898 2.34882299487e-38
-0.00994925067855 -0.054720878732 0.896 2.3495090706e-38
-0.00829104223213 -0.054720878732 0.896 9.10785707795e-39
-0.0066328337857 -0.054720878732 0.896 1.41735594343e-38
-0.00497462533928 -0.054720878732 0.896 1.43665154302e-38
-0.00330901417657 -0.0545987339134 0.894 1.46380758622e-38
-0.00164895505108 -0.0544155166855 0.891 1.59298712593e-38
0.0 -0.0542933718669 0.889 1.39937924595e-38
0.0016415523348 -0.0541712270483 0.887 1.54678239193e-38
0.0032831046696 -0.0541712270483 0.887 1.27037907244e-38
0.00491355292998 -0.0540490822297 0.885 1.42746799341e-38
0.00655140390664 -0.0540490822297 0.885 1.41849968323e-38
0.00818925488329 -0.0540490822297 0.885 1.48260516434e-38
0.0097937936367 -0.0538658650018 0.882 1.45480340281e-38
0.0114260925761 -0.0538658650018 0.882 1.43632868386e-38
0.0130583915156 -0.0538658650018 0.882 1.50086464385e-38
0.014690690455 -0.0538658650018 0.882 1.46409457215e-38
0.0163229893945 -0.0538658650018 0.882 1.60224242203e-38
0.0179552883339 -0.0538658650018 0.882 1.49132236183e-38
0.0195875872734 -0.0538658650018 0.882 1.48235405166e-38
0.021171768557 -0.0537437201832 0.88 1.79588617526e-38
0.0228003661383 -0.0537437201832 0.88 1.832512754e-38
0.0244289637197 -0.0537437201832 0.88 2.12764442747e-38
0.0261167830312 -0.0538658650018 0.882 4.69221988182e-39
0.0277490819706 -0.0538658650018 0.882 1.08664067767e-38
0.0294813175799 -0.0540490822297 0.885 1.49035378433e-38
0.0311191685565 -0.0540490822297 0.885 2.08962201532e-38
0.0327570195332 -0.0540490822297 0.885 1.95154913491e-38
0.0344725990308 -0.0541712270483 0.887 1.58341723833e-38
0.0361141513656 -0.0541712270483 0.887 5.78563625795e-39
0.0377557037004 -0.0541712270483 0.887 1.94329842968e-38
0.0394860886305 -0.0542933718669 0.889 2.14639674365e-38
0.0411313423234 -0.0542933718669 0.889 2.21996743536e-38
0.0427765960164 -0.0542933718669 0.889 1.15960783013e-38
0.0444218497093 -0.0542933718669 0.889 1.8846801531e-38
-0.011633368632 -0.0531811137461 0.898 2.28435597876e-38
-0.00997145882739 -0.0531811137461 0.898 2.34910928014e-38
-0.00829104223213 -0.0530626702856 0.896 1.13205577999e-38
-0.0066328337857 -0.0530626702856 0.896 9.83823765963e-39
-0.00498572941369 -0.0531811137461 0.898 1.43693894934e-38
-0.00331641689285 -0.0530626702856 0.896 1.39019569633e-38
-0.00164895505108 -0.0527665616345 0.891 1.41796158462e-38
0.0 -0.052648118174 0.889 1.54696175813e-38
0.0016415523348 -0.0525296747135 0.887 1.57469177318e-38
0.0032831046696 -0.0525296747135 0.887 1.51022755967e-38
0.00492465700439 -0.0525296747135 0.887 1.52884577159e-38
0.00656620933919 -0.0525296747135 0.887 1.41788983814e-38
0.00818925488329 -0.0524112312531 0.885 1.5376705888e-38
0.00982710585995 -0.0524112312531 0.885 1.53759884231e-38
0.0114649568366 -0.0524112312531 0.885 1.54714112434e-38
0.0130583915156 -0.0522335660624 0.882 1.52888164483e-38
0.014690690455 -0.0522335660624 0.882 1.51962634873e-38
0.0163229893945 -0.0522335660624 0.882 1.69458014356e-38
0.0179552883339 -0.0522335660624 0.882 1.72213079241e-38
0.0195875872734 -0.0522335660624 0.882 1.71287549631e-38
0.0212198862128 -0.0522335660624 0.882 1.78641563972e-38
0.0228521851523 -0.0522335660624 0.882 1.82329333114e-38
0.0244844840917 -0.0522335660624 0.882 2.09087379524e-38
0.0262648373568 -0.0525296747135 0.887 1.28569694621e-39
0.0279063896916 -0.0525296747135 0.887 1.3530729178e-38
0.0295479420264 -0.0525296747135 0.887 2.08112552235e-38
0.0311894943612 -0.0525296747135 0.887 1.55553546266e-38
0.0329050738588 -0.052648118174 0.889 1.36985556886e-38
0.0345503275517 -0.052648118174 0.889 7.62234618111e-39
0.0361955812446 -0.052648118174 0.889 1.85085645155e-38
0.0378408349376 -0.052648118174 0.889 2.09104054976e-38
0.0395749212258 -0.0527665616345 0.891 2.04479826096e-38
0.0412238762769 -0.0527665616345 0.891 2.26595987265e-38
0.0430171842954 -0.0529442268251 0.894 1.10421660379e-38
0.0446716913837 -0.0529442268251 0.894 2.04126881051e-38
-0.013413721897 -0.0519781723508 0.906 2.23822313136e-38
-0.0116722328924 -0.051691317095 0.901 2.22889608879e-38
-0.0100047710506 -0.051691317095 0.901 2.34918242792e-38
-0.00833730920887 -0.051691317095 0.901 1.38098496153e-38
-0.00664763921826 -0.0515192039415 0.898 6.3366492349e-39
-0.00498572941369 -0.0515192039415 0.898 1.53824680272e-38
-0.00332381960913 -0.0515192039415 0.898 1.51008406671e-38
-0.00165820844643 -0.0514044618392 0.896 1.33495090567e-38
0.0 -0.0510028644811 0.889 1.31644031348e-38
0.00164525369294 -0.0510028644811 0.889 1.39952273891e-38
0.00329050738588 -0.0510028644811 0.889 1.63919185994e-38
0.00492465700439 -0.0508881223787 0.887 1.61131835193e-38
0.00656620933919 -0.0508881223787 0.887 1.67599780488e-38
0.00820776167399 -0.0508881223787 0.887 1.62075301423e-38
0.00984931400879 -0.0508881223787 0.887 1.59323823862e-38
0.0114649568366 -0.0507733802764 0.885 1.55639642043e-38
0.0131028078133 -0.0507733802764 0.885 1.54721287082e-38
0.0147406587899 -0.0507733802764 0.885 1.26141076227e-38
0.0163785097666 -0.0507733802764 0.885 1.75879534634e-38
0.0180163607432 -0.0507733802764 0.885 1.767976794e-38
0.0196542117199 -0.0507733802764 0.885 1.80467511923e-38
0.0212920626966 -0.0507733802764 0.885 1.83229751456e-38
0.0229299136732 -0.0507733802764 0.885 1.82329333114e-38
0.0245677646499 -0.0507733802764 0.885 1.81461312794e-38
0.0262648373568 -0.0508881223787 0.887 3.95323112368e-39
0.0279063896916 -0.0508881223787 0.887 1.88849280596e-38
0.0295479420264 -0.0508881223787 0.887 1.51890888392e-38
0.0312598201658 -0.0510028644811 0.889 9.46838314685e-39
0.0329050738588 -0.0510028644811 0.889 9.45905610427e-39
0.0345503275517 -0.0510028644811 0.889 1.9341160011e-38
0.0361955812446 -0.0510028644811 0.889 2.11884287181e-38
0.0378408349376 -0.0510028644811 0.889 2.04479826096e-38
0.0395749212258 -0.0511176065834 0.891 2.00795434082e-38
0.0412238762769 -0.0511176065834 0.891 2.18316205093e-38
0.0430171842954 -0.0512897197369 0.894 1.15035169326e-38
0.0446716913837 -0.0512897197369 0.894 1.99524288219e-38
-0.013413721897 -0.0503014571137 0.906 2.2104935367e-38
-0.0117370066599 -0.0503014571137 0.906 2.25655463761e-38
-0.0100269791995 -0.0501348959974 0.903 2.34893145537e-38
-0.00833730920887 -0.0500238552532 0.901 1.44577203421e-38
-0.00666984736709 -0.0500238552532 0.901 6.42848473106e-39
-0.00500238552532 -0.0500238552532 0.901 1.53742872468e-38
-0.00333492368355 -0.0500238552532 0.901 1.48264103758e-38
-0.00166190980456 -0.0498572941369 0.898 1.49164522099e-38
0.0 -0.0497462533928 0.896 1.46391520594e-38
0.00164895505108 -0.0494686515323 0.891 1.38129913264e-38
0.00329791010215 -0.0494686515323 0.891 1.28020834039e-38
0.00493576107881 -0.0493576107881 0.889 1.5012592495e-38
0.00658101477175 -0.0493576107881 0.889 1.41828444379e-38
0.00820776167399 -0.0492465700439 0.887 1.58419818197e-38
0.00984931400879 -0.0492465700439 0.887 1.65752308593e-38
0.0114649568366 -0.0491355292998 0.885 1.75861387818e-38
0.0131028078133 -0.0491355292998 0.885 1.74943032857e-38
0.0147406587899 -0.0491355292998 0.885 1.62082476071e-38
0.0163785097666 -0.0491355292998 0.885 1.72216666565e-38
0.0180163607432 -0.0491355292998 0.885 1.74935858209e-38
0.0196542117199 -0.0491355292998 0.885 1.78620040027e-38
0.0212920626966 -0.0491355292998 0.885 1.77712447038e-38
0.0229817326872 -0.0492465700439 0.887 2.01686673919e-38
0.024623285022 -0.0492465700439 0.887 8.37819536238e-39
0.0262648373568 -0.0492465700439 0.887 1.2430838803e-38
0.0279063896916 -0.0492465700439 0.887 1.33448693575e-38
0.0295479420264 -0.0492465700439 0.887 9.37080793218e-39
0.0312598201658 -0.0493576107881 0.889 7.89785266959e-39
0.0329050738588 -0.0493576107881 0.889 1.84195736552e-38
0.0346280560726 -0.0494686515323 0.891 2.07267555248e-38
0.0362770111237 -0.0494686515323 0.891 1.98958626068e-38
0.0379259661748 -0.0494686515323 0.891 1.97107678953e-38
0.0397081701189 -0.0496352126486 0.894 2.04497552521e-38
0.0414552111606 -0.0497462533928 0.896 2.21085507171e-38
0.0435945961652 -0.0503014571137 0.906 1.21492787052e-38
-0.0117370066599 -0.0486247418765 0.906 2.19209014384e-38
-0.0100602914227 -0.0486247418765 0.906 2.34907677002e-38
-0.00835581599956 -0.0484637327975 0.903 1.56577096703e-38
-0.00668465279965 -0.0484637327975 0.903 9.38481531163e-39
-0.00501348959974 -0.0484637327975 0.903 1.1415595263e-38
-0.00333492368355 -0.0483563934114 0.901 1.45519800846e-38
-0.00166190980456 -0.0481953843324 0.898 1.5838753228e-38
0.0 -0.0481953843324 0.898 1.59295125269e-38
0.00165820844643 -0.0480880449463 0.896 1.56540060385e-38
0.00329791010215 -0.0478196964812 0.891 1.47342161473e-38
0.00493576107881 -0.0477123570952 0.889 1.47367272741e-38
0.00658101477175 -0.0477123570952 0.889 1.28932014352e-38
0.00822626846469 -0.0477123570952 0.889 1.38151437209e-38
0.00987152215763 -0.0477123570952 0.889 1.47367272741e-38
0.0114908663436 -0.0476050177091 0.887 1.47338574148e-38
0.0131324186784 -0.0476050177091 0.887 1.47356510769e-38
0.0147739710132 -0.0476050177091 0.887 1.27992135446e-38
0.016415523348 -0.0476050177091 0.887 1.75911610355e-38
0.0180570756828 -0.0476050177091 0.887 1.59309474566e-38
0.0196986280176 -0.0476050177091 0.887 1.74986080746e-38
0.0213401803524 -0.0476050177091 0.887 1.79545569637e-38
0.0229817326872 -0.0476050177091 0.887 2.10016524484e-38
0.024623285022 -0.0476050177091 0.887 3.03308250006e-39
0.0262648373568 -0.0476050177091 0.887 1.12294257555e-38
0.0279693127799 -0.0477123570952 0.889 9.46371962556e-39
0.0296145664729 -0.0477123570952 0.889 1.16742539401e-38
0.0312598201658 -0.0477123570952 0.889 1.58367465686e-38
0.0329791010215 -0.0478196964812 0.891 2.06345725066e-38
0.0346280560726 -0.0478196964812 0.891 1.98973241611e-38
0.0363991559423 -0.0479807055603 0.894 1.94359704638e-38
0.0381387942678 -0.0480880449463 0.896 2.06338087989e-38
0.0398858353096 -0.0481953843324 0.898 2.01738914325e-38
0.0417790799978 -0.0484637327975 0.903 2.1831633121e-38
0.0434502431977 -0.0484637327975 0.903 1.05808543795e-38
-0.0117629161668 -0.0470516646673 0.908 2.13688150668e-38
-0.0100824995716 -0.0470516646673 0.908 2.32130807913e-38
-0.00838357618561 -0.0469480266394 0.906 1.48272259315e-38
-0.00670686094849 -0.0469480266394 0.906 1.01241459866e-38
-0.00501348959974 -0.0467925695976 0.903 1.07767124646e-38
-0.00334232639983 -0.0467925695976 0.903 1.14209678413e-38
-0.00167116319991 -0.0467925695976 0.903 1.46459679752e-38
0.0 -0.0465334745278 0.898 1.2337524937e-38
0.00165820844643 -0.0464298364999 0.896 1.39941511919e-38
0.00330901417657 -0.046326198472 0.894 1.6574158866e-38
0.00494686515323 -0.0461707414302 0.891 1.63908424022e-38
0.00659582020431 -0.0461707414302 0.891 1.62997243708e-38
0.00824477525538 -0.0461707414302 0.891 1.48242579814e-38
0.00989373030646 -0.0461707414302 0.891 1.62107587339e-38
0.0115167758506 -0.0460671034023 0.889 1.54721287082e-38
0.0131620295435 -0.0460671034023 0.889 1.39026744281e-38
0.0148072832364 -0.0460671034023 0.889 1.40874216177e-38
0.0164525369294 -0.0460671034023 0.889 1.68532484746e-38
0.0180977906223 -0.0460671034023 0.889 1.0309610641e-38
0.0197430443153 -0.0460671034023 0.889 1.80553803882e-38
0.0213882980082 -0.0460671034023 0.889 1.98013113943e-38
0.0230335517011 -0.0460671034023 0.889 1.32645273114e-38
0.0246788053941 -0.0460671034023 0.889 3.77135379339e-39
0.026324059087 -0.0460671034023 0.889 8.55505043897e-39
