# .PCD v0.7 - Point Cloud Data file format
VERSION 0.7
FIELDS x y z rgb
SIZE 4 4 4 4
TYPE F F F F
COUNT 1 1 1 1
WIDTH 839
HEIGHT 1
VIEWPOINT 0 0 0 1 0 0 0
POINTS 839
DATA ascii
0.0137690522784 -0.067124129857 0.93 1.50994057374e-38
0.015540152148 -0.0673406593081 0.933 1.54681826517e-38
0.01726683572 -0.0673406593081 0.933 1.27063018512e-38
0.0190342342316 -0.0674850122756 0.935 9.58030765779e-39
0.0207646191617 -0.0674850122756 0.935 7.65032730885e-39
0.0225671805756 -0.0677015417267 0.938 9.02750101881e-39
0.0243031175429 -0.0677015417267 0.938 1.27156288938e-38
0.0260945748824 -0.0678458946941 0.94 1.02263847226e-38
0.0278342132079 -0.0678458946941 0.94 1.02181338772e-38
0.0295738515333 -0.0678458946941 0.94 1.92453322155e-38
0.0313134898588 -0.0678458946941 0.94 2.34903262912e-38
-0.026483217487 -0.0670908176337 0.954 2.29318121636e-38
-0.0245622126127 -0.0666688628058 0.948 2.34910899988e-38
-0.0228077688546 -0.0666688628058 0.948 7.8099632299e-39
-0.0210533250966 -0.0666688628058 0.948 7.98968816575e-39
-0.019258166399 -0.0665282111965 0.946 8.90804312733e-39
-0.017451903627 -0.0663172337826 0.943 8.26519465422e-39
-0.0156567449294 -0.0661062563686 0.94 8.72437213501e-39
-0.0138874957388 -0.0659656047594 0.938 8.35703015038e-39
-0.0121515587715 -0.0659656047594 0.938 8.63253663885e-39
-0.0104156218041 -0.0659656047594 0.938 7.71418167727e-39
-0.00865192465071 -0.0657546273454 0.935 1.82212576926e-38
-0.00692153972057 -0.0657546273454 0.935 1.34450369744e-38
-0.00518005071601 -0.0656139757361 0.933 1.40868064476e-38
-0.00345336714401 -0.0656139757361 0.933 1.50055243455e-38
-0.001726683572 -0.0656139757361 0.933 1.40849917661e-38
0.0 -0.0654029983222 0.93 1.40831770846e-38
0.00172113153479 -0.0654029983222 0.93 1.57441431609e-38
0.00344226306959 -0.0654029983222 0.93 1.47310674296e-38
0.00516339460438 -0.0654029983222 0.93 1.07634071356e-38
0.00688452613918 -0.0654029983222 0.93 1.15841868826e-38
0.00860565767397 -0.0654029983222 0.93 1.62922218188e-38
0.010360101432 -0.0656139757361 0.933 2.38772290011e-39
0.012086785004 -0.0656139757361 0.933 1.59403683861e-38
0.013813468576 -0.0656139757361 0.933 1.51919586984e-38
0.015540152148 -0.0656139757361 0.933 1.60217067555e-38
0.0173038493014 -0.0657546273454 0.935 1.25215546617e-38
0.0190342342316 -0.0657546273454 0.935 9.67286061877e-39
0.0208312436082 -0.0659656047594 0.938 7.74575012908e-39
0.0225671805756 -0.0659656047594 0.938 1.17976326646e-38
0.0243031175429 -0.0659656047594 0.938 5.7095849877e-39
0.0260945748824 -0.0661062563686 0.94 1.09535353113e-38
0.0278342132079 -0.0661062563686 0.94 1.88740301615e-38
0.0295738515333 -0.0661062563686 0.94 1.75890086411e-38
0.0313134898588 -0.0661062563686 0.94 2.3490696234e-38
-0.026483217487 -0.0653252698012 0.954 2.31151118118e-38
-0.0246399411336 -0.0651198444245 0.951 2.34925375402e-38
-0.0228077688546 -0.0649144190478 0.948 6.8901733387e-39
-0.0210533250966 -0.0649144190478 0.948 1.15824086348e-38
-0.019258166399 -0.0647774687966 0.946 7.8985701344e-39
-0.0175074239991 -0.0647774687966 0.946 8.63253663885e-39
-0.0157067132643 -0.0645720434199 0.943 8.63253663885e-39
-0.0139171066039 -0.0643666180432 0.94 8.26519465422e-39
-0.0121774682784 -0.0643666180432 0.94 8.72437213501e-39
-0.0104156218041 -0.064229667792 0.938 7.34683969264e-39
-0.00867968483676 -0.064229667792 0.938 1.77609857977e-38
-0.00692153972057 -0.0640242424153 0.935 1.38138180925e-38
-0.00519115479043 -0.0640242424153 0.935 1.41786363386e-38
-0.00345336714401 -0.0638872921641 0.933 1.50984206246e-38
-0.001726683572 -0.0638872921641 0.933 1.42686571533e-38
0.0 -0.0638872921641 0.933 1.43575737447e-38
0.00172113153479 -0.0636818667874 0.93 1.48193001874e-38
0.00344226306959 -0.0636818667874 0.93 1.57426984222e-38
0.00516339460438 -0.0636818667874 0.93 1.68501628154e-38
0.00688452613918 -0.0636818667874 0.93 1.33462804651e-38
0.00863341786002 -0.0638872921641 0.933 1.18679442164e-38
0.010360101432 -0.0638872921641 0.933 3.21424236553e-39
0.012086785004 -0.0638872921641 0.933 1.56641514393e-38
0.013813468576 -0.0638872921641 0.933 1.48249754462e-38
0.015540152148 -0.0638872921641 0.933 1.5836959566e-38
0.0173038493014 -0.0640242424153 0.935 1.22456894408e-38
0.0190342342316 -0.0640242424153 0.935 9.58246005224e-39
0.0208312436082 -0.064229667792 0.938 5.34618905954e-39
0.0225671805756 -0.064229667792 0.938 1.16918066046e-38
0.0243031175429 -0.064229667792 0.938 1.59295125269e-38
0.0260945748824 -0.0643666180432 0.94 1.74060551136e-38
0.0278342132079 -0.0643666180432 0.94 1.79545569637e-38
0.0295738515333 -0.0643666180432 0.94 1.81414649555e-38
0.0313134898588 -0.0643666180432 0.94 2.34899913808e-38
-0.0283079870497 -0.0636929708618 0.956 2.34835243884e-38
-0.026483217487 -0.0635597219688 0.954 2.3484935496e-38
-0.0246399411336 -0.0633598486293 0.951 2.34929102856e-38
-0.0228077688546 -0.0631599752897 0.948 1.07648532757e-38
-0.0210533250966 -0.0631599752897 0.948 7.80853951067e-39
-0.0192988813385 -0.0631599752897 0.948 7.71418167727e-39
-0.0175074239991 -0.0630267263967 0.946 8.99987862348e-39
-0.0157067132643 -0.0628268530572 0.943 8.44886564654e-39
-0.0139615229016 -0.0628268530572 0.943 8.54070114269e-39
-0.0121774682784 -0.0626269797177 0.94 8.44886564654e-39
-0.0104156218041 -0.0624937308247 0.938 7.4386751888e-39
-0.00867968483676 -0.0624937308247 0.938 1.78549933065e-38
-0.00694374786941 -0.0624937308247 0.938 1.36279989097e-38
-0.00519115479043 -0.0622938574851 0.935 1.47321758567e-38
-0.00346076986028 -0.0622938574851 0.935 1.44552190243e-38
-0.001726683572 -0.0621606085921 0.933 1.33456246574e-38
0.0 -0.0621606085921 0.933 1.57387523657e-38
0.001726683572 -0.0621606085921 0.933 1.52799055913e-38
0.00345336714401 -0.0621606085921 0.933 1.52806244574e-38
0.00518005071601 -0.0621606085921 0.933 1.55565092965e-38
0.00690673428801 -0.0621606085921 0.933 1.64806165883e-38
0.00863341786002 -0.0621606085921 0.933 1.7312189136e-38
0.0103823095809 -0.0622938574851 0.935 1.83670992316e-39
0.012112694511 -0.0622938574851 0.935 1.49262612992e-38
0.0138430794411 -0.0622938574851 0.935 1.50093639033e-38
0.0155734643713 -0.0622938574851 0.935 1.58348071715e-38
0.0173038493014 -0.0622938574851 0.935 1.39001633013e-38
0.0190953066409 -0.0624937308247 0.938 1.33520201836e-38
0.0208312436082 -0.0624937308247 0.938 1.4554132479e-38
0.0226152982314 -0.0626269797177 0.94 1.65759483241e-38
0.0243549365569 -0.0626269797177 0.94 1.74017503247e-38
0.0261778554405 -0.0628268530572 0.943 1.68485849533e-38
0.0280118783985 -0.0630267263967 0.946 1.53749122259e-38
0.0297626207984 -0.0630267263967 0.946 1.84133981329e-38
0.0315133631984 -0.0630267263967 0.946 2.34874564319e-38
-0.0283079870497 -0.0619237216712 0.956 2.24697396001e-38
-0.026483217487 -0.0617941741363 0.954 2.33909728288e-38
-0.0247176696545 -0.0617941741363 0.954 2.34928976739e-38
-0.0228799453383 -0.061599852834 0.951 1.11329393498e-38
-0.0210533250966 -0.0614055315317 0.948 1.15975454608e-38
-0.0192988813385 -0.0614055315317 0.948 8.63253663885e-39
-0.0175074239991 -0.0612759839968 0.946 8.63253663885e-39
-0.0157067132643 -0.0610816626945 0.943 8.72437213501e-39
-0.0139615229016 -0.0610816626945 0.943 8.26519465422e-39
-0.0121774682784 -0.0608873413922 0.94 8.72437213501e-39
-0.0104378299529 -0.0608873413922 0.94 7.62234618111e-39
-0.00867968483676 -0.0607577938573 0.938 1.73961465322e-38
-0.00694374786941 -0.0607577938573 0.938 1.39038501175e-38
-0.00520781090205 -0.0607577938573 0.938 1.41793608099e-38
-0.00346076986028 -0.060563472555 0.935 1.45474174568e-38
-0.00173038493014 -0.060563472555 0.935 1.45459699155e-38
0.0 -0.060563472555 0.935 1.50015558683e-38
0.001726683572 -0.0604339250201 0.933 1.56479496265e-38
0.00345336714401 -0.0604339250201 0.933 1.55572281626e-38
0.00518005071601 -0.0604339250201 0.933 1.53724543484e-38
0.00690673428801 -0.0604339250201 0.933 1.5648627855e-38
0.00863341786002 -0.0604339250201 0.933 1.73095715104e-38
0.0103823095809 -0.060563472555 0.935 1.744874427e-39
0.012112694511 -0.060563472555 0.935 1.46496870213e-38
0.0138430794411 -0.060563472555 0.935 1.51008406671e-38
0.0155734643713 -0.060563472555 0.935 1.58344484391e-38
0.0173593696735 -0.0607577938573 0.938 1.63876138105e-38
0.0190953066409 -0.0607577938573 0.938 1.69422141115e-38
0.0208756599059 -0.0608873413922 0.94 1.61131835193e-38
0.0226152982314 -0.0608873413922 0.94 1.64830366307e-38
0.0243549365569 -0.0608873413922 0.94 1.37172097738e-38
0.0262611359986 -0.0612759839968 0.946 1.61124660544e-38
0.0280118783985 -0.0612759839968 0.946 1.56507774468e-38
0.0297626207984 -0.0612759839968 0.946 1.94307758504e-38
0.0315133631984 -0.0612759839968 0.946 2.3491780839e-38
-0.0265387378591 -0.0601544724806 0.956 2.33005792687e-38
-0.0247176696545 -0.0600286263038 0.954 2.34903669288e-38
-0.0228799453383 -0.0598398570387 0.951 9.75000209923e-39
-0.0211199495431 -0.0598398570387 0.951 1.24280095814e-38
-0.0193599537478 -0.0598398570387 0.951 7.89785266959e-39
-0.0175444375805 -0.0596510877736 0.948 8.81620763117e-39
-0.0157899938224 -0.0596510877736 0.948 8.72437213501e-39
-0.0140059391993 -0.0595252415969 0.946 8.63253663885e-39
-0.0122163325389 -0.0593364723318 0.943 8.35703015038e-39
-0.0104711421762 -0.0593364723318 0.943 7.53051068496e-39
-0.00869819162745 -0.0591477030667 0.94 1.6383789667e-38
-0.00694374786941 -0.0590218568899 0.938 1.44570168902e-38
-0.00520781090205 -0.0590218568899 0.938 1.43641023943e-38
-0.0034718739347 -0.0590218568899 0.938 1.45474174568e-38
-0.00173038493014 -0.0588330876248 0.935 1.54686506854e-38
0.0 -0.0588330876248 0.935 1.28843003874e-38
0.00173038493014 -0.0588330876248 0.935 1.44490238838e-38
0.00346076986028 -0.0588330876248 0.935 1.13101153237e-38
0.00519115479043 -0.0588330876248 0.935 9.46623075241e-39
0.00692153972057 -0.0588330876248 0.935 1.01969686652e-38
0.00865192465071 -0.0588330876248 0.935 1.74853756132e-38
0.0103823095809 -0.0588330876248 0.935 2.57139389242e-39
0.012112694511 -0.0588330876248 0.935 1.2987274805e-38
0.0138430794411 -0.0588330876248 0.935 1.57469177318e-38
0.0156234327062 -0.0590218568899 0.938 1.67578256544e-38
0.0173593696735 -0.0590218568899 0.938 1.57451240698e-38
0.0191360215804 -0.0591477030667 0.94 1.31611745431e-38
0.0209422843524 -0.0593364723318 0.943 1.34391921585e-38
0.0226874747151 -0.0593364723318 0.943 1.5099047005e-38
0.0245103935987 -0.0595252415969 0.946 1.51941110929e-38
0.0262611359986 -0.0595252415969 0.946 1.60224242203e-38
0.0280711001288 -0.0596510877736 0.948 1.63897662049e-38
0.0298255438868 -0.0596510877736 0.948 2.00746963169e-38
-0.0265387378591 -0.05838522329 0.956 2.34853124453e-38
-0.0247176696545 -0.0582630784714 0.954 2.3491818674e-38
-0.0229521218221 -0.0582630784714 0.954 1.03038919419e-38
-0.0211865739896 -0.0582630784714 0.954 1.22446749007e-38
-0.0193599537478 -0.0580798612435 0.951 7.89785266959e-39
-0.0175999579526 -0.0580798612435 0.951 8.81620763117e-39
-0.0157899938224 -0.0578966440156 0.948 8.90804312733e-39
-0.0140059391993 -0.057774499197 0.946 8.72437213501e-39
-0.0122551967994 -0.057774499197 0.946 8.81620763117e-39
-0.0105044543995 -0.057774499197 0.946 7.4386751888e-39
-0.0087259518135 -0.0575912819691 0.943 1.72146237304e-38
-0.0069807614508 -0.0575912819691 0.943 1.41800768734e-38
-0.00521891497647 -0.0574080647412 0.94 1.44548686997e-38
-0.0034718739347 -0.0572859199226 0.938 1.44548686997e-38
-0.00173593696735 -0.0572859199226 0.938 1.5375377457e-38
0.0 -0.0572859199226 0.938 1.27946214895e-38
0.00173593696735 -0.0572859199226 0.938 1.08512965753e-38
0.0034718739347 -0.0572859199226 0.938 1.09456431983e-38
0.00520781090205 -0.0572859199226 0.938 1.34417733502e-38
0.00694374786941 -0.0572859199226 0.938 1.59316985525e-38
0.00867968483676 -0.0572859199226 0.938 1.68504725024e-38
0.0104156218041 -0.0572859199226 0.938 3.489748854e-39
0.0121515587715 -0.0572859199226 0.938 1.07753027583e-38
0.0138874957388 -0.0572859199226 0.938 1.63022354977e-38
0.0156234327062 -0.0572859199226 0.938 1.62017904237e-38
0.0173963832549 -0.0574080647412 0.94 1.60199130935e-38
0.0191360215804 -0.0574080647412 0.94 1.39001633013e-38
0.0209422843524 -0.0575912819691 0.943 1.5838753228e-38
0.0227596511988 -0.057774499197 0.946 1.48235405166e-38
0.0245103935987 -0.057774499197 0.946 1.427109261e-38
0.0263166563707 -0.0578966440156 0.948 1.74028265219e-38
0.0280711001288 -0.0578966440156 0.948 1.85073636027e-38
0.0298255438868 -0.0578966440156 0.948 1.86921107922e-38
-0.0265387378591 -0.0566159740994 0.956 2.28392409857e-38
-0.0247176696545 -0.0564975306389 0.954 2.34914501326e-38
-0.0229521218221 -0.0564975306389 0.954 1.10411066562e-38
-0.0211865739896 -0.0564975306389 0.954 1.18773146992e-38
-0.0193599537478 -0.0563198654482 0.951 7.80601717343e-39
-0.0175999579526 -0.0563198654482 0.951 8.63253663885e-39
-0.0157899938224 -0.0561422002575 0.948 8.54070114269e-39
-0.0140059391993 -0.0560237567971 0.946 8.72437213501e-39
-0.0122551967994 -0.0560237567971 0.946 8.99987862348e-39
-0.0105044543995 -0.0560237567971 0.946 7.4386751888e-39
-0.0087259518135 -0.0558460916064 0.943 1.64795852326e-38
-0.0069807614508 -0.0558460916064 0.943 1.46396130866e-38
-0.00521891497647 -0.0556684264157 0.94 1.4547061527e-38
-0.00347927665098 -0.0556684264157 0.94 1.45470643296e-38
-0.00173593696735 -0.0555499829552 0.938 1.50066005428e-38
0.0 -0.0555499829552 0.938 1.63916803786e-38
0.00173593696735 -0.0555499829552 0.938 1.4549216724e-38
0.0034718739347 -0.0555499829552 0.938 1.52874880173e-38
0.00520781090205 -0.0555499829552 0.938 1.59302972541e-38
0.00694374786941 -0.0555499829552 0.938 1.62976896855e-38
0.00867968483676 -0.0555499829552 0.938 1.53767843607e-38
0.0104156218041 -0.0555499829552 0.938 6.07262218345e-39
0.0121515587715 -0.0555499829552 0.938 5.80465187811e-39
0.0138874957388 -0.0555499829552 0.938 1.56604646231e-38
0.0156234327062 -0.0555499829552 0.938 1.59277188649e-38
0.0173963832549 -0.0556684264157 0.94 1.65702086056e-38
0.0191970939897 -0.0558460916064 0.943 1.66634790314e-38
0.0209422843524 -0.0558460916064 0.943 1.56522123764e-38
0.0227596511988 -0.0560237567971 0.946 1.53763471555e-38
0.0245622126127 -0.0561422002575 0.948 1.68507373478e-38
0.0263999369289 -0.0563198654482 0.951 1.80463924599e-38
0.0281599327241 -0.0563198654482 0.951 1.68489436857e-38
0.0299199285194 -0.0563198654482 0.951 1.98899421208e-38
-0.0247176696545 -0.0547319828065 0.954 2.34889221901e-38
-0.0229521218221 -0.0547319828065 0.954 1.17768766318e-38
-0.0211865739896 -0.0547319828065 0.954 1.15996558163e-38
-0.0194210261571 -0.0547319828065 0.954 7.80601717343e-39
-0.0175999579526 -0.054559869653 0.951 8.63253663885e-39
-0.0157899938224 -0.0543877564995 0.948 8.44886564654e-39
-0.0140355500644 -0.0543877564995 0.948 8.63253663885e-39
-0.0122551967994 -0.0542730143972 0.946 8.90804312733e-39
-0.0105044543995 -0.0542730143972 0.946 7.4386751888e-39
-0.00875371199954 -0.0542730143972 0.946 1.69412794454e-38
-0.0069807614508 -0.0541009012437 0.943 1.38120146214e-38
-0.00521891497647 -0.0539287880902 0.94 1.46392599594e-38
-0.00347927665098 -0.0539287880902 0.94 1.48218533532e-38
-0.00173593696735 -0.0538140459879 0.938 1.53746768078e-38
0.0 -0.0538140459879 0.938 1.51020387773e-38
0.00173593696735 -0.0538140459879 0.938 1.48268756069e-38
0.0034718739347 -0.0538140459879 0.938 1.584137786e-38
0.00520781090205 -0.0538140459879 0.938 1.39034395371e-38
0.00694374786941 -0.0538140459879 0.938 1.36217869536e-38
0.00867968483676 -0.0538140459879 0.938 9.74819442421e-39
0.0104156218041 -0.0538140459879 0.938 1.18729664701e-38
0.0121515587715 -0.0538140459879 0.938 1.37753244237e-39
0.0138874957388 -0.0538140459879 0.938 1.54800362354e-38
0.0156567449294 -0.0539287880902 0.94 1.6112107322e-38
0.0173963832549 -0.0539287880902 0.94 1.6112107322e-38
0.0191970939897 -0.0541009012437 0.943 1.64794493067e-38
0.0210089087989 -0.0542730143972 0.946 1.69404204495e-38
0.0227596511988 -0.0542730143972 0.946 1.71255263714e-38
0.0245622126127 -0.0543877564995 0.948 1.63901249374e-38
0.0263999369289 -0.054559869653 0.951 1.54696175813e-38
0.0282487653195 -0.0547319828065 0.954 1.69425728439e-38
0.0300143131519 -0.0547319828065 0.954 1.99817818209e-38
-0.0247694886685 -0.0530774757182 0.956 2.34910787885e-38
-0.0230002394779 -0.0530774757182 0.956 1.07627303085e-38
-0.0212309902873 -0.0530774757182 0.956 1.14142177866e-38
-0.0194210261571 -0.052966434974 0.954 8.0815236619e-39
-0.0176554783247 -0.052966434974 0.954 8.72437213501e-39
-0.0158399621573 -0.0527998738577 0.951 8.81620763117e-39
-0.0140355500644 -0.0526333127414 0.948 8.81620763117e-39
-0.0122551967994 -0.0525222719973 0.946 8.99987862348e-39
-0.0105044543995 -0.0525222719973 0.946 7.71418167727e-39
-0.00875371199954 -0.0525222719973 0.946 1.6482450888e-38
-0.0069807614508 -0.052355710881 0.943 1.36269030943e-38
-0.00521891497647 -0.0521891497647 0.94 1.53771529022e-38
-0.00347927665098 -0.0521891497647 0.94 1.51002198919e-38
-0.00173593696735 -0.0520781090205 0.938 1.48225750219e-38
0.0 -0.0520781090205 0.938 1.5653046149e-38
0.00173593696735 -0.0520781090205 0.938 1.30762474484e-38
0.00347927665098 -0.0521891497647 0.94 1.01230697894e-38
0.00521891497647 -0.0521891497647 0.94 9.7582389316e-39
0.00695855330196 -0.0521891497647 0.94 9.29368046471e-39
0.00869819162745 -0.0521891497647 0.94 1.17872504443e-38
0.0104378299529 -0.0521891497647 0.94 1.42715984787e-38
0.0121774682784 -0.0521891497647 0.94 1.744874427e-39
0.0139171066039 -0.0521891497647 0.94 1.53847213152e-38
0.0157067132643 -0.052355710881 0.943 1.65730784649e-38
0.017451903627 -0.052355710881 0.943 1.63872550781e-38
0.019258166399 -0.0525222719973 0.946 1.64776556446e-38
0.0210089087989 -0.0525222719973 0.946 1.66645552286e-38
0.0228077688546 -0.0526333127414 0.948 1.63908424022e-38
0.0245622126127 -0.0526333127414 0.948 1.36271679397e-38
0.0263999369289 -0.0527998738577 0.951 1.58362435024e-38
0.0281599327241 -0.0527998738577 0.951 1.80485448543e-38
-0.0247694886685 -0.0513082265276 0.956 2.34889291966e-38
-0.0230002394779 -0.0513082265276 0.956 1.03928687892e-38
-0.0212309902873 -0.0513082265276 0.956 1.15978957854e-38
-0.0194210261571 -0.0512008871415 0.954 8.26519465422e-39
-0.0176554783247 -0.0512008871415 0.954 8.44886564654e-39
-0.0158399621573 -0.0510398780625 0.951 8.81620763117e-39
-0.0140355500644 -0.0508788689834 0.948 8.99987862348e-39
-0.0122551967994 -0.0507715295974 0.946 9.1835496158e-39
-0.0105044543995 -0.0507715295974 0.946 7.4386751888e-39
-0.00875371199954 -0.0507715295974 0.946 1.65746493204e-38
-0.00700296959964 -0.0507715295974 0.946 1.39960457474e-38
-0.0052355710881 -0.0506105205183 0.943 1.44552218269e-38
-0.0034903807254 -0.0506105205183 0.943 1.51924155217e-38
-0.00173963832549 -0.0504495114392 0.94 1.52849824957e-38
0.0 -0.0504495114392 0.94 1.55611994425e-38
0.00173963832549 -0.0504495114392 0.94 1.55647965756e-38
0.00347927665098 -0.0504495114392 0.94 8.00654858887e-39
0.00521891497647 -0.0504495114392 0.94 8.75307072756e-39
0.00695855330196 -0.0504495114392 0.94 7.46235152765e-39
0.00869819162745 -0.0504495114392 0.94 6.07872063436e-39
0.0104378299529 -0.0504495114392 0.94 1.02192170809e-38
0.0122163325389 -0.0506105205183 0.943 2.57354628686e-39
0.0139615229016 -0.0506105205183 0.943 1.22511432944e-38
0.0157067132643 -0.0506105205183 0.943 1.61164121109e-38
0.0175074239991 -0.0507715295974 0.946 1.71248089066e-38
0.019258166399 -0.0507715295974 0.946 1.55600181479e-38
0.0210089087989 -0.0507715295974 0.946 1.48206706573e-38
0.0228077688546 -0.0508788689834 0.948 1.35299514574e-38
0.0246399411336 -0.0510398780625 0.951 1.56479075875e-38
0.0263999369289 -0.0510398780625 0.951 1.94268087745e-38
0.0281599327241 -0.0510398780625 0.951 1.80453162626e-38
0.0300143131519 -0.0512008871415 0.954 1.97887992003e-38
-0.0247694886685 -0.049538977337 0.956 2.31204998044e-38
-0.0230002394779 -0.049538977337 0.956 1.14098989848e-38
-0.0212309902873 -0.049538977337 0.956 1.12294677945e-38
-0.0194617410967 -0.049538977337 0.956 8.44886564654e-39
-0.0176554783247 -0.0494353393091 0.954 8.44886564654e-39
-0.0158399621573 -0.0492798822672 0.951 8.63253663885e-39
-0.0140355500644 -0.0491244252253 0.948 8.72437213501e-39
-0.0122811063063 -0.0491244252253 0.948 8.54070114269e-39
-0.0105266625483 -0.0491244252253 0.948 7.4386751888e-39
-0.00875371199954 -0.0490207871974 0.946 1.70359777944e-38
-0.00700296959964 -0.0490207871974 0.946 1.42722725033e-38
-0.0052355710881 -0.0488653301556 0.943 1.45474146542e-38
-0.0034903807254 -0.0488653301556 0.943 1.51924211269e-38
-0.00173963832549 -0.0487098731137 0.94 1.52842356036e-38
0.0 -0.0487098731137 0.94 1.51030925537e-38
0.00173963832549 -0.0487098731137 0.94 1.6299128819e-38
0.00347927665098 -0.0487098731137 0.94 1.1693691351e-38
0.0052355710881 -0.0488653301556 0.943 6.80766488512e-39
0.0069807614508 -0.0488653301556 0.943 7.55095843215e-39
0.0087259518135 -0.0488653301556 0.943 8.28887099307e-39
0.0104711421762 -0.0488653301556 0.943 6.90703376182e-39
0.0122163325389 -0.0488653301556 0.943 5.06745397941e-39
0.0139615229016 -0.0488653301556 0.943 4.05798098648e-39
0.0157566815992 -0.0490207871974 0.946 1.63991156683e-38
0.0175074239991 -0.0490207871974 0.946 1.6204660283e-38
0.019258166399 -0.0490207871974 0.946 1.49135823507e-38
0.0210533250966 -0.0491244252253 0.948 1.63872550781e-38
0.0228077688546 -0.0491244252253 0.948 1.81393041532e-38
0.0246399411336 -0.0492798822672 0.951 1.74021090571e-38
0.026483217487 -0.0494353393091 0.954 1.88754230521e-38
0.0282487653195 -0.0494353393091 0.954 1.59262839353e-38
0.0300143131519 -0.0494353393091 0.954 2.08991474657e-38
-0.0247694886685 -0.0477697281463 0.956 2.27502753488e-38
-0.0230002394779 -0.0477697281463 0.956 1.01191573641e-38
-0.0212309902873 -0.0477697281463 0.956 1.04933054553e-38
-0.0194617410967 -0.0477697281463 0.956 8.26519465422e-39
-0.0176554783247 -0.0476697914766 0.954 8.44886564654e-39
-0.0158399621573 -0.0475198864719 0.951 8.81620763117e-39
-0.0140799663621 -0.0475198864719 0.951 8.63253663885e-39
-0.0122811063063 -0.0473699814673 0.948 8.81620763117e-39
-0.0105266625483 -0.0473699814673 0.948 7.53051068496e-39
-0.00877221879024 -0.0473699814673 0.948 1.66661162751e-38
-0.00700296959964 -0.0472700447975 0.946 1.39027907359e-38
-0.00525222719973 -0.0472700447975 0.946 1.45467140049e-38
-0.00350148479982 -0.0472700447975 0.946 1.62058625971e-38
-0.0017451903627 -0.0471201397929 0.943 1.51005856308e-38
0.0 -0.0471201397929 0.943 1.53775312527e-38
0.0017451903627 -0.0471201397929 0.943 1.50101906694e-38
0.0034903807254 -0.0471201397929 0.943 1.74072616316e-38
0.0052355710881 -0.0471201397929 0.943 7.63673050985e-39
0.0069807614508 -0.0471201397929 0.943 6.43960543567e-39
0.0087259518135 -0.0471201397929 0.943 8.4729007178e-39
0.0104711421762 -0.0471201397929 0.943 9.66712090026e-39
0.0122551967994 -0.0472700447975 0.946 5.15175609502e-39
0.0140059391993 -0.0472700447975 0.946 1.10668947519e-39
0.0157566815992 -0.0472700447975 0.946 1.61226142579e-38
0.0175074239991 -0.0472700447975 0.946 1.64830366307e-38
0.019258166399 -0.0472700447975 0.946 1.6664913961e-38
0.0210533250966 -0.0473699814673 0.948 1.69404204495e-38
0.0228799453383 -0.0475198864719 0.951 1.75843451198e-38
0.0247176696545 -0.0476697914766 0.954 1.36210694887e-38
0.026483217487 -0.0476697914766 0.954 1.84137358458e-38
0.0283079870497 -0.0477697281463 0.956 8.63468903329e-39
0.0300772362403 -0.0477697281463 0.956 2.20065880369e-38
-0.0247694886685 -0.0460004789557 0.956 2.21974715124e-38
-0.0230002394779 -0.0460004789557 0.956 1.12251531965e-38
-0.0212976147338 -0.0461448319232 0.959 1.03089169982e-38
-0.0194617410967 -0.0460004789557 0.956 8.26519465422e-39
-0.0176554783247 -0.0459042436441 0.954 8.81620763117e-39
-0.0158899304922 -0.0459042436441 0.954 9.1835496158e-39
-0.0140799663621 -0.0457598906767 0.951 9.1835496158e-39
-0.0122811063063 -0.0456155377093 0.948 8.81620763117e-39
-0.0105266625483 -0.0456155377093 0.948 7.53051068496e-39
-0.00877221879024 -0.0456155377093 0.948 1.63895518063e-38
-0.00700296959964 -0.0455193023976 0.946 1.45484866475e-38
-0.00525222719973 -0.0455193023976 0.946 1.49169230462e-38
-0.00350148479982 -0.0455193023976 0.946 1.48229281491e-38
-0.00175074239991 -0.0455193023976 0.946 1.51917176751e-38
0.0 -0.0455193023976 0.946 1.50069676829e-38
0.00175074239991 -0.0455193023976 0.946 1.57448914543e-38
0.00350148479982 -0.0455193023976 0.946 1.53771781255e-38
0.00525222719973 -0.0455193023976 0.946 1.69455772278e-38
0.00700296959964 -0.0455193023976 0.946 9.47772980761e-39
0.00875371199954 -0.0455193023976 0.946 1.02156227504e-38
0.0105044543995 -0.0455193023976 0.946 9.10750254944e-39
0.0122551967994 -0.0455193023976 0.946 7.63633674498e-39
0.0140059391993 -0.0455193023976 0.946 8.83235058948e-39
0.0157566815992 -0.0455193023976 0.946 9.93761774672e-39
0.0175074239991 -0.0455193023976 0.946 1.6027446474e-38
0.0192988813385 -0.0456155377093 0.948 1.68478674885e-38
0.0210533250966 -0.0456155377093 0.948 1.79531220341e-38
0.0228799453383 -0.0457598906767 0.951 1.74010328599e-38
0.0247176696545 -0.0459042436441 0.954 1.42657116239e-38
0.0265387378591 -0.0460004789557 0.956 1.95229476582e-38
0.0283079870497 -0.0460004789557 0.956 1.15870567418e-38
0.0300772362403 -0.0460004789557 0.956 2.23735909073e-38
0.0319464221007 -0.0461448319232 0.959 2.32108947657e-38
-0.0247694886685 -0.0442312297651 0.956 2.15528153643e-38
-0.0230002394779 -0.0442312297651 0.956 1.09489138289e-38
-0.0212976147338 -0.0443700306954 0.959 1.06777037216e-38
-0.0194617410967 -0.0442312297651 0.956 8.44886564654e-39
-0.0176554783247 -0.0441386958117 0.954 8.72437213501e-39
-0.0158899304922 -0.0441386958117 0.954 8.90804312733e-39
-0.0140799663621 -0.0439998948814 0.951 8.72437213501e-39
-0.0122811063063 -0.0438610939512 0.948 9.09171411964e-39
-0.0105266625483 -0.0438610939512 0.948 7.62234618111e-39
-0.00877221879024 -0.0438610939512 0.948 1.66672134918e-38
-0.00701777503219 -0.0438610939512 0.948 1.47314359711e-38
-0.00526333127414 -0.0438610939512 0.948 1.4822209283e-38
-0.00350148479982 -0.0437685599977 0.946 1.54672255649e-38
-0.00175074239991 -0.0437685599977 0.946 1.56530405438e-38
0.0 -0.0437685599977 0.946 1.54686478828e-38
0.00175074239991 -0.0437685599977 0.946 1.54693779593e-38
0.00350148479982 -0.0437685599977 0.946 1.54693933736e-38
0.00525222719973 -0.0437685599977 0.946 1.63916775761e-38
0.00700296959964 -0.0437685599977 0.946 1.22374848383e-38
0.00875371199954 -0.0437685599977 0.946 1.29692541068e-38
0.0105044543995 -0.0437685599977 0.946 1.19648019662e-38
0.0122551967994 -0.0437685599977 0.946 9.38121117198e-39
0.0140059391993 -0.0437685599977 0.946 1.04857482527e-38
0.0157899938224 -0.0438610939512 0.948 5.78563625795e-39
0.0175444375805 -0.0438610939512 0.948 1.67640123871e-38
0.0192988813385 -0.0438610939512 0.948 1.71276787659e-38
0.0211199495431 -0.0439998948814 0.951 1.7125167639e-38
0.0229521218221 -0.0441386958117 0.954 1.16896542102e-38
0.0247694886685 -0.0442312297651 0.956 1.67553453561e-38
0.0265387378591 -0.0442312297651 0.956 1.29714050999e-38
0.028396819645 -0.0443700306954 0.959 1.14019508199e-38
0.0301716208728 -0.0443700306954 0.959 2.34842670766e-38
0.0319464221007 -0.0443700306954 0.959 2.30261531814e-38
-0.0248472171894 -0.0425952294675 0.959 2.10921903422e-38
-0.0230724159616 -0.0425952294675 0.959 1.11322387005e-38
-0.0212976147338 -0.0425952294675 0.959 1.01238026685e-38
-0.0194617410967 -0.0424619805745 0.956 8.35703015038e-39
-0.0176924919061 -0.0424619805745 0.956 8.99987862348e-39
-0.0159232427154 -0.0424619805745 0.956 8.81620763117e-39
-0.0140799663621 -0.0422398990862 0.951 8.72437213501e-39
-0.0123199705668 -0.0422398990862 0.951 9.1835496158e-39
-0.0105266625483 -0.0421066501932 0.948 7.71418167727e-39
-0.00877221879024 -0.0421066501932 0.948 1.62980596282e-38
-0.00701777503219 -0.0421066501932 0.948 1.52838880816e-38
-0.00526333127414 -0.0421066501932 0.948 1.49144049129e-38
-0.0035088875161 -0.0421066501932 0.948 1.5282115439e-38
-0.00175444375805 -0.0421066501932 0.948 1.55597743219e-38
0.0 -0.0421066501932 0.948 1.5653046149e-38
0.00175444375805 -0.0421066501932 0.948 1.56526930218e-38
0.0035088875161 -0.0421066501932 0.948 1.51924365412e-38
0.00526333127414 -0.0421066501932 0.948 1.56530405438e-38
0.00700296959964 -0.0420178175978 0.946 1.33438394032e-38
0.00875371199954 -0.0420178175978 0.946 1.3708600196e-38
0.0105266625483 -0.0421066501932 0.948 1.38904775263e-38
0.0122811063063 -0.0421066501932 0.948 9.7370737196e-39
0.0140355500644 -0.0421066501932 0.948 6.97949770801e-39
0.0157899938224 -0.0421066501932 0.948 7.99435168703e-39
0.0175444375805 -0.0421066501932 0.948 1.00248093398e-38
0.0192988813385 -0.0421066501932 0.948 1.43679825897e-38
0.0211199495431 -0.0422398990862 0.951 1.10475232019e-38
0.0229521218221 -0.0423731479792 0.954 1.10464470047e-38
0.0247694886685 -0.0424619805745 0.956 1.40792086074e-38
0.0265387378591 -0.0424619805745 0.956 1.38933473856e-38
0.028396819645 -0.0425952294675 0.959 9.09781257056e-39
0.0301716208728 -0.0425952294675 0.959 2.34853390699e-38
0.0320463587704 -0.0427284783606 0.962 2.34878544007e-38
-0.0231445924453 -0.0409481250955 0.962 1.24229929329e-38
-0.0212976147338 -0.0408204282397 0.959 9.47808013222e-39
-0.019522813506 -0.0408204282397 0.959 8.17335915806e-39
-0.0176924919061 -0.0406927313839 0.956 8.54070114269e-39
-0.0159232427154 -0.0406927313839 0.956 8.99987862348e-39
-0.0141243826597 -0.0406076001467 0.954 8.90804312733e-39
-0.0123199705668 -0.0404799032909 0.951 9.09171411964e-39
-0.0105599747715 -0.0404799032909 0.951 7.62234618111e-39
-0.00877221879024 -0.0403522064351 0.948 1.63931251174e-38
-0.00701777503219 -0.0403522064351 0.948 1.51916854452e-38
-0.00526333127414 -0.0403522064351 0.948 1.50069508674e-38
-0.0035088875161 -0.0403522064351 0.948 1.55597743219e-38
-0.00175444375805 -0.0403522064351 0.948 1.51920679997e-38
0.0 -0.0403522064351 0.948 1.5653046149e-38
0.00175444375805 -0.0403522064351 0.948 1.57448886517e-38
0.0035088875161 -0.0403522064351 0.948 1.5470099628e-38
0.00526333127414 -0.0403522064351 0.948 1.61136641646e-38
0.00701777503219 -0.0403522064351 0.948 1.73121919386e-38
0.00877221879024 -0.0403522064351 0.948 1.06730359964e-38
0.0105266625483 -0.0403522064351 0.948 1.13876015236e-38
0.0122811063063 -0.0403522064351 0.948 1.36950019957e-38
0.0140355500644 -0.0403522064351 0.948 6.3366492349e-39
0.0157899938224 -0.0403522064351 0.948 9.92759145621e-39
0.0175444375805 -0.0403522064351 0.948 1.15063853905e-38
0.0193599537478 -0.0404799032909 0.951 1.07781151643e-38
0.0211865739896 -0.0406076001467 0.954 8.65119072401e-39
0.0230002394779 -0.0406927313839 0.956 1.54606983166e-38
0.0248472171894 -0.0408204282397 0.959 1.37075239988e-38
0.0266220184172 -0.0408204282397 0.959 9.6538478012e-39
0.0284856522404 -0.0409481250955 0.962 8.64078748421e-39
0.0302660055054 -0.0409481250955 0.962 2.34885914837e-38
0.0320463587704 -0.0409481250955 0.962 2.29353994876e-38
-0.0231445924453 -0.0391677718305 0.962 1.15013883602e-38
-0.0213642391803 -0.0391677718305 0.962 9.20041844671e-39
-0.019522813506 -0.0390456270119 0.959 8.44886564654e-39
-0.0177480122781 -0.0390456270119 0.959 8.72473086742e-39
-0.0159232427154 -0.0389234821933 0.956 9.09171411964e-39
-0.0141243826597 -0.0388420523143 0.954 9.1835496158e-39
-0.0123588348273 -0.0388420523143 0.954 9.64272709659e-39
-0.0105599747715 -0.0387199074957 0.951 7.71418167727e-39
-0.00879997897629 -0.0387199074957 0.951 1.62098156601e-38
-0.00703998318103 -0.0387199074957 0.951 1.48232784738e-38
-0.00527998738577 -0.0387199074957 0.951 1.509951644e-38
-0.0035088875161 -0.0385977626771 0.948 1.54686450802e-38
-0.00175444375805 -0.0385977626771 0.948 1.55597715193e-38
0.0 -0.0385977626771 0.948 1.54693807619e-38
0.00175444375805 -0.0385977626771 0.948 1.5653046149e-38
0.0035088875161 -0.0385977626771 0.948 1.58363584089e-38
0.00526333127414 -0.0385977626771 0.948 1.62051465336e-38
0.00701777503219 -0.0385977626771 0.948 1.61140200944e-38
0.00877221879024 -0.0385977626771 0.948 1.67593867009e-38
0.0105266625483 -0.0385977626771 0.948 1.46316789347e-38
0.0123199705668 -0.0387199074957 0.951 1.06643969913e-38
0.0140799663621 -0.0387199074957 0.951 8.35703015038e-39
0.0158399621573 -0.0387199074957 0.951 1.41718176203e-38
0.0175999579526 -0.0387199074957 0.951 1.22475265431e-38
0.0194210261571 -0.0388420523143 0.954 7.82108393452e-39
0.0212309902873 -0.0389234821933 0.956 1.50958492419e-38
0.0230002394779 -0.0389234821933 0.956 1.62889974311e-38
0.0248472171894 -0.0390456270119 0.959 9.65097794195e-39
0.0267052989754 -0.0391677718305 0.962 6.98380249689e-39
0.0284856522404 -0.0391677718305 0.962 8.09336183133e-39
0.0302660055054 -0.0391677718305 0.962 2.34875152865e-38
0.0320463587704 -0.0391677718305 0.962 2.34878487955e-38
-0.0231927101011 -0.0374651470864 0.964 1.18698037394e-38
-0.0213642391803 -0.0373874185655 0.962 8.37173817906e-39
-0.019522813506 -0.0372708257841 0.959 8.35703015038e-39
-0.0177480122781 -0.0372708257841 0.959 8.63253663885e-39
-0.0159232427154 -0.0371542330027 0.956 8.72437213501e-39
-0.0141539935248 -0.0371542330027 0.956 9.36722060812e-39
-0.0123588348273 -0.0370765044818 0.954 9.55089160043e-39
-0.0105932869948 -0.0370765044818 0.954 8.44886564654e-39
-0.00879997897629 -0.0369599117004 0.951 1.6944150706e-38
-0.00703998318103 -0.0369599117004 0.951 1.49147552375e-38
-0.00527998738577 -0.0369599117004 0.951 1.48225750219e-38
-0.00351999159051 -0.0369599117004 0.951 1.51906330701e-38
-0.00175444375805 -0.036843318919 0.948 1.55597715193e-38
0.0 -0.036843318919 0.948 1.58363584089e-38
0.00175444375805 -0.036843318919 0.948 1.59278323701e-38
0.0035088875161 -0.036843318919 0.948 1.62058597945e-38
0.00526333127414 -0.036843318919 0.948 1.56533950723e-38
0.00701777503219 -0.036843318919 0.948 1.68508634646e-38
0.00877221879024 -0.036843318919 0.948 1.52828160882e-38
0.0105266625483 -0.036843318919 0.948 1.34331413517e-38
0.0123199705668 -0.0369599117004 0.951 1.84163913064e-38
0.0141243826597 -0.0370765044818 0.954 9.66102665323e-39
0.0158899304922 -0.0370765044818 0.954 1.1878018151e-38
0.0176554783247 -0.0370765044818 0.954 7.36513504539e-39
0.0194617410967 -0.0371542330027 0.956 1.2152794563e-38
0.0212976147338 -0.0372708257841 0.959 1.37103938581e-38
0.0230724159616 -0.0372708257841 0.959 1.08480679837e-38
0.0249249457103 -0.0373874185655 0.962 7.99291675741e-39
0.0267052989754 -0.0373874185655 0.962 9.56740870543e-39
0.0284856522404 -0.0373874185655 0.962 6.53255356281e-39
0.0302660055054 -0.0373874185655 0.962 2.34882369552e-38
0.0321129832169 -0.0374651470864 0.964 2.34867768022e-38
-0.0231927101011 -0.0356810924633 0.964 1.42658125174e-38
-0.021408655478 -0.0356810924633 0.964 6.80587402568e-39
-0.0195838859153 -0.0356070653005 0.962 8.81620763117e-39
-0.0178035326502 -0.0356070653005 0.962 8.63253663885e-39
-0.0159732110503 -0.0354960245563 0.959 8.99987862348e-39
-0.0141539935248 -0.0353849838121 0.956 8.99987862348e-39
-0.0123847443342 -0.0353849838121 0.956 8.90804312733e-39
-0.0105932869948 -0.0353109566493 0.954 8.44886564654e-39
-0.00882773916233 -0.0353109566493 0.954 1.64831753593e-38
-0.00706219132986 -0.0353109566493 0.954 1.50069508674e-38
-0.0052966434974 -0.0353109566493 0.954 1.56516364428e-38
-0.00353109566493 -0.0353109566493 0.954 1.53768025775e-38
-0.00175999579526 -0.0351999159051 0.951 1.56530405438e-38
0.0 -0.0351999159051 0.951 1.57456103204e-38
0.00175999579526 -0.0351999159051 0.951 1.61133012283e-38
0.0035088875161 -0.035088875161 0.948 1.61140144892e-38
0.00526333127414 -0.035088875161 0.948 1.59303112671e-38
0.00701777503219 -0.035088875161 0.948 1.61140467191e-38
0.00877221879024 -0.035088875161 0.948 1.6574652123e-38
0.0105266625483 -0.035088875161 0.948 1.46370571182e-38
0.0123199705668 -0.0351999159051 0.951 1.17840288591e-38
0.0141243826597 -0.0353109566493 0.954 8.37496677072e-39
0.0158899304922 -0.0353109566493 0.954 8.19201464452e-39
0.0176924919061 -0.0353849838121 0.956 1.10468323617e-38
0.0194617410967 -0.0353849838121 0.956 1.26130538462e-38
0.0212976147338 -0.0354960245563 0.959 1.37118413994e-38
0.0231445924453 -0.0356070653005 0.962 1.44486749605e-38
0.0249249457103 -0.0356070653005 0.962 3.489748854e-39
0.0267608193474 -0.0356810924633 0.964 1.82234212975e-38
0.0285448739706 -0.0356810924633 0.964 1.57502766443e-38
0.0303289285938 -0.0356810924633 0.964 2.34872098034e-38
0.0321129832169 -0.0356810924633 0.964 2.27477712284e-38
-0.0231927101011 -0.0338970378401 0.964 1.38959173669e-38
-0.021408655478 -0.0338970378401 0.964 7.35724293244e-39
-0.0196856732641 -0.0340025265471 0.967 9.1835496158e-39
-0.0178405462316 -0.0338970378401 0.964 8.63253663885e-39
-0.0160231793852 -0.0338267120354 0.962 8.81620763117e-39
-0.0141984098225 -0.0337212233285 0.959 8.90804312733e-39
-0.0123847443342 -0.0336157346215 0.956 9.45905610427e-39
-0.0106154951436 -0.0336157346215 0.956 9.64452496252e-39
-0.00884624595303 -0.0336157346215 0.956 1.61158319733e-38
-0.00707699676242 -0.0336157346215 0.956 1.45481335203e-38
-0.00530774757182 -0.0336157346215 0.956 1.49169258488e-38
-0.00353109566493 -0.0335454088169 0.954 1.5286054489e-38
-0.00176554783247 -0.0335454088169 0.954 1.5010540994e-38
0.0 -0.0334399201099 0.951 1.53771781255e-38
0.00175999579526 -0.0334399201099 0.951 1.53764522529e-38
0.00353109566493 -0.0335454088169 0.954 1.60214685348e-38
0.00527998738577 -0.0334399201099 0.951 1.60214559231e-38
0.00703998318103 -0.0334399201099 0.951 1.58370842815e-38
0.00879997897629 -0.0334399201099 0.951 1.59299987775e-38
0.0105599747715 -0.0334399201099 0.951 1.69455800304e-38
0.0123588348273 -0.0335454088169 0.954 4.87050988804e-39
0.0141243826597 -0.0335454088169 0.954 9.39018508735e-39
0.0158899304922 -0.0335454088169 0.954 9.65533317757e-39
0.0176924919061 -0.0336157346215 0.956 1.29703471196e-38
0.019522813506 -0.0337212233285 0.959 1.2705225654e-38
0.0212976147338 -0.0337212233285 0.959 1.35274865734e-38
0.0231445924453 -0.0338267120354 0.962 1.50925898217e-38
0.0249767647243 -0.0338970378401 0.964 4.31626831943e-39
0.0267608193474 -0.0338970378401 0.964 1.9801146041e-38
0.0285448739706 -0.0338970378401 0.964 1.91553842684e-38
0.0303289285938 -0.0338970378401 0.964 2.34856921972e-38
0.0321129832169 -0.0338970378401 0.964 2.3023635048e-38
-0.0232648865848 -0.0322129198867 0.967 7.80601717343e-39
-0.0214752799245 -0.0322129198867 0.967 8.91918765401e-39
-0.0196856732641 -0.0322129198867 0.967 8.90804312733e-39
-0.0178405462316 -0.0321129832169 0.964 8.99987862348e-39
-0.0160231793852 -0.0320463587704 0.962 8.72437213501e-39
-0.0141984098225 -0.0319464221007 0.959 8.81620763117e-39
-0.0124236085947 -0.0319464221007 0.959 8.81620763117e-39
-0.0106488073669 -0.0319464221007 0.959 1.05664798599e-38
-0.00884624595303 -0.0318464854309 0.956 1.676011958e-38
-0.00707699676242 -0.0318464854309 0.956 1.45499215771e-38
-0.00530774757182 -0.0318464854309 0.956 1.49169230462e-38
-0.00353849838121 -0.0318464854309 0.956 1.54700828124e-38
-0.00176554783247 -0.0317798609844 0.954 1.5196008451e-38
0.0 -0.0317798609844 0.954 1.58385094021e-38
0.00176554783247 -0.0317798609844 0.954 1.65742961932e-38
0.00353109566493 -0.0317798609844 0.954 1.5928184096e-38
0.0052966434974 -0.0317798609844 0.954 1.62973169401e-38
0.00706219132986 -0.0317798609844 0.954 1.62054940556e-38
0.00882773916233 -0.0317798609844 0.954 1.65753527723e-38
0.0105932869948 -0.0317798609844 0.954 1.20581326479e-38
0.0123847443342 -0.0318464854309 0.956 1.00172437294e-38
0.0141539935248 -0.0318464854309 0.956 1.15910027983e-38
0.0159232427154 -0.0318464854309 0.956 9.45905610427e-39
0.0176924919061 -0.0318464854309 0.956 1.59088069408e-38
0.019522813506 -0.0319464221007 0.959 1.21470380289e-38
0.0213642391803 -0.0320463587704 0.962 1.27927563613e-38
0.0231927101011 -0.0321129832169 0.964 1.19622908394e-38
0.0249767647243 -0.0321129832169 0.964 6.06114274643e-39
0.0267608193474 -0.0321129832169 0.964 2.07220233399e-38
0.0285448739706 -0.0321129832169 0.964 1.47300262648e-38
0.0303289285938 -0.0321129832169 0.964 2.34846216051e-38
0.0322129198867 -0.0322129198867 0.967 2.34846047896e-38
-0.0232648865848 -0.0304233132263 0.967 7.98968816575e-39
-0.0214752799245 -0.0304233132263 0.967 8.45065930857e-39
-0.0196856732641 -0.0304233132263 0.967 8.81620763117e-39
-0.0178405462316 -0.0303289285938 0.964 8.81620763117e-39
-0.0160564916085 -0.0303289285938 0.964 9.09171411964e-39
-0.0142428261202 -0.0302660055054 0.962 8.81620763117e-39
-0.0124236085947 -0.0301716208728 0.959 8.0815236619e-39
-0.0106488073669 -0.0301716208728 0.959 1.12118492689e-38
-0.00887400613907 -0.0301716208728 0.959 1.63909769268e-38
-0.00707699676242 -0.0300772362403 0.956 1.53757333868e-38
-0.00530774757182 -0.0300772362403 0.956 1.51002409113e-38
-0.00353849838121 -0.0300772362403 0.956 1.55601246465e-38
-0.00176924919061 -0.0300772362403 0.956 1.55608280984e-38
0.0 -0.0300772362403 0.956 1.56530405438e-38
0.00176924919061 -0.0300772362403 0.956 1.59285540388e-38
0.00353849838121 -0.0300772362403 0.956 1.59285512362e-38
0.00530774757182 -0.0300772362403 0.956 1.64813606778e-38
0.00707699676242 -0.0300772362403 0.956 1.62973393608e-38
0.00884624595303 -0.0300772362403 0.956 1.62969638128e-38
0.0106154951436 -0.0300772362403 0.956 1.79564921569e-38
0.0123847443342 -0.0300772362403 0.956 1.54647046289e-38
0.0141984098225 -0.0301716208728 0.959 1.44505372861e-38
0.0159732110503 -0.0301716208728 0.959 1.40777358427e-38
0.0177480122781 -0.0301716208728 0.959 1.6844339019e-38
0.0195838859153 -0.0302660055054 0.962 1.45477859983e-38
0.0213642391803 -0.0302660055054 0.962 9.74030231126e-39
0.0231927101011 -0.0303289285938 0.964 1.36139354783e-38
0.0249767647243 -0.0303289285938 0.964 1.8512548407e-38
0.0267608193474 -0.0303289285938 0.964 1.8143772894e-38
0.0285448739706 -0.0303289285938 0.964 9.09853003537e-39
0.0303289285938 -0.0303289285938 0.964 2.34878544007e-38
0.0322129198867 -0.0304233132263 0.967 2.34842572675e-38
-0.0232648865848 -0.028633706566 0.967 8.0815236619e-39
-0.0214752799245 -0.028633706566 0.967 9.92146357802e-39
-0.0197467456734 -0.0287225391613 0.97 8.26591211903e-39
-0.0178960666037 -0.028633706566 0.967 8.54070114269e-39
-0.0160564916085 -0.0285448739706 0.964 9.1835496158e-39
-0.0142428261202 -0.0284856522404 0.962 8.81620763117e-39
-0.0124624728552 -0.0284856522404 0.962 7.98968816575e-39
-0.0106488073669 -0.028396819645 0.959 1.24111155271e-38
-0.00887400613907 -0.028396819645 0.959 1.5745960645e-38
-0.00709920491126 -0.028396819645 0.959 1.53750145207e-38
-0.00532440368344 -0.028396819645 0.959 1.5100225497e-38
-0.00353849838121 -0.0283079870497 0.956 1.53753830622e-38
-0.00176924919061 -0.0283079870497 0.956 1.56523202764e-38
0.0 -0.0283079870497 0.956 1.56523202764e-38
0.00176924919061 -0.0283079870497 0.956 1.59285512362e-38
0.00353849838121 -0.0283079870497 0.956 1.58363584089e-38
0.00530774757182 -0.0283079870497 0.956 1.62044178584e-38
0.00707699676242 -0.0283079870497 0.956 1.64799131365e-38
0.00884624595303 -0.0283079870497 0.956 1.69415723168e-38
0.0106154951436 -0.0283079870497 0.956 1.55590302324e-38
0.0124236085947 -0.028396819645 0.959 1.55572547873e-38
0.0141984098225 -0.028396819645 0.959 1.63873587742e-38
0.0159732110503 -0.028396819645 0.959 1.31597956655e-38
0.0178035326502 -0.0284856522404 0.962 8.54070114269e-39
0.0195838859153 -0.0284856522404 0.962 1.53720577809e-38
0.021408655478 -0.0285448739706 0.964 7.07133320417e-39
0.0232648865848 -0.028633706566 0.967 2.05240450902e-38
0.0250544932452 -0.028633706566 0.967 1.78632427506e-38
0.0268440999056 -0.028633706566 0.967 8.63468903329e-39
0.028633706566 -0.028633706566 0.967 1.42377389039e-38
0.0305176978589 -0.0287225391613 0.97 2.34875054774e-38
-0.0251322217661 -0.0269273804637 0.97 1.40881965357e-38
-0.0233370630686 -0.0269273804637 0.97 7.98968816575e-39
-0.021541904371 -0.0269273804637 0.97 8.17338438143e-39
-0.0197467456734 -0.0269273804637 0.97 8.35774761519e-39
-0.0178960666037 -0.0268440999056 0.967 8.54070114269e-39
-0.0160564916085 -0.0267608193474 0.964 8.63253663885e-39
-0.0142428261202 -0.0267052989754 0.962 8.81620763117e-39
-0.0124624728552 -0.0267052989754 0.962 8.26519465422e-39
-0.0106488073669 -0.0266220184172 0.959 1.30561219999e-38
-0.00887400613907 -0.0266220184172 0.959 1.58385065995e-38
-0.00709920491126 -0.0266220184172 0.959 1.50076739374e-38
-0.00532440368344 -0.0266220184172 0.959 1.51913645479e-38
-0.00354960245563 -0.0266220184172 0.959 1.53771809281e-38
-0.00176924919061 -0.0265387378591 0.956 1.56523398946e-38
0.0 -0.0265387378591 0.956 1.61107943054e-38
0.00176924919061 -0.0265387378591 0.956 1.59289043634e-38
0.00353849838121 -0.0265387378591 0.956 1.58377877334e-38
0.00532440368344 -0.0266220184172 0.959 1.63884405766e-38
0.00709920491126 -0.0266220184172 0.959 1.66657533388e-38
0.00887400613907 -0.0266220184172 0.959 1.65725137416e-38
0.0106488073669 -0.0266220184172 0.959 1.68501347894e-38
0.0124236085947 -0.0266220184172 0.959 1.70345288518e-38
0.0141984098225 -0.0266220184172 0.959 1.72199963087e-38
0.0159732110503 -0.0266220184172 0.959 1.74051330592e-38
0.0178035326502 -0.0267052989754 0.962 1.59267211404e-38
0.0195838859153 -0.0267052989754 0.962 1.98014571293e-38
0.021408655478 -0.0267608193474 0.964 1.83274354786e-38
0.0232648865848 -0.0268440999056 0.967 1.1774736849e-38
0.0251322217661 -0.0269273804637 0.97 1.17549435082e-38
0.0269273804637 -0.0269273804637 0.97 1.38740402953e-38
0.0287225391613 -0.0269273804637 0.97 1.49813827756e-38
0.0305176978589 -0.0269273804637 0.97 2.34878726176e-38
-0.025261769301 -0.025261769301 0.975 1.23343664102e-38
-0.0234092395523 -0.0252099502871 0.973 7.34683969264e-39
-0.0216085288175 -0.0252099502871 0.973 7.80603819291e-39
-0.0198078180827 -0.0252099502871 0.973 7.98968816575e-39
-0.0178960666037 -0.0250544932452 0.967 8.35703015038e-39
-0.0161064599433 -0.0250544932452 0.967 8.63253663885e-39
-0.0142428261202 -0.0249249457103 0.962 8.90804312733e-39
-0.0124624728552 -0.0249249457103 0.962 8.54070114269e-39
-0.0106821195901 -0.0249249457103 0.962 1.37918891728e-38
-0.00887400613907 -0.0248472171894 0.959 1.65774911537e-38
-0.00709920491126 -0.0248472171894 0.959 1.6299128819e-38
-0.00532440368344 -0.0248472171894 0.959 1.64835256839e-38
-0.00354960245563 -0.0248472171894 0.959 1.59303491021e-38
-0.00177480122781 -0.0248472171894 0.959 1.67583175102e-38
0.0 -0.0248472171894 0.959 1.60207524712e-38
0.00177480122781 -0.0248472171894 0.959 1.65742737724e-38
0.00354960245563 -0.0248472171894 0.959 1.66661036634e-38
0.00532440368344 -0.0248472171894 0.959 1.62969610103e-38
0.00709920491126 -0.0248472171894 0.959 1.62969638128e-38
0.00887400613907 -0.0248472171894 0.959 1.76798982608e-38
0.0106488073669 -0.0248472171894 0.959 1.74976551916e-38
0.0124236085947 -0.0248472171894 0.959 1.77728155594e-38
0.0141984098225 -0.0248472171894 0.959 1.85100288724e-38
0.0160231793852 -0.0249249457103 0.962 1.85096645348e-38
0.0178405462316 -0.0249767647243 0.964 1.7494788135e-38
0.0196246008548 -0.0249767647243 0.964 1.01133840144e-38
0.0214752799245 -0.0250544932452 0.967 1.07447530505e-38
0.0232648865848 -0.0250544932452 0.967 1.12039305313e-38
0.0251322217661 -0.0251322217661 0.97 1.32243114468e-38
0.0269273804637 -0.0251322217661 0.97 1.44275475835e-38
0.0288113717566 -0.0252099502871 0.973 1.5811146247e-38
-0.025261769301 -0.0234573572081 0.975 1.23332944169e-38
-0.0234573572081 -0.0234573572081 0.975 8.35703015038e-39
-0.0216529451152 -0.0234573572081 0.975 7.53051068496e-39
-0.0198078180827 -0.0234092395523 0.973 7.89785266959e-39
-0.0179515869758 -0.0233370630686 0.97 8.0815236619e-39
-0.0161064599433 -0.0232648865848 0.967 8.54070114269e-39
-0.0142724369853 -0.0231927101011 0.964 8.90804312733e-39
-0.0124624728552 -0.0231445924453 0.962 9.27538511196e-39
-0.0106821195901 -0.0231445924453 0.962 8.17335915806e-39
-0.00887400613907 -0.0230724159616 0.959 7.80601717343e-39
-0.00709920491126 -0.0230724159616 0.959 9.09171411964e-39
-0.00532440368344 -0.0230724159616 0.959 1.33241469558e-38
-0.00354960245563 -0.0230724159616 0.959 1.43529620715e-38
-0.00177480122781 -0.0230724159616 0.959 1.59270448403e-38
0.0 -0.0230724159616 0.959 1.64823990399e-38
