# .PCD v0.7 - Point Cloud Data file format
VERSION 0.7
FIELDS x y z rgb
SIZE 4 4 4 4
TYPE F F F F
COUNT 1 1 1 1
WIDTH 844
HEIGHT 1
VIEWPOINT 0 0 0 1 0 0 0
POINTS 844
DATA ascii
0.026270389394 -0.0896283873442 0.835 1.87208093848e-38
0.0278157064172 -0.0896283873442 0.835 1.82609144392e-38
0.0293610234403 -0.0896283873442 0.835 1.79857666831e-38
0.0309063404635 -0.0896283873442 0.835 1.85360621952e-38
0.0324516574867 -0.0896283873442 0.835 1.82594795095e-38
0.0339969745099 -0.0896283873442 0.835 1.853677966e-38
0.035542291533 -0.0896283873442 0.835 1.8169078943e-38
0.0369987759609 -0.0894137085721 0.833 1.89069915039e-38
0.0385403916259 -0.0894137085721 0.833 1.92750509534e-38
0.0400820072909 -0.0894137085721 0.833 1.84470965583e-38
0.041623622956 -0.0894137085721 0.833 1.78942899193e-38
0.043165238621 -0.0894137085721 0.833 1.75255130051e-38
0.044706854286 -0.0894137085721 0.833 1.67876004442e-38
0.0462484699511 -0.0894137085721 0.833 2.35097006437e-38
0.00772658511588 -0.088083070321 0.835 2.35076673597e-38
0.00927190213905 -0.088083070321 0.835 1.70431033971e-38
0.0108172191622 -0.088083070321 0.835 1.90863661152e-38
0.0123625361854 -0.088083070321 0.835 1.91810630628e-38
0.0139078532086 -0.088083070321 0.835 1.84435092343e-38
0.0154531702318 -0.088083070321 0.835 1.9274692221e-38
0.0169984872549 -0.088083070321 0.835 1.85385733221e-38
0.0185438042781 -0.088083070321 0.835 1.80779609117e-38
0.0200891213013 -0.088083070321 0.835 1.8629332621e-38
0.0216344383245 -0.088083070321 0.835 1.88119274161e-38
0.0231797553476 -0.088083070321 0.835 1.81687202106e-38
0.0246658506406 -0.0878720929071 0.833 1.86286151562e-38
0.0262074663056 -0.0878720929071 0.833 1.85357034628e-38
0.0277490819706 -0.0878720929071 0.833 1.85360621952e-38
0.0292906976357 -0.0878720929071 0.833 1.7982179359e-38
0.0308323133007 -0.0878720929071 0.833 1.8534985998e-38
0.0323739289658 -0.0878720929071 0.833 1.84431505019e-38
0.0339969745099 -0.088083070321 0.835 1.88137210781e-38
0.0354571602958 -0.0878720929071 0.833 1.77081078002e-38
0.0369987759609 -0.0878720929071 0.833 1.83516737381e-38
0.0385403916259 -0.0878720929071 0.833 1.85360621952e-38
0.0400820072909 -0.0878720929071 0.833 1.77081078002e-38
0.041623622956 -0.0878720929071 0.833 1.8814438543e-38
0.043165238621 -0.0878720929071 0.833 1.88140798106e-38
0.044706854286 -0.0878720929071 0.833 1.65103002937e-38
0.0462484699511 -0.0878720929071 0.833 2.35063459352e-38
0.0477900856161 -0.0878720929071 0.833 2.35098323658e-38
0.0061812680927 -0.0865377532978 0.835 2.35032925059e-38
0.00772658511588 -0.0865377532978 0.835 2.35051212004e-38
0.00927190213905 -0.0865377532978 0.835 1.82380494521e-38
0.0108172191622 -0.0865377532978 0.835 1.87204506524e-38
0.0123625361854 -0.0865377532978 0.835 1.82601969744e-38
0.0139078532086 -0.0865377532978 0.835 1.90888688342e-38
0.0154531702318 -0.0865377532978 0.835 1.89051978419e-38
0.0169984872549 -0.0865377532978 0.835 1.8723679244e-38
0.0184993879804 -0.086330477242 0.833 1.84463790935e-38
0.0200410036455 -0.086330477242 0.833 1.85385733221e-38
0.0215826193105 -0.086330477242 0.833 1.8629332621e-38
0.0231242349755 -0.086330477242 0.833 1.80743735876e-38
0.0246658506406 -0.086330477242 0.833 1.90888688342e-38
0.0262074663056 -0.086330477242 0.833 1.83509562733e-38
0.0276824575241 -0.0861232011862 0.831 1.82584033123e-38
0.029220371831 -0.0861232011862 0.831 1.91796281332e-38
0.0308323133007 -0.086330477242 0.833 1.89044803771e-38
0.0323739289658 -0.086330477242 0.833 1.77977909019e-38
0.0339155446308 -0.086330477242 0.833 1.89066327715e-38
0.0354571602958 -0.086330477242 0.833 1.7801378226e-38
0.0369987759609 -0.086330477242 0.833 1.89970333381e-38
0.0385403916259 -0.086330477242 0.833 1.82594795095e-38
0.0400820072909 -0.086330477242 0.833 1.78924962573e-38
0.0415236862862 -0.0861232011862 0.831 1.78932137221e-38
0.0430616005931 -0.0861232011862 0.831 1.80768847144e-38
0.044706854286 -0.086330477242 0.833 1.78928549897e-38
0.0462484699511 -0.086330477242 0.833 1.945190603e-38
0.0061812680927 -0.0849924362746 0.835 2.35004380609e-38
0.00772658511588 -0.0849924362746 0.835 2.35072904104e-38
0.00927190213905 -0.0849924362746 0.835 1.83305799923e-38
0.0108172191622 -0.0849924362746 0.835 1.8721885582e-38
0.0123625361854 -0.0849924362746 0.835 1.82612731716e-38
0.0138745409853 -0.084788861577 0.833 1.88122861485e-38
0.0154161566504 -0.084788861577 0.833 1.81683614782e-38
0.0169577723154 -0.084788861577 0.833 1.78935724545e-38
0.0184993879804 -0.084788861577 0.833 1.87222443144e-38
0.0200410036455 -0.084788861577 0.833 1.83538261325e-38
0.0215826193105 -0.084788861577 0.833 1.8629332621e-38
0.0231242349755 -0.084788861577 0.833 1.87208093848e-38
0.0246658506406 -0.084788861577 0.833 1.86286151562e-38
0.0261445432172 -0.0845852868793 0.831 1.77073903354e-38
0.0276824575241 -0.0845852868793 0.831 1.88115686837e-38
0.029220371831 -0.0845852868793 0.831 1.82576858475e-38
0.0308323133007 -0.084788861577 0.833 1.77974321695e-38
0.0323739289658 -0.084788861577 0.833 1.89037629123e-38
0.0339155446308 -0.084788861577 0.833 1.85382145897e-38
0.0353720290586 -0.0845852868793 0.831 1.81705138726e-38
0.0369099433655 -0.0845852868793 0.831 1.85371383925e-38
0.0384478576724 -0.0845852868793 0.831 1.87215268496e-38
0.0399857719793 -0.0845852868793 0.831 1.80768847144e-38
0.0414237496164 -0.0843817121817 0.829 1.78932137221e-38
0.0429579625652 -0.0843817121817 0.829 1.80768847144e-38
0.0445995149 -0.0845852868793 0.831 1.83538261325e-38
0.0461374292069 -0.0845852868793 0.831 1.9085998975e-38
0.00463595106953 -0.0834471192515 0.835 2.35033205318e-38
0.0061812680927 -0.0834471192515 0.835 2.34975485835e-38
0.00772658511588 -0.0834471192515 0.835 2.35055009523e-38
0.00927190213905 -0.0834471192515 0.835 1.86049808563e-38
0.0108172191622 -0.0834471192515 0.835 1.83531086677e-38
0.0123329253203 -0.0832472459119 0.833 1.85392907869e-38
0.0138745409853 -0.0832472459119 0.833 1.89062740391e-38
0.0154161566504 -0.0832472459119 0.833 1.79828968238e-38
0.0169577723154 -0.0832472459119 0.833 2.04717892692e-38
0.0184993879804 -0.0832472459119 0.833 1.85353447304e-38
0.0200410036455 -0.0832472459119 0.833 1.97342284342e-38
0.0215308002966 -0.0830473725724 0.831 1.87197331875e-38
0.0230687146034 -0.0830473725724 0.831 1.85364209276e-38
0.0246066289103 -0.0830473725724 0.831 1.85371383925e-38
0.0261445432172 -0.0830473725724 0.831 1.84438679667e-38
0.0276824575241 -0.0830473725724 0.831 1.83527499353e-38
0.029220371831 -0.0830473725724 0.831 1.87197331875e-38
0.0307582861379 -0.0830473725724 0.831 1.89041216447e-38
0.0322962004448 -0.0830473725724 0.831 1.83509562733e-38
0.0338341147517 -0.0830473725724 0.831 1.80750910524e-38
0.0353720290586 -0.0830473725724 0.831 1.78003020287e-38
0.0368211107702 -0.0828474992329 0.829 1.89981095353e-38
0.0383553237189 -0.0828474992329 0.829 1.8261631904e-38
0.0398895366677 -0.0828474992329 0.829 1.85364209276e-38
0.0414237496164 -0.0828474992329 0.829 1.9549839977e-38
0.0429579625652 -0.0828474992329 0.829 1.86286151562e-38
0.0445995149 -0.0830473725724 0.831 1.80761672496e-38
0.0461374292069 -0.0830473725724 0.831 1.88101337541e-38
0.00463595106953 -0.0819018022283 0.835 2.35033373474e-38
0.0061812680927 -0.0819018022283 0.835 2.35094371996e-38
0.00772658511588 -0.0819018022283 0.835 2.35047680732e-38
0.00927190213905 -0.0819018022283 0.835 1.77816479436e-38
0.0108172191622 -0.0819018022283 0.835 1.94558520864e-38
0.0123329253203 -0.0817056302469 0.833 1.84438679667e-38
0.0138412287621 -0.0815094582655 0.831 1.92743334886e-38
0.015379143069 -0.0815094582655 0.831 1.89966746057e-38
0.0169170573759 -0.0815094582655 0.831 1.88112099513e-38
0.0184549716828 -0.0815094582655 0.831 1.89966746057e-38
0.0199928859897 -0.0815094582655 0.831 1.80754497848e-38
0.0215308002966 -0.0815094582655 0.831 1.85364209276e-38
0.0230687146034 -0.0815094582655 0.831 1.82605557068e-38
0.0246066289103 -0.0815094582655 0.831 1.85382145897e-38
0.0261445432172 -0.0815094582655 0.831 1.80754497848e-38
0.0276158330776 -0.0813132862841 0.829 1.87186569903e-38
0.0291500460264 -0.0813132862841 0.829 1.87190157227e-38
0.0307582861379 -0.0815094582655 0.831 1.84438679667e-38
0.0322184719239 -0.0813132862841 0.829 1.85360621952e-38
0.0337526848727 -0.0813132862841 0.829 1.83531086677e-38
0.0352868978214 -0.0813132862841 0.829 1.82609144392e-38
0.0368211107702 -0.0813132862841 0.829 1.76159135716e-38
0.0383553237189 -0.0813132862841 0.829 1.86311262831e-38
0.0398895366677 -0.0813132862841 0.829 1.82594795095e-38
0.0413238129467 -0.0811171143028 0.827 1.78903438629e-38
0.0428543245373 -0.0811171143028 0.827 1.91817805276e-38
0.0443848361279 -0.0811171143028 0.827 1.83527499353e-38
0.0460263884627 -0.0813132862841 0.829 2.00093761902e-38
0.00615165722759 -0.0799715439586 0.831 2.35091233088e-38
0.00768957153448 -0.0799715439586 0.831 6.97949770801e-39
0.00922748584138 -0.0799715439586 0.831 1.62084199668e-38
0.0107913096553 -0.0801640145819 0.833 2.00104523875e-38
0.0123329253203 -0.0801640145819 0.833 1.86289738886e-38
0.0138412287621 -0.0799715439586 0.831 1.83538261325e-38
0.015379143069 -0.0799715439586 0.831 1.83527499353e-38
0.0169170573759 -0.0799715439586 0.831 1.89973920705e-38
0.0184549716828 -0.0799715439586 0.831 1.89051978419e-38
0.0199447683338 -0.0797790733354 0.829 1.88137210781e-38
0.0214789812826 -0.0797790733354 0.829 1.84442266991e-38
0.0230131942314 -0.0797790733354 0.829 1.89059153067e-38
0.0245474071801 -0.0797790733354 0.829 1.81687202106e-38
0.0260816201289 -0.0797790733354 0.829 1.87197331875e-38
0.0276158330776 -0.0797790733354 0.829 1.88112099513e-38
0.0291500460264 -0.0797790733354 0.829 1.87190157227e-38
0.0306842589751 -0.0797790733354 0.829 1.85371383925e-38
0.0322184719239 -0.0797790733354 0.829 1.81683614782e-38
0.0337526848727 -0.0797790733354 0.829 1.89059153067e-38
0.0352868978214 -0.0797790733354 0.829 1.78924962573e-38
0.0368211107702 -0.0797790733354 0.829 1.78003020287e-38
0.0383553237189 -0.0797790733354 0.829 1.78924962573e-38
0.0397933013561 -0.0795866027121 0.827 1.98271401275e-38
0.0413238129467 -0.0795866027121 0.827 1.86296913534e-38
0.0428543245373 -0.0795866027121 0.827 1.85385733221e-38
0.0443848361279 -0.0795866027121 0.827 1.94594394105e-38
0.0460263884627 -0.0797790733354 0.829 1.69662491828e-38
0.0475606014115 -0.0797790733354 0.829 8.3688683198e-39
0.00460263884627 -0.0782448603866 0.829 2.35091106971e-38
0.00613685179503 -0.0782448603866 0.829 9.09207285205e-39
0.00767106474379 -0.0782448603866 0.829 9.27538511196e-39
0.00920527769254 -0.0782448603866 0.829 1.39034395371e-38
0.0107394906413 -0.0782448603866 0.829 2.04693005631e-38
0.0122737035901 -0.0782448603866 0.829 1.9089586299e-38
0.0138079165388 -0.0782448603866 0.829 1.8814438543e-38
0.0153051159062 -0.0780560911215 0.827 1.88147972754e-38
0.0168356274968 -0.0780560911215 0.827 1.79861254155e-38
0.0183661390874 -0.0780560911215 0.827 1.85389320545e-38
0.0199447683338 -0.0782448603866 0.829 1.8629332621e-38
0.0214789812826 -0.0782448603866 0.829 1.86286151562e-38
0.0230131942314 -0.0782448603866 0.829 1.83534674001e-38
0.0245474071801 -0.0782448603866 0.829 1.85371383925e-38
0.0260816201289 -0.0782448603866 0.829 1.87208093848e-38
0.0276158330776 -0.0782448603866 0.829 1.84438679667e-38
0.0291500460264 -0.0782448603866 0.829 1.83516737381e-38
0.0306842589751 -0.0782448603866 0.829 1.88147972754e-38
0.0322184719239 -0.0782448603866 0.829 1.79857666831e-38
0.0337526848727 -0.0782448603866 0.829 1.75244368079e-38
0.0352868978214 -0.0782448603866 0.829 1.92739747562e-38
0.0367322781748 -0.0780560911215 0.827 1.80761672496e-38
0.0382627897654 -0.0780560911215 0.827 1.86286151562e-38
0.0397933013561 -0.0780560911215 0.827 1.82594795095e-38
0.0413238129467 -0.0780560911215 0.827 1.84467378259e-38
0.0428543245373 -0.0780560911215 0.827 1.8721885582e-38
0.0443848361279 -0.0780560911215 0.827 1.97353046314e-38
0.0460263884627 -0.0782448603866 0.829 1.78881914684e-38
0.0475606014115 -0.0782448603866 0.829 9.01207552532e-39
0.0490948143602 -0.0782448603866 0.829 1.57957053392e-38
0.00460263884627 -0.0767106474379 0.829 1.95388748166e-38
0.00613685179503 -0.0767106474379 0.829 9.64272709659e-39
0.00767106474379 -0.0767106474379 0.829 9.36722060812e-39
0.00920527769254 -0.0767106474379 0.829 1.50040389692e-38
0.0107394906413 -0.0767106474379 0.829 1.73325556078e-38
0.0122737035901 -0.0767106474379 0.829 1.99182791784e-38
0.0137746043156 -0.0765255795309 0.827 1.89062740391e-38
0.0153051159062 -0.0765255795309 0.827 1.84467378259e-38
0.0168356274968 -0.0765255795309 0.827 1.84470965583e-38
0.0183661390874 -0.0765255795309 0.827 1.8814438543e-38
0.019896650678 -0.0765255795309 0.827 1.89062740391e-38
0.0214271622687 -0.0765255795309 0.827 1.87215268496e-38
0.0229576738593 -0.0765255795309 0.827 1.92750509534e-38
0.0245474071801 -0.0767106474379 0.829 1.82609144392e-38
0.0260816201289 -0.0767106474379 0.829 1.88137210781e-38
0.0276158330776 -0.0767106474379 0.829 1.87208093848e-38
0.0291500460264 -0.0767106474379 0.829 1.8261631904e-38
0.0306102318124 -0.0765255795309 0.827 1.7801378226e-38
0.032140743403 -0.0765255795309 0.827 1.90928148907e-38
0.0336712549936 -0.0765255795309 0.827 1.74318838469e-38
0.0352017665842 -0.0765255795309 0.827 1.84460203611e-38
0.0367322781748 -0.0765255795309 0.827 1.80768847144e-38
0.0382627897654 -0.0765255795309 0.827 1.93676039144e-38
0.0397933013561 -0.0765255795309 0.827 1.81687202106e-38
0.0413238129467 -0.0765255795309 0.827 1.91842916544e-38
0.0427506865094 -0.0763405116239 0.825 1.91814217952e-38
0.0442774967419 -0.0763405116239 0.825 1.62297715515e-38
0.0459153477185 -0.0765255795309 0.827 1.79785990415e-38
0.0474458593092 -0.0765255795309 0.827 9.65564146324e-39
0.00613685179503 -0.0751764344891 0.829 8.26519465422e-39
0.00767106474379 -0.0751764344891 0.829 1.01937400735e-38
0.00920527769254 -0.0751764344891 0.829 1.72063504643e-38
0.0107394906413 -0.0751764344891 0.829 1.06934543163e-38
0.0122737035901 -0.0751764344891 0.829 1.92747398651e-38
0.0137746043156 -0.0749950679403 0.827 1.90899450314e-38
0.0153051159062 -0.0749950679403 0.827 1.83534674001e-38
0.0168356274968 -0.0749950679403 0.827 1.89991857325e-38
0.0183661390874 -0.0749950679403 0.827 1.82609144392e-38
0.019896650678 -0.0749950679403 0.827 1.91810630628e-38
0.0214271622687 -0.0749950679403 0.827 1.84438679667e-38
0.0229576738593 -0.0749950679403 0.827 1.86286151562e-38
0.0244881854499 -0.0749950679403 0.827 1.89981095353e-38
0.0260186970405 -0.0749950679403 0.827 1.84445854315e-38
0.0275492086311 -0.0749950679403 0.827 1.91817805276e-38
0.0290797202217 -0.0749950679403 0.827 1.80761672496e-38
0.0306102318124 -0.0749950679403 0.827 1.83534674001e-38
0.032140743403 -0.0749950679403 0.827 1.9089586299e-38
0.0336712549936 -0.0749950679403 0.827 1.89988270001e-38
0.0352017665842 -0.0749950679403 0.827 1.8261631904e-38
0.0367322781748 -0.0749950679403 0.827 1.80779609117e-38
0.0382627897654 -0.0749950679403 0.827 1.79861254155e-38
0.0397933013561 -0.0749950679403 0.827 1.81705138726e-38
0.0413238129467 -0.0749950679403 0.827 1.9549839977e-38
0.0427506865094 -0.0748137013915 0.825 1.73357435619e-38
0.0442774967419 -0.0748137013915 0.825 1.60432306999e-38
0.0459153477185 -0.0749950679403 0.827 1.76087389235e-38
0.0474458593092 -0.0749950679403 0.827 9.74460710014e-39
0.0490948143602 -0.0751764344891 0.829 1.83688928936e-38
0.00460263884627 -0.0736422215403 0.829 9.09171411964e-39
0.00613685179503 -0.0736422215403 0.829 1.1020259539e-38
0.00767106474379 -0.0736422215403 0.829 1.00100690812e-38
0.00920527769254 -0.0736422215403 0.829 1.61911181346e-38
0.0107135811343 -0.0734645563497 0.827 1.25337515635e-38
0.0122440927249 -0.0734645563497 0.827 1.18977190062e-38
0.0137746043156 -0.0734645563497 0.827 1.96431342249e-38
0.0152681023248 -0.073286891159 0.825 1.90892275666e-38
0.0167949125573 -0.073286891159 0.825 1.8261631904e-38
0.0183217227897 -0.073286891159 0.825 1.87233205116e-38
0.0198485330222 -0.073286891159 0.825 1.872009192e-38
0.0214271622687 -0.0734645563497 0.827 1.9089586299e-38
0.0229576738593 -0.0734645563497 0.827 1.80754497848e-38
0.0244881854499 -0.0734645563497 0.827 1.87215268496e-38
0.0260186970405 -0.0734645563497 0.827 1.78006607612e-38
0.0275492086311 -0.0734645563497 0.827 1.77077490678e-38
0.0290797202217 -0.0734645563497 0.827 1.82605557068e-38
0.0306102318124 -0.0734645563497 0.827 1.82605557068e-38
0.032140743403 -0.0734645563497 0.827 1.85360621952e-38
0.0336712549936 -0.0734645563497 0.827 1.83509562733e-38
0.035116635347 -0.073286891159 0.825 1.80768847144e-38
0.0366434455795 -0.073286891159 0.825 1.88155147402e-38
0.038170255812 -0.073286891159 0.825 1.83545435974e-38
0.0397933013561 -0.0734645563497 0.827 1.89973962744e-38
0.0413238129467 -0.0734645563497 0.827 1.76112500503e-38
0.0428543245373 -0.0734645563497 0.827 1.45699167049e-38
0.0443848361279 -0.0734645563497 0.827 1.61372185905e-38
0.0459153477185 -0.0734645563497 0.827 1.77927798586e-38
0.0475606014115 -0.0736422215403 0.829 1.01133840144e-38
0.0490948143602 -0.0736422215403 0.829 1.78168037195e-38
0.00613685179503 -0.0721080085916 0.829 1.1020259539e-38
0.00767106474379 -0.0721080085916 0.829 9.82639808891e-39
0.00920527769254 -0.0721080085916 0.829 1.3792608039e-38
0.0107135811343 -0.071934044759 0.827 1.391487133e-38
0.0122440927249 -0.071934044759 0.827 1.20788788716e-38
0.0137746043156 -0.071934044759 0.827 9.41493201823e-39
0.0152681023248 -0.0717600809265 0.825 1.79836353081e-38
0.0167949125573 -0.0717600809265 0.825 2.03781531045e-38
0.0183217227897 -0.0717600809265 0.825 1.92728985589e-38
0.0198485330222 -0.0717600809265 0.825 1.89051978419e-38
0.0214271622687 -0.071934044759 0.827 1.81694376754e-38
0.0229576738593 -0.071934044759 0.827 1.85389320545e-38
0.0244881854499 -0.071934044759 0.827 1.87226030468e-38
0.0260186970405 -0.071934044759 0.827 1.87226030468e-38
0.0275492086311 -0.071934044759 0.827 1.89062740391e-38
0.0290093944171 -0.0717600809265 0.825 1.83531086677e-38
0.0305362046496 -0.0717600809265 0.825 1.92750509534e-38
0.0320630148821 -0.0717600809265 0.825 1.82612731716e-38
0.0335898251145 -0.0717600809265 0.825 1.84467378259e-38
0.035116635347 -0.0717600809265 0.825 1.78932137221e-38
0.0366434455795 -0.0717600809265 0.825 2.00115313873e-38
0.038170255812 -0.0717600809265 0.825 2.06561707198e-38
0.0396970660444 -0.0717600809265 0.825 1.64148774734e-38
0.0413238129467 -0.071934044759 0.827 1.56758887153e-38
0.0428543245373 -0.071934044759 0.827 1.55829770219e-38
0.0443848361279 -0.071934044759 0.827 1.63187371884e-38
0.0459153477185 -0.071934044759 0.827 1.81619042949e-38
0.0474458593092 -0.071934044759 0.827 9.56093610782e-39
0.00613685179503 -0.0705737956428 0.829 1.06529175543e-38
0.00767106474379 -0.0705737956428 0.829 9.82639808891e-39
0.00918306954371 -0.0704035331684 0.827 1.09359854493e-38
0.0107135811343 -0.0704035331684 0.827 1.40989192716e-38
0.0122440927249 -0.0704035331684 0.827 1.23522329657e-38
0.0137746043156 -0.0704035331684 0.827 6.45933571805e-39
0.0152681023248 -0.070233270694 0.825 8.58411336912e-39
0.0167949125573 -0.070233270694 0.825 1.53092768071e-38
0.0183217227897 -0.070233270694 0.825 1.99153882996e-38
0.0198485330222 -0.070233270694 0.825 1.98246290007e-38
0.0213753432547 -0.070233270694 0.825 1.94580044809e-38
0.0229021534872 -0.070233270694 0.825 1.84470965583e-38
0.0244881854499 -0.0704035331684 0.827 1.78935724545e-38
0.0259557739521 -0.070233270694 0.825 1.93676039144e-38
0.0274825841846 -0.070233270694 0.825 1.85371383925e-38
0.0290093944171 -0.070233270694 0.825 1.85371383925e-38
0.0305362046496 -0.070233270694 0.825 1.83545435974e-38
0.0320630148821 -0.070233270694 0.825 1.85389320545e-38
0.0335898251145 -0.070233270694 0.825 1.93676039144e-38
0.0350315041098 -0.0700630082196 0.823 1.9642392938e-38
0.0365546129841 -0.0700630082196 0.823 1.7982179359e-38
0.038170255812 -0.070233270694 0.825 1.31895144033e-38
0.0396970660444 -0.070233270694 0.825 1.10747868648e-38
0.0413238129467 -0.0704035331684 0.827 1.52167112345e-38
0.0428543245373 -0.0704035331684 0.827 1.53024482797e-38
0.0443848361279 -0.0704035331684 0.827 1.58556136511e-38
0.0459153477185 -0.0704035331684 0.827 1.69615856615e-38
0.0474458593092 -0.0704035331684 0.827 1.14048206791e-38
0.00316836256728 -0.0712881577637 0.856 9.27538511196e-39
0.00633672513455 -0.0712881577637 0.856 1.03774110659e-38
0.00765255795309 -0.0688730215778 0.827 9.64272709659e-39
0.00918306954371 -0.0688730215778 0.827 8.44886564654e-39
0.0107135811343 -0.0688730215778 0.827 1.391093228e-38
0.0122440927249 -0.0688730215778 0.827 1.33642170854e-38
0.0137746043156 -0.0688730215778 0.827 1.23529504305e-38
0.0153051159062 -0.0688730215778 0.827 7.84476027337e-39
0.0167949125573 -0.0687064604615 0.825 9.04472017434e-39
0.0183217227897 -0.0687064604615 0.825 1.10708408083e-38
0.0198485330222 -0.0687064604615 0.825 1.47553841619e-38
0.0213753432547 -0.0687064604615 0.825 1.72460604601e-38
0.0229021534872 -0.0687064604615 0.825 1.8629332621e-38
0.0244289637197 -0.0687064604615 0.825 1.98257051979e-38
0.0259557739521 -0.0687064604615 0.825 2.05632590264e-38
0.0274825841846 -0.0687064604615 0.825 2.00104523875e-38
0.0289390686124 -0.0685398993453 0.823 1.9642392938e-38
0.0304621774868 -0.0685398993453 0.823 1.89066327715e-38
0.0319852863611 -0.0685398993453 0.823 1.78935724545e-38
0.0335083952355 -0.0685398993453 0.823 1.63241181745e-38
0.0350315041098 -0.0685398993453 0.823 1.38341565384e-38
0.0365546129841 -0.0685398993453 0.823 1.38363089329e-38
0.038170255812 -0.0687064604615 0.825 9.23197849073e-39
0.0396970660444 -0.0687064604615 0.825 9.2305435611e-39
0.0413238129467 -0.0688730215778 0.827 1.59503190065e-38
0.0428543245373 -0.0688730215778 0.827 1.59478078797e-38
0.0443848361279 -0.0688730215778 0.827 1.59481666121e-38
0.0459153477185 -0.0688730215778 0.827 1.64988208566e-38
0.0474458593092 -0.0688730215778 0.827 1.09463606631e-38
0.00158788264178 -0.0698668362382 0.858 1.39999441597e-38
0.00316836256728 -0.0697039764801 0.856 8.63253663885e-39
0.00475254385092 -0.0697039764801 0.856 1.07447530505e-38
0.00633672513455 -0.0697039764801 0.856 1.01019045774e-38
0.00792090641819 -0.0697039764801 0.856 9.45905610427e-39
0.00920527769254 -0.0675053697453 0.829 7.53051068496e-39
0.0107394906413 -0.0675053697453 0.829 1.34481618699e-38
0.0122737035901 -0.0675053697453 0.829 1.24429922646e-38
0.0137746043156 -0.0673425099872 0.827 1.3643310898e-38
0.0153051159062 -0.0673425099872 0.827 1.19881195727e-38
0.0167949125573 -0.0671796502291 0.825 9.40883356731e-39
0.0183217227897 -0.0671796502291 0.825 8.12241915629e-39
0.0198485330222 -0.0671796502291 0.825 9.69187343633e-39
0.0213753432547 -0.0671796502291 0.825 1.07042162885e-38
0.0229021534872 -0.0671796502291 0.825 1.19005888654e-38
0.0244289637197 -0.0671796502291 0.825 1.245124311e-38
0.0259557739521 -0.0671796502291 0.825 1.33728266632e-38
0.0274825841846 -0.0671796502291 0.825 1.4018903728e-38
0.0289390686124 -0.0670167904709 0.823 1.30980376395e-38
0.0304621774868 -0.0670167904709 0.823 1.30072783406e-38
0.0319852863611 -0.0670167904709 0.823 1.24559066312e-38
0.0335083952355 -0.0670167904709 0.823 1.19034587247e-38
0.0350315041098 -0.0670167904709 0.823 1.11651874313e-38
0.0365546129841 -0.0670167904709 0.823 1.0425122476e-38
0.038170255812 -0.0671796502291 0.825 1.5127033738e-38
0.0396970660444 -0.0671796502291 0.825 1.54936526526e-38
0.0413238129467 -0.0673425099872 0.827 1.56733775884e-38
0.0428543245373 -0.0673425099872 0.827 1.53957187055e-38
0.0442774967419 -0.0671796502291 0.825 1.57634194226e-38
0.0458043069744 -0.0671796502291 0.825 1.53906964518e-38
0.0474458593092 -0.0673425099872 0.827 1.26969748087e-38
0.0489763708998 -0.0673425099872 0.827 1.8278496531e-38
0.00158788264178 -0.0682789535964 0.858 7.4544594147e-39
0.00317576528356 -0.0682789535964 0.858 8.17335915806e-39
0.00475254385092 -0.0681197951965 0.856 1.09284240428e-38
0.00633672513455 -0.0681197951965 0.856 9.82639808891e-39
0.00792090641819 -0.0681197951965 0.856 9.64272709659e-39
0.00952729585067 -0.0682789535964 0.858 7.62234618111e-39
0.0111151784924 -0.0682789535964 0.858 1.25234113822e-38
0.0122737035901 -0.0659711567966 0.829 1.17057971685e-38
0.0137746043156 -0.0658119983966 0.827 1.23525916981e-38
0.0153051159062 -0.0658119983966 0.827 1.23547440925e-38
0.0167949125573 -0.0656528399966 0.825 1.45656133173e-38
0.0183217227897 -0.0656528399966 0.825 1.19888370375e-38
0.0198485330222 -0.0656528399966 0.825 1.00549106321e-38
0.0213753432547 -0.0656528399966 0.825 9.59967920777e-39
0.0229021534872 -0.0656528399966 0.825 9.50891990883e-39
0.0244289637197 -0.0656528399966 0.825 1.10719170055e-38
0.0259557739521 -0.0656528399966 0.825 1.10701233435e-38
0.0274825841846 -0.0656528399966 0.825 1.11601651776e-38
0.0290093944171 -0.0656528399966 0.825 1.29140079148e-38
0.0304621774868 -0.0654936815966 0.823 1.08878872808e-38
0.0319852863611 -0.0654936815966 0.823 9.87662062587e-39
0.0335083952355 -0.0654936815966 0.823 1.13506520857e-38
0.0350315041098 -0.0654936815966 0.823 1.54036108185e-38
0.0365546129841 -0.0654936815966 0.823 1.54021758888e-38
0.038170255812 -0.0656528399966 0.825 1.4754305162e-38
0.0396970660444 -0.0656528399966 0.825 1.46613934687e-38
0.0413238129467 -0.0658119983966 0.827 1.60435894323e-38
0.0428543245373 -0.0658119983966 0.827 1.53953599731e-38
0.0442774967419 -0.0656528399966 0.825 1.46570886798e-38
0.0458043069744 -0.0656528399966 0.825 1.52967085612e-38
0.0473311172068 -0.0656528399966 0.825 1.78594928759e-38
0.0 -0.0665356139128 0.856 2.35098225567e-38
0.00158788264178 -0.0666910709547 0.858 5.97935175766e-39
0.00317576528356 -0.0666910709547 0.858 8.44886564654e-39
0.00475254385092 -0.0665356139128 0.856 1.03774110659e-38
0.00633672513455 -0.0665356139128 0.856 1.01019045774e-38
0.00792090641819 -0.0665356139128 0.856 9.55089160043e-39
0.00948287955299 -0.066380156871 0.854 8.0815236619e-39
0.0110633594785 -0.066380156871 0.854 1.30651421581e-38
0.0123033144552 -0.0645924008897 0.831 1.17047209713e-38
0.0138079165388 -0.0644369438478 0.829 1.23522329657e-38
0.0153051159062 -0.064281486806 0.827 1.23543853601e-38
0.0168356274968 -0.064281486806 0.827 1.24469383211e-38
0.0183217227897 -0.0641260297641 0.825 1.34614335677e-38
0.0198485330222 -0.0641260297641 0.825 1.41057169704e-38
0.0213753432547 -0.0641260297641 0.825 1.30940915831e-38
0.0229021534872 -0.0641260297641 0.825 1.29118555204e-38
0.0244289637197 -0.0641260297641 0.825 1.18980777386e-38
0.0259557739521 -0.0641260297641 0.825 1.18966428089e-38
0.0274825841846 -0.0641260297641 0.825 1.25409262117e-38
0.0290093944171 -0.0641260297641 0.825 1.32802737022e-38
0.0305362046496 -0.0641260297641 0.825 1.337533779e-38
0.0320630148821 -0.0641260297641 0.825 1.42979975405e-38
0.0335898251145 -0.0641260297641 0.825 1.44805923356e-38
0.035116635347 -0.0641260297641 0.825 1.49372586895e-38
0.0366434455795 -0.0641260297641 0.825 1.45681230429e-38
0.0382627897654 -0.064281486806 0.827 1.45688405077e-38
0.0397933013561 -0.064281486806 0.827 1.47535876972e-38
0.0413238129467 -0.064281486806 0.827 1.51216471467e-38
0.0428543245373 -0.064281486806 0.827 1.47500003732e-38
0.0442774967419 -0.0641260297641 0.825 1.4750717838e-38
0.0458043069744 -0.0641260297641 0.825 1.35403546972e-38
0.0473311172068 -0.0641260297641 0.825 1.55316824916e-38
0.0506938010764 -0.0665356139128 0.856 1.83796730827e-38
0.0524001271787 -0.0666910709547 0.858 1.81002023209e-38
0.0541138559972 -0.0668465279965 0.86 1.82806447215e-38
0.0557054399971 -0.0668465279965 0.86 1.5703869843e-38
0.0 -0.0649514326292 0.856 2.35097987346e-38
0.00158418128364 -0.0649514326292 0.856 1.38152039767e-38
0.00316836256728 -0.0649514326292 0.856 8.72437213501e-39
0.00475254385092 -0.0649514326292 0.856 1.03774110659e-38
0.00633672513455 -0.0649514326292 0.856 1.0469246562e-38
0.00787463944145 -0.0645720434199 0.851 9.91823358506e-39
0.0094273591809 -0.0644202877362 0.849 8.72437213501e-39
0.0109467666971 -0.0641167763688 0.845 9.27900326459e-39
0.0123033144552 -0.0630544865828 0.831 1.2070640638e-38
0.0138079165388 -0.062902730899 0.829 1.09693195372e-38
0.0153421294876 -0.062902730899 0.829 1.2445144659e-38
0.0168356274968 -0.0627509752153 0.827 1.25387738172e-38
0.0183217227897 -0.0625992195316 0.825 1.23536678953e-38
0.0198485330222 -0.0625992195316 0.825 1.34596399057e-38
0.0213753432547 -0.0625992195316 0.825 1.36443870952e-38
0.0229021534872 -0.0625992195316 0.825 1.40124465446e-38
0.0244289637197 -0.0625992195316 0.825 1.38302104819e-38
0.0259557739521 -0.0625992195316 0.825 1.44744938847e-38
0.0274825841846 -0.0625992195316 0.825 1.39224047105e-38
0.0290093944171 -0.0625992195316 0.825 1.40156751363e-38
0.0305362046496 -0.0625992195316 0.825 1.37408861126e-38
0.0320630148821 -0.0625992195316 0.825 1.33724679308e-38
0.0335898251145 -0.0625992195316 0.825 1.36483331517e-38
0.035116635347 -0.0625992195316 0.825 1.45666881132e-38
0.0367322781748 -0.0627509752153 0.827 1.45666881132e-38
0.0382627897654 -0.0627509752153 0.827 1.41078693649e-38
0.0398895366677 -0.062902730899 0.829 1.41082280973e-38
0.0414237496164 -0.062902730899 0.829 1.44737764199e-38
0.0428543245373 -0.0627509752153 0.827 1.4750717838e-38
0.0443848361279 -0.0627509752153 0.827 1.45623833244e-38
0.0459153477185 -0.0627509752153 0.827 1.44490238838e-38
0.0491096197928 -0.0649514326292 0.856 1.7739676252e-38
0.0506938010764 -0.0649514326292 0.856 1.88413925189e-38
0.0524001271787 -0.0651031883129 0.858 2.06834540009e-38
0.0541138559972 -0.0652549439966 0.86 1.93930739152e-38
0.0557054399971 -0.0652549439966 0.86 1.47855148814e-38
0.057297023997 -0.0652549439966 0.86 2.28047326097e-38
0.0 -0.0633672513455 0.856 2.35054659198e-38
0.00158418128364 -0.0633672513455 0.856 2.0731339172e-38
0.00316836256728 -0.0633672513455 0.856 9.1835496158e-39
0.00475254385092 -0.0633672513455 0.856 1.03774110659e-38
0.00633672513455 -0.0633672513455 0.856 1.0469246562e-38
0.00787463944145 -0.0629971155316 0.851 9.73456259275e-39
0.00940515103207 -0.0627010068805 0.847 8.81620763117e-39
0.0109467666971 -0.0625529525549 0.845 7.16316870032e-39
0.0124513687807 -0.0622568439037 0.841 1.30758396706e-38
0.0138412287621 -0.0615165722759 0.831 1.09671671427e-38
0.0153421294876 -0.0613685179503 0.829 1.08782015058e-38
0.0168356274968 -0.0612204636247 0.827 1.18012199887e-38
0.0183661390874 -0.0612204636247 0.827 1.26309680458e-38
0.019896650678 -0.0612204636247 0.827 1.30004624249e-38
0.0214271622687 -0.0612204636247 0.827 1.38284168199e-38
0.0229576738593 -0.0612204636247 0.827 1.40124465446e-38
0.0244881854499 -0.0612204636247 0.827 1.38287755523e-38
0.0260186970405 -0.0612204636247 0.827 1.42901054276e-38
0.0275492086311 -0.0612204636247 0.827 1.38305692144e-38
0.0290797202217 -0.0612204636247 0.827 1.2911496788e-38
0.0306102318124 -0.0612204636247 0.827 1.34650208918e-38
0.032140743403 -0.0612204636247 0.827 1.32802737022e-38
0.0336712549936 -0.0612204636247 0.827 1.43833758533e-38
0.0352017665842 -0.0612204636247 0.827 1.429046416e-38
0.0367322781748 -0.0612204636247 0.827 1.41982699314e-38
0.0383553237189 -0.0613685179503 0.829 1.37380162534e-38
0.0399857719793 -0.0615165722759 0.831 1.38302104819e-38
0.0414237496164 -0.0613685179503 0.829 1.44730589551e-38
0.0429579625652 -0.0613685179503 0.829 1.45634595216e-38
0.0445995149 -0.0615165722759 0.831 1.29836020017e-38
0.0476364792533 -0.0635153056711 0.858 1.51636188383e-38
0.0491096197928 -0.0633672513455 0.856 1.71793362325e-38
0.0506938010764 -0.0633672513455 0.856 1.87491758696e-38
0.0522779823601 -0.0633672513455 0.856 1.81023547153e-38
0.0539880098204 -0.0635153056711 0.858 1.9852251396e-38
0.0555758924622 -0.0635153056711 0.858 1.55201988507e-38
0.057163775104 -0.0635153056711 0.858 2.34583822914e-38
0.0 -0.0619274230293 0.858 2.35044485771e-38
0.00158788264178 -0.0619274230293 0.858 2.34075305714e-38
0.00317576528356 -0.0619274230293 0.858 1.09284240428e-38
0.00475254385092 -0.0617830700619 0.856 9.82639808891e-39
0.006321919702 -0.0616387170945 0.854 1.0469246562e-38
0.00787463944145 -0.0614221876433 0.851 9.91823358506e-39
0.00940515103207 -0.0611334817084 0.847 9.1835496158e-39
0.0109467666971 -0.060989128741 0.845 7.16316870032e-39
0.0124513687807 -0.0607004228061 0.841 6.88766221185e-39
0.0139078532086 -0.0602673639038 0.835 1.16972086102e-38
0.0154161566504 -0.0601230109364 0.833 1.17994263267e-38
0.0168763424363 -0.0598343050015 0.829 1.13409663107e-38
0.0184105553851 -0.0598343050015 0.829 1.19881195727e-38
0.019896650678 -0.0596899520341 0.827 1.26345553699e-38
0.0214271622687 -0.0596899520341 0.827 1.24498081803e-38
0.0229576738593 -0.0596899520341 0.827 1.33695980715e-38
0.0244881854499 -0.0596899520341 0.827 1.31844921496e-38
0.0260186970405 -0.0596899520341 0.827 1.34621510325e-38
0.0275492086311 -0.0596899520341 0.827 1.30955265127e-38
0.0290797202217 -0.0596899520341 0.827 1.33731853956e-38
0.0306102318124 -0.0596899520341 0.827 1.34646621594e-38
0.0322184719239 -0.0598343050015 0.829 1.2911496788e-38
0.0337526848727 -0.0598343050015 0.829 1.41078693649e-38
0.0352868978214 -0.0598343050015 0.829 1.41064400404e-38
0.0368211107702 -0.0598343050015 0.829 1.36458220248e-38
0.0384478576724 -0.059978657969 0.831 1.36454632924e-38
0.0400820072909 -0.0601230109364 0.833 1.42908228924e-38
0.041623622956 -0.0601230109364 0.833 1.34585637084e-38
0.0430616005931 -0.059978657969 0.831 1.38187310449e-38
0.0445995149 -0.059978657969 0.831 1.45379895207e-38
0.0472478366487 -0.0614221876433 0.851 1.74595090448e-38
0.0491096197928 -0.0617830700619 0.856 1.69953135142e-38
0.0506938010764 -0.0617830700619 0.856 1.84675779367e-38
0.0522779823601 -0.0617830700619 0.856 1.80123549202e-38
0.0538621636437 -0.0617830700619 0.856 1.79201186526e-38
0.0555758924622 -0.0619274230293 0.858 1.48773503776e-38
0.057163775104 -0.0619274230293 0.858 2.34681157105e-38
0.0587516577458 -0.0619274230293 0.858 2.35098253593e-38
0.0 -0.0601988887783 0.856 2.3500823418e-38
0.00158788264178 -0.0603395403876 0.858 2.3508711327e-38
0.00317576528356 -0.0603395403876 0.858 1.21222854929e-38
0.00475254385092 -0.0601988887783 0.856 8.99987862348e-39
0.006321919702 -0.060058237169 0.854 1.00100690812e-38
0.00787463944145 -0.059847259755 0.851 9.36722060812e-39
0.0094273591809 -0.0597066081457 0.849 8.81620763117e-39
0.0109726762041 -0.0595659565364 0.847 7.53051068496e-39
0.012510590511 -0.0594253049271 0.845 7.53051068496e-39
0.0140077898783 -0.0591440017085 0.841 1.02041433133e-38
0.0154901838131 -0.05886269849 0.837 1.25276601191e-38
0.0169984872549 -0.0587220468807 0.835 1.14288557504e-38
0.0184105553851 -0.0583000920528 0.829 1.12505657442e-38
0.0199447683338 -0.0583000920528 0.829 1.11572953184e-38
0.0214789812826 -0.0583000920528 0.829 1.25405674793e-38
0.0230131942314 -0.0583000920528 0.829 1.26324029754e-38
0.0245474071801 -0.0583000920528 0.829 1.30937328507e-38
0.0260816201289 -0.0583000920528 0.829 1.19891957699e-38
0.0276158330776 -0.0583000920528 0.829 1.29118555204e-38
0.0291500460264 -0.0583000920528 0.829 1.20831836605e-38
0.0306842589751 -0.0583000920528 0.829 1.28196612918e-38
0.0322184719239 -0.0583000920528 0.829 1.31870032764e-38
0.0337526848727 -0.0583000920528 0.829 1.33695980715e-38
0.0353720290586 -0.0584407436621 0.831 1.34617923001e-38
0.0369099433655 -0.0584407436621 0.831 1.2632044243e-38
0.0384478576724 -0.0584407436621 0.831 1.36461807572e-38
0.0400820072909 -0.0585813952714 0.833 1.34607161029e-38
0.0417235596257 -0.0587220468807 0.835 1.34524652575e-38
0.0432688766489 -0.0587220468807 0.835 1.06661906534e-38
0.0456729087604 -0.059847259755 0.851 1.66326280444e-38
0.0472478366487 -0.059847259755 0.851 1.80083738312e-38
0.0489948776905 -0.060058237169 0.854 1.77346960372e-38
0.050575357616 -0.060058237169 0.854 1.82835313964e-38
0.0522779823601 -0.0601988887783 0.856 1.61662759155e-38
0.0538621636437 -0.0601988887783 0.856 1.63467183161e-38
0.0555758924622 -0.0603395403876 0.858 1.4510008393e-38
0.057163775104 -0.0603395403876 0.858 2.34670437172e-38
0.0587516577458 -0.0603395403876 0.858 2.35098449775e-38
0.0 -0.0586147074946 0.856 2.35033471565e-38
0.00158418128364 -0.0586147074946 0.856 2.35098127476e-38
0.00316836256728 -0.0586147074946 0.856 7.89785266959e-39
0.00475254385092 -0.0586147074946 0.856 8.63253663885e-39
0.006321919702 -0.0584777572435 0.854 9.64272709659e-39
0.00787463944145 -0.0582723318667 0.851 8.63253663885e-39
0.0094273591809 -0.0581353816156 0.849 8.44886564654e-39
0.0109726762041 -0.0579984313644 0.847 8.54070114269e-39
0.012510590511 -0.0578614811133 0.845 8.44886564654e-39
0.0140411021016 -0.0577245308621 0.843 8.0815236619e-39
0.0155642109759 -0.057587580611 0.841 9.18462581302e-39
0.0170392021945 -0.0573136801086 0.837 1.29893697462e-38
0.0184993879804 -0.0570397796063 0.833 1.08778427734e-38
0.0199928859897 -0.0569028293552 0.831 1.13395313811e-38
0.0215308002966 -0.0569028293552 0.831 1.20778026744e-38
0.0230687146034 -0.0569028293552 0.831 1.1804089848e-38
0.0246066289103 -0.0569028293552 0.831 1.21732254946e-38
0.0261445432172 -0.0569028293552 0.831 1.2818943827e-38
0.0276824575241 -0.0569028293552 0.831 1.20813899985e-38
0.029220371831 -0.0569028293552 0.831 1.2818943827e-38
0.0307582861379 -0.0569028293552 0.831 1.25423611413e-38
0.0322962004448 -0.0569028293552 0.831 1.26324029754e-38
0.0338341147517 -0.0569028293552 0.831 1.29993862276e-38
0.0353720290586 -0.0569028293552 0.831 1.39220459781e-38
0.0369099433655 -0.0569028293552 0.831 1.38284168199e-38
0.0385403916259 -0.0570397796063 0.833 1.42865181035e-38
0.0401782426026 -0.0571767298575 0.835 1.26180536791e-38
0.0417235596257 -0.0571767298575 0.835 1.0480725999e-38
0.0434761527047 -0.0574506303598 0.839 1.72758464603e-38
0.0455655693744 -0.0581353816156 0.849 1.66272947024e-38
0.0472478366487 -0.0582723318667 0.851 1.82846300144e-38
0.0489948776905 -0.0584777572435 0.854 1.74570147336e-38
0.050575357616 -0.0584777572435 0.854 1.78268482269e-38
0.0522779823601 -0.0586147074946 0.856 1.87509429069e-38
0.0538621636437 -0.0586147074946 0.856 1.59793763315e-38
0.0554463449273 -0.0586147074946 0.856 1.40508309122e-38
0.057030526211 -0.0586147074946 0.856 2.34695716596e-38
0.0 -0.057030526211 0.856 2.35018827996e-38
0.00158418128364 -0.057030526211 0.856 2.35098141489e-38
0.00316836256728 -0.057030526211 0.856 7.16316870032e-39
0.00475254385092 -0.057030526211 0.856 8.0815236619e-39
0.006321919702 -0.056897277318 0.854 1.01937400735e-38
0.00787463944145 -0.0566974039784 0.851 8.72437213501e-39
0.00944956732974 -0.0566974039784 0.851 8.90804312733e-39
0.0109985857111 -0.0565641550854 0.849 8.99987862348e-39
0.0125402013761 -0.0564309061924 0.847 8.81620763117e-39
0.0140744143248 -0.0562976572994 0.845 8.26519465422e-39
0.0156012245573 -0.0561644084064 0.843 7.89785266959e-39
0.0171206320735 -0.0560311595134 0.841 7.34683969264e-39
0.0185882205758 -0.0557646617273 0.837 1.07662896066e-38
0.0201372389571 -0.0557646617273 0.837 1.21642571845e-38
0.0216344383245 -0.0556314128343 0.835 1.1524637303e-38
0.0231797553476 -0.0556314128343 0.835 1.09747005233e-38
0.0247250723708 -0.0556314128343 0.835 1.15278658947e-38
0.026270389394 -0.0556314128343 0.835 1.15275071623e-38
0.0277490819706 -0.0554981639413 0.833 1.21710731002e-38
0.0292906976357 -0.0554981639413 0.833 1.19866846431e-38
0.0308323133007 -0.0554981639413 0.833 1.29089856611e-38
0.0323739289658 -0.0554981639413 0.833 1.32770451106e-38
0.0339155446308 -0.0554981639413 0.833 1.25387738172e-38
0.0354571602958 -0.0554981639413 0.833 1.41928889453e-38
0.0370876085562 -0.0556314128343 0.835 1.38180135801e-38
0.0386329255794 -0.0556314128343 0.835 1.03928365593e-38
0.0402744779142 -0.0557646617273 0.837 1.29488105635e-38
0.0419234329653 -0.0558979106203 0.839 1.51528568661e-38
0.0438907048163 -0.0564309061924 0.847 1.6349229443e-38
0.0455655693744 -0.0565641550854 0.849 1.69009682925e-38
0.0471367959045 -0.0565641550854 0.849 1.73637246896e-38
0.048822764537 -0.0566974039784 0.851 1.76424597697e-38
0.050575357616 -0.056897277318 0.854 1.86576724812e-38
0.0521558375415 -0.056897277318 0.854 1.52446923622e-38
0.0538621636437 -0.057030526211 0.856 1.58875408353e-38
0.0554463449273 -0.057030526211 0.856 1.38671599199e-38
0.057030526211 -0.057030526211 0.856 2.34749722639e-38
0.0 -0.0555758924622 0.858 2.35011499205e-38
0.00158788264178 -0.0555758924622 0.858 2.35080232895e-38
0.00317576528356 -0.0555758924622 0.858 7.16424489754e-39
0.00475254385092 -0.0554463449273 0.856 9.36722060812e-39
0.006321919702 -0.0553167973925 0.854 1.02855755697e-38
0.00787463944145 -0.0551224760902 0.851 1.01937400735e-38
0.00944956732974 -0.0551224760902 0.851 8.81620763117e-39
0.011024495218 -0.0551224760902 0.851 9.1835496158e-39
0.0125698122412 -0.0549929285553 0.849 8.90804312733e-39
0.0141077265481 -0.0548633810204 0.847 8.35703015038e-39
0.0156382381387 -0.0547338334855 0.845 8.35703015038e-39
0.0171613470131 -0.0546042859506 0.843 9.36722060812e-39
0.0187214694688 -0.0546042859506 0.843 7.71418167727e-39
0.0202334742687 -0.0544747384158 0.841 7.07133320417e-39
0.0217898953663 -0.0544747384158 0.841 9.1997023832e-39
0.0232352757197 -0.054215643346 0.837 1.07773976995e-38
0.024784294101 -0.054215643346 0.837 1.22560926806e-38
0.0263333124823 -0.054215643346 0.837 1.22589625399e-38
0.0278823308637 -0.054215643346 0.837 1.22603974695e-38
0.029431349245 -0.054215643346 0.837 1.31812635579e-38
0.0309063404635 -0.0540860958111 0.835 1.32716641245e-38
0.0324516574867 -0.0540860958111 0.835 1.34524652575e-38
0.0339969745099 -0.0540860958111 0.835 1.16014060381e-38
0.035542291533 -0.0540860958111 0.835 9.18749567227e-39
0.0371764411516 -0.054215643346 0.837 1.2214120989e-38
0.0388179934863 -0.0543451908809 0.839 1.4510008393e-38
0.0404669485374 -0.0544747384158 0.841 1.51528568661e-38
0.0421233063048 -0.0546042859506 0.843 1.55201988507e-38
0.0437870667884 -0.0547338334855 0.845 1.62573939468e-38
0.0455655693744 -0.0549929285553 0.849 1.68991662227e-38
0.0471367959045 -0.0549929285553 0.849 1.76421500828e-38
0.048822764537 -0.0551224760902 0.851 1.71836410213e-38
0.0503976924253 -0.0551224760902 0.851 1.57957053392e-38
0.0521558375415 -0.0553167973925 0.854 1.56120343469e-38
0.053736317467 -0.0553167973925 0.854 1.57960668742e-38
0.0554463449273 -0.0554463449273 0.856 1.41426664083e-38
0.057030526211 -0.0554463449273 0.856 2.34732220421e-38
0.0 -0.0542397021739 0.862 2.34975541887e-38
0.00159528535806 -0.0542397021739 0.862 2.35098113463e-38
0.00317576528356 -0.0539880098204 0.858 7.35114448152e-39
0.00475254385092 -0.0538621636437 0.856 8.72437213501e-39
0.006321919702 -0.053736317467 0.854 1.08390996735e-38
0.00787463944145 -0.0535475482019 0.851 9.91823358506e-39
0.00944956732974 -0.0535475482019 0.851 9.45905610427e-39
0.011024495218 -0.0535475482019 0.851 9.64272709659e-39
0.0125698122412 -0.0534217020251 0.849 9.91823358506e-39
0.0141077265481 -0.0532958558484 0.847 8.99987862348e-39
0.0156752517201 -0.0532958558484 0.847 8.54070114269e-39
0.0172020619526 -0.0531700096716 0.845 9.1835496158e-39
0.0187658857665 -0.0531700096716 0.845 8.35703015038e-39
0.0202815919245 -0.0530441634949 0.843 8.63253663885e-39
0.0218417143803 -0.0530441634949 0.843 8.72437213501e-39
0.0233463164639 -0.0529183173182 0.841 7.98968816575e-39
0.0248435158313 -0.0527924711414 0.839 8.0815236619e-39
0.0263962355707 -0.0527924711414 0.839 7.62234618111e-39
0.0279489553102 -0.0527924711414 0.839 7.80601717343e-39
0.0295016750496 -0.0527924711414 0.839 8.54070114269e-39
0.0309803676263 -0.0526666249647 0.837 8.81620763117e-39
0.0325293860076 -0.0526666249647 0.837 1.06529175543e-38
0.0340784043889 -0.0526666249647 0.837 1.23059564852e-38
0.0356274227702 -0.0526666249647 0.837 1.35916534314e-38
0.0372652737469 -0.0527924711414 0.839 1.41426664083e-38
0.0389105274398 -0.0529183173182 0.841 1.49691858738e-38
0.040563183849 -0.0530441634949 0.843 1.50610213699e-38
0.0421233063048 -0.0530441634949 0.843 1.56120343469e-38
0.0437870667884 -0.0531700096716 0.845 1.75438083578e-38
0.0455655693744 -0.0534217020251 0.849 1.61630473238e-38
0.0472478366487 -0.0535475482019 0.851 1.69910017189e-38
0.048822764537 -0.0535475482019 0.851 1.5703869843e-38
0.0503976924253 -0.0535475482019 0.851 1.53365278584e-38
0.0519726203136 -0.0535475482019 0.851 1.58907806374e-38
0.053736317467 -0.053736317467 0.854 1.57114116314e-38
0.0554463449273 -0.0538621636437 0.856 1.3958995416e-38
0.057030526211 -0.0538621636437 0.856 2.34807526201e-38
0.0 -0.0526444168159 0.862 2.34986303859e-38
0.00159158399992 -0.0525222719973 0.86 2.35054785315e-38
0.00318316799983 -0.0525222719973 0.86 9.84325851203e-39
0.00476364792533 -0.0524001271787 0.858 9.73456259275e-39
0.00633672513455 -0.0522779823601 0.856 1.12082353202e-38
0.00792090641819 -0.0522779823601 0.856 1.15712725159e-38
0.00944956732974 -0.0519726203136 0.851 1.07447530505e-38
0.011024495218 -0.0519726203136 0.851 1.0469246562e-38
0.0125994231063 -0.0519726203136 0.851 9.45905610427e-39
0.0141410387714 -0.051850475495 0.849 9.27538511196e-39
0.0157122653015 -0.051850475495 0.849 8.54070114269e-39
0.0172427768921 -0.0517283306764 0.847 9.1835496158e-39
0.0187658857665 -0.0516061858578 0.845 8.63253663885e-39
0.0203297095803 -0.0516061858578 0.845 9.45905610427e-39
0.0218935333942 -0.0516061858578 0.845 9.36722060812e-39
0.023401836836 -0.0514840410392 0.843 8.63253663885e-39
0.0249027375615 -0.0513618962206 0.841 1.07447530505e-38
0.0264591586591 -0.0513618962206 0.841 1.13876015236e-38
0.0280155797567 -0.0513618962206 0.841 1.17549435082e-38
0.0295720008543 -0.0513618962206 0.841 1.23977919813e-38
0.0311284219519 -0.0513618962206 0.841 1.30406404544e-38
0.0326071145285 -0.051239751402 0.839 1.31324759506e-38
0.034159834268 -0.051239751402 0.839 1.34998179352e-38
0.0358828164819 -0.0514840410392 0.843 1.48791440396e-38
0.0374429389376 -0.0514840410392 0.843 1.47855148814e-38
0.0390030613933 -0.0514840410392 0.843 1.50610213699e-38
0.0406594191607 -0.0516061858578 0.845 1.52446923622e-38
0.0422232429745 -0.0516061858578 0.845 1.54283633545e-38
0.0439943428442 -0.051850475495 0.849 1.64385538123e-38
0.0455655693744 -0.051850475495 0.849 1.65303893084e-38
0.0471367959045 -0.051850475495 0.849 1.51528568661e-38
0.048822764537 -0.0519726203136 0.851 1.47855148814e-38
0.0503976924253 -0.0519726203136 0.851 1.53376040556e-38
0.0519726203136 -0.0519726203136 0.851 1.52507908131e-38
0.053736317467 -0.0521558375415 0.854 1.57139157517e-38
0.0553167973925 -0.0521558375415 0.854 1.35916534314e-38
0.056897277318 -0.0521558375415 0.854 2.34915005793e-38
0.0 -0.0510491314578 0.862 2.34997149909e-38
0.00159158399992 -0.0509306879973 0.86 2.35079798492e-38
0.00318316799983 -0.0509306879973 0.86 1.62130106206e-38
0.00476364792533 -0.0508122445369 0.858 1.01937400735e-38
0.00635153056711 -0.0508122445369 0.858 1.04713989565e-38
0.00792090641819 -0.0506938010764 0.856 1.17549435082e-38
0.00948287955299 -0.050575357616 0.854 1.12957660274e-38
0.011024495218 -0.0503976924253 0.851 1.07447530505e-38
0.0125994231063 -0.0503976924253 0.851 9.91823358506e-39
0.0141410387714 -0.0502792489648 0.849 1.01937400735e-38
0.0157122653015 -0.0502792489648 0.849 9.91823358506e-39
0.0172834918317 -0.0502792489648 0.849 1.03774110659e-38
0.0188103020641 -0.0501608055044 0.847 8.72437213501e-39
0.0203778272361 -0.0501608055044 0.847 1.02855755697e-38
0.0219453524082 -0.0501608055044 0.847 9.91823358506e-39
0.0234573572081 -0.0500423620439 0.845 9.73456259275e-39
0.025021181022 -0.0500423620439 0.845 1.13876015236e-38
0.0265850048358 -0.0500423620439 0.845 1.20304499967e-38
0.0281488286497 -0.0500423620439 0.845 1.24896274775e-38
0.0297126524636 -0.0500423620439 0.845 1.28569694621e-38
0.0313505034402 -0.0501608055044 0.847 1.34998179352e-38
0.0329180286122 -0.0501608055044 0.847 1.34079824391e-38
0.0344041239052 -0.0500423620439 0.845 1.3958995416e-38
0.0359679477191 -0.0500423620439 0.845 1.4510008393e-38
0.0375317715329 -0.0500423620439 0.845 1.46936793853e-38
0.0390955953468 -0.0500423620439 0.845 1.52446923622e-38
0.0407556544723 -0.0501608055044 0.847 1.50610213699e-38
0.0423231796443 -0.0501608055044 0.847 1.59793763315e-38
