# .PCD v0.7 - Point Cloud Data file format
VERSION 0.7
FIELDS x y z rgb
SIZE 4 4 4 4
TYPE F F F F
COUNT 1 1 1 1
WIDTH 854
HEIGHT 1
VIEWPOINT 0 0 0 1 0 0 0
POINTS 854
DATA ascii
0.0177221027712 -0.155068399248 0.798 1.55879992756e-38
0.0191989446688 -0.155068399248 0.798 1.623551127e-38
0.0206757865664 -0.155068399248 0.798 1.56830633634e-38
0.022152628464 -0.155068399248 0.798 1.42994324701e-38
0.0236294703616 -0.155068399248 0.798 1.44852614621e-38
0.0251063122592 -0.155068399248 0.798 1.51255932031e-38
-0.0133748576365 -0.154553910466 0.803 2.05299767866e-38
-0.011873956911 -0.154361439843 0.802 1.0771657981e-38
-0.0103897122971 -0.154361439843 0.802 9.40955103213e-39
-0.00888325953442 -0.153976498597 0.8 9.13583820569e-39
-0.00740271627868 -0.153976498597 0.8 9.4134970886e-39
-0.00590736759039 -0.15359155735 0.798 1.30983963719e-38
-0.00443052569279 -0.15359155735 0.798 1.46671331872e-38
-0.00295368379519 -0.15359155735 0.798 1.53124927871e-38
-0.0014768418976 -0.15359155735 0.798 1.54043282833e-38
0.0 -0.15359155735 0.798 1.48515216443e-38
0.0014768418976 -0.15359155735 0.798 1.53124927871e-38
0.00295368379519 -0.15359155735 0.798 1.48497279823e-38
0.00443052569279 -0.15359155735 0.798 1.55869230784e-38
0.00590736759039 -0.15359155735 0.798 1.47596861481e-38
0.00738420948799 -0.15359155735 0.798 1.45760151558e-38
0.00886105138558 -0.15359155735 0.798 1.45749389586e-38
0.0103378932832 -0.15359155735 0.798 1.50348339042e-38
0.0118147351808 -0.15359155735 0.798 1.50351926366e-38
0.0132915770784 -0.15359155735 0.798 1.50351926366e-38
0.014768418976 -0.15359155735 0.798 1.56798347718e-38
0.0162452608736 -0.15359155735 0.798 1.64195409947e-38
0.0177221027712 -0.15359155735 0.798 1.50405862344e-38
0.0191989446688 -0.15359155735 0.798 1.37484573282e-38
0.0206757865664 -0.15359155735 0.798 1.43952140228e-38
0.022152628464 -0.15359155735 0.798 1.46707205112e-38
0.0236294703616 -0.15359155735 0.798 1.48544293386e-38
0.0251063122592 -0.15359155735 0.798 1.54011221124e-38
-0.0148979665109 -0.153449055062 0.805 1.72048132398e-38
-0.0133748576365 -0.153067815173 0.803 1.8866464551e-38
-0.011873956911 -0.152877195229 0.802 1.14137889893e-38
-0.0103638027902 -0.152495955341 0.8 9.03898045583e-39
-0.00888325953442 -0.152495955341 0.8 9.78012160842e-39
-0.00738420948799 -0.152114715453 0.798 9.5960918837e-39
-0.00590736759039 -0.152114715453 0.798 9.96594499518e-39
-0.00443052569279 -0.152114715453 0.798 8.86463650609e-39
-0.00295368379519 -0.152114715453 0.798 1.13513695505e-38
-0.0014768418976 -0.152114715453 0.798 1.33774901845e-38
0.0 -0.152114715453 0.798 1.50369862987e-38
0.0014768418976 -0.152114715453 0.798 1.512810433e-38
0.00294628107892 -0.151733475564 0.796 1.57720290003e-38
0.00441942161837 -0.151733475564 0.796 1.45742214938e-38
0.00589256215783 -0.151733475564 0.796 1.52202985586e-38
0.00738420948799 -0.152114715453 0.798 1.60511228129e-38
0.00886105138558 -0.152114715453 0.798 1.50373450311e-38
0.0103378932832 -0.152114715453 0.798 1.51320503865e-38
0.0118147351808 -0.152114715453 0.798 1.50398561579e-38
0.0132915770784 -0.152114715453 0.798 1.48543915036e-38
0.0147314053946 -0.151733475564 0.796 1.51295392596e-38
0.016204545934 -0.151733475564 0.796 1.33807187761e-38
0.0176776864735 -0.151733475564 0.796 1.20006752069e-38
0.019150827013 -0.151733475564 0.796 1.36591105382e-38
0.0206757865664 -0.152114715453 0.798 1.40261007969e-38
0.022152628464 -0.152114715453 0.798 1.42104668332e-38
0.0236294703616 -0.152114715453 0.798 1.43948777111e-38
0.0251063122592 -0.152114715453 0.798 1.52174721396e-38
-0.0148979665109 -0.151959258411 0.805 1.92360205873e-38
-0.0133582015249 -0.151392950615 0.802 1.97923669062e-38
-0.0118443460459 -0.151015412085 0.8 1.06794637524e-38
-0.0103638027902 -0.151015412085 0.8 9.49816494311e-39
-0.00886105138558 -0.150637873555 0.798 1.18984658982e-38
-0.00738420948799 -0.150637873555 0.798 1.03311626113e-38
-0.00590736759039 -0.150637873555 0.798 1.08864523512e-38
-0.00443052569279 -0.150637873555 0.798 1.07042162885e-38
-0.00295368379519 -0.150637873555 0.798 1.06116633275e-38
-0.00147314053946 -0.150260335025 0.796 1.04294272648e-38
0.0 -0.150260335025 0.796 1.07052924857e-38
0.00147314053946 -0.150260335025 0.796 1.25463071978e-38
0.00294628107892 -0.150260335025 0.796 1.36526379406e-38
0.00441942161837 -0.150260335025 0.796 1.31009074988e-38
0.00589256215783 -0.150260335025 0.796 1.31016249636e-38
0.00736570269729 -0.150260335025 0.796 1.3469684413e-38
0.00883884323675 -0.150260335025 0.796 1.23673053319e-38
0.0103119837762 -0.150260335025 0.796 1.04344495185e-38
0.0117851243157 -0.150260335025 0.796 1.11745298882e-38
0.0132582648551 -0.150260335025 0.796 1.18191566091e-38
0.0147314053946 -0.150260335025 0.796 1.20932281679e-38
0.016204545934 -0.150260335025 0.796 1.30140942563e-38
0.0176776864735 -0.150260335025 0.796 1.31970561916e-38
0.019150827013 -0.150260335025 0.796 1.3565842915e-38
0.0206757865664 -0.150637873555 0.798 1.54086975319e-38
0.022152628464 -0.150637873555 0.798 1.46707205112e-38
0.0236294703616 -0.150637873555 0.798 1.45774598945e-38
0.0251063122592 -0.150637873555 0.798 1.54922583606e-38
-0.0148979665109 -0.15046946176 0.805 1.8961186722e-38
-0.0133582015249 -0.149908706001 0.802 2.05299333464e-38
-0.0118443460459 -0.149534868829 0.8 1.02184926096e-38
-0.0103638027902 -0.149534868829 0.8 8.85495073111e-39
-0.00886105138558 -0.149161031657 0.798 1.07009947033e-38
-0.00738420948799 -0.149161031657 0.798 1.08846586892e-38
-0.00590736759039 -0.149161031657 0.798 9.77940414361e-39
-0.00443052569279 -0.149161031657 0.798 1.07034988237e-38
-0.00294628107892 -0.148787194485 0.796 1.17162004083e-38
-0.00147314053946 -0.148787194485 0.796 1.14406939198e-38
0.0 -0.148787194485 0.796 1.10719170055e-38
0.00147314053946 -0.148787194485 0.796 1.14403351874e-38
0.00293887836264 -0.148413357313 0.794 1.17176353379e-38
0.00440831754396 -0.148413357313 0.794 1.19967291505e-38
0.00589256215783 -0.148787194485 0.796 1.15353992752e-38
0.00736570269729 -0.148787194485 0.796 1.18130581581e-38
0.00883884323675 -0.148787194485 0.796 1.17215827957e-38
0.0103119837762 -0.148787194485 0.796 1.19074047811e-38
0.0117851243157 -0.148787194485 0.796 1.23694521212e-38
0.0132582648551 -0.148787194485 0.796 1.29215426967e-38
0.0147314053946 -0.148787194485 0.796 1.30137355239e-38
0.016204545934 -0.148787194485 0.796 1.30137355239e-38
0.0176776864735 -0.148787194485 0.796 1.32899594772e-38
0.019150827013 -0.148787194485 0.796 1.34743521382e-38
0.0206757865664 -0.149161031657 0.798 1.38406137217e-38
0.022152628464 -0.149161031657 0.798 1.37484194932e-38
0.0236294703616 -0.149161031657 0.798 1.55887349573e-38
0.0251063122592 -0.149161031657 0.798 1.58584835104e-38
-0.0148979665109 -0.148979665109 0.805 1.81325148622e-38
-0.0133582015249 -0.148424461388 0.802 1.98845639373e-38
-0.011873956911 -0.148424461388 0.802 1.08613410827e-38
-0.0103638027902 -0.148054325574 0.8 9.13189214921e-39
-0.00886105138558 -0.14768418976 0.798 1.00559868293e-38
-0.00738420948799 -0.14768418976 0.798 9.7790454112e-39
-0.00590736759039 -0.14768418976 0.798 9.59501568648e-39
-0.00443052569279 -0.14768418976 0.798 1.06080760035e-38
-0.00294628107892 -0.147314053946 0.796 1.04247637436e-38
-0.00147314053946 -0.147314053946 0.796 1.0153562044e-38
0.0 -0.147314053946 0.796 1.0521262761e-38
0.00146943918132 -0.146943918132 0.794 1.0706368683e-38
0.00293887836264 -0.146943918132 0.794 1.18098295665e-38
0.00440831754396 -0.146943918132 0.794 1.17176353379e-38
0.00589256215783 -0.147314053946 0.796 1.42072480507e-38
0.00736570269729 -0.147314053946 0.796 1.19960144882e-38
0.00883884323675 -0.147314053946 0.796 1.17215827957e-38
0.0103119837762 -0.147314053946 0.796 1.12624039136e-38
0.0117851243157 -0.147314053946 0.796 1.21839874668e-38
0.0132582648551 -0.147314053946 0.796 1.27360780423e-38
0.0147314053946 -0.147314053946 0.796 1.37498544228e-38
0.016204545934 -0.147314053946 0.796 1.42083144388e-38
0.0176776864735 -0.147314053946 0.796 1.40246434465e-38
0.019150827013 -0.147314053946 0.796 1.25509707191e-38
0.0206757865664 -0.14768418976 0.798 1.46700086516e-38
0.022152628464 -0.14768418976 0.798 1.38377438625e-38
0.0236294703616 -0.14768418976 0.798 1.49437607144e-38
0.0251063122592 -0.14768418976 0.798 1.43841031272e-38
-0.0166320527991 -0.149688475192 0.817 1.77626827702e-38
-0.0150460208364 -0.148955606281 0.813 1.91455751792e-38
-0.013441482083 -0.147856302913 0.807 1.55528434997e-38
-0.0119183732087 -0.147489868457 0.805 1.05897806507e-38
-0.0103897122971 -0.146940216774 0.802 9.40703990528e-39
-0.00888325953442 -0.146573782318 0.8 9.31807426837e-39
-0.00738420948799 -0.146207347862 0.798 9.87123963976e-39
-0.00590736759039 -0.146207347862 0.798 1.0330775853e-38
-0.00443052569279 -0.146207347862 0.798 1.17126130842e-38
-0.00294628107892 -0.145840913406 0.796 1.17147654787e-38
-0.00147314053946 -0.145840913406 0.796 1.03347219094e-38
0.0 -0.145840913406 0.796 1.0426916138e-38
0.00146943918132 -0.145474478951 0.794 1.03365155715e-38
0.00293887836264 -0.145474478951 0.794 1.21797471377e-38
0.00440831754396 -0.145474478951 0.794 1.18091121017e-38
0.00589256215783 -0.145840913406 0.796 1.34714948907e-38
0.00736570269729 -0.145840913406 0.796 1.14446399763e-38
0.00883884323675 -0.145840913406 0.796 1.1630463363e-38
0.0103119837762 -0.145840913406 0.796 1.22761816954e-38
0.0117851243157 -0.145840913406 0.796 1.2275822963e-38
0.0132582648551 -0.145840913406 0.796 1.31048535553e-38
0.0147314053946 -0.145840913406 0.796 1.29197476333e-38
0.016204545934 -0.145840913406 0.796 1.43005170751e-38
0.0177221027712 -0.146207347862 0.798 1.28268359399e-38
0.0191989446688 -0.146207347862 0.798 1.42097507697e-38
0.0206757865664 -0.146207347862 0.798 1.5222826501e-38
0.022152628464 -0.146207347862 0.798 1.43901917691e-38
0.0236294703616 -0.146207347862 0.798 1.54054198948e-38
0.0251692353475 -0.146573782318 0.8 1.23576139518e-38
-0.0166320527991 -0.148176470392 0.817 1.78559055518e-38
-0.0150830344178 -0.147813737295 0.815 1.44436807328e-38
-0.0135081065295 -0.147088271099 0.811 8.45641444136e-39
-0.0119479840738 -0.146362804904 0.807 1.13256627302e-38
-0.0104285765576 -0.146000071806 0.805 9.86621738607e-39
-0.00891657175768 -0.145637338709 0.803 9.59465695407e-39
-0.00740271627868 -0.145093239062 0.8 9.50318019032e-39
-0.00592217302295 -0.145093239062 0.8 1.07928245943e-38
-0.00443052569279 -0.144730505965 0.798 1.05165992397e-38
-0.00295368379519 -0.144730505965 0.798 1.04240462787e-38
-0.00147314053946 -0.144367772867 0.796 1.08864523512e-38
0.0 -0.144367772867 0.796 1.22690070473e-38
0.00147314053946 -0.144367772867 0.796 1.1532529416e-38
0.00294628107892 -0.144367772867 0.796 1.16250823769e-38
0.00441942161837 -0.144367772867 0.796 1.19938592912e-38
0.00589256215783 -0.144367772867 0.796 1.18098295665e-38
0.00736570269729 -0.144367772867 0.796 1.1721222662e-38
0.00886105138558 -0.144730505965 0.798 1.14457161735e-38
0.0103378932832 -0.144730505965 0.798 1.07999978411e-38
0.0118147351808 -0.144730505965 0.798 1.2275822963e-38
0.0132915770784 -0.144730505965 0.798 1.20907170411e-38
0.014768418976 -0.144730505965 0.798 1.25513294515e-38
0.0162859758131 -0.145093239062 0.8 1.32888888852e-38
0.0177665190688 -0.145093239062 0.8 1.30123005943e-38
0.0192470623246 -0.145093239062 0.8 1.34729130047e-38
0.0207276055803 -0.145093239062 0.8 1.44863320541e-38
0.0222914293942 -0.145637338709 0.803 1.43912679663e-38
0.0237775246871 -0.145637338709 0.803 1.58667455661e-38
0.0254523892452 -0.146725538002 0.809 1.20781614068e-38
-0.0167134826782 -0.147382529071 0.821 1.36156885026e-38
-0.0150830344178 -0.146305433853 0.815 1.09493089951e-38
-0.0135414187528 -0.145946402113 0.813 1.12309363553e-38
-0.012007205804 -0.145587370374 0.811 9.76226906598e-39
-0.0104285765576 -0.144510275155 0.805 1.01420854095e-38
-0.00893877990651 -0.144510275155 0.805 9.50282145791e-39
-0.00743047646473 -0.144151243416 0.803 9.59501568648e-39
-0.00592217302295 -0.143612695806 0.8 1.00559868293e-38
-0.00444162976721 -0.143612695806 0.8 1.06102340031e-38
-0.00295368379519 -0.143253664067 0.798 1.14392589902e-38
-0.0014768418976 -0.143253664067 0.798 1.04240462787e-38
0.0 -0.142894632327 0.796 1.16243649121e-38
0.00147314053946 -0.142894632327 0.796 1.14406939198e-38
0.00294628107892 -0.142894632327 0.796 1.1992783094e-38
0.00441942161837 -0.142894632327 0.796 1.19013231458e-38
0.00589256215783 -0.142894632327 0.796 1.29161603093e-38
0.00736570269729 -0.142894632327 0.796 1.1443216257e-38
0.00886105138558 -0.143253664067 0.798 1.14457161735e-38
0.0103378932832 -0.143253664067 0.798 1.12613277164e-38
0.0118147351808 -0.143253664067 0.798 1.23669409943e-38
0.0132915770784 -0.143253664067 0.798 1.25516881839e-38
0.014768418976 -0.143253664067 0.798 1.33807187761e-38
0.0162859758131 -0.143612695806 0.8 1.33800013113e-38
0.0178109353665 -0.143971727546 0.802 1.20900107866e-38
0.0192951799804 -0.143971727546 0.802 1.37491383593e-38
0.0208053341012 -0.144151243416 0.803 1.43948636981e-38
0.0222914293942 -0.144151243416 0.803 1.37480607608e-38
0.0238367464174 -0.144510275155 0.805 1.5865707204e-38
0.0254523892452 -0.145228338634 0.809 1.23533105642e-38
-0.0167134826782 -0.145863121555 0.821 1.03939800189e-38
-0.0151200479992 -0.145152460792 0.817 1.15975720855e-38
-0.013574730976 -0.144797130411 0.815 1.12309307501e-38
-0.012007205804 -0.144086469648 0.811 9.67042235944e-39
-0.0104544860646 -0.143375808886 0.807 9.22015153169e-39
-0.00893877990651 -0.143020478504 0.805 9.31663933875e-39
-0.00744898325543 -0.143020478504 0.805 9.41098596175e-39
-0.0059369784555 -0.142487482932 0.802 9.96379260074e-39
-0.00445273384163 -0.142487482932 0.802 1.0885376154e-38
-0.00296108651147 -0.142132152551 0.8 1.03336457122e-38
-0.0014768418976 -0.141776822169 0.798 1.13488584236e-38
0.0 -0.141421491788 0.796 1.04272748704e-38
0.00147314053946 -0.141421491788 0.796 1.13492171561e-38
0.00294628107892 -0.141421491788 0.796 1.20860535198e-38
0.00441942161837 -0.141421491788 0.796 1.19938592912e-38
0.00589256215783 -0.141421491788 0.796 1.20864122522e-38
0.00738420948799 -0.141776822169 0.798 1.16275935038e-38
0.00886105138558 -0.141776822169 0.798 1.14446399763e-38
0.0103378932832 -0.141776822169 0.798 1.15379104021e-38
0.0118147351808 -0.141776822169 0.798 1.19066873163e-38
0.0132915770784 -0.141776822169 0.798 1.19077677174e-38
0.0148054325574 -0.142132152551 0.8 1.27357179086e-38
0.0163266907526 -0.142487482932 0.802 1.23665822619e-38
0.0178109353665 -0.142487482932 0.802 1.31966904527e-38
0.0193192388083 -0.142665148123 0.803 1.38413409957e-38
0.0208571531152 -0.143020478504 0.805 1.38409724542e-38
0.0223469497663 -0.143020478504 0.805 1.38413311866e-38
0.0238367464174 -0.143020478504 0.805 1.47604064156e-38
0.0254523892452 -0.143731139267 0.809 1.28153565029e-38
-0.0183217227897 -0.145046972085 0.825 9.56094031172e-39
-0.0167541976177 -0.144695343062 0.823 1.02160557516e-38
-0.015194075162 -0.144343714039 0.821 9.65931426651e-39
-0.0136080431993 -0.143640455993 0.817 6.70834785646e-39
-0.012007205804 -0.142585568923 0.811 9.20015079871e-39
-0.0104803955715 -0.1422339399 0.809 9.58963470037e-39
-0.00896098805535 -0.141882310876 0.807 9.50282145791e-39
-0.00744898325543 -0.141530681853 0.805 8.85746185796e-39
-0.00594438117178 -0.14117905283 0.803 9.68756864745e-39
-0.00445828587884 -0.14117905283 0.803 1.13467060292e-38
-0.00296848922775 -0.141003238318 0.802 1.04261986732e-38
-0.00148054325574 -0.140651609295 0.8 1.11644699665e-38
0.0 -0.140299980272 0.798 1.10726344704e-38
0.0014768418976 -0.140299980272 0.798 1.18091121017e-38
0.00295368379519 -0.140299980272 0.798 1.27310543873e-38
0.00443052569279 -0.140299980272 0.798 1.17176353379e-38
0.00590736759039 -0.140299980272 0.798 1.1996370418e-38
0.00738420948799 -0.140299980272 0.798 1.1628669701e-38
0.00886105138558 -0.140299980272 0.798 1.11684244308e-38
0.0103638027902 -0.140651609295 0.8 1.18148630306e-38
0.0118443460459 -0.140651609295 0.8 1.20921631811e-38
0.0133248893016 -0.140651609295 0.8 1.22762139253e-38
0.0148424461388 -0.141003238318 0.802 1.26442411448e-38
0.0163470482224 -0.14117905283 0.803 1.30123005943e-38
0.017877559813 -0.141530681853 0.805 1.31048535553e-38
0.0194154741199 -0.141882310876 0.807 1.34725542723e-38
0.0209089721291 -0.141882310876 0.807 1.4116851688e-38
0.0224024701384 -0.141882310876 0.807 1.31956128542e-38
0.0240144116081 -0.142585568923 0.811 1.45781675503e-38
0.0255153123336 -0.142585568923 0.811 1.34603573705e-38
-0.0183217227897 -0.143520161853 0.825 9.09248623509e-39
-0.0167949125573 -0.143520161853 0.825 7.90184917281e-39
-0.015194075162 -0.142824306523 0.821 8.45102504747e-39
-0.0136413554225 -0.142476378858 0.819 6.61216272987e-39
-0.0120368166691 -0.141432595862 0.813 1.03950940512e-38
-0.0105063050785 -0.141084668197 0.811 9.58856130575e-39
-0.00898319620418 -0.140736740532 0.809 8.67307340083e-39
-0.00746749004612 -0.140388812867 0.807 9.31807426837e-39
-0.00595918660434 -0.140040885202 0.805 1.1346366915e-38
-0.00445828587884 -0.139692957537 0.803 1.04240462787e-38
-0.00297219058589 -0.139692957537 0.803 1.02403752864e-38
-0.00148424461388 -0.139518993704 0.802 1.10694058787e-38
0.0 -0.139171066039 0.8 1.14396177226e-38
0.00148054325574 -0.139171066039 0.8 1.19005888654e-38
0.00296848922775 -0.139518993704 0.802 1.13481409588e-38
0.00444162976721 -0.139171066039 0.8 1.19009475978e-38
0.00592217302295 -0.139171066039 0.8 1.26392188912e-38
0.00740271627868 -0.139171066039 0.8 1.11676985582e-38
0.00890546768326 -0.139518993704 0.802 1.10772979917e-38
0.0103897122971 -0.139518993704 0.802 1.13546079512e-38
0.011873956911 -0.139518993704 0.802 1.2183270002e-38
0.0133582015249 -0.139518993704 0.802 1.14457161735e-38
0.0148609529295 -0.139692957537 0.803 1.24591632489e-38
0.0163470482224 -0.139692957537 0.803 1.264352368e-38
0.017877559813 -0.140040885202 0.805 1.26449586097e-38
0.0194154741199 -0.140388812867 0.807 1.31963401281e-38
0.0209607911431 -0.140736740532 0.809 1.38399074673e-38
0.0224579905105 -0.140736740532 0.809 1.45753032962e-38
0.0240144116081 -0.141084668197 0.811 1.49437158729e-38
-0.0199447683338 -0.142681804234 0.829 5.51012976948e-39
-0.0183217227897 -0.141993351621 0.825 8.17337877624e-39
-0.0167949125573 -0.141993351621 0.825 8.35741971135e-39
-0.0152310887434 -0.141649125314 0.823 7.53051068496e-39
-0.0136746676458 -0.141304899007 0.821 6.79582811699e-39
-0.0120368166691 -0.139927993779 0.813 7.5363064554e-39
-0.0105322145855 -0.139927993779 0.813 9.40201765158e-39
-0.00900540435302 -0.139583767472 0.811 8.9485798893e-39
-0.00748599683682 -0.139239541165 0.809 8.39577325032e-39
-0.0059739920369 -0.138895314858 0.807 9.31843300078e-39
-0.00446938995326 -0.138551088551 0.805 1.03322163878e-38
-0.00297959330217 -0.138551088551 0.805 1.03332869798e-38
-0.00148609529295 -0.138206862244 0.803 1.11637525017e-38
0.0 -0.138206862244 0.803 1.19909894319e-38
0.00148609529295 -0.138206862244 0.803 1.10690471463e-38
0.00297219058589 -0.138206862244 0.803 1.17169178731e-38
0.00445828587884 -0.138206862244 0.803 1.18087533693e-38
0.00594438117178 -0.138206862244 0.803 1.1532529416e-38
0.00743047646473 -0.138206862244 0.803 1.18126994257e-38
0.00891657175768 -0.138206862244 0.803 1.13524457477e-38
0.0104026670506 -0.138206862244 0.803 1.18148518202e-38
0.0118887623436 -0.138206862244 0.803 1.19070488513e-38
0.0133748576365 -0.138206862244 0.803 1.21829112696e-38
0.0148609529295 -0.138206862244 0.803 1.29186924556e-38
0.0163877631619 -0.138551088551 0.805 1.31956128542e-38
0.0179219761107 -0.138895314858 0.807 1.27367941058e-38
0.0194635917757 -0.139239541165 0.809 1.3104138893e-38
0.0209607911431 -0.139239541165 0.809 1.52203223806e-38
0.0225135108825 -0.139583767472 0.811 1.31923842625e-38
0.0240736333383 -0.139927993779 0.813 1.51255960057e-38
-0.019896650678 -0.140807066337 0.827 7.53051068496e-39
-0.0182773064921 -0.140126016439 0.823 8.26519465422e-39
-0.0167541976177 -0.140126016439 0.823 7.98968816575e-39
-0.0152310887434 -0.140126016439 0.823 7.62234618111e-39
-0.0136746676458 -0.13978549149 0.821 7.4386751888e-39
-0.0120664275343 -0.138763916644 0.815 5.32645877716e-39
-0.0105581240925 -0.138763916644 0.815 1.10540224242e-38
-0.00902761250186 -0.138423391695 0.813 8.66984480917e-39
-0.00750450362752 -0.138082866746 0.811 8.30322028935e-39
-0.00598879746946 -0.137742341797 0.809 1.05155230425e-38
-0.00448049402767 -0.137401816849 0.807 1.02392990892e-38
-0.00298699601845 -0.137401816849 0.807 1.00559868293e-38
-0.00148979665109 -0.1370612919 0.805 1.02414514837e-38
0.0 -0.1370612919 0.805 1.13452710996e-38
0.00148979665109 -0.1370612919 0.805 1.12537943358e-38
0.00297959330217 -0.1370612919 0.805 1.20856947874e-38
0.00445828587884 -0.136720766951 0.803 1.15328881484e-38
0.00594438117178 -0.136720766951 0.803 1.17176353379e-38
0.00743047646473 -0.136720766951 0.803 1.14428463142e-38
0.00893877990651 -0.1370612919 0.805 1.1075891088e-38
0.0104285765576 -0.1370612919 0.805 1.08918333373e-38
0.0119183732087 -0.1370612919 0.805 1.20907170411e-38
0.0134081698598 -0.1370612919 0.805 1.20903583086e-38
0.0148979665109 -0.1370612919 0.805 1.19978053477e-38
0.0164284781015 -0.137401816849 0.807 1.30101481999e-38
0.0179663924084 -0.137742341797 0.809 1.27353591762e-38
0.0195117094315 -0.138082866746 0.811 1.2274029301e-38
0.021012610157 -0.138082866746 0.811 1.38377438625e-38
0.0225135108825 -0.138082866746 0.811 1.49433571405e-38
0.0241328550685 -0.138763916644 0.815 1.36447528341e-38
0.0257040815987 -0.139104441593 0.817 1.04760624777e-38
0.0272827108451 -0.139444966542 0.819 1.44217602209e-38
0.0288687428078 -0.13978549149 0.821 1.48809377017e-38
-0.0198485330222 -0.138939731156 0.825 8.0815236619e-39
-0.0182773064921 -0.138602907565 0.823 8.44886564654e-39
-0.0167541976177 -0.138602907565 0.823 7.62234618111e-39
-0.0152310887434 -0.138602907565 0.823 7.53051068496e-39
-0.0136746676458 -0.138266083974 0.821 7.25500419648e-39
-0.0120960383994 -0.137592436793 0.817 6.79582671569e-39
-0.0105581240925 -0.137255613202 0.815 7.81144860628e-39
-0.00904982065069 -0.137255613202 0.815 9.86514259015e-39
-0.00750450362752 -0.136581966021 0.811 9.03969792065e-39
-0.00600360290201 -0.136581966021 0.811 8.85530946352e-39
-0.00449159810209 -0.13624514243 0.809 9.87052217495e-39
-0.00299439873473 -0.13624514243 0.809 1.02407340188e-38
-0.00149349800922 -0.135908318839 0.807 1.11623175721e-38
0.0 -0.135908318839 0.807 1.01467461282e-38
0.00149349800922 -0.135908318839 0.807 1.11616043112e-38
0.00297959330217 -0.135571495249 0.805 1.15318119512e-38
0.00446938995326 -0.135571495249 0.805 1.17172766055e-38
0.00595918660434 -0.135571495249 0.805 1.15332468808e-38
0.00744898325543 -0.135571495249 0.805 1.17176353379e-38
0.00893877990651 -0.135571495249 0.805 1.07067274154e-38
0.0104285765576 -0.135571495249 0.805 1.07989216439e-38
0.0119183732087 -0.135571495249 0.805 1.12606200606e-38
0.0134081698598 -0.135571495249 0.805 1.20896548568e-38
0.0149349800922 -0.135908318839 0.807 1.28264772075e-38
0.016469193041 -0.13624514243 0.809 1.19967291505e-38
0.0179663924084 -0.13624514243 0.809 1.28271946723e-38
0.0195117094315 -0.136581966021 0.811 1.24584177581e-38
0.021012610157 -0.136581966021 0.811 1.51281099352e-38
0.0225690312546 -0.136918789611 0.813 1.53075139737e-38
0.0241920767987 -0.137592436793 0.817 7.73104210039e-39
0.0257040815987 -0.137592436793 0.817 1.34086999039e-38
0.0272827108451 -0.137929260384 0.819 1.52461272919e-38
0.0288687428078 -0.138266083974 0.821 1.48805789693e-38
0.0304621774868 -0.138602907565 0.823 1.47876672759e-38
0.0320630148821 -0.138939731156 0.825 1.46036375512e-38
-0.0198004153664 -0.137079798691 0.823 8.0815236619e-39
-0.0182328901944 -0.136746676458 0.821 8.35703015038e-39
-0.0167134826782 -0.136746676458 0.821 8.0815236619e-39
-0.015194075162 -0.136746676458 0.821 7.4386751888e-39
-0.0136746676458 -0.136746676458 0.821 7.25500419648e-39
-0.0121256492645 -0.136413554225 0.819 7.16316870032e-39
-0.0105840335994 -0.136080431993 0.817 5.6938007618e-39
-0.00904982065069 -0.13574730976 0.815 9.48059826557e-39
-0.00752301041821 -0.135414187528 0.813 9.9573438252e-39
-0.00601840833457 -0.135414187528 0.813 9.6850575206e-39
-0.00450270217651 -0.135081065295 0.811 1.01463873958e-38
-0.00299439873473 -0.134747943063 0.809 9.96237588799e-39
-0.00149719936736 -0.134747943063 0.809 1.01478223255e-38
0.0 -0.134747943063 0.809 1.10694058787e-38
0.00149719936736 -0.134747943063 0.809 1.04240462787e-38
0.00298699601845 -0.13441482083 0.807 1.17144081475e-38
0.00446938995326 -0.134081698598 0.805 1.14396177226e-38
0.00595918660434 -0.134081698598 0.805 1.15328881484e-38
0.00744898325543 -0.134081698598 0.805 1.08896809429e-38
0.00896098805535 -0.13441482083 0.807 1.10747868648e-38
0.0104544860646 -0.13441482083 0.807 1.18130581581e-38
0.0119479840738 -0.13441482083 0.807 1.16297458982e-38
0.013441482083 -0.13441482083 0.807 1.20885646466e-38
0.0149719936736 -0.134747943063 0.809 1.27321305845e-38
0.0165099079805 -0.135081065295 0.811 1.29161603093e-38
0.018010808706 -0.135081065295 0.811 1.21818350724e-38
0.0195117094315 -0.135081065295 0.811 1.43927099024e-38
0.021012610157 -0.135081065295 0.811 1.37412546541e-38
0.0225690312546 -0.135414187528 0.813 5.42511018905e-39
0.0241920767987 -0.136080431993 0.817 1.5068571566e-38
0.025767004687 -0.136413554225 0.819 1.43327959853e-38
0.0272827108451 -0.136413554225 0.819 1.5157161655e-38
0.0288687428078 -0.136746676458 0.821 1.5066402356e-38
0.030388150324 -0.136746676458 0.821 1.51593140494e-38
0.0319852863611 -0.137079798691 0.823 1.46983429066e-38
0.0335083952355 -0.137079798691 0.823 1.26732984698e-38
-0.0198004153664 -0.135556689816 0.823 7.80601717343e-39
-0.0182328901944 -0.135227268942 0.821 7.62234618111e-39
-0.0167134826782 -0.135227268942 0.821 7.98968816575e-39
-0.015194075162 -0.135227268942 0.821 7.80601717343e-39
-0.0136746676458 -0.135227268942 0.821 7.53051068496e-39
-0.0121256492645 -0.134897848067 0.819 7.53051068496e-39
-0.0105840335994 -0.134568427193 0.817 6.88766221185e-39
-0.00907202879953 -0.134568427193 0.817 6.3366492349e-39
-0.00752301041821 -0.133909585444 0.813 6.89160826832e-39
-0.00601840833457 -0.133909585444 0.813 1.12426918481e-38
-0.00450270217651 -0.13358016457 0.811 1.06963241756e-38
-0.00300180145101 -0.13358016457 0.811 1.04229700815e-38
-0.00149719936736 -0.133250743695 0.809 1.09754179881e-38
0.0 -0.133250743695 0.809 1.12537943358e-38
0.00149719936736 -0.133250743695 0.809 1.03311345854e-38
0.00298699601845 -0.132921322821 0.807 1.07935406578e-38
0.00448049402767 -0.132921322821 0.807 1.06102283979e-38
0.0059739920369 -0.132921322821 0.807 1.17172766055e-38
0.00746749004612 -0.132921322821 0.807 1.07949755874e-38
0.00898319620418 -0.133250743695 0.809 1.04283552715e-38
0.0104803955715 -0.133250743695 0.809 1.13520870153e-38
0.0119775949389 -0.133250743695 0.809 1.14439491361e-38
0.0134747943063 -0.133250743695 0.809 1.18130581581e-38
0.0149719936736 -0.133250743695 0.809 1.31012662312e-38
0.0165099079805 -0.13358016457 0.811 1.34682494834e-38
0.018010808706 -0.13358016457 0.811 1.45735516731e-38
0.0195598270874 -0.133909585444 0.813 9.21729708672e-39
0.021064429171 -0.133909585444 0.813 8.73405790999e-39
0.0225690312546 -0.133909585444 0.813 1.49853484502e-38
0.0241920767987 -0.134568427193 0.817 1.4428934869e-38
0.025767004687 -0.134897848067 0.819 1.5251508278e-38
0.0272827108451 -0.134897848067 0.819 1.60787522147e-38
0.0287984170032 -0.134897848067 0.819 1.47905371351e-38
0.030388150324 -0.135227268942 0.821 1.50656918977e-38
0.0319075578402 -0.135227268942 0.821 1.57135626245e-38
0.0335083952355 -0.135556689816 0.823 1.21222854929e-38
-0.0213235242407 -0.134033580942 0.823 1.9888219925e-38
-0.0197522977106 -0.133707861426 0.821 6.61215572338e-39
-0.0182328901944 -0.133707861426 0.821 7.25500419648e-39
-0.0167134826782 -0.133707861426 0.821 8.17335915806e-39
-0.015194075162 -0.133707861426 0.821 8.17335915806e-39
-0.0136746676458 -0.133707861426 0.821 7.80601717343e-39
-0.0121256492645 -0.133382141909 0.819 7.53051068496e-39
-0.0105840335994 -0.133056422393 0.817 7.80601717343e-39
-0.00907202879953 -0.133056422393 0.817 7.89785266959e-39
-0.00754151720891 -0.132730702877 0.815 7.16316870032e-39
-0.00601840833457 -0.132404983361 0.813 5.14278778485e-39
-0.00450270217651 -0.132079263844 0.811 8.92490775434e-39
-0.00300180145101 -0.132079263844 0.811 1.22564528143e-38
-0.00149719936736 -0.131753544328 0.809 1.26288156514e-38
0.0 -0.131753544328 0.809 1.17083082953e-38
0.00149719936736 -0.131753544328 0.809 1.20824661957e-38
0.00298699601845 -0.131427824812 0.807 1.1898436471e-38
0.00448049402767 -0.131427824812 0.807 1.14378240606e-38
0.00598879746946 -0.131753544328 0.809 1.10701233435e-38
0.00748599683682 -0.131753544328 0.809 9.87554442865e-39
0.00898319620418 -0.131753544328 0.809 1.12595340543e-38
0.0104803955715 -0.131753544328 0.809 1.07992859815e-38
0.0119775949389 -0.131753544328 0.809 1.21808135258e-38
0.0134747943063 -0.131753544328 0.809 1.31917116393e-38
0.015009007255 -0.132079263844 0.811 1.37380274638e-38
0.0165099079805 -0.132079263844 0.811 1.16110918131e-38
0.0180552250037 -0.132404983361 0.813 6.52605994573e-39
0.0195598270874 -0.132404983361 0.813 1.3329420042e-38
0.021064429171 -0.132404983361 0.813 1.51675887168e-38
0.0226245516267 -0.132730702877 0.815 1.5718992656e-38
0.0241920767987 -0.133056422393 0.817 1.54402169383e-38
0.025767004687 -0.133382141909 0.819 1.61788511679e-38
0.0272827108451 -0.133382141909 0.819 1.51614748516e-38
0.0287984170032 -0.133382141909 0.819 1.55306161035e-38
0.030388150324 -0.133707861426 0.821 1.46976282444e-38
0.0319075578402 -0.133707861426 0.821 1.44181728968e-38
0.0335083952355 -0.134033580942 0.823 1.13876015236e-38
-0.0212717052268 -0.132188453909 0.821 1.97024035447e-38
-0.0197522977106 -0.132188453909 0.821 5.96930725027e-39
-0.0182328901944 -0.132188453909 0.821 7.34683969264e-39
-0.0167134826782 -0.132188453909 0.821 8.0815236619e-39
-0.015194075162 -0.132188453909 0.821 8.0815236619e-39
-0.0136746676458 -0.132188453909 0.821 8.0815236619e-39
-0.0121256492645 -0.131866435751 0.819 8.35703015038e-39
-0.0105840335994 -0.131544417593 0.817 7.98968816575e-39
-0.00907202879953 -0.131544417593 0.817 7.98968816575e-39
-0.00754151720891 -0.131222399435 0.815 7.98968816575e-39
-0.00601840833457 -0.130900381277 0.813 7.80601717343e-39
-0.00450270217651 -0.130578363119 0.811 7.34683969264e-39
-0.00300180145101 -0.130578363119 0.811 5.78563625795e-39
-0.0015009007255 -0.130578363119 0.811 5.96930725027e-39
0.0 -0.130578363119 0.811 1.03928687892e-38
0.0015009007255 -0.130578363119 0.811 1.14220398347e-38
0.00299439873473 -0.130256344961 0.809 1.23461345147e-38
0.00449159810209 -0.130256344961 0.809 1.30865582025e-38
0.00598879746946 -0.130256344961 0.809 1.29965163684e-38
0.00748599683682 -0.130256344961 0.809 1.17061713152e-38
0.00900540435302 -0.130578363119 0.811 1.19809981739e-38
0.0105063050785 -0.130578363119 0.811 1.0781343756e-38
0.012007205804 -0.130578363119 0.811 8.83916650521e-39
0.0135081065295 -0.130578363119 0.811 6.98523742652e-39
0.015009007255 -0.130578363119 0.811 1.00183199266e-38
0.0165506229201 -0.130900381277 0.813 1.44300446974e-38
0.0180552250037 -0.130900381277 0.813 1.54459608607e-38
0.0195598270874 -0.130900381277 0.813 1.5351986983e-38
0.021064429171 -0.130900381277 0.813 1.49806765212e-38
0.0226245516267 -0.131222399435 0.815 1.59008377565e-38
0.0241920767987 -0.131544417593 0.817 1.56246039941e-38
0.0257040815987 -0.131544417593 0.817 1.54398792253e-38
0.0272827108451 -0.131866435751 0.819 1.56235348034e-38
0.0287984170032 -0.131866435751 0.819 1.51618251762e-38
0.0303141231612 -0.131866435751 0.819 1.52507992209e-38
0.0319075578402 -0.132188453909 0.821 1.34079824391e-38
0.0334269653564 -0.132188453909 0.821 1.08365885466e-38
0.0349463728726 -0.132188453909 0.821 2.34933264712e-38
-0.0212717052268 -0.130669046393 0.821 1.89647964669e-38
-0.0197522977106 -0.130669046393 0.821 6.24481373874e-39
-0.0182328901944 -0.130669046393 0.821 7.34683969264e-39
-0.0167134826782 -0.130669046393 0.821 8.17335915806e-39
-0.015194075162 -0.130669046393 0.821 8.54070114269e-39
-0.0136413554225 -0.130350729593 0.819 8.44886564654e-39
-0.0121256492645 -0.130350729593 0.819 8.35703015038e-39
-0.0105840335994 -0.130032412793 0.817 8.35703015038e-39
-0.00907202879953 -0.130032412793 0.817 8.44886564654e-39
-0.00754151720891 -0.129714095993 0.815 8.44886564654e-39
-0.00601840833457 -0.129395779193 0.813 8.54070114269e-39
-0.00450270217651 -0.129077462393 0.811 8.54070114269e-39
-0.00300180145101 -0.129077462393 0.811 8.81620763117e-39
-0.0015009007255 -0.129077462393 0.811 8.99987862348e-39
0.0 -0.129077462393 0.811 8.72437213501e-39
0.0015009007255 -0.129077462393 0.811 8.35703015038e-39
0.00300180145101 -0.129077462393 0.811 7.89785266959e-39
0.00450270217651 -0.129077462393 0.811 7.53051068496e-39
0.00600360290201 -0.129077462393 0.811 7.62234618111e-39
0.00750450362752 -0.129077462393 0.811 8.81620763117e-39
0.00900540435302 -0.129077462393 0.811 9.82639808891e-39
0.0105063050785 -0.129077462393 0.811 1.12039305313e-38
0.012007205804 -0.129077462393 0.811 1.24903477449e-38
0.0135081065295 -0.129077462393 0.811 1.4426455972e-38
0.0150460208364 -0.129395779193 0.813 1.51668474299e-38
0.0165506229201 -0.129395779193 0.813 1.47073168219e-38
0.0180552250037 -0.129395779193 0.813 1.54456049308e-38
0.0195598270874 -0.129395779193 0.813 1.5167941844e-38
0.021064429171 -0.129395779193 0.813 1.68235171251e-38
0.0226245516267 -0.129714095993 0.815 1.46079535504e-38
0.0241920767987 -0.130032412793 0.817 1.5807902241e-38
0.0257040815987 -0.130032412793 0.817 1.61756099645e-38
0.0272827108451 -0.130350729593 0.819 1.6268531467e-38
0.0287984170032 -0.130350729593 0.819 1.55302601737e-38
0.0303141231612 -0.130350729593 0.819 1.29488049583e-38
0.0318298293193 -0.130350729593 0.819 1.36835015392e-38
0.0333455354773 -0.130350729593 0.819 1.12039305313e-38
-0.0212717052268 -0.129149638877 0.821 2.05324977226e-38
-0.0197522977106 -0.129149638877 0.821 5.51012976948e-39
-0.0181884738967 -0.128835023435 0.819 7.89785266959e-39
-0.0166727677387 -0.128835023435 0.819 7.4386751888e-39
-0.0151570615806 -0.128835023435 0.819 8.54070114269e-39
-0.0136413554225 -0.128835023435 0.819 8.63253663885e-39
-0.0121256492645 -0.128835023435 0.819 8.72437213501e-39
-0.0105840335994 -0.128520407993 0.817 8.63253663885e-39
-0.00907202879953 -0.128520407993 0.817 8.72437213501e-39
-0.00754151720891 -0.128205792551 0.815 8.63253663885e-39
-0.00601840833457 -0.12789117711 0.813 8.72437213501e-39
-0.00451380625093 -0.12789117711 0.813 9.09171411964e-39
-0.00300180145101 -0.127576561668 0.811 9.64272709659e-39
-0.0015009007255 -0.127576561668 0.811 9.55089160043e-39
0.0 -0.127576561668 0.811 9.64272709659e-39
0.0015009007255 -0.127576561668 0.811 9.64272709659e-39
0.00300180145101 -0.127576561668 0.811 1.03774110659e-38
0.00450270217651 -0.127576561668 0.811 1.0469246562e-38
0.00600360290201 -0.127576561668 0.811 1.11120950351e-38
0.00752301041821 -0.12789117711 0.813 1.15712725159e-38
0.00902761250186 -0.12789117711 0.813 1.18478552016e-38
0.0105322145855 -0.12789117711 0.813 1.23063152176e-38
0.012007205804 -0.127576561668 0.811 1.3504126928e-38
0.0135081065295 -0.127576561668 0.811 1.36906635757e-38
0.0150460208364 -0.12789117711 0.813 1.45200585055e-38
0.0165506229201 -0.12789117711 0.813 1.50707295657e-38
0.0180552250037 -0.12789117711 0.813 1.48899298339e-38
0.0195598270874 -0.12789117711 0.813 1.54413043459e-38
0.021064429171 -0.12789117711 0.813 1.59912411256e-38
0.0226245516267 -0.128205792551 0.815 1.57160835604e-38
0.0241920767987 -0.128520407993 0.817 1.54405728681e-38
0.0257040815987 -0.128520407993 0.817 1.6362169033e-38
0.0272160863986 -0.128520407993 0.817 1.5073247699e-38
0.0287984170032 -0.128835023435 0.819 1.29488049583e-38
0.0303141231612 -0.128835023435 0.819 1.39589996199e-38
0.0318298293193 -0.128835023435 0.819 1.29488077609e-38
0.0333455354773 -0.128835023435 0.819 1.08365885466e-38
-0.0212717052268 -0.127630231361 0.821 2.0070818924e-38
-0.0197522977106 -0.127630231361 0.821 5.6938007618e-39
-0.0181884738967 -0.127319317277 0.819 7.4386751888e-39
-0.0166727677387 -0.127319317277 0.819 8.91091298658e-39
-0.0151570615806 -0.127319317277 0.819 8.0815236619e-39
-0.0136413554225 -0.127319317277 0.819 8.35703015038e-39
-0.0120960383994 -0.127008403193 0.817 8.81620763117e-39
-0.0105581240925 -0.12669748911 0.815 8.99987862348e-39
-0.00904982065069 -0.12669748911 0.815 9.09171411964e-39
-0.00752301041821 -0.126386575026 0.813 9.55089160043e-39
-0.00601840833457 -0.126386575026 0.813 9.64272709659e-39
-0.00451380625093 -0.126386575026 0.813 1.01019045774e-38
-0.00300180145101 -0.126075660942 0.811 1.01019045774e-38
-0.0015009007255 -0.126075660942 0.811 1.01937400735e-38
0.0 -0.126075660942 0.811 1.01937400735e-38
0.0015009007255 -0.126075660942 0.811 1.06529175543e-38
0.00300180145101 -0.126075660942 0.811 1.02855755697e-38
0.00450270217651 -0.126075660942 0.811 1.11120950351e-38
0.00601840833457 -0.126386575026 0.813 1.11120950351e-38
0.00752301041821 -0.126386575026 0.813 1.19386145005e-38
0.00902761250186 -0.126386575026 0.813 1.19386145005e-38
0.0105322145855 -0.126386575026 0.813 1.30420753841e-38
0.0120368166691 -0.126386575026 0.813 1.33197356683e-38
0.0135414187528 -0.126386575026 0.813 1.36917397729e-38
0.0150460208364 -0.126386575026 0.813 1.43349567875e-38
0.0165506229201 -0.126386575026 0.813 1.51661467807e-38
0.0180552250037 -0.126386575026 0.813 1.54416546705e-38
0.0195598270874 -0.126386575026 0.813 1.54402729902e-38
0.021064429171 -0.126386575026 0.813 1.67306026291e-38
0.0226245516267 -0.12669748911 0.815 1.61770519007e-38
0.0241920767987 -0.127008403193 0.817 1.39654525993e-38
0.0257040815987 -0.127008403193 0.817 1.40554944335e-38
0.0272160863986 -0.127008403193 0.817 1.35016214063e-38
0.0287984170032 -0.127319317277 0.819 1.38693291299e-38
0.0303141231612 -0.127319317277 0.819 1.33186594711e-38
0.0318298293193 -0.127319317277 0.819 1.31367891473e-38
0.0333455354773 -0.127319317277 0.819 1.12039305313e-38
-0.0197522977106 -0.126110823845 0.821 5.60196526564e-39
-0.0182328901944 -0.126110823845 0.821 6.88766221185e-39
-0.0167134826782 -0.126110823845 0.821 8.63253663885e-39
-0.015194075162 -0.126110823845 0.821 8.90804312733e-39
-0.0136413554225 -0.125803611119 0.819 8.35703015038e-39
-0.0120960383994 -0.125496398393 0.817 8.72437213501e-39
-0.0105581240925 -0.125189185668 0.815 8.90804312733e-39
-0.00904982065069 -0.125189185668 0.815 9.55089160043e-39
-0.00752301041821 -0.124881972942 0.813 9.73456259275e-39
-0.00601840833457 -0.124881972942 0.813 1.01937400735e-38
-0.00451380625093 -0.124881972942 0.813 1.03774110659e-38
-0.00300920416729 -0.124881972942 0.813 1.02855755697e-38
-0.00150460208364 -0.124881972942 0.813 1.03774110659e-38
0.0 -0.124881972942 0.813 1.06529175543e-38
0.00150460208364 -0.124881972942 0.813 1.09284240428e-38
0.00300920416729 -0.124881972942 0.813 1.08365885466e-38
0.00451380625093 -0.124881972942 0.813 1.11120950351e-38
0.00601840833457 -0.124881972942 0.813 1.14794370197e-38
0.00752301041821 -0.124881972942 0.813 1.24896274775e-38
0.00900540435302 -0.124574760217 0.811 1.26736572022e-38
0.0105063050785 -0.124574760217 0.811 1.2765133966e-38
0.012007205804 -0.124574760217 0.811 1.39636757529e-38
0.0135081065295 -0.124574760217 0.811 1.37828592055e-38
0.015009007255 -0.124574760217 0.811 1.46122541354e-38
0.0165099079805 -0.124574760217 0.811 1.45204116328e-38
0.0180552250037 -0.124881972942 0.813 1.52586829261e-38
0.0195598270874 -0.124881972942 0.813 1.54427126508e-38
0.021064429171 -0.124881972942 0.813 1.3874334568e-38
0.0226245516267 -0.125189185668 0.815 1.37753370354e-38
0.0241920767987 -0.125496398393 0.817 1.53419606925e-38
0.0257040815987 -0.125496398393 0.817 1.42471374127e-38
0.0272160863986 -0.125496398393 0.817 1.34140977056e-38
0.0287984170032 -0.125803611119 0.819 1.29516748175e-38
0.0303141231612 -0.125803611119 0.819 1.33240390559e-38
0.0318298293193 -0.125803611119 0.819 1.28605567862e-38
0.0333455354773 -0.125803611119 0.819 1.08365885466e-38
-0.0182328901944 -0.124591416328 0.821 6.79582671569e-39
-0.0167134826782 -0.124591416328 0.821 7.71418167727e-39
-0.015194075162 -0.124591416328 0.821 8.99987862348e-39
-0.0136746676458 -0.124591416328 0.821 8.81620763117e-39
-0.0120960383994 -0.123984393594 0.817 1.0102268915e-38
-0.0105581240925 -0.123680882226 0.815 8.72437213501e-39
-0.00904982065069 -0.123680882226 0.815 8.90804312733e-39
-0.00754151720891 -0.123680882226 0.815 9.45905610427e-39
-0.00601840833457 -0.123377370859 0.813 1.01019045774e-38
-0.00451380625093 -0.123377370859 0.813 1.03774110659e-38
-0.00300920416729 -0.123377370859 0.813 1.02855755697e-38
-0.00150460208364 -0.123377370859 0.813 1.06529175543e-38
0.0 -0.123377370859 0.813 1.08365885466e-38
0.00150460208364 -0.123377370859 0.813 1.11120950351e-38
0.00300920416729 -0.123377370859 0.813 1.12957660274e-38
0.00451380625093 -0.123377370859 0.813 1.18467790044e-38
0.00601840833457 -0.123377370859 0.813 1.17549435082e-38
0.00752301041821 -0.123377370859 0.813 1.24896274775e-38
0.00900540435302 -0.123073859491 0.811 1.2765133966e-38
0.0105063050785 -0.123073859491 0.811 1.38736171032e-38
0.012007205804 -0.123073859491 0.811 1.35970344175e-38
0.0135081065295 -0.123073859491 0.811 1.30413579192e-38
0.015009007255 -0.123073859491 0.811 1.40572880955e-38
0.0165099079805 -0.123073859491 0.811 1.44246300801e-38
0.018010808706 -0.123073859491 0.811 1.31324759506e-38
0.0195598270874 -0.123377370859 0.813 1.33161469429e-38
0.021064429171 -0.123377370859 0.813 1.34998207378e-38
0.0226245516267 -0.123680882226 0.815 1.3503070349e-38
0.0241920767987 -0.123984393594 0.817 1.25829091137e-38
0.0257040815987 -0.123984393594 0.817 1.29502651113e-38
0.0272160863986 -0.123984393594 0.817 1.35030731516e-38
0.0287984170032 -0.124287904961 0.819 1.43346092655e-38
0.0303141231612 -0.124287904961 0.819 1.12039305313e-38
0.0318298293193 -0.124287904961 0.819 1.35105799074e-38
-0.0182773064921 -0.123371818821 0.823 5.87747175411e-39
-0.0167134826782 -0.123072008812 0.821 7.89785266959e-39
-0.015194075162 -0.123072008812 0.821 9.1835496158e-39
-0.0136746676458 -0.123072008812 0.821 8.63255765833e-39
-0.0120960383994 -0.122472388794 0.817 8.17335915806e-39
-0.0105581240925 -0.122172578784 0.815 9.09171411964e-39
-0.00904982065069 -0.122172578784 0.815 8.99987862348e-39
-0.00754151720891 -0.122172578784 0.815 9.64272709659e-39
-0.00601840833457 -0.121872768775 0.813 1.01019045774e-38
-0.00451380625093 -0.121872768775 0.813 1.01937400735e-38
-0.00300920416729 -0.121872768775 0.813 1.03774110659e-38
-0.00150460208364 -0.121872768775 0.813 1.09284240428e-38
0.0 -0.121872768775 0.813 1.11120950351e-38
0.00150460208364 -0.121872768775 0.813 1.14794370197e-38
0.00300920416729 -0.121872768775 0.813 1.12039305313e-38
0.00451380625093 -0.121872768775 0.813 1.18467790044e-38
0.00601840833457 -0.121872768775 0.813 1.18467790044e-38
0.00752301041821 -0.121872768775 0.813 1.23977919813e-38
0.00900540435302 -0.121572958766 0.811 1.23977919813e-38
0.0105063050785 -0.121572958766 0.811 1.24896274775e-38
0.012007205804 -0.121572958766 0.811 1.25814629736e-38
0.0135081065295 -0.121572958766 0.811 1.31342696126e-38
0.015009007255 -0.121572958766 0.811 1.2214120989e-38
0.0165099079805 -0.121572958766 0.811 1.24896274775e-38
0.018010808706 -0.121572958766 0.811 1.26732984698e-38
0.0195598270874 -0.121872768775 0.813 1.24896274775e-38
0.021064429171 -0.121872768775 0.813 1.23977919813e-38
0.0226800719988 -0.122472388794 0.817 1.2766955654e-38
0.024251298529 -0.122772198803 0.819 1.24946665468e-38
0.025767004687 -0.122772198803 0.819 1.2494681961e-38
0.0272827108451 -0.122772198803 0.819 1.36867581569e-38
0.0288687428078 -0.123072008812 0.821 1.29491706972e-38
0.030388150324 -0.123072008812 0.821 1.37875213255e-38
0.0319075578402 -0.123072008812 0.821 1.15730661779e-38
-0.0216344383245 -0.123625361854 0.835 2.34986822339e-38
-0.0200891213013 -0.123625361854 0.835 5.1452989117e-39
-0.0184993879804 -0.123329253203 0.833 6.42848473106e-39
-0.0167541976177 -0.121848709947 0.823 7.80601717343e-39
-0.0152310887434 -0.121848709947 0.823 9.1835496158e-39
-0.0136746676458 -0.121552601296 0.821 8.54070114269e-39
-0.0120960383994 -0.120960383994 0.817 9.09171411964e-39
-0.0105840335994 -0.120960383994 0.817 9.27538511196e-39
-0.00904982065069 -0.120664275343 0.815 8.90804312733e-39
-0.00754151720891 -0.120664275343 0.815 9.09171411964e-39
-0.00601840833457 -0.120368166691 0.813 9.64272709659e-39
-0.00451380625093 -0.120368166691 0.813 1.01019045774e-38
-0.00300920416729 -0.120368166691 0.813 9.91823358506e-39
-0.00150460208364 -0.120368166691 0.813 1.06529175543e-38
0.0 -0.120368166691 0.813 1.12957660274e-38
0.00150460208364 -0.120368166691 0.813 1.07447670635e-38
0.00300920416729 -0.120368166691 0.813 1.15716312483e-38
0.00451380625093 -0.120368166691 0.813 1.18471419407e-38
0.00601840833457 -0.120368166691 0.813 1.12039515508e-38
0.00752301041821 -0.120368166691 0.813 1.16631080121e-38
0.00900540435302 -0.12007205804 0.811 1.18467790044e-38
0.0105063050785 -0.12007205804 0.811 1.19386285135e-38
0.012007205804 -0.12007205804 0.811 1.16631080121e-38
0.0135081065295 -0.12007205804 0.811 1.17549435082e-38
0.015009007255 -0.12007205804 0.811 1.16631080121e-38
0.0165099079805 -0.12007205804 0.811 1.18467790044e-38
0.018010808706 -0.12007205804 0.811 1.16631080121e-38
0.0195598270874 -0.120368166691 0.813 1.2214120989e-38
0.021064429171 -0.120368166691 0.813 1.19386145005e-38
0.0226800719988 -0.120960383994 0.817 1.25850629094e-38
0.024251298529 -0.121256492645 0.819 1.20326220093e-38
0.025767004687 -0.121256492645 0.819 1.26769222276e-38
0.0272827108451 -0.121256492645 0.819 1.39651246955e-38
0.0288687428078 -0.121552601296 0.821 1.39694014584e-38
0.030388150324 -0.121552601296 0.821 1.1663122025e-38
0.0319075578402 -0.121552601296 0.821 1.36920985053e-38
-0.0232352757197 -0.122372452124 0.837 2.34889488148e-38
-0.0216344383245 -0.122080044831 0.835 2.34961669032e-38
-0.0200891213013 -0.122080044831 0.835 7.81893154008e-39
-0.0184993879804 -0.121787637538 0.833 5.6938007618e-39
-0.0168356274968 -0.120910415659 0.827 8.44888666601e-39
-0.0152681023248 -0.120618008366 0.825 9.1835496158e-39
-0.0137079798691 -0.120325601073 0.823 8.81621323636e-39
-0.0120960383994 -0.119448379194 0.817 8.17335915806e-39
-0.0105840335994 -0.119448379194 0.817 9.27538511196e-39
-0.00907202879953 -0.119448379194 0.817 9.27539071715e-39
-0.00754151720891 -0.119155971901 0.815 9.1835496158e-39
-0.00601840833457 -0.118863564608 0.813 9.82639808891e-39
-0.00451380625093 -0.118863564608 0.813 9.64272709659e-39
-0.00300920416729 -0.118863564608 0.813 9.73456259275e-39
-0.00150460208364 -0.118863564608 0.813 1.00100690812e-38
0.0 -0.118863564608 0.813 1.0469246562e-38
0.00150460208364 -0.118863564608 0.813 1.06529175543e-38
0.00300920416729 -0.118863564608 0.813 1.1020259539e-38
0.00451380625093 -0.118863564608 0.813 1.1020259539e-38
0.00601840833457 -0.118863564608 0.813 1.03774110659e-38
0.00752301041821 -0.118863564608 0.813 1.08365885466e-38
0.00902761250186 -0.118863564608 0.813 1.12039305313e-38
0.0105322145855 -0.118863564608 0.813 1.15712725159e-38
0.012007205804 -0.118571157315 0.811 1.13876015236e-38
0.0135081065295 -0.118571157315 0.811 1.16631080121e-38
0.015009007255 -0.118571157315 0.811 1.13876085301e-38
0.0165099079805 -0.118571157315 0.811 1.13876015236e-38
0.0180552250037 -0.118863564608 0.813 1.15712725159e-38
0.0195598270874 -0.118863564608 0.813 1.19386145005e-38
0.0211162481849 -0.119155971901 0.815 1.19386159018e-38
0.0227355923709 -0.119740786487 0.819 1.27676731188e-38
0.024251298529 -0.119740786487 0.819 1.30500011282e-38
0.025767004687 -0.119740786487 0.819 1.29578447347e-38
0.0272827108451 -0.119740786487 0.819 1.34123194578e-38
0.0288687428078 -0.12003319378 0.821 1.23977919813e-38
0.0304621774868 -0.120325601073 0.823 1.4614040791e-38
0.0322184719239 -0.121202822952 0.829 1.16659778713e-38
0.0337526848727 -0.121202822952 0.829 1.11120950351e-38
