# .PCD v0.7 - Point Cloud Data file format
VERSION 0.7
FIELDS x y z rgb
SIZE 4 4 4 4
TYPE F F F F
COUNT 1 1 1 1
WIDTH 854
HEIGHT 1
VIEWPOINT 0 0 0 1 0 0 0
POINTS 854
DATA ascii
-0.0104544860646 -0.164284781015 0.807 1.67538964135e-38
-0.00893877990651 -0.163877631619 0.805 1.70477318859e-38
-0.00744898325543 -0.163877631619 0.805 1.4757535155e-38
-0.00595918660434 -0.163877631619 0.805 1.44816685328e-38
-0.00446938995326 -0.163877631619 0.805 1.54039695509e-38
-0.00297959330217 -0.163877631619 0.805 1.46667744548e-38
-0.00148609529295 -0.163470482224 0.803 1.512810433e-38
0.0 -0.163470482224 0.803 1.50363094715e-38
0.00148609529295 -0.163470482224 0.803 1.53106991251e-38
0.00297219058589 -0.163470482224 0.803 1.51266694004e-38
0.00445828587884 -0.163470482224 0.803 1.50341164394e-38
0.00595918660434 -0.163877631619 0.805 1.47586099509e-38
0.00744898325543 -0.163877631619 0.805 1.54039695509e-38
0.00893877990651 -0.163877631619 0.805 1.47571750213e-38
0.0104285765576 -0.163877631619 0.805 1.57702353383e-38
0.0119183732087 -0.163877631619 0.805 1.46646304681e-38
0.0134081698598 -0.163877631619 0.805 1.56791173069e-38
0.0148979665109 -0.163877631619 0.805 1.42972800757e-38
0.0163877631619 -0.163877631619 0.805 1.49444333377e-38
0.017877559813 -0.163877631619 0.805 1.44838209273e-38
0.0193192388083 -0.163470482224 0.803 1.46664157224e-38
0.0208053341012 -0.163470482224 0.803 1.47586099509e-38
0.0222914293942 -0.163470482224 0.803 1.50341164394e-38
0.0237775246871 -0.163470482224 0.803 1.51270281328e-38
0.0253265430684 -0.163877631619 0.805 1.60504137558e-38
-0.013441482083 -0.162791283005 0.807 1.86831550937e-38
-0.0119479840738 -0.162791283005 0.807 1.96050917742e-38
-0.0104544860646 -0.162791283005 0.807 1.50061353117e-38
-0.00893877990651 -0.162387834968 0.805 1.51173675812e-38
-0.00744898325543 -0.162387834968 0.805 1.58627882993e-38
-0.00595918660434 -0.162387834968 0.805 1.47575337537e-38
-0.00446938995326 -0.162387834968 0.805 1.46649807927e-38
-0.00297219058589 -0.161984386931 0.803 1.55869230784e-38
-0.00148609529295 -0.161984386931 0.803 1.51295392596e-38
0.0 -0.161984386931 0.803 1.45745802262e-38
0.00148609529295 -0.161984386931 0.803 1.48515216443e-38
0.00297219058589 -0.161984386931 0.803 1.47586099509e-38
0.00445828587884 -0.161984386931 0.803 1.49426396756e-38
0.00594438117178 -0.161984386931 0.803 1.49426396756e-38
0.00743047646473 -0.161984386931 0.803 1.44823859976e-38
0.00891657175768 -0.161984386931 0.803 1.53099816603e-38
0.0104026670506 -0.161984386931 0.803 1.50341164394e-38
0.0119183732087 -0.162387834968 0.805 1.46642633279e-38
0.0134081698598 -0.162387834968 0.805 1.63248356393e-38
0.0148609529295 -0.161984386931 0.803 1.47571750213e-38
0.0163470482224 -0.161984386931 0.803 1.47586099509e-38
0.0178331435154 -0.161984386931 0.803 1.52195810937e-38
0.0193192388083 -0.161984386931 0.803 1.50345045991e-38
0.0208053341012 -0.161984386931 0.803 1.49440746053e-38
0.0222914293942 -0.161984386931 0.803 1.48522391091e-38
0.0237775246871 -0.161984386931 0.803 1.512810433e-38
0.0252636199801 -0.161984386931 0.803 1.65095996444e-38
-0.0134081698598 -0.160898038317 0.805 1.85898874705e-38
-0.0119183732087 -0.160898038317 0.805 2.18185099609e-38
-0.0104285765576 -0.160898038317 0.805 1.15063419503e-38
-0.00893877990651 -0.160898038317 0.805 8.48617381685e-39
-0.00744898325543 -0.160898038317 0.805 1.54969120728e-38
-0.00595918660434 -0.160898038317 0.805 1.57716842809e-38
-0.00445828587884 -0.160498291638 0.803 1.60482529536e-38
-0.00297219058589 -0.160498291638 0.803 1.47582512185e-38
-0.00148609529295 -0.160498291638 0.803 1.40218002119e-38
0.0 -0.160498291638 0.803 1.50344751718e-38
0.00148609529295 -0.160498291638 0.803 1.49419222108e-38
0.00297219058589 -0.160498291638 0.803 1.49429998093e-38
0.00445828587884 -0.160498291638 0.803 1.51273868652e-38
0.00594438117178 -0.160498291638 0.803 1.47596861481e-38
0.00743047646473 -0.160498291638 0.803 1.44831034624e-38
0.00891657175768 -0.160498291638 0.803 1.47589686833e-38
0.0104026670506 -0.160498291638 0.803 1.50341164394e-38
0.0118887623436 -0.160498291638 0.803 1.49419222108e-38
0.0133748576365 -0.160498291638 0.803 1.48493692499e-38
0.0148609529295 -0.160498291638 0.803 1.5678779594e-38
0.0163266907526 -0.160298418299 0.802 1.52195810937e-38
0.0178109353665 -0.160298418299 0.802 1.46671331872e-38
0.0192951799804 -0.160298418299 0.802 1.46671331872e-38
0.0207794245943 -0.160298418299 0.802 1.45749389586e-38
0.0222636692081 -0.160298418299 0.802 1.46689268492e-38
0.023747913822 -0.160298418299 0.802 1.64188235299e-38
0.0252321584359 -0.160298418299 0.802 1.74315783638e-38
-0.0149349800922 -0.159804286987 0.807 2.00671587324e-38
-0.0134081698598 -0.159408241666 0.805 2.043596087e-38
-0.0119183732087 -0.159408241666 0.805 2.12667851243e-38
-0.0104285765576 -0.159408241666 0.805 1.22460481732e-38
-0.00893877990651 -0.159408241666 0.805 8.39362085588e-39
-0.00744898325543 -0.159408241666 0.805 9.22946736388e-39
-0.00595918660434 -0.159408241666 0.805 1.56812991287e-38
-0.00445828587884 -0.159012196345 0.803 1.53100054824e-38
-0.00297219058589 -0.159012196345 0.803 1.53110578575e-38
-0.00148424461388 -0.158814173685 0.802 1.47593274157e-38
0.0 -0.158814173685 0.802 1.47593274157e-38
0.00148424461388 -0.158814173685 0.802 1.5956058725e-38
0.00296848922775 -0.158814173685 0.802 1.46664157224e-38
0.00445273384163 -0.158814173685 0.802 1.45742214938e-38
0.0059369784555 -0.158814173685 0.802 1.60493291508e-38
0.00740271627868 -0.158418128364 0.8 1.43905631132e-38
0.00888325953442 -0.158418128364 0.8 1.48515216443e-38
0.0103897122971 -0.158814173685 0.802 1.47586099509e-38
0.011873956911 -0.158814173685 0.802 1.45738627614e-38
0.0133582015249 -0.158814173685 0.802 1.52202985586e-38
0.0148424461388 -0.158814173685 0.802 1.45749389586e-38
0.0162859758131 -0.158418128364 0.8 1.46671331872e-38
0.0177665190688 -0.158418128364 0.8 1.51273868652e-38
0.0192470623246 -0.158418128364 0.8 1.52195810937e-38
0.0207276055803 -0.158418128364 0.8 1.50341164394e-38
0.0222081488361 -0.158418128364 0.8 1.68794359403e-38
0.023747913822 -0.158814173685 0.802 1.75255130051e-38
0.0252321584359 -0.158814173685 0.802 1.31023424284e-38
-0.0149349800922 -0.158310788978 0.807 1.96979964611e-38
-0.0134081698598 -0.157918445015 0.805 1.9608743558e-38
-0.0119183732087 -0.157918445015 0.805 2.09901940309e-38
-0.0104285765576 -0.157918445015 0.805 1.31658380644e-38
-0.00893877990651 -0.157918445015 0.805 9.03395820214e-39
-0.00744898325543 -0.157918445015 0.805 8.76490889699e-39
-0.00594438117178 -0.157526101052 0.803 9.59788554573e-39
-0.00445828587884 -0.157526101052 0.803 1.32842197587e-38
-0.00297219058589 -0.157526101052 0.803 1.54039695509e-38
-0.00148424461388 -0.157329929071 0.802 1.54032520861e-38
0.0 -0.156937585108 0.8 1.53106991251e-38
0.00148054325574 -0.156937585108 0.8 1.48497279823e-38
0.00295368379519 -0.156545241145 0.798 1.49419222108e-38
0.00443052569279 -0.156545241145 0.798 1.47571750213e-38
0.00590736759039 -0.156545241145 0.798 1.44816685328e-38
0.00738420948799 -0.156545241145 0.798 1.45738627614e-38
0.00886105138558 -0.156545241145 0.798 1.46660569899e-38
0.0103638027902 -0.156937585108 0.8 1.46671331872e-38
0.0118443460459 -0.156937585108 0.8 1.53128515195e-38
0.0133248893016 -0.156937585108 0.8 1.49447920701e-38
0.0148054325574 -0.156937585108 0.8 1.48518803767e-38
0.0162859758131 -0.156937585108 0.8 1.47586099509e-38
0.0177665190688 -0.156937585108 0.8 1.5126310668e-38
0.0192470623246 -0.156937585108 0.8 1.61397297174e-38
0.0207276055803 -0.156937585108 0.8 1.7892508869e-38
0.0222081488361 -0.156937585108 0.8 1.54972652e-38
0.023747913822 -0.157329929071 0.802 1.34729130047e-38
0.0252321584359 -0.157329929071 0.802 1.375093062e-38
-0.0149349800922 -0.156817290969 0.807 2.01586354962e-38
-0.0134081698598 -0.156428648364 0.805 1.99756637518e-38
-0.0119183732087 -0.156428648364 0.805 2.08983277061e-38
-0.0104285765576 -0.156428648364 0.805 1.87836646274e-38
-0.00893877990651 -0.156428648364 0.805 1.08674395336e-38
-0.00743047646473 -0.156040005759 0.803 9.31735960616e-39
-0.00594438117178 -0.156040005759 0.803 1.02428906172e-38
-0.00445273384163 -0.155845684457 0.802 8.77028988309e-39
-0.00296848922775 -0.155845684457 0.802 9.23343303853e-39
-0.00148054325574 -0.155457041852 0.8 1.25502532542e-38
0.0 -0.155068399248 0.798 1.53139305193e-38
0.0014768418976 -0.155068399248 0.798 1.45760151558e-38
0.00294628107892 -0.154679756643 0.796 1.55876405432e-38
0.00441942161837 -0.154679756643 0.796 1.61400884498e-38
0.00589256215783 -0.154679756643 0.796 1.52199398262e-38
0.00736570269729 -0.154679756643 0.796 1.54043282833e-38
0.00886105138558 -0.155068399248 0.798 1.49422935549e-38
0.0103378932832 -0.155068399248 0.798 1.55879992756e-38
0.0118147351808 -0.155068399248 0.798 1.48529565739e-38
0.0133248893016 -0.155457041852 0.8 1.47607623454e-38
0.014768418976 -0.155068399248 0.798 1.54050457481e-38
0.0162452608736 -0.155068399248 0.798 1.55897929376e-38
0.0177221027712 -0.155068399248 0.798 1.67901269853e-38
0.0192470623246 -0.155457041852 0.8 1.53132214623e-38
0.0207276055803 -0.155457041852 0.8 1.51295392596e-38
0.0222081488361 -0.155457041852 0.8 1.36569609463e-38
0.0236886920918 -0.155457041852 0.8 1.39349771603e-38
0.0251692353475 -0.155457041852 0.8 1.33803600437e-38
-0.0134081698598 -0.154938851713 0.805 1.98838198478e-38
-0.0119183732087 -0.154938851713 0.805 1.9055147988e-38
-0.0104285765576 -0.154938851713 0.805 1.9794168976e-38
-0.00893877990651 -0.154938851713 0.805 1.14155826513e-38
-0.00743047646473 -0.154553910466 0.803 9.13405995793e-39
-0.00594438117178 -0.154553910466 0.803 1.00581434276e-38
-0.00445273384163 -0.154361439843 0.802 9.59752681332e-39
-0.00296848922775 -0.154361439843 0.802 9.32381398688e-39
-0.0014768418976 -0.15359155735 0.798 8.49693578906e-39
0.0 -0.15359155735 0.798 9.23522670057e-39
0.0014768418976 -0.15359155735 0.798 9.88092541475e-39
0.00294628107892 -0.153206616104 0.796 1.19992739085e-38
0.00441942161837 -0.153206616104 0.796 1.32874483504e-38
0.00589256215783 -0.153206616104 0.796 1.36558665322e-38
0.00736570269729 -0.153206616104 0.796 1.49447920701e-38
0.00883884323675 -0.153206616104 0.796 1.49447920701e-38
0.0103378932832 -0.15359155735 0.798 1.54979574415e-38
0.0118147351808 -0.15359155735 0.798 1.59585698519e-38
0.0132915770784 -0.15359155735 0.798 1.54975987091e-38
0.014768418976 -0.15359155735 0.798 1.48522391091e-38
0.0162452608736 -0.15359155735 0.798 1.34718368075e-38
0.0177221027712 -0.15359155735 0.798 1.29219000278e-38
0.0192470623246 -0.153976498597 0.8 1.35672652329e-38
0.0207276055803 -0.153976498597 0.8 1.44863320541e-38
0.0222081488361 -0.153976498597 0.8 1.40260979943e-38
0.0236886920918 -0.153976498597 0.8 1.29222587602e-38
0.0251692353475 -0.153976498597 0.8 1.65153253499e-38
-0.015009007255 -0.154592774727 0.811 1.76679297706e-38
-0.013441482083 -0.15383029495 0.807 1.75775306054e-38
-0.0119183732087 -0.153449055062 0.805 1.76704408975e-38
-0.0104285765576 -0.153449055062 0.805 1.77640700557e-38
-0.00893877990651 -0.153449055062 0.805 1.1692165337e-38
-0.00743047646473 -0.153067815173 0.803 9.41062722935e-39
-0.00594438117178 -0.153067815173 0.803 1.01474635931e-38
-0.00445273384163 -0.152877195229 0.802 9.13691440291e-39
-0.00296108651147 -0.152495955341 0.8 9.96845612202e-39
-0.0014768418976 -0.152114715453 0.798 1.01532033116e-38
0.0 -0.152114715453 0.798 1.03365155715e-38
0.0014768418976 -0.152114715453 0.798 1.06145331868e-38
0.00294628107892 -0.151733475564 0.796 9.97132598128e-39
0.00441942161837 -0.151733475564 0.796 9.05153609007e-39
0.00589256215783 -0.151733475564 0.796 9.97383710813e-39
0.00736570269729 -0.151733475564 0.796 1.08947031966e-38
0.00883884323675 -0.151733475564 0.796 1.21836287344e-38
0.0103378932832 -0.152114715453 0.798 1.28268359399e-38
0.0118147351808 -0.152114715453 0.798 1.29168777741e-38
0.0132915770784 -0.152114715453 0.798 1.31016249636e-38
0.014768418976 -0.152114715453 0.798 1.31966890514e-38
0.0162452608736 -0.152114715453 0.798 1.27364353734e-38
0.0177221027712 -0.152114715453 0.798 1.31970561916e-38
0.0192470623246 -0.152495955341 0.8 1.38431262499e-38
0.0207276055803 -0.152495955341 0.8 1.43937790931e-38
0.0222081488361 -0.152495955341 0.8 1.25516881839e-38
0.023747913822 -0.152877195229 0.802 1.57813700559e-38
0.0252321584359 -0.152877195229 0.802 1.47625840334e-38
-0.015009007255 -0.153091874001 0.811 2.00650553834e-38
-0.013441482083 -0.152336796941 0.807 1.82225651041e-38
-0.0119183732087 -0.151959258411 0.805 1.84998554455e-38
-0.0104285765576 -0.151959258411 0.805 1.9515439501e-38
-0.00893877990651 -0.151959258411 0.805 1.00323104904e-38
-0.00743047646473 -0.15158171988 0.803 9.41134469416e-39
-0.00594438117178 -0.15158171988 0.803 1.01463873958e-38
-0.00445273384163 -0.151392950615 0.802 1.05180383732e-38
-0.00296108651147 -0.151015412085 0.8 9.96845612202e-39
-0.0014768418976 -0.150637873555 0.798 1.01532033116e-38
0.0 -0.150637873555 0.798 1.01524858467e-38
0.0014768418976 -0.150637873555 0.798 9.96881485443e-39
0.00294628107892 -0.150260335025 0.796 1.06163268488e-38
0.00441942161837 -0.150260335025 0.796 1.0523056423e-38
0.00589256215783 -0.150260335025 0.796 1.10776567241e-38
0.00736570269729 -0.150260335025 0.796 1.21825539385e-38
0.00883884323675 -0.150260335025 0.796 1.25516881839e-38
0.0103378932832 -0.150637873555 0.798 1.2274029301e-38
0.0118147351808 -0.150637873555 0.798 1.37494956904e-38
0.0132915770784 -0.150637873555 0.798 1.31948953894e-38
0.014768418976 -0.150637873555 0.798 1.31963345229e-38
0.0162452608736 -0.150637873555 0.798 1.27371528382e-38
0.0177221027712 -0.150637873555 0.798 1.30140942563e-38
0.0192470623246 -0.151015412085 0.8 1.44877795954e-38
0.0207276055803 -0.151015412085 0.8 1.43959314876e-38
0.0222081488361 -0.151015412085 0.8 1.67922975966e-38
0.023747913822 -0.151392950615 0.802 1.38431248486e-38
0.0252321584359 -0.151392950615 0.802 1.43019590113e-38
0.026882964166 -0.152336796941 0.807 1.53128739403e-38
-0.0150460208364 -0.151964810448 0.813 1.88672128444e-38
-0.0135081065295 -0.151590973276 0.811 1.89619322128e-38
-0.0119479840738 -0.150843298932 0.807 1.9975693179e-38
-0.0104544860646 -0.150843298932 0.807 1.8135777085e-38
-0.00893877990651 -0.15046946176 0.805 1.09581988326e-38
-0.00744898325543 -0.15046946176 0.805 9.31699807115e-39
-0.00594438117178 -0.150095624588 0.803 9.77796921398e-39
-0.00445828587884 -0.150095624588 0.803 1.02410955538e-38
-0.00296848922775 -0.149908706001 0.802 1.02425276809e-38
-0.00148054325574 -0.149534868829 0.8 1.01532033116e-38
0.0 -0.149161031657 0.798 1.07974867143e-38
0.0014768418976 -0.149161031657 0.798 1.10755043296e-38
0.00294628107892 -0.148787194485 0.796 1.0706368683e-38
0.00441942161837 -0.148787194485 0.796 1.11676985582e-38
0.00589256215783 -0.148787194485 0.796 1.11684216282e-38
0.00736570269729 -0.148787194485 0.796 1.22747565749e-38
0.00883884323675 -0.148787194485 0.796 1.25509861333e-38
0.0103378932832 -0.149161031657 0.798 1.34721955399e-38
0.0118147351808 -0.149161031657 0.798 1.34711193427e-38
0.0132915770784 -0.149161031657 0.798 1.31048535553e-38
0.014768418976 -0.149161031657 0.798 1.33817949734e-38
0.0162452608736 -0.149161031657 0.798 1.27367941058e-38
0.0177221027712 -0.149161031657 0.798 1.30140970589e-38
0.0192470623246 -0.149534868829 0.8 1.27371528382e-38
0.0207276055803 -0.149534868829 0.8 1.31984883187e-38
0.0222081488361 -0.149534868829 0.8 1.44874124552e-38
0.023747913822 -0.149908706001 0.802 1.4854750236e-38
0.0252636199801 -0.150095624588 0.803 1.38409850658e-38
0.026882964166 -0.150843298932 0.807 1.65118080908e-38
-0.0150460208364 -0.150460208364 0.813 1.87768304948e-38
-0.0135414187528 -0.150460208364 0.813 1.95161555646e-38
-0.012007205804 -0.15009007255 0.811 1.64748152126e-38
-0.0104544860646 -0.149349800922 0.807 7.71777600783e-39
-0.00896098805535 -0.149349800922 0.807 1.05955778225e-38
-0.00746749004612 -0.149349800922 0.807 9.04077692046e-39
-0.00595918660434 -0.148979665109 0.805 9.31771553597e-39
-0.00445828587884 -0.148609529295 0.803 1.03347233107e-38
-0.00296848922775 -0.148424461388 0.802 9.96558626277e-39
-0.00148054325574 -0.148054325574 0.8 9.60003794017e-39
0.0 -0.14768418976 0.798 9.41564948304e-39
0.0014768418976 -0.14768418976 0.798 1.08900396753e-38
0.00294628107892 -0.147314053946 0.796 1.03383092335e-38
0.00441942161837 -0.147314053946 0.796 1.11673398258e-38
0.00589256215783 -0.147314053946 0.796 1.13520870153e-38
0.00736570269729 -0.147314053946 0.796 1.23662235295e-38
0.00886105138558 -0.14768418976 0.798 1.21818350724e-38
0.0103378932832 -0.14768418976 0.798 1.26420887504e-38
0.0118147351808 -0.14768418976 0.798 1.29186714361e-38
0.0132915770784 -0.14768418976 0.798 1.20907170411e-38
0.014768418976 -0.14768418976 0.798 1.29208238305e-38
0.0162452608736 -0.14768418976 0.798 1.1538651689e-38
0.0177221027712 -0.14768418976 0.798 1.27375115706e-38
0.0192470623246 -0.148054325574 0.8 1.22754642306e-38
0.0207276055803 -0.148054325574 0.8 1.35654687683e-38
0.0222636692081 -0.148424461388 0.802 1.46696695374e-38
0.0237775246871 -0.148609529295 0.803 1.3929952104e-38
0.0253265430684 -0.148979665109 0.805 1.54987295569e-38
0.026882964166 -0.149349800922 0.807 1.64192144922e-38
0.0285171137846 -0.15009007255 0.811 6.54076797441e-39
-0.0135414187528 -0.148955606281 0.813 1.60120602169e-38
-0.0120368166691 -0.148955606281 0.813 9.93728003379e-39
-0.0105063050785 -0.148589171825 0.811 1.08653782236e-38
-0.00900540435302 -0.148589171825 0.811 1.00438684002e-38
-0.00748599683682 -0.148222737369 0.809 9.31700367635e-39
-0.0059739920369 -0.147856302913 0.807 9.50318019032e-39
-0.00448049402767 -0.147856302913 0.807 1.07027813589e-38
-0.00297219058589 -0.147123434002 0.803 9.59788554573e-39
-0.00148424461388 -0.146940216774 0.802 9.69223216874e-39
0.0 -0.146573782318 0.8 9.50820244401e-39
0.00148054325574 -0.146573782318 0.8 1.03383092335e-38
0.00295368379519 -0.146207347862 0.798 1.07067274154e-38
0.00443052569279 -0.146207347862 0.798 1.07985629115e-38
0.00590736759039 -0.146207347862 0.798 1.13520870153e-38
0.00738420948799 -0.146207347862 0.798 1.18126994257e-38
0.00886105138558 -0.146207347862 0.798 1.28261254816e-38
0.0103378932832 -0.146207347862 0.798 1.34718368075e-38
0.0118147351808 -0.146207347862 0.798 1.23658647971e-38
0.0132915770784 -0.146207347862 0.798 1.22747537723e-38
0.014768418976 -0.146207347862 0.798 1.2368375924e-38
0.0162859758131 -0.146573782318 0.8 1.2736799711e-38
0.0177665190688 -0.146573782318 0.8 1.29215454993e-38
0.0192951799804 -0.146940216774 0.802 1.34736430812e-38
0.0207794245943 -0.146940216774 0.802 1.43030730435e-38
0.0222636692081 -0.146940216774 0.802 1.48547642489e-38
0.0237775246871 -0.147123434002 0.803 1.35636905205e-38
0.0253265430684 -0.147489868457 0.805 1.40253693191e-38
0.026882964166 -0.147856302913 0.807 1.69730763089e-38
0.0284467879799 -0.148222737369 0.809 7.74072787538e-39
-0.0136080431993 -0.148176470392 0.817 1.11361637375e-38
-0.0120960383994 -0.148176470392 0.817 1.11401994771e-38
-0.0105322145855 -0.147451004197 0.813 1.13245557044e-38
-0.00902761250186 -0.147451004197 0.813 1.10580035131e-38
-0.00750450362752 -0.147088271099 0.811 9.40775737009e-39
-0.00598879746946 -0.146725538002 0.809 9.59537441888e-39
-0.00449159810209 -0.146725538002 0.809 9.96415133314e-39
-0.00297959330217 -0.146000071806 0.805 1.04261986732e-38
-0.00148609529295 -0.145637338709 0.803 9.69223216874e-39
0.0 -0.145637338709 0.803 9.87519690663e-39
0.00148424461388 -0.14545597216 0.802 1.00613678154e-38
0.00296848922775 -0.14545597216 0.802 1.07974867143e-38
0.00445273384163 -0.14545597216 0.802 1.09818751714e-38
0.0059369784555 -0.14545597216 0.802 1.09833115024e-38
0.00740271627868 -0.145093239062 0.8 1.21804029454e-38
0.00888325953442 -0.145093239062 0.8 1.31030654984e-38
0.0103638027902 -0.145093239062 0.8 1.19034881519e-38
0.0118443460459 -0.145093239062 0.8 1.3379652388e-38
0.0133248893016 -0.145093239062 0.8 1.22736705686e-38
0.0148424461388 -0.14545597216 0.802 1.21829238813e-38
0.0163266907526 -0.14545597216 0.802 1.27371528382e-38
0.0178109353665 -0.14545597216 0.802 1.28297057992e-38
0.0193192388083 -0.145637338709 0.803 1.2552768585e-38
0.0208053341012 -0.145637338709 0.803 1.39349617461e-38
0.0223469497663 -0.146000071806 0.805 1.3841689919e-38
0.0238367464174 -0.146000071806 0.805 1.41179138723e-38
0.0253894661568 -0.146362804904 0.807 1.43934203607e-38
0.026882964166 -0.146362804904 0.807 1.63277068999e-38
0.0284467879799 -0.146725538002 0.809 8.47864043631e-39
-0.0136746676458 -0.147382529071 0.821 1.07696092826e-38
-0.0121552601296 -0.147382529071 0.821 9.75832160821e-39
-0.0105581240925 -0.146305433853 0.815 8.09665208012e-39
-0.00902761250186 -0.145946402113 0.813 9.76480261361e-39
-0.00752301041821 -0.145946402113 0.813 9.13225088162e-39
-0.00598879746946 -0.145228338634 0.809 8.85925551999e-39
-0.00449159810209 -0.145228338634 0.809 9.68828611226e-39
-0.00298699601845 -0.144869306895 0.807 1.06098696655e-38
-0.00148979665109 -0.144510275155 0.805 9.96666245999e-39
0.0 -0.144151243416 0.803 1.0061009083e-38
0.00148609529295 -0.144151243416 0.803 1.01532033116e-38
0.00297219058589 -0.144151243416 0.803 1.01532033116e-38
0.00445828587884 -0.144151243416 0.803 1.07070861478e-38
0.0059369784555 -0.143971727546 0.802 1.14446399763e-38
0.00742122306938 -0.143971727546 0.802 1.11673398258e-38
0.00890546768326 -0.143971727546 0.802 1.32849386248e-38
0.0103897122971 -0.143971727546 0.802 1.24555478988e-38
0.011873956911 -0.143971727546 0.802 1.28261184751e-38
0.0133582015249 -0.143971727546 0.802 1.2274029301e-38
0.0148609529295 -0.144151243416 0.803 1.23669494021e-38
0.0163470482224 -0.144151243416 0.803 1.29204763085e-38
0.0178331435154 -0.144151243416 0.803 1.19070628643e-38
0.0193192388083 -0.144151243416 0.803 1.38438605303e-38
0.0208571531152 -0.144510275155 0.805 1.31970561916e-38
0.0223469497663 -0.144510275155 0.805 1.4395229437e-38
0.0238367464174 -0.144510275155 0.805 1.38409878684e-38
0.0254523892452 -0.145228338634 0.809 1.46696555244e-38
0.0269495886125 -0.145228338634 0.809 1.57738296688e-38
0.0285171137846 -0.145587370374 0.811 9.30695356376e-39
0.0308323133007 -0.149536719508 0.833 1.15712725159e-38
0.0323739289658 -0.149536719508 0.833 1.34998179352e-38
0.0338341147517 -0.149177687769 0.831 1.29488049583e-38
0.0353720290586 -0.149177687769 0.831 1.2214120989e-38
-0.0153051159062 -0.146929112699 0.827 9.92833834829e-39
-0.0136746676458 -0.145863121555 0.821 9.29013798219e-39
-0.0121552601296 -0.145863121555 0.821 7.16751272556e-39
-0.0105840335994 -0.145152460792 0.817 6.24520189842e-39
-0.00904982065069 -0.144797130411 0.815 9.21157698638e-39
-0.00752301041821 -0.14444180003 0.813 9.77725174916e-39
-0.00600360290201 -0.144086469648 0.811 8.95001481893e-39
-0.00450270217651 -0.144086469648 0.811 1.00577804913e-38
-0.00299439873473 -0.143731139267 0.809 1.05187516342e-38
-0.00148979665109 -0.143020478504 0.805 1.02418102161e-38
0.0 -0.143020478504 0.805 1.03347219094e-38
0.00148609529295 -0.142665148123 0.803 1.07985629115e-38
0.00297219058589 -0.142665148123 0.803 9.96917358684e-39
0.00445828587884 -0.142665148123 0.803 1.11691334878e-38
0.00594438117178 -0.142665148123 0.803 1.16283109686e-38
0.00743047646473 -0.142665148123 0.803 1.13513695505e-38
0.00891657175768 -0.142665148123 0.803 1.28239660807e-38
0.0104026670506 -0.142665148123 0.803 1.23658647971e-38
0.0118887623436 -0.142665148123 0.803 1.23665822619e-38
0.0133748576365 -0.142665148123 0.803 1.2183270002e-38
0.0148609529295 -0.142665148123 0.803 1.21832742059e-38
0.0163470482224 -0.142665148123 0.803 1.2828629602e-38
0.0178331435154 -0.142665148123 0.803 1.2644983833e-38
0.0193673564641 -0.143020478504 0.805 1.23673305553e-38
0.0208571531152 -0.143020478504 0.805 1.35661834305e-38
0.0223469497663 -0.143020478504 0.805 1.49480318721e-38
0.0238959681476 -0.143375808886 0.807 1.40264371085e-38
0.0254523892452 -0.143731139267 0.809 1.36548379791e-38
0.0269495886125 -0.143731139267 0.809 1.57734765416e-38
0.0285171137846 -0.144086469648 0.811 1.10575677093e-38
0.0306842589751 -0.147284443081 0.829 1.23059564852e-38
0.0323739289658 -0.147995103843 0.833 1.35916534314e-38
0.0338341147517 -0.147639773462 0.831 1.38671599199e-38
0.0353720290586 -0.147639773462 0.831 1.24896274775e-38
-0.0168763424363 -0.145750230132 0.829 6.15297824259e-39
-0.0153051159062 -0.145398601109 0.827 1.02938628488e-38
-0.0137412920923 -0.145046972085 0.825 8.26807852646e-39
-0.0121848709947 -0.144695343062 0.823 7.16318411461e-39
-0.0106358526134 -0.144343714039 0.821 6.52032022722e-39
-0.00907202879953 -0.143640455993 0.817 1.06827540012e-38
-0.00754151720891 -0.143288826969 0.815 8.48689128166e-39
-0.00601840833457 -0.142937197946 0.813 8.67235593601e-39
-0.00451380625093 -0.142937197946 0.813 1.07013506331e-38
-0.00300180145101 -0.142585568923 0.811 9.78048034083e-39
-0.00149349800922 -0.141882310876 0.807 1.00584979561e-38
0.0 -0.141882310876 0.807 1.03347219094e-38
0.00148979665109 -0.141530681853 0.805 1.02418102161e-38
0.00297959330217 -0.141530681853 0.805 1.10744281324e-38
0.00445828587884 -0.14117905283 0.803 1.06145331868e-38
0.00594438117178 -0.14117905283 0.803 1.20885646466e-38
0.00743047646473 -0.14117905283 0.803 1.26395776236e-38
0.00891657175768 -0.14117905283 0.803 1.22708007093e-38
0.0104026670506 -0.14117905283 0.803 1.22736733711e-38
0.0118887623436 -0.14117905283 0.803 1.19981640801e-38
0.0133748576365 -0.14117905283 0.803 1.25524182604e-38
0.0148979665109 -0.141530681853 0.805 1.20917932383e-38
0.0163877631619 -0.141530681853 0.805 1.19077649148e-38
0.017877559813 -0.141530681853 0.805 1.27371528382e-38
0.0194154741199 -0.141882310876 0.807 1.31974093188e-38
0.0209089721291 -0.141882310876 0.807 1.35654687683e-38
0.0224024701384 -0.141882310876 0.807 1.38424073838e-38
0.0239551898778 -0.1422339399 0.809 1.31048535553e-38
0.0255153123336 -0.142585568923 0.811 1.4670005849e-38
0.0270162130591 -0.142585568923 0.811 1.43901917691e-38
0.0291500460264 -0.145750230132 0.829 9.30444243691e-39
0.0306842589751 -0.145750230132 0.829 1.34079824391e-38
0.0322962004448 -0.146101859155 0.831 1.35916534314e-38
0.0338341147517 -0.146101859155 0.831 1.36834903288e-38
0.0353720290586 -0.146101859155 0.831 1.32243114468e-38
0.0369099433655 -0.146101859155 0.831 1.68159795407e-38
-0.0184105553851 -0.144216017183 0.829 1.85967552343e-38
-0.0168763424363 -0.144216017183 0.829 8.17335915806e-39
-0.0153051159062 -0.143868089518 0.827 8.72441837786e-39
-0.0137746043156 -0.143868089518 0.827 8.35703015038e-39
-0.0122144818598 -0.143520161853 0.825 7.4386751888e-39
-0.0106358526134 -0.142824306523 0.821 6.24481373874e-39
-0.00909423694836 -0.142476378858 0.819 1.01224378038e-38
-0.00754151720891 -0.141780523527 0.815 8.85208087185e-39
-0.00601840833457 -0.141432595862 0.813 9.31700928154e-39
-0.00451380625093 -0.141432595862 0.813 8.95001481893e-39
-0.00300180145101 -0.141084668197 0.811 9.96487860705e-39
-0.00149719936736 -0.140736740532 0.809 1.05191103666e-38
0.0 -0.140388812867 0.807 9.96594499518e-39
0.00148979665109 -0.140040885202 0.805 1.06098696655e-38
0.00297959330217 -0.140040885202 0.805 1.0794616855e-38
0.00446938995326 -0.140040885202 0.805 1.07978454467e-38
0.00595918660434 -0.140040885202 0.805 1.16250823769e-38
0.00744898325543 -0.140040885202 0.805 1.24551891664e-38
0.00893877990651 -0.140040885202 0.805 1.29165190417e-38
0.0104285765576 -0.140040885202 0.805 1.1996370418e-38
0.0119183732087 -0.140040885202 0.805 1.24584177581e-38
0.0134081698598 -0.140040885202 0.805 1.22747467658e-38
0.0148979665109 -0.140040885202 0.805 1.2183270002e-38
0.0164284781015 -0.140388812867 0.807 1.19071063046e-38
0.0179219761107 -0.140388812867 0.807 1.23680185929e-38
0.0194635917757 -0.140736740532 0.809 1.22751054982e-38
0.0209607911431 -0.140736740532 0.809 1.38413381931e-38
0.0224579905105 -0.140736740532 0.809 1.45760151558e-38
0.0240144116081 -0.141084668197 0.811 1.39317317531e-38
0.0255153123336 -0.141084668197 0.811 1.49444333377e-38
0.0270828375056 -0.141432595862 0.813 1.54007535709e-38
0.0290093944171 -0.143520161853 0.825 7.91004957142e-39
0.0306102318124 -0.143868089518 0.827 1.34080090637e-38
0.0322184719239 -0.144216017183 0.829 1.37771335e-38
0.0337526848727 -0.144216017183 0.829 1.34080062611e-38
0.0352868978214 -0.144216017183 0.829 1.23977919813e-38
0.0368211107702 -0.144216017183 0.829 1.16631080121e-38
-0.0199447683338 -0.142681804234 0.829 2.12668005386e-38
-0.0184105553851 -0.142681804234 0.829 1.24218270526e-38
-0.0168763424363 -0.142681804234 0.829 7.34683969264e-39
-0.0153051159062 -0.142337577927 0.827 8.44888946861e-39
-0.0137412920923 -0.141993351621 0.825 7.71418167727e-39
-0.0122144818598 -0.141993351621 0.825 7.4386751888e-39
-0.0106358526134 -0.141304899007 0.821 6.70399121953e-39
-0.00909423694836 -0.1409606727 0.819 5.96930725027e-39
-0.00756002399961 -0.140616446393 0.817 1.0320381021e-38
-0.00603321376713 -0.140272220086 0.815 9.22265144815e-39
-0.00451380625093 -0.139927993779 0.813 8.85746185796e-39
-0.00300180145101 -0.139583767472 0.811 9.96522893166e-39
-0.0015009007255 -0.139583767472 0.811 9.78119780564e-39
0.0 -0.139239541165 0.809 1.00577804913e-38
0.00149719936736 -0.139239541165 0.809 1.03336457122e-38
0.00298699601845 -0.138895314858 0.807 1.07034988237e-38
0.00448049402767 -0.138895314858 0.807 1.11644699665e-38
0.00595918660434 -0.138551088551 0.805 1.16250823769e-38
0.00744898325543 -0.138551088551 0.805 1.20864122522e-38
0.00893877990651 -0.138551088551 0.805 1.29143666472e-38
0.0104285765576 -0.138551088551 0.805 1.23633536703e-38
0.0119183732087 -0.138551088551 0.805 1.19967291505e-38
0.0134081698598 -0.138551088551 0.805 1.13528044801e-38
0.0149349800922 -0.138895314858 0.807 1.15371929373e-38
0.0164284781015 -0.138895314858 0.807 1.25516881839e-38
0.0179663924084 -0.139239541165 0.809 1.23680171916e-38
0.0194635917757 -0.139239541165 0.809 1.30115831295e-38
0.021012610157 -0.139583767472 0.811 1.39324562244e-38
0.0225135108825 -0.139583767472 0.811 1.35608220626e-38
0.0240736333383 -0.139927993779 0.813 1.34682494834e-38
0.0255782354219 -0.139927993779 0.813 1.75208775098e-38
0.0271494619521 -0.140272220086 0.815 5.79711569497e-39
0.0290093944171 -0.141993351621 0.825 1.32257477777e-38
0.0306102318124 -0.142337577927 0.827 1.33161665611e-38
0.0322184719239 -0.142681804234 0.829 1.39608058936e-38
0.0337526848727 -0.142681804234 0.829 1.34112278463e-38
0.0352868978214 -0.142681804234 0.829 1.13876015236e-38
0.0368211107702 -0.142681804234 0.829 1.14794370197e-38
-0.0214789812826 -0.141147591286 0.829 1.91441136249e-38
-0.0199447683338 -0.141147591286 0.829 2.10827820243e-38
-0.0183661390874 -0.140807066337 0.827 8.91988129675e-39
-0.0168356274968 -0.140807066337 0.827 6.61215572338e-39
-0.0153051159062 -0.140807066337 0.827 8.0815236619e-39
-0.0137412920923 -0.140466541388 0.825 7.89785266959e-39
-0.0122144818598 -0.140466541388 0.825 7.71418167727e-39
-0.0106358526134 -0.13978549149 0.821 7.25500419648e-39
-0.0091164450972 -0.13978549149 0.821 6.79582671569e-39
-0.00756002399961 -0.139104441593 0.817 7.99973267314e-39
-0.00603321376713 -0.138763916644 0.815 1.05079966684e-38
-0.00451380625093 -0.138423391695 0.813 9.22336891296e-39
-0.00300920416729 -0.138423391695 0.813 9.41026849694e-39
-0.0015009007255 -0.138082866746 0.811 9.50497385235e-39
0.0 -0.138082866746 0.811 9.96558626277e-39
0.00149719936736 -0.137742341797 0.809 1.02410927512e-38
0.00299439873473 -0.137742341797 0.809 1.07020638941e-38
0.00449159810209 -0.137742341797 0.809 1.07038575561e-38
0.0059739920369 -0.137401816849 0.807 1.17172766055e-38
0.00746749004612 -0.137401816849 0.807 1.19009475978e-38
0.00896098805535 -0.137401816849 0.807 1.28218136862e-38
0.0104285765576 -0.1370612919 0.805 1.20842598577e-38
0.0119183732087 -0.1370612919 0.805 1.23655060647e-38
0.013441482083 -0.137401816849 0.807 1.15375516697e-38
0.0149349800922 -0.137401816849 0.807 1.17219401268e-38
0.016469193041 -0.137742341797 0.809 1.22747467658e-38
0.0179663924084 -0.137742341797 0.809 1.2368375924e-38
0.0195117094315 -0.138082866746 0.811 1.25513294515e-38
0.021012610157 -0.138082866746 0.811 1.29186742387e-38
0.0225690312546 -0.138423391695 0.813 1.43905505015e-38
0.0240736333383 -0.138423391695 0.813 1.67836852163e-38
0.0256411585103 -0.138763916644 0.815 7.91865914919e-39
0.0272160863986 -0.139104441593 0.817 1.16631080121e-38
0.0289390686124 -0.140126016439 0.823 1.44278586718e-38
0.0305362046496 -0.140466541388 0.825 1.34079824391e-38
0.032140743403 -0.140807066337 0.827 1.52529698323e-38
0.0336712549936 -0.140807066337 0.827 1.15723487131e-38
0.0352868978214 -0.141147591286 0.829 1.15716312483e-38
0.0368211107702 -0.141147591286 0.829 1.2214120989e-38
-0.0214789812826 -0.139613378337 0.829 2.11822251698e-38
-0.0199447683338 -0.139613378337 0.829 2.01633844967e-38
-0.0183661390874 -0.139276554746 0.827 9.56559962911e-39
-0.0168356274968 -0.139276554746 0.827 6.3366492349e-39
-0.0153051159062 -0.139276554746 0.827 8.17335915806e-39
-0.0137412920923 -0.138939731156 0.825 8.0815236619e-39
-0.0122144818598 -0.138939731156 0.825 7.71418167727e-39
-0.0106358526134 -0.138266083974 0.821 7.71418167727e-39
-0.0091164450972 -0.138266083974 0.821 7.62234618111e-39
-0.0075785307903 -0.137929260384 0.819 6.52032022722e-39
-0.00604801919968 -0.137592436793 0.817 6.15297824259e-39
-0.00452491032535 -0.137255613202 0.815 1.1611119839e-38
-0.00300920416729 -0.136918789611 0.813 1.08821475623e-38
-0.0015009007255 -0.136581966021 0.811 9.77832794638e-39
0.0 -0.136581966021 0.811 9.68828611226e-39
0.0015009007255 -0.136581966021 0.811 1.00563455617e-38
0.00299439873473 -0.13624514243 0.809 1.02410927512e-38
0.00449159810209 -0.13624514243 0.809 1.11633937693e-38
0.0059739920369 -0.135908318839 0.807 1.08864523512e-38
0.00746749004612 -0.135908318839 0.807 1.20853360549e-38
0.00896098805535 -0.135908318839 0.807 1.18080359044e-38
0.0104544860646 -0.135908318839 0.807 1.17165591407e-38
0.0119479840738 -0.135908318839 0.807 1.19967291505e-38
0.0134747943063 -0.13624514243 0.809 1.16290284334e-38
0.0149719936736 -0.13624514243 0.809 1.13531632125e-38
0.016469193041 -0.13624514243 0.809 1.17219401268e-38
0.018010808706 -0.136581966021 0.811 1.16290466503e-38
0.0195117094315 -0.136581966021 0.811 1.20903611112e-38
0.021064429171 -0.136918789611 0.813 1.3287141466e-38
0.0225690312546 -0.136918789611 0.813 1.65992799435e-38
0.0241328550685 -0.137255613202 0.815 6.7179817834e-39
0.0257040815987 -0.137592436793 0.817 1.33272676475e-38
0.0272827108451 -0.137929260384 0.819 1.31385870132e-38
0.0288687428078 -0.138266083974 0.821 1.39661938862e-38
0.0304621774868 -0.138602907565 0.823 1.42377304962e-38
0.0320630148821 -0.138939731156 0.825 1.39640316827e-38
0.0335898251145 -0.138939731156 0.825 1.26750921318e-38
0.0352017665842 -0.139276554746 0.827 1.40572880955e-38
0.0367322781748 -0.139276554746 0.827 1.23977919813e-38
-0.0199447683338 -0.138079165388 0.829 2.34990451702e-38
-0.0183661390874 -0.137746043156 0.827 1.66689861344e-38
-0.0168356274968 -0.137746043156 0.827 6.3366492349e-39
-0.0153051159062 -0.137746043156 0.827 8.17337877624e-39
-0.0137412920923 -0.137412920923 0.825 8.0815236619e-39
-0.0122144818598 -0.137412920923 0.825 7.80601717343e-39
-0.0106617621204 -0.137079798691 0.823 7.71418167727e-39
-0.0091164450972 -0.136746676458 0.821 7.80601717343e-39
-0.007597037581 -0.136746676458 0.821 7.80601717343e-39
-0.00604801919968 -0.136080431993 0.817 7.53051068496e-39
-0.00452491032535 -0.13574730976 0.815 5.96930725027e-39
-0.00300920416729 -0.135414187528 0.813 1.04075515945e-38
-0.00150460208364 -0.135414187528 0.813 1.17997850591e-38
0.0 -0.135414187528 0.813 1.14345954689e-38
0.0015009007255 -0.135081065295 0.811 1.07913882634e-38
0.00300180145101 -0.135081065295 0.811 1.10683296815e-38
0.00450270217651 -0.135081065295 0.811 1.13449123672e-38
0.00600360290201 -0.135081065295 0.811 1.18998714006e-38
0.00748599683682 -0.134747943063 0.809 1.22690070473e-38
0.00898319620418 -0.134747943063 0.809 1.22690070473e-38
0.0105063050785 -0.135081065295 0.811 1.19935005588e-38
0.0119775949389 -0.134747943063 0.809 1.16279522362e-38
0.0134747943063 -0.134747943063 0.809 1.08921920697e-38
0.0149719936736 -0.134747943063 0.809 1.19981640801e-38
0.0165099079805 -0.135081065295 0.811 1.27346935594e-38
0.018010808706 -0.135081065295 0.811 1.2181542201e-38
0.0195598270874 -0.135414187528 0.813 1.35608795158e-38
0.021064429171 -0.135414187528 0.813 9.21549501689e-39
0.0225690312546 -0.135414187528 0.813 7.72350871985e-39
0.0241328550685 -0.13574730976 0.815 1.44314782257e-38
0.0257040815987 -0.136080431993 0.817 1.53526932375e-38
0.0272160863986 -0.136080431993 0.817 1.42470771569e-38
0.0288687428078 -0.136746676458 0.821 1.4245279291e-38
0.030388150324 -0.136746676458 0.821 1.45225780402e-38
0.0319852863611 -0.137079798691 0.823 1.32304098977e-38
0.0335083952355 -0.137079798691 0.823 1.42406003554e-38
0.035116635347 -0.137412920923 0.825 1.38671921497e-38
0.0367322781748 -0.137746043156 0.827 1.24896274775e-38
-0.0199447683338 -0.136544952439 0.829 2.34954368267e-38
-0.0183661390874 -0.136215531565 0.827 1.91575492745e-38
-0.0168356274968 -0.136215531565 0.827 6.3366492349e-39
-0.0152681023248 -0.135886110691 0.825 7.98968816575e-39
-0.0137412920923 -0.135886110691 0.825 8.26519465422e-39
-0.0121848709947 -0.135556689816 0.823 8.26519465422e-39
-0.0106617621204 -0.135556689816 0.823 8.0815236619e-39
-0.0091164450972 -0.135227268942 0.821 8.17335915806e-39
-0.007597037581 -0.135227268942 0.821 7.53051068496e-39
-0.00604801919968 -0.134568427193 0.817 8.17335915806e-39
-0.00452491032535 -0.134239006319 0.815 7.89785266959e-39
-0.00300920416729 -0.133909585444 0.813 6.61215572338e-39
-0.00150460208364 -0.133909585444 0.813 5.78563625795e-39
0.0 -0.133909585444 0.813 7.81285831253e-39
0.00150460208364 -0.133909585444 0.813 1.13327224718e-38
0.00300920416729 -0.133909585444 0.813 1.24429922646e-38
0.00451380625093 -0.133909585444 0.813 1.31816278955e-38
0.00600360290201 -0.13358016457 0.811 1.33685218743e-38
0.00750450362752 -0.13358016457 0.811 1.31870032764e-38
0.00900540435302 -0.13358016457 0.811 1.30033322841e-38
0.0105322145855 -0.133909585444 0.813 1.29129485332e-38
0.012007205804 -0.13358016457 0.811 1.2637833007e-38
0.0135081065295 -0.13358016457 0.811 1.19006365096e-38
0.015009007255 -0.13358016457 0.811 1.21739765906e-38
0.0165506229201 -0.133909585444 0.813 1.06001838905e-38
0.0180552250037 -0.133909585444 0.813 5.79461017332e-39
0.0195598270874 -0.133909585444 0.813 8.36779212258e-39
0.021064429171 -0.133909585444 0.813 1.41573870487e-38
0.0225690312546 -0.133909585444 0.813 1.47087615607e-38
0.0241328550685 -0.134239006319 0.815 1.47080286816e-38
0.0257040815987 -0.134568427193 0.817 1.43399790412e-38
0.0272160863986 -0.134568427193 0.817 1.52587081495e-38
0.0287984170032 -0.134897848067 0.819 1.38772212428e-38
0.030388150324 -0.135227268942 0.821 1.43392755894e-38
0.0319075578402 -0.135227268942 0.821 1.36906635757e-38
0.0334269653564 -0.135227268942 0.821 1.39636589373e-38
0.0350315041098 -0.135556689816 0.823 1.37753244237e-38
-0.0199447683338 -0.135010739491 0.829 2.34954536423e-38
-0.0183661390874 -0.134685019974 0.827 1.98951297277e-38
-0.0167949125573 -0.134359300458 0.825 6.3366492349e-39
-0.0152681023248 -0.134359300458 0.825 7.62234618111e-39
-0.0137079798691 -0.134033580942 0.823 8.44886564654e-39
-0.0121848709947 -0.134033580942 0.823 8.44886564654e-39
-0.0106358526134 -0.133707861426 0.821 8.54070114269e-39
-0.0091164450972 -0.133707861426 0.821 8.54070114269e-39
-0.0075785307903 -0.133382141909 0.819 8.35703015038e-39
-0.00604801919968 -0.133056422393 0.817 8.35703015038e-39
-0.00452491032535 -0.132730702877 0.815 8.44886564654e-39
-0.00300920416729 -0.132404983361 0.813 8.17335915806e-39
-0.00150460208364 -0.132404983361 0.813 8.54070114269e-39
0.0 -0.132404983361 0.813 7.89785266959e-39
0.00150460208364 -0.132404983361 0.813 6.97949770801e-39
0.00300920416729 -0.132404983361 0.813 6.61215572338e-39
0.00451380625093 -0.132404983361 0.813 6.42848473106e-39
0.00601840833457 -0.132404983361 0.813 6.15297824259e-39
0.00752301041821 -0.132404983361 0.813 6.52032022722e-39
0.00902761250186 -0.132404983361 0.813 7.07133320417e-39
0.0105322145855 -0.132404983361 0.813 6.88766221185e-39
0.0120368166691 -0.132404983361 0.813 6.24481373874e-39
0.0135414187528 -0.132404983361 0.813 6.88766221185e-39
0.0150460208364 -0.132404983361 0.813 9.00023735589e-39
0.0165506229201 -0.132404983361 0.813 1.19404081626e-38
0.0180552250037 -0.132404983361 0.813 1.49807213627e-38
0.0195598270874 -0.132404983361 0.813 1.48009571905e-38
0.021064429171 -0.132404983361 0.813 1.57200464325e-38
0.0225690312546 -0.132404983361 0.813 1.58115161897e-38
0.0241328550685 -0.132730702877 0.815 1.5167594322e-38
0.0257040815987 -0.133056422393 0.817 1.51675887168e-38
0.0272160863986 -0.133056422393 0.817 1.50750427623e-38
0.0287984170032 -0.133382141909 0.819 1.40626830946e-38
0.0303141231612 -0.133382141909 0.819 1.47991789428e-38
0.0319075578402 -0.133707861426 0.821 1.47959769758e-38
0.0334269653564 -0.133707861426 0.821 1.37753314302e-38
0.0349463728726 -0.133707861426 0.821 1.34090600376e-38
-0.019896650678 -0.133154508384 0.827 2.34940201139e-38
-0.0183661390874 -0.133154508384 0.827 2.22010966715e-38
-0.0167949125573 -0.132832490226 0.825 6.79582671569e-39
-0.0152310887434 -0.132510472068 0.823 8.17335915806e-39
-0.0137079798691 -0.132510472068 0.823 8.44886564654e-39
-0.0121848709947 -0.132510472068 0.823 8.72437213501e-39
-0.0106358526134 -0.132188453909 0.821 8.72437213501e-39
-0.0091164450972 -0.132188453909 0.821 8.81620763117e-39
-0.0075785307903 -0.131866435751 0.819 8.63253663885e-39
-0.00604801919968 -0.131544417593 0.817 8.44886564654e-39
-0.00452491032535 -0.131222399435 0.815 8.63253663885e-39
-0.00301660688356 -0.131222399435 0.815 8.63253663885e-39
-0.00150830344178 -0.131222399435 0.815 8.90804312733e-39
0.0 -0.131222399435 0.815 9.09171411964e-39
0.00150830344178 -0.131222399435 0.815 9.1835496158e-39
0.00300920416729 -0.130900381277 0.813 9.64272709659e-39
0.00451380625093 -0.130900381277 0.813 9.73456259275e-39
0.00601840833457 -0.130900381277 0.813 1.01019045774e-38
0.00752301041821 -0.130900381277 0.813 1.01019045774e-38
0.00902761250186 -0.130900381277 0.813 1.06529175543e-38
0.0105322145855 -0.130900381277 0.813 1.12039305313e-38
0.0120368166691 -0.130900381277 0.813 1.16631080121e-38
0.0135414187528 -0.130900381277 0.813 1.26758095967e-38
0.0150460208364 -0.130900381277 0.813 1.35069925834e-38
0.0165506229201 -0.130900381277 0.813 1.38779218921e-38
0.0180996413014 -0.131222399435 0.815 1.42449163547e-38
0.0196079447432 -0.131222399435 0.815 1.49832002597e-38
0.0211162481849 -0.131222399435 0.815 1.57193205599e-38
0.0226245516267 -0.131222399435 0.815 1.60859675005e-38
0.0241920767987 -0.131544417593 0.817 1.49854059035e-38
0.0257040815987 -0.131544417593 0.817 1.48913801778e-38
0.0272160863986 -0.131544417593 0.817 1.48917599297e-38
0.0287984170032 -0.131866435751 0.819 1.479808593e-38
0.0303141231612 -0.131866435751 0.819 1.54416546705e-38
0.0319075578402 -0.132188453909 0.821 1.40526568041e-38
0.0334269653564 -0.132188453909 0.821 1.41426944343e-38
0.0349463728726 -0.132188453909 0.821 1.26733264958e-38
-0.019896650678 -0.131623996793 0.827 2.34900586432e-38
-0.0183661390874 -0.131623996793 0.827 2.34939934893e-38
-0.0167949125573 -0.131305679993 0.825 7.53051068496e-39
-0.0152310887434 -0.130987363193 0.823 8.17335915806e-39
-0.0137079798691 -0.130987363193 0.823 9.1835496158e-39
-0.0121848709947 -0.130987363193 0.823 8.99987862348e-39
-0.0106358526134 -0.130669046393 0.821 8.72437213501e-39
-0.0091164450972 -0.130669046393 0.821 9.1835496158e-39
-0.0075785307903 -0.130350729593 0.819 8.81620763117e-39
-0.00604801919968 -0.130032412793 0.817 9.1835496158e-39
-0.00452491032535 -0.129714095993 0.815 9.1835496158e-39
-0.00301660688356 -0.129714095993 0.815 1.01019045774e-38
-0.00150830344178 -0.129714095993 0.815 9.55089160043e-39
0.0 -0.129714095993 0.815 1.01019045774e-38
0.00150830344178 -0.129714095993 0.815 1.0469246562e-38
0.00301660688356 -0.129714095993 0.815 1.01937484813e-38
0.00452491032535 -0.129714095993 0.815 1.05610820582e-38
0.00603321376713 -0.129714095993 0.815 1.1020259539e-38
0.00754151720891 -0.129714095993 0.815 1.11120950351e-38
0.00904982065069 -0.129714095993 0.815 1.11120950351e-38
0.0105581240925 -0.129714095993 0.815 1.15712725159e-38
0.0120368166691 -0.129395779193 0.813 1.30431515813e-38
0.0135414187528 -0.129395779193 0.813 1.30413579192e-38
0.0150830344178 -0.129714095993 0.815 1.36892286461e-38
0.0165913378596 -0.129714095993 0.815 1.47955691979e-38
0.0180996413014 -0.129714095993 0.815 1.44303768051e-38
0.0196079447432 -0.129714095993 0.815 1.48899732742e-38
0.0211162481849 -0.129714095993 0.815 1.58111602599e-38
0.0226245516267 -0.129714095993 0.815 1.60870240795e-38
0.0241920767987 -0.130032412793 0.817 1.46176449306e-38
0.0257040815987 -0.130032412793 0.817 1.42481519528e-38
0.0272160863986 -0.130032412793 0.817 1.53548540397e-38
0.0287984170032 -0.130350729593 0.819 1.44278586718e-38
0.0303141231612 -0.130350729593 0.819 1.37792704802e-38
0.0318298293193 -0.130350729593 0.819 1.34079936495e-38
0.0333455354773 -0.130350729593 0.819 1.34998361521e-38
0.0349463728726 -0.130669046393 0.821 1.41512759861e-38
-0.0183217227897 -0.129778869761 0.825 2.34979563613e-38
-0.0167949125573 -0.129778869761 0.825 5.78565307354e-39
-0.0152310887434 -0.129464254319 0.823 8.54142000881e-39
-0.0137079798691 -0.129464254319 0.823 8.72437213501e-39
-0.0121848709947 -0.129464254319 0.823 8.81620763117e-39
-0.0106358526134 -0.129149638877 0.821 8.63253663885e-39
-0.0091164450972 -0.129149638877 0.821 8.99987862348e-39
-0.0075785307903 -0.128835023435 0.819 9.55089160043e-39
-0.00604801919968 -0.128520407993 0.817 9.55089160043e-39
-0.00453601439976 -0.128520407993 0.817 9.64272709659e-39
-0.00301660688356 -0.128205792551 0.815 1.01019045774e-38
-0.00150830344178 -0.128205792551 0.815 1.02855755697e-38
0.0 -0.128205792551 0.815 1.02855755697e-38
0.00150830344178 -0.128205792551 0.815 1.07447530505e-38
0.00301660688356 -0.128205792551 0.815 1.0469246562e-38
0.00452491032535 -0.128205792551 0.815 1.06529175543e-38
0.00603321376713 -0.128205792551 0.815 1.09284240428e-38
0.00754151720891 -0.128205792551 0.815 1.12957660274e-38
0.00904982065069 -0.128205792551 0.815 1.16631080121e-38
0.0105581240925 -0.128205792551 0.815 1.19386145005e-38
0.0120368166691 -0.12789117711 0.813 1.23059564852e-38
0.0135414187528 -0.12789117711 0.813 1.40533602559e-38
0.0150830344178 -0.128205792551 0.815 1.35037709982e-38
0.0165913378596 -0.128205792551 0.815 1.40598020249e-38
0.0180996413014 -0.128205792551 0.815 1.3966887529e-38
0.0196079447432 -0.128205792551 0.815 1.54413071485e-38
0.0211162481849 -0.128205792551 0.815 1.59015468135e-38
0.0226245516267 -0.128205792551 0.815 1.58107973236e-38
0.0241920767987 -0.128520407993 0.817 1.45229255622e-38
0.0257040815987 -0.128520407993 0.817 1.32279127838e-38
0.0272160863986 -0.128520407993 0.817 1.43328310177e-38
0.0287984170032 -0.128835023435 0.819 1.40580419941e-38
0.0303141231612 -0.128835023435 0.819 1.35052353551e-38
0.0318298293193 -0.128835023435 0.819 1.28598393214e-38
0.0333455354773 -0.128835023435 0.819 1.44243035776e-38
0.0349463728726 -0.129149638877 0.821 1.25814629736e-38
-0.0183217227897 -0.128252059528 0.825 2.34979563613e-38
-0.0167949125573 -0.128252059528 0.825 5.05095228869e-39
-0.0152310887434 -0.127941145444 0.823 6.79582671569e-39
-0.0137079798691 -0.127941145444 0.823 9.1835496158e-39
-0.0121848709947 -0.127941145444 0.823 8.90804312733e-39
-0.0106358526134 -0.127630231361 0.821 8.81620763117e-39
-0.0091164450972 -0.127630231361 0.821 8.99987862348e-39
-0.0075785307903 -0.127319317277 0.819 9.36722060812e-39
-0.00604801919968 -0.127008403193 0.817 9.55089160043e-39
-0.00452491032535 -0.12669748911 0.815 1.01019045774e-38
-0.00301660688356 -0.12669748911 0.815 1.01937400735e-38
-0.00150830344178 -0.12669748911 0.815 1.03774110659e-38
