# .PCD v0.7 - Point Cloud Data file format
VERSION 0.7
FIELDS x y z rgb
SIZE 4 4 4 4
TYPE F F F F
COUNT 1 1 1 1
WIDTH 839
HEIGHT 1
VIEWPOINT 0 0 0 1 0 0 0
POINTS 839
DATA ascii
0.0203870806315 -0.07984939914 0.918 1.06536350191e-38
0.0220860040175 -0.07984939914 0.918 1.53523709388e-38
0.0239144749383 -0.0802843087214 0.923 1.14895501908e-38
0.0256226517196 -0.0802843087214 0.923 9.55089160043e-39
0.0273308285009 -0.0802843087214 0.923 1.45232941037e-38
-0.0293536207241 -0.0794274443121 0.933 2.256121216e-38
-0.0275381045567 -0.0791720506005 0.93 2.34878445916e-38
-0.0258169730219 -0.0791720506005 0.93 1.61157773227e-38
-0.0240958414871 -0.0791720506005 0.93 8.55110438249e-39
-0.0223265922965 -0.0790017881261 0.928 9.85079189257e-39
-0.0206091621199 -0.0790017881261 0.928 4.50101550896e-39
-0.0188306595339 -0.0787463944145 0.925 1.01270466744e-38
-0.0171187813945 -0.0787463944145 0.925 1.29828845369e-38
-0.0153735910318 -0.0785761319401 0.923 6.99384700428e-39
-0.0135913870877 -0.0781504757541 0.918 4.04506661983e-39
-0.0118924637017 -0.0781504757541 0.918 1.05747236987e-38
-0.0101935403157 -0.0781504757541 0.918 1.12103877146e-38
-0.00849461692979 -0.0781504757541 0.918 1.13040168728e-38
-0.006773485395 -0.0778950820425 0.915 1.48928151074e-38
-0.00508011404625 -0.0778950820425 0.915 1.12071591229e-38
-0.0033867426975 -0.0778950820425 0.915 1.69318837392e-38
-0.00169337134875 -0.0778950820425 0.915 1.48254462825e-38
0.0 -0.0778950820425 0.915 1.50098221279e-38
0.00169337134875 -0.0778950820425 0.915 1.44545001582e-38
0.0033867426975 -0.0778950820425 0.915 1.65746268997e-38
0.00508011404625 -0.0778950820425 0.915 6.0647300705e-39
0.006773485395 -0.0778950820425 0.915 8.44886564654e-39
0.00846685674374 -0.0778950820425 0.915 9.73456259275e-39
0.0101602280925 -0.0778950820425 0.915 9.91823358506e-39
0.0118535994412 -0.0778950820425 0.915 1.15719969872e-38
0.01354697079 -0.0778950820425 0.915 8.44886564654e-39
0.0152403421387 -0.0778950820425 0.915 9.64275792516e-39
0.0169892338596 -0.0781504757541 0.918 1.39733993629e-38
0.0186881572455 -0.0781504757541 0.918 1.30629589351e-38
0.0203870806315 -0.0781504757541 0.918 1.21334146053e-38
0.0221341216733 -0.0783207382285 0.92 1.00100690812e-38
0.0239144749383 -0.0785761319401 0.923 1.14794370197e-38
0.0256781720917 -0.0787463944145 0.925 1.36950342256e-38
0.0274788828265 -0.0790017881261 0.928 1.12986358867e-38
0.0291963130031 -0.0790017881261 0.928 2.34835776378e-38
-0.0293536207241 -0.0777007607401 0.933 2.23778970975e-38
-0.0275381045567 -0.0774509190657 0.93 2.34881935149e-38
-0.0258169730219 -0.0774509190657 0.93 1.58384911852e-38
-0.0240958414871 -0.0774509190657 0.93 1.0209165567e-38
-0.0223265922965 -0.0772843579495 0.928 1.08620585475e-38
-0.0206091621199 -0.0772843579495 0.928 5.2446677884e-39
-0.0188306595339 -0.0770345162751 0.925 3.58840026589e-39
-0.0171187813945 -0.0770345162751 0.925 1.39037898617e-38
-0.0153735910318 -0.0768679551588 0.923 8.83629664595e-39
-0.0136209979528 -0.0766181134844 0.92 5.70205160715e-39
-0.0118924637017 -0.0764515523681 0.918 1.20534088707e-38
-0.0101935403157 -0.0764515523681 0.918 1.33340835633e-38
-0.00849461692979 -0.0764515523681 0.918 1.11214220777e-38
-0.00679569354383 -0.0764515523681 0.918 1.0748699107e-38
-0.00509677015787 -0.0764515523681 0.918 9.45905610427e-39
-0.0033867426975 -0.0762017106937 0.915 1.64720224248e-38
-0.00169337134875 -0.0762017106937 0.915 1.50073208102e-38
0.0 -0.0762017106937 0.915 1.46403291501e-38
0.00169337134875 -0.0762017106937 0.915 1.50069676829e-38
0.0033867426975 -0.0762017106937 0.915 1.61158319733e-38
0.00508011404625 -0.0762017106937 0.915 5.60196526564e-39
0.006773485395 -0.0762017106937 0.915 8.90804312733e-39
0.00846685674374 -0.0762017106937 0.915 9.91823358506e-39
0.0101602280925 -0.0762017106937 0.915 9.91823358506e-39
0.0118535994412 -0.0762017106937 0.915 1.39701819817e-38
0.01354697079 -0.0762017106937 0.915 1.35217244341e-38
0.0152403421387 -0.0762017106937 0.915 1.2139573312e-38
0.0169892338596 -0.0764515523681 0.918 8.90804312733e-39
0.0186881572455 -0.0764515523681 0.918 9.91823358506e-39
0.0204314969292 -0.0766181134844 0.92 9.82639808891e-39
0.0221341216733 -0.0766181134844 0.92 1.34209346408e-38
0.0239662939522 -0.0770345162751 0.925 1.06547112164e-38
0.0256781720917 -0.0770345162751 0.925 1.16631080121e-38
0.0274788828265 -0.0772843579495 0.928 1.46155289699e-38
0.0291963130031 -0.0772843579495 0.928 2.34860943698e-38
-0.0293536207241 -0.0759740771681 0.933 2.24715332622e-38
-0.027626937152 -0.0759740771681 0.933 2.34889221901e-38
-0.0258169730219 -0.0757297875309 0.93 1.44555539346e-38
-0.0240958414871 -0.0757297875309 0.93 1.40791721736e-38
-0.0223747099523 -0.0757297875309 0.93 7.90825590939e-39
-0.0206091621199 -0.0755669277728 0.928 5.79711569497e-39
-0.0188917319432 -0.0755669277728 0.928 3.68454055093e-39
-0.0171187813945 -0.0753226381356 0.925 1.40867644087e-38
-0.015406903255 -0.0753226381356 0.925 9.85079189257e-39
-0.0136654142505 -0.0751597783775 0.923 5.05740947201e-39
-0.0118924637017 -0.0747526289822 0.918 1.09431320715e-38
-0.0101935403157 -0.0747526289822 0.918 1.2035113518e-38
-0.00849461692979 -0.0747526289822 0.918 1.31504125709e-38
-0.00679569354383 -0.0747526289822 0.918 1.13151375774e-38
-0.00509677015787 -0.0747526289822 0.918 1.43622470751e-38
-0.0033867426975 -0.074508339345 0.915 1.5193529554e-38
-0.00169337134875 -0.074508339345 0.915 1.50073208102e-38
0.0 -0.074508339345 0.915 1.50066005428e-38
0.00169892338596 -0.0747526289822 0.918 1.50073208102e-38
0.00339784677192 -0.0747526289822 0.918 1.65753555749e-38
0.00509677015787 -0.0747526289822 0.918 5.41901173814e-39
0.00679569354383 -0.0747526289822 0.918 8.26519465422e-39
0.00849461692979 -0.0747526289822 0.918 9.64272709659e-39
0.0101935403157 -0.0747526289822 0.918 1.01937400735e-38
0.0118924637017 -0.0747526289822 0.918 1.01937400735e-38
0.0135913870877 -0.0747526289822 0.918 1.01019045774e-38
0.0152903104736 -0.0747526289822 0.918 1.0469246562e-38
0.0169892338596 -0.0747526289822 0.918 1.2868814638e-38
0.0187288721851 -0.0749154887403 0.92 1.22259591584e-38
0.0204314969292 -0.0749154887403 0.92 1.19497646324e-38
0.0221341216733 -0.0749154887403 0.92 9.91823358506e-39
0.0239662939522 -0.0753226381356 0.925 1.12957660274e-38
0.0256781720917 -0.0753226381356 0.925 1.54409932576e-38
0.0274788828265 -0.0755669277728 0.928 1.22252444962e-38
0.0291963130031 -0.0755669277728 0.928 2.34839279624e-38
-0.0293536207241 -0.0742473935961 0.933 2.24708143961e-38
-0.027626937152 -0.0742473935961 0.933 2.34871313307e-38
-0.0258169730219 -0.0740086559961 0.93 1.41789656438e-38
-0.0240958414871 -0.0740086559961 0.93 1.16821250335e-38
-0.0223747099523 -0.0740086559961 0.93 1.24300807005e-38
-0.0206091621199 -0.0738494975962 0.928 7.36083025651e-39
-0.0188917319432 -0.0738494975962 0.928 7.4544594147e-39
-0.0171187813945 -0.0736107599962 0.925 1.34442368329e-38
-0.015406903255 -0.0736107599962 0.925 1.00355390821e-38
-0.0136654142505 -0.0734516015962 0.923 5.42546892146e-39
-0.0119183732087 -0.0732128639962 0.92 1.06669081182e-38
-0.0101935403157 -0.0730537055962 0.918 1.29581320009e-38
-0.00849461692979 -0.0730537055962 0.918 1.22270353557e-38
-0.00679569354383 -0.0730537055962 0.918 1.52741420508e-38
-0.00509677015787 -0.0730537055962 0.918 1.55626455825e-38
-0.0033867426975 -0.0728149679962 0.915 1.5283537757e-38
-0.00169337134875 -0.0728149679962 0.915 1.47311080673e-38
0.0 -0.0728149679962 0.915 1.5375029935e-38
0.00169892338596 -0.0730537055962 0.918 1.50073208102e-38
0.00339784677192 -0.0730537055962 0.918 1.67601139748e-38
0.00509677015787 -0.0730537055962 0.918 5.60196526564e-39
0.00679569354383 -0.0730537055962 0.918 8.26519465422e-39
0.00849461692979 -0.0730537055962 0.918 9.73456259275e-39
0.0101935403157 -0.0730537055962 0.918 1.01937400735e-38
0.0118924637017 -0.0730537055962 0.918 1.32322441974e-38
0.0135913870877 -0.0730537055962 0.918 1.19505101232e-38
0.0152903104736 -0.0730537055962 0.918 1.03774110659e-38
0.0169892338596 -0.0730537055962 0.918 1.03774110659e-38
0.0187288721851 -0.0732128639962 0.92 1.01019045774e-38
0.0204314969292 -0.0732128639962 0.92 1.01019045774e-38
0.022206298157 -0.0734516015962 0.923 1.3601004296e-38
0.0239662939522 -0.0736107599962 0.925 1.26840674485e-38
0.0257614526498 -0.0738494975962 0.928 1.28699258677e-38
0.0274788828265 -0.0738494975962 0.928 1.25922249459e-38
0.0291963130031 -0.0738494975962 0.928 2.34886040954e-38
-0.0311469287426 -0.072676167066 0.935 2.23782600338e-38
-0.0293536207241 -0.0725207100241 0.933 2.26552098597e-38
-0.027626937152 -0.0725207100241 0.933 2.34860509296e-38
-0.0258169730219 -0.0722875244614 0.93 1.56537271801e-38
-0.0240958414871 -0.0722875244614 0.93 6.42920219587e-39
-0.0223747099523 -0.0722875244614 0.93 1.04068327284e-38
-0.0206091621199 -0.0721320674195 0.928 1.21531364798e-38
-0.0188917319432 -0.0721320674195 0.928 1.25201197321e-38
-0.0171187813945 -0.0718988818567 0.925 1.28878204491e-38
-0.015406903255 -0.0718988818567 0.925 9.7582389316e-39
-0.0136654142505 -0.0717434248149 0.923 4.13331479192e-39
-0.0119572374691 -0.0717434248149 0.923 1.14991799138e-38
-0.0102157484646 -0.0715102392521 0.92 8.90804312733e-39
-0.00849461692979 -0.0713547822102 0.918 1.04778561398e-38
-0.00679569354383 -0.0713547822102 0.918 1.02023496513e-38
-0.00509677015787 -0.0713547822102 0.918 1.60195781831e-38
-0.00339784677192 -0.0713547822102 0.918 1.51917148725e-38
-0.00169337134875 -0.0711215966475 0.915 1.50073208102e-38
0.0 -0.0711215966475 0.915 1.49169230462e-38
0.00169892338596 -0.0713547822102 0.918 1.50995318543e-38
0.00339784677192 -0.0713547822102 0.918 1.62984155581e-38
0.00509677015787 -0.0713547822102 0.918 5.6938007618e-39
0.00681049897639 -0.0715102392521 0.92 9.09171411964e-39
0.00849461692979 -0.0713547822102 0.918 9.91823358506e-39
0.0101935403157 -0.0713547822102 0.918 1.01937400735e-38
0.0119183732087 -0.0715102392521 0.92 1.01019045774e-38
0.0136209979528 -0.0715102392521 0.92 9.82639808891e-39
0.0153236226969 -0.0715102392521 0.92 9.91823358506e-39
0.017026247441 -0.0715102392521 0.92 1.02855755697e-38
0.0187288721851 -0.0715102392521 0.92 1.40623804141e-38
0.0204981213757 -0.0717434248149 0.923 9.9200272471e-39
0.0222544158128 -0.0718988818567 0.925 1.40705738062e-38
0.0239662939522 -0.0718988818567 0.925 1.16713672652e-38
0.0257614526498 -0.0721320674195 0.928 1.12979352375e-38
0.0274788828265 -0.0721320674195 0.928 1.3968681191e-38
0.0291963130031 -0.0721320674195 0.928 2.34875250956e-38
-0.0311469287426 -0.0709457821358 0.935 2.31161655882e-38
-0.0294165438124 -0.0709457821358 0.935 2.22853609521e-38
-0.027626937152 -0.0707940264521 0.933 2.34878544007e-38
-0.02590025358 -0.0707940264521 0.933 1.60239516356e-38
-0.024173570008 -0.0707940264521 0.933 9.93545274059e-39
-0.022446886436 -0.0707940264521 0.933 5.79532203294e-39
-0.0206091621199 -0.0704146372428 0.928 1.0684851745e-38
-0.0188917319432 -0.0704146372428 0.928 1.2244971976e-38
-0.0171187813945 -0.0701870037173 0.925 1.34381159612e-38
-0.015406903255 -0.0701870037173 0.925 9.57313300966e-39
-0.0136654142505 -0.0700352480336 0.923 8.18845254382e-39
-0.0119572374691 -0.0700352480336 0.923 1.23368551163e-38
-0.0102157484646 -0.069807614508 0.92 9.83787752592e-39
-0.00851312372049 -0.069807614508 0.92 9.83716006111e-39
-0.00679569354383 -0.0696558588243 0.918 8.91378284584e-39
-0.00509677015787 -0.0696558588243 0.918 1.24132258826e-38
-0.00339784677192 -0.0696558588243 0.918 1.4723482201e-38
-0.00169892338596 -0.0696558588243 0.918 1.59325169108e-38
0.0 -0.0696558588243 0.918 1.43641023943e-38
0.00169892338596 -0.0696558588243 0.918 1.51899128027e-38
0.00339784677192 -0.0696558588243 0.918 1.7035980597e-38
0.00510787423229 -0.069807614508 0.92 5.6938007618e-39
0.00683270712523 -0.0700352480336 0.923 9.09171411964e-39
0.00854088390653 -0.0700352480336 0.923 9.91823358506e-39
0.0102490606878 -0.0700352480336 0.923 1.03774110659e-38
0.0119572374691 -0.0700352480336 0.923 1.35116827293e-38
0.0136654142505 -0.0700352480336 0.923 1.03853031788e-38
0.0153735910318 -0.0700352480336 0.923 1.15831106853e-38
0.0170817678131 -0.0700352480336 0.923 1.05675392415e-38
0.0187899445944 -0.0700352480336 0.923 1.18551055199e-38
0.0205425376733 -0.0701870037173 0.925 1.1487692069e-38
0.0222544158128 -0.0701870037173 0.925 1.22259591584e-38
0.0240440224732 -0.0704146372428 0.928 1.21323454145e-38
0.0258169730219 -0.0705663929266 0.93 1.43450559455e-38
0.0276861588823 -0.0709457821358 0.935 1.16688477306e-38
0.0294165438124 -0.0709457821358 0.935 2.34918242792e-38
-0.0359494409284 -0.0684751255778 0.925 2.32083766324e-38
-0.0342375627889 -0.0684751255778 0.925 2.19176574325e-38
-0.0328069878681 -0.0690673428801 0.933 2.26562762478e-38
-0.0311469287426 -0.0692153972057 0.935 2.29317841376e-38
-0.0294165438124 -0.0692153972057 0.935 2.26562790504e-38
-0.027626937152 -0.0690673428801 0.933 2.34871285281e-38
-0.02590025358 -0.0690673428801 0.933 1.44559196735e-38
-0.024173570008 -0.0690673428801 0.933 1.13154963098e-38
-0.022446886436 -0.0690673428801 0.933 7.27329954923e-39
-0.0206535784175 -0.0688452613918 0.93 7.83005224469e-39
-0.0188917319432 -0.0686972070662 0.928 1.17879468897e-38
-0.0171743017665 -0.0686972070662 0.928 1.31640444024e-38
-0.015406903255 -0.0684751255778 0.925 8.65119072401e-39
-0.0136950251156 -0.0684751255778 0.925 8.83095489621e-39
-0.0119831469761 -0.0684751255778 0.925 1.53833144115e-38
-0.0102490606878 -0.0683270712523 0.923 7.99112309537e-39
-0.00851312372049 -0.0681049897639 0.92 1.14019634316e-38
-0.00681049897639 -0.0681049897639 0.92 1.12233020812e-38
-0.00510787423229 -0.0681049897639 0.92 1.14044619467e-38
-0.00339784677192 -0.0679569354383 0.918 1.31561663024e-38
-0.00169892338596 -0.0679569354383 0.918 1.510168565e-38
0.0 -0.0679569354383 0.918 1.48232812763e-38
0.00169892338596 -0.0679569354383 0.918 1.52828343051e-38
0.00340524948819 -0.0681049897639 0.92 1.64824536906e-38
0.00510787423229 -0.0681049897639 0.92 5.87747175411e-39
0.00683270712523 -0.0683270712523 0.923 8.81620763117e-39
0.00854088390653 -0.0683270712523 0.923 9.64272709659e-39
0.0102490606878 -0.0683270712523 0.923 1.05610820582e-38
0.0119831469761 -0.0684751255778 0.925 1.05610820582e-38
0.0136950251156 -0.0684751255778 0.925 1.27741176904e-38
0.0153735910318 -0.0683270712523 0.923 1.12128988414e-38
0.0170817678131 -0.0683270712523 0.923 1.13951349041e-38
0.0188306595339 -0.0684751255778 0.925 1.1209328333e-38
0.0205425376733 -0.0684751255778 0.925 1.00115040108e-38
0.0223265922965 -0.0686972070662 0.928 1.11120950351e-38
0.0240958414871 -0.0688452613918 0.93 1.27730428945e-38
0.0259557739521 -0.0692153972057 0.935 1.13015085485e-38
0.0276861588823 -0.0692153972057 0.935 1.4611547881e-38
0.0295738515333 -0.0695855330196 0.94 2.34914319157e-38
-0.0359494409284 -0.0667632474384 0.925 2.32090968998e-38
-0.0342375627889 -0.0667632474384 0.925 2.2193521252e-38
-0.0327014991611 -0.067124129857 0.93 2.23782600338e-38
-0.0311469287426 -0.0674850122756 0.935 2.24708298103e-38
-0.0294165438124 -0.0674850122756 0.935 2.22871434037e-38
-0.0276861588823 -0.0674850122756 0.935 2.3488926394e-38
-0.02590025358 -0.0673406593081 0.933 1.60239572408e-38
-0.024173570008 -0.0673406593081 0.933 1.0030158096e-38
-0.0224950040919 -0.0674850122756 0.935 5.71101991733e-39
-0.020720202864 -0.0673406593081 0.933 8.10555873316e-39
-0.0189324468827 -0.067124129857 0.93 1.16024822353e-38
-0.0171743017665 -0.0669797768895 0.928 1.33487915919e-38
-0.0154568715899 -0.0669797768895 0.928 9.2043560954e-39
-0.0136950251156 -0.0667632474384 0.925 7.35832613615e-39
-0.0119831469761 -0.0667632474384 0.925 1.54732189184e-38
-0.0102712688367 -0.0667632474384 0.925 5.51012976948e-39
-0.00854088390653 -0.0666188944709 0.923 1.2506203437e-38
-0.00681049897639 -0.0664023650198 0.92 1.44545029608e-38
-0.00510787423229 -0.0664023650198 0.92 1.43586499419e-38
-0.00339784677192 -0.0662580120524 0.918 1.5929254688e-38
-0.00169892338596 -0.0662580120524 0.918 1.4454856088e-38
0.0 -0.0662580120524 0.918 1.55586953221e-38
0.0017026247441 -0.0664023650198 0.92 1.53750453493e-38
0.00340524948819 -0.0664023650198 0.92 1.65743017984e-38
0.00510787423229 -0.0664023650198 0.92 6.06114274643e-39
0.00683270712523 -0.0666188944709 0.923 8.99987862348e-39
0.00855939069723 -0.0667632474384 0.925 9.91823358506e-39
0.0102712688367 -0.0667632474384 0.925 9.73456259275e-39
0.0119831469761 -0.0667632474384 0.925 1.29585089501e-38
0.0136950251156 -0.0667632474384 0.925 9.45905610427e-39
0.015406903255 -0.0667632474384 0.925 1.07447530505e-38
0.0171187813945 -0.0667632474384 0.925 1.21305363382e-38
0.0188306595339 -0.0667632474384 0.925 1.3151201502e-38
0.0206091621199 -0.0669797768895 0.928 1.16727937871e-38
0.0223265922965 -0.0669797768895 0.928 1.11120950351e-38
0.024225389022 -0.0674850122756 0.935 1.1020259539e-38
0.0259557739521 -0.0674850122756 0.935 1.26793969207e-38
0.0277749914776 -0.0677015417267 0.938 1.45186221746e-38
0.0295738515333 -0.0678458946941 0.94 2.34935913166e-38
-0.0359494409284 -0.0650513692989 0.925 2.25637274907e-38
-0.0342375627889 -0.0650513692989 0.925 2.25630240389e-38
-0.0327014991611 -0.0654029983222 0.93 2.28406675075e-38
-0.029510928445 -0.0659656047594 0.938 2.22874993336e-38
-0.0276861588823 -0.0657546273454 0.935 2.34899829731e-38
-0.02590025358 -0.0656139757361 0.933 1.51012792735e-38
-0.024173570008 -0.0656139757361 0.933 1.07673531921e-38
-0.0224950040919 -0.0657546273454 0.935 5.61344470266e-39
-0.020720202864 -0.0656139757361 0.933 7.82897604747e-39
-0.0189324468827 -0.0654029983222 0.93 1.14180937782e-38
-0.0171743017665 -0.0652623467129 0.928 1.38094040024e-38
-0.0154568715899 -0.0652623467129 0.928 8.37532550313e-39
-0.0136950251156 -0.0650513692989 0.925 7.08173924656e-39
-0.0119831469761 -0.0650513692989 0.925 1.25190435348e-38
-0.0102712688367 -0.0650513692989 0.925 1.21452443669e-38
-0.00854088390653 -0.0649107176896 0.923 5.78563625795e-39
-0.00683270712523 -0.0649107176896 0.923 1.32455257042e-38
-0.00512453034392 -0.0649107176896 0.923 1.34287889187e-38
-0.00340524948819 -0.0646997402757 0.92 1.62915155644e-38
-0.0017026247441 -0.0646997402757 0.92 1.54693751567e-38
0.0 -0.0646997402757 0.92 1.60207496686e-38
0.0017026247441 -0.0646997402757 0.92 1.54682947556e-38
0.00340524948819 -0.0646997402757 0.92 1.70359932086e-38
0.00512453034392 -0.0649107176896 0.923 6.15297824259e-39
0.00683270712523 -0.0649107176896 0.923 8.99987862348e-39
0.00854088390653 -0.0649107176896 0.923 1.02855755697e-38
0.0102490606878 -0.0649107176896 0.923 1.0469246562e-38
0.0119831469761 -0.0650513692989 0.925 1.03795634603e-38
0.0136950251156 -0.0650513692989 0.925 1.20405589638e-38
0.015406903255 -0.0650513692989 0.925 1.13007882811e-38
0.0171187813945 -0.0650513692989 0.925 1.03774110659e-38
0.0188306595339 -0.0650513692989 0.925 1.01937400735e-38
0.0206091621199 -0.0652623467129 0.928 1.09284240428e-38
0.0223747099523 -0.0654029983222 0.93 1.12039305313e-38
0.024173570008 -0.0656139757361 0.933 1.36964243137e-38
0.0260390545103 -0.0659656047594 0.938 1.10242055954e-38
0.0278342132079 -0.0661062563686 0.94 1.67288061645e-38
0.0296682361659 -0.0663172337826 0.943 2.34914459287e-38
-0.029510928445 -0.064229667792 0.938 2.2287496531e-38
-0.0276861588823 -0.0640242424153 0.935 2.34871243242e-38
-0.02590025358 -0.0638872921641 0.933 1.50094325669e-38
-0.024173570008 -0.0638872921641 0.933 1.35285193304e-38
-0.0224950040919 -0.0640242424153 0.935 1.15038308234e-38
-0.020720202864 -0.0638872921641 0.933 7.64171773108e-39
-0.018993519292 -0.0638872921641 0.933 1.16936002666e-38
-0.0172113153479 -0.0636818667874 0.93 1.38990871041e-38
-0.0154568715899 -0.0635449165362 0.928 7.82323632896e-39
-0.0137394414132 -0.0635449165362 0.928 7.64028840665e-39
-0.0120220112366 -0.0635449165362 0.928 8.73728650166e-39
-0.0103045810599 -0.0635449165362 0.928 7.99327548981e-39
-0.00855939069723 -0.0633394911595 0.925 1.21427710751e-38
-0.00683270712523 -0.0632025409083 0.923 7.07133320417e-39
-0.00512453034392 -0.0632025409083 0.923 1.37018151089e-38
-0.00341635356261 -0.0632025409083 0.923 1.21416808649e-38
-0.00170817678131 -0.0632025409083 0.923 1.13187249015e-38
0.0 -0.0632025409083 0.923 1.23271244998e-38
0.00170817678131 -0.0632025409083 0.923 1.56530811815e-38
0.00341635356261 -0.0632025409083 0.923 1.62991568449e-38
0.00512453034392 -0.0632025409083 0.923 6.3366492349e-39
0.00683270712523 -0.0632025409083 0.923 9.1835496158e-39
0.00854088390653 -0.0632025409083 0.923 1.00100690812e-38
0.0102490606878 -0.0632025409083 0.923 1.01937400735e-38
0.0119831469761 -0.0633394911595 0.925 1.07476229097e-38
0.0136950251156 -0.0633394911595 0.925 1.13954936365e-38
0.015406903255 -0.0633394911595 0.925 1.17610419591e-38
0.0171187813945 -0.0633394911595 0.925 1.07447530505e-38
0.0188306595339 -0.0633394911595 0.925 1.07447530505e-38
0.0206091621199 -0.0635449165362 0.928 1.33240516675e-38
0.0223747099523 -0.0636818667874 0.93 1.37029137269e-38
0.024173570008 -0.0638872921641 0.933 1.22259591584e-38
0.0260390545103 -0.064229667792 0.938 1.23116962037e-38
0.0278342132079 -0.0643666180432 0.94 1.7196245701e-38
0.0296682361659 -0.0645720434199 0.943 2.34925347376e-38
0.0314134265286 -0.0645720434199 0.943 2.29317897428e-38
-0.0311469287426 -0.0622938574851 0.935 2.24708115935e-38
-0.0294165438124 -0.0622938574851 0.935 2.27474181012e-38
-0.0277749914776 -0.0624937308247 0.938 2.34871355346e-38
-0.0259557739521 -0.0622938574851 0.935 1.49161621412e-38
-0.024225389022 -0.0622938574851 0.935 1.10396310889e-38
-0.0224950040919 -0.0622938574851 0.935 1.35303101898e-38
-0.020720202864 -0.0621606085921 0.933 1.17832833684e-38
-0.018993519292 -0.0621606085921 0.933 1.23371662046e-38
-0.0172113153479 -0.0619607352526 0.93 1.44522524755e-38
-0.0154901838131 -0.0619607352526 0.93 5.98042795488e-39
-0.0137394414132 -0.0618274863596 0.928 4.50783142469e-39
-0.0120220112366 -0.0618274863596 0.928 4.41133240725e-39
-0.0103045810599 -0.0618274863596 0.928 3.39791335785e-39
-0.00855939069723 -0.06162761302 0.925 1.08477807175e-38
-0.00684751255778 -0.06162761302 0.925 1.03010010632e-38
-0.00513563441834 -0.06162761302 0.925 1.16853522239e-38
-0.00341635356261 -0.061494364127 0.923 1.29789566973e-38
-0.00170817678131 -0.061494364127 0.923 1.40850071804e-38
0.0 -0.061494364127 0.923 1.27935705157e-38
0.00170817678131 -0.061494364127 0.923 1.56520021817e-38
0.00341635356261 -0.061494364127 0.923 1.66682728734e-38
0.00512453034392 -0.061494364127 0.923 6.3366492349e-39
0.00684751255778 -0.06162761302 0.925 9.1835496158e-39
0.00855939069723 -0.06162761302 0.925 1.03774110659e-38
0.0102712688367 -0.06162761302 0.925 1.03774110659e-38
0.0119831469761 -0.06162761302 0.925 9.91823358506e-39
0.0136950251156 -0.06162761302 0.925 1.12039305313e-38
0.015406903255 -0.06162761302 0.925 1.12039305313e-38
0.0171187813945 -0.06162761302 0.925 1.31418085984e-38
0.0188917319432 -0.0618274863596 0.928 1.17596182399e-38
0.020720202864 -0.0621606085921 0.933 1.16681302658e-38
0.022446886436 -0.0621606085921 0.933 1.08373060115e-38
0.024225389022 -0.0622938574851 0.935 1.23077501472e-38
0.0259557739521 -0.0622938574851 0.935 1.17549435082e-38
0.0277749914776 -0.0624937308247 0.938 1.83929938259e-38
0.029510928445 -0.0624937308247 0.938 2.34893005407e-38
0.0312468654123 -0.0624937308247 0.938 2.33934937647e-38
-0.0311469287426 -0.060563472555 0.935 2.302398257e-38
-0.0294165438124 -0.060563472555 0.935 2.2009837648e-38
-0.0277749914776 -0.0607577938573 0.938 2.34853348661e-38
-0.0259557739521 -0.060563472555 0.935 1.45466537491e-38
-0.024225389022 -0.060563472555 0.935 1.22370798631e-38
-0.0224950040919 -0.060563472555 0.935 1.1505265753e-38
-0.0207646191617 -0.060563472555 0.935 1.21517015502e-38
-0.0190342342316 -0.060563472555 0.935 1.3069339047e-38
-0.01726683572 -0.0604339250201 0.933 1.45444481053e-38
-0.0154901838131 -0.0602396037178 0.93 2.75542361715e-39
-0.0137690522784 -0.0602396037178 0.93 9.84686965817e-39
-0.0120479207436 -0.0602396037178 0.93 6.06329514087e-39
-0.0103045810599 -0.0601100561829 0.928 4.68827382535e-39
-0.00858715088327 -0.0601100561829 0.928 8.00228864154e-39
-0.00684751255778 -0.0599157348806 0.925 6.80587122308e-39
-0.00513563441834 -0.0599157348806 0.925 1.22411001883e-38
-0.00342375627889 -0.0599157348806 0.925 1.46439290859e-38
-0.00171187813945 -0.0599157348806 0.925 1.73100423467e-38
0.0 -0.0597861873457 0.923 1.53735809924e-38
0.00170817678131 -0.0597861873457 0.923 1.53753802596e-38
0.00342375627889 -0.0599157348806 0.925 1.56544908877e-38
0.00513563441834 -0.0599157348806 0.925 6.70399121953e-39
0.00684751255778 -0.0599157348806 0.925 9.45905610427e-39
0.00855939069723 -0.0599157348806 0.925 1.01937400735e-38
0.0102712688367 -0.0599157348806 0.925 1.07447530505e-38
0.0119831469761 -0.0599157348806 0.925 9.91823638766e-39
0.0136950251156 -0.0599157348806 0.925 1.12039305313e-38
0.0154568715899 -0.0601100561829 0.928 1.27741120852e-38
0.0171743017665 -0.0601100561829 0.928 9.45905610427e-39
0.0188917319432 -0.0601100561829 0.928 1.13901126504e-38
0.020720202864 -0.0604339250201 0.933 1.44339921552e-38
0.022446886436 -0.0604339250201 0.933 1.05610820582e-38
0.024225389022 -0.060563472555 0.935 1.15712725159e-38
0.0259557739521 -0.060563472555 0.935 1.26776032587e-38
0.0277749914776 -0.0607577938573 0.938 1.83940728257e-38
0.029510928445 -0.0607577938573 0.938 2.34914417248e-38
-0.0296682361659 -0.0593364723318 0.943 2.293286594e-38
-0.0278342132079 -0.0591477030667 0.94 2.34871271268e-38
-0.0260945748824 -0.0591477030667 0.94 1.50079794204e-38
-0.0243549365569 -0.0591477030667 0.94 1.16839144917e-38
-0.0226152982314 -0.0591477030667 0.94 1.10457295398e-38
-0.0208312436082 -0.0590218568899 0.938 1.2150625353e-38
-0.0190953066409 -0.0590218568899 0.938 1.32537275041e-38
-0.0173038493014 -0.0588330876248 0.935 1.50979750117e-38
-0.0155734643713 -0.0588330876248 0.935 1.65303893084e-39
-0.013813468576 -0.0587072414481 0.933 1.15921126267e-38
-0.012086785004 -0.0587072414481 0.933 9.10139989463e-39
-0.010360101432 -0.0587072414481 0.933 6.52641867813e-39
-0.00858715088327 -0.0583926260063 0.928 1.02156619867e-38
-0.00686972070662 -0.0583926260063 0.928 7.17106081327e-39
-0.00515229052996 -0.0583926260063 0.928 8.45461237154e-39
-0.00343486035331 -0.0583926260063 0.928 1.52871320875e-38
-0.00171187813945 -0.0582038567412 0.925 1.55597743219e-38
0.0 -0.0582038567412 0.925 1.5283537757e-38
0.00171187813945 -0.0582038567412 0.925 1.55597715193e-38
0.00342375627889 -0.0582038567412 0.925 1.63902552581e-38
0.00513563441834 -0.0582038567412 0.925 6.79582671569e-39
0.00684751255778 -0.0582038567412 0.925 9.55089160043e-39
0.00855939069723 -0.0582038567412 0.925 1.01019045774e-38
0.0102712688367 -0.0582038567412 0.925 1.07447530505e-38
0.0119831469761 -0.0582038567412 0.925 1.00100690812e-38
0.0137394414132 -0.0583926260063 0.928 1.18489412079e-38
0.0154568715899 -0.0583926260063 0.928 1.33276670176e-38
0.0171743017665 -0.0583926260063 0.928 1.31493419789e-38
0.0189324468827 -0.058518472183 0.93 9.82890921575e-39
0.0207646191617 -0.0588330876248 0.935 1.33294340549e-38
0.0225671805756 -0.0590218568899 0.938 1.30553905221e-38
0.0243031175429 -0.0590218568899 0.938 1.19422116337e-38
0.0260390545103 -0.0590218568899 0.938 1.19418430922e-38
0.0277749914776 -0.0590218568899 0.938 1.85774004999e-38
0.029510928445 -0.0590218568899 0.938 2.34910773872e-38
-0.0279230458032 -0.0575912819691 0.943 2.34889179862e-38
-0.0261778554405 -0.0575912819691 0.943 1.46402716969e-38
-0.0244326650778 -0.0575912819691 0.943 1.26069329745e-38
-0.0226874747151 -0.0575912819691 0.943 1.22417433843e-38
-0.0208756599059 -0.0574080647412 0.94 1.3069339047e-38
-0.0191360215804 -0.0574080647412 0.94 1.30707739766e-38
-0.0173593696735 -0.0572859199226 0.938 1.48242593827e-38
-0.0155734643713 -0.0571027026947 0.935 1.1020259539e-39
-0.0138430794411 -0.0571027026947 0.935 1.08610159815e-38
-0.012086785004 -0.0569805578761 0.933 1.13097565913e-38
-0.010360101432 -0.0569805578761 0.933 6.3366492349e-39
-0.00860565767397 -0.0567973406482 0.93 7.35042701671e-39
-0.00688452613918 -0.0567973406482 0.93 1.65764429825e-38
-0.00515229052996 -0.0566751958296 0.928 1.51953049991e-38
-0.00343486035331 -0.0566751958296 0.928 1.51009233437e-38
-0.00171743017665 -0.0566751958296 0.928 1.51913421271e-38
0.0 -0.0566751958296 0.928 1.51909889999e-38
0.00171743017665 -0.0566751958296 0.928 1.58356381415e-38
0.00343486035331 -0.0566751958296 0.928 1.62058597945e-38
0.00515229052996 -0.0566751958296 0.928 7.4386751888e-39
0.00686972070662 -0.0566751958296 0.928 9.91823358506e-39
0.00858715088327 -0.0566751958296 0.928 1.05610820582e-38
0.0103045810599 -0.0566751958296 0.928 1.07447530505e-38
0.0120220112366 -0.0566751958296 0.928 9.64272709659e-39
0.0137394414132 -0.0566751958296 0.928 1.16652688143e-38
0.0154901838131 -0.0567973406482 0.93 1.08365885466e-38
0.0172113153479 -0.0567973406482 0.93 1.33301627301e-38
0.018993519292 -0.0569805578761 0.933 1.26866262195e-38
0.0207646191617 -0.0571027026947 0.935 1.02873692317e-38
0.0224950040919 -0.0571027026947 0.935 1.25936598755e-38
0.0243031175429 -0.0572859199226 0.938 1.18474964692e-38
0.0260390545103 -0.0572859199226 0.938 1.27701562197e-38
0.0278342132079 -0.0574080647412 0.94 2.00543102268e-38
-0.0280118783985 -0.0560237567971 0.946 2.33963622227e-38
-0.0261778554405 -0.0558460916064 0.943 1.38105138307e-38
-0.0244326650778 -0.0558460916064 0.943 1.31572284867e-38
-0.0226874747151 -0.0558460916064 0.943 1.29800146777e-38
-0.0208756599059 -0.0556684264157 0.94 1.30707739766e-38
-0.0191360215804 -0.0556684264157 0.94 1.26112377634e-38
-0.0173593696735 -0.0555499829552 0.938 1.41796158462e-38
-0.0155734643713 -0.0553723177646 0.935 1.28569694621e-39
-0.0138430794411 -0.0553723177646 0.935 1.19666278581e-38
-0.012086785004 -0.0552538743041 0.933 1.38904775263e-38
-0.010360101432 -0.0552538743041 0.933 1.19608559098e-38
-0.00860565767397 -0.0550762091134 0.93 9.56559962911e-39
-0.00688452613918 -0.0550762091134 0.93 1.49151209764e-38
-0.00515229052996 -0.054957765653 0.928 1.49194271666e-38
-0.00343486035331 -0.054957765653 0.928 1.48229127349e-38
-0.00171743017665 -0.054957765653 0.928 1.51913393245e-38
0.0 -0.054957765653 0.928 1.54675786921e-38
0.00171743017665 -0.054957765653 0.928 1.57441880024e-38
0.00343486035331 -0.054957765653 0.928 1.65757185112e-38
0.00515229052996 -0.054957765653 0.928 7.71418167727e-39
0.00686972070662 -0.054957765653 0.928 1.01019045774e-38
0.00858715088327 -0.054957765653 0.928 1.06529175543e-38
0.0103267892088 -0.0550762091134 0.93 1.05610820582e-38
0.0120479207436 -0.0550762091134 0.93 1.13954936365e-38
0.0137690522784 -0.0550762091134 0.93 1.22241654964e-38
0.015540152148 -0.0552538743041 0.933 1.03795634603e-38
0.01726683572 -0.0552538743041 0.933 1.03774110659e-38
0.0190342342316 -0.0553723177646 0.935 1.15712781211e-38
0.0207646191617 -0.0553723177646 0.935 1.44329355761e-38
0.0224950040919 -0.0553723177646 0.935 1.13029406756e-38
0.0243031175429 -0.0555499829552 0.938 1.32282575032e-38
0.0260945748824 -0.0556684264157 0.94 1.16631080121e-38
0.0279230458032 -0.0558460916064 0.943 2.11620829057e-38
-0.0280118783985 -0.0542730143972 0.946 2.34892865277e-38
-0.0262611359986 -0.0542730143972 0.946 1.40867644087e-38
-0.0245103935987 -0.0542730143972 0.946 1.22324163418e-38
-0.0227596511988 -0.0542730143972 0.946 1.27952674881e-38
-0.0209422843524 -0.0541009012437 0.943 1.3161892008e-38
-0.0191970939897 -0.0541009012437 0.943 1.33459217327e-38
-0.0173963832549 -0.0539287880902 0.94 1.11397174304e-38
-0.0156234327062 -0.0538140459879 0.938 6.16122908794e-39
-0.0138430794411 -0.0536419328344 0.935 1.16846641863e-38
-0.012112694511 -0.0536419328344 0.935 1.18564647794e-38
-0.010360101432 -0.0535271907321 0.933 1.0748699107e-38
-0.00863341786002 -0.0535271907321 0.933 1.01937400735e-38
-0.00688452613918 -0.0533550775786 0.93 1.45329966943e-38
-0.00516339460438 -0.0533550775786 0.93 1.57459424281e-38
-0.00344226306959 -0.0533550775786 0.93 1.51013297202e-38
-0.00171743017665 -0.0532403354763 0.928 1.51920679997e-38
0.0 -0.0532403354763 0.928 1.56530405438e-38
0.00171743017665 -0.0532403354763 0.928 1.53760991257e-38
0.00343486035331 -0.0532403354763 0.928 1.60225503372e-38
0.00515229052996 -0.0532403354763 0.928 8.54070114269e-39
0.00688452613918 -0.0533550775786 0.93 1.01019045774e-38
0.00860565767397 -0.0533550775786 0.93 1.05610820582e-38
0.0103267892088 -0.0533550775786 0.93 1.05610820582e-38
0.012086785004 -0.0535271907321 0.933 9.55089160043e-39
0.013813468576 -0.0535271907321 0.933 1.23091962872e-38
0.015540152148 -0.0535271907321 0.933 1.36093083907e-38
0.01726683572 -0.0535271907321 0.933 1.15773709668e-38
0.0190342342316 -0.0536419328344 0.935 1.09284240428e-38
0.0207646191617 -0.0536419328344 0.935 1.16631080121e-38
0.0225671805756 -0.0538140459879 0.938 1.23985178539e-38
0.0243031175429 -0.0538140459879 0.938 1.23988681785e-38
0.0261778554405 -0.0541009012437 0.943 1.25814629736e-38
0.0280118783985 -0.0542730143972 0.946 2.16237911315e-38
-0.0280711001288 -0.0526333127414 0.948 2.34878431903e-38
-0.0262611359986 -0.0525222719973 0.946 1.34406761335e-38
-0.0245103935987 -0.0525222719973 0.946 1.18679442164e-38
-0.0228077688546 -0.0526333127414 0.948 1.15992536436e-38
-0.0210089087989 -0.0525222719973 0.946 1.24275667711e-38
-0.0191970939897 -0.052355710881 0.943 1.41760285222e-38
-0.017451903627 -0.052355710881 0.943 2.57139389242e-39
-0.0156567449294 -0.0521891497647 0.94 8.18161560861e-39
-0.0138874957388 -0.0520781090205 0.938 1.22267088531e-38
-0.012112694511 -0.0519115479043 0.935 1.45369133235e-38
-0.0103823095809 -0.0519115479043 0.935 1.0103339507e-38
-0.00863341786002 -0.0518005071601 0.933 1.24053253619e-38
-0.00690673428801 -0.0518005071601 0.933 1.49078804672e-38
-0.00516339460438 -0.0516339460438 0.93 1.62936847744e-38
-0.00344226306959 -0.0516339460438 0.93 1.55604959906e-38
-0.00172113153479 -0.0516339460438 0.93 1.54679262141e-38
0.0 -0.0515229052996 0.928 1.51924211269e-38
0.00171743017665 -0.0515229052996 0.928 1.63895518063e-38
0.00344226306959 -0.0516339460438 0.93 1.6391330054e-38
0.00516339460438 -0.0516339460438 0.93 8.44886564654e-39
0.00690673428801 -0.0518005071601 0.933 1.01019045774e-38
0.00863341786002 -0.0518005071601 0.933 1.03774110659e-38
0.010360101432 -0.0518005071601 0.933 1.12039305313e-38
0.012086785004 -0.0518005071601 0.933 1.08373060115e-38
0.0138430794411 -0.0519115479043 0.935 1.03774110659e-38
0.0155734643713 -0.0519115479043 0.935 1.24035401076e-38
0.0173038493014 -0.0519115479043 0.935 1.23142073305e-38
0.0190342342316 -0.0519115479043 0.935 1.09284240428e-38
0.0207646191617 -0.0519115479043 0.935 1.14794370197e-38
0.0225671805756 -0.0520781090205 0.938 1.21226442253e-38
0.0243031175429 -0.0520781090205 0.938 1.23977919813e-38
0.0261778554405 -0.052355710881 0.943 1.32296924329e-38
0.0280118783985 -0.0525222719973 0.946 2.18099998753e-38
-0.0280711001288 -0.0508788689834 0.948 2.34878487955e-38
-0.0262611359986 -0.0507715295974 0.946 1.30715236713e-38
-0.0245103935987 -0.0507715295974 0.946 1.379972103e-38
-0.0228077688546 -0.0508788689834 0.948 1.14145064541e-38
-0.0210089087989 -0.0507715295974 0.946 1.28885379139e-38
-0.019258166399 -0.0507715295974 0.946 1.4729552626e-38
-0.017451903627 -0.0506105205183 0.943 1.46936793853e-39
-0.0156567449294 -0.0504495114392 0.94 1.36269030943e-38
-0.0138874957388 -0.0503421720532 0.938 1.35263935606e-38
-0.012112694511 -0.0501811629741 0.935 1.32494227152e-38
-0.0103823095809 -0.0501811629741 0.935 1.64748110087e-38
-0.00863341786002 -0.0500738235881 0.933 1.55604805764e-38
-0.00690673428801 -0.0500738235881 0.933 1.29760686212e-38
-0.00518005071601 -0.0500738235881 0.933 1.31543586274e-38
-0.00344226306959 -0.049912814509 0.93 1.41710062685e-38
-0.00172113153479 -0.049912814509 0.93 1.59278912246e-38
0.0 -0.049912814509 0.93 1.5193487515e-38
0.00172113153479 -0.049912814509 0.93 1.62994791436e-38
0.00345336714401 -0.0500738235881 0.933 1.57456047152e-38
0.00518005071601 -0.0500738235881 0.933 8.81620763117e-39
0.00690673428801 -0.0500738235881 0.933 1.0469246562e-38
0.00863341786002 -0.0500738235881 0.933 1.07447530505e-38
0.010360101432 -0.0500738235881 0.933 1.08365885466e-38
0.012086785004 -0.0500738235881 0.933 1.1760684628e-38
0.0138430794411 -0.0501811629741 0.935 1.18554011938e-38
0.0155734643713 -0.0501811629741 0.935 1.01937400735e-38
0.0173038493014 -0.0501811629741 0.935 1.12039305313e-38
0.0190342342316 -0.0501811629741 0.935 1.11120950351e-38
0.0208312436082 -0.0503421720532 0.938 1.20311674615e-38
0.0225671805756 -0.0503421720532 0.938 1.21265902817e-38
0.0244326650778 -0.0506105205183 0.943 1.41534592091e-38
0.0262611359986 -0.0507715295974 0.946 1.13876015236e-38
0.0280118783985 -0.0507715295974 0.946 2.26408297348e-38
-0.0322129198867 -0.0501089864904 0.967 2.30236294428e-38
-0.0304233132263 -0.0501089864904 0.967 2.20101907753e-38
-0.0282487653195 -0.0494353393091 0.954 2.34896368523e-38
-0.0263999369289 -0.0492798822672 0.951 1.2334308957e-38
-0.0245622126127 -0.0491244252253 0.948 1.14866200757e-38
-0.0228077688546 -0.0491244252253 0.948 1.1963725769e-38
-0.0210533250966 -0.0491244252253 0.948 1.37146986469e-38
-0.019258166399 -0.0490207871974 0.946 1.3718647506e-38
-0.017451903627 -0.0488653301556 0.943 3.76525534248e-39
-0.0156567449294 -0.0487098731137 0.94 1.07680706569e-38
-0.0138874957388 -0.0486062350858 0.938 1.18622044979e-38
-0.0121515587715 -0.0486062350858 0.938 8.7290356563e-39
-0.0103823095809 -0.048450778044 0.935 1.00143738701e-38
-0.00865192465071 -0.048450778044 0.935 8.9119891838e-39
-0.00690673428801 -0.0483471400161 0.933 9.82855048335e-39
-0.00518005071601 -0.0483471400161 0.933 1.13007882811e-38
-0.00345336714401 -0.0483471400161 0.933 6.61215572338e-39
-0.001726683572 -0.0483471400161 0.933 1.62862438796e-38
0.0 -0.0481916829742 0.93 1.55644434484e-38
0.00172113153479 -0.0481916829742 0.93 1.52867999798e-38
0.00345336714401 -0.0483471400161 0.933 1.55619547423e-38
0.00518005071601 -0.0483471400161 0.933 8.90804312733e-39
0.00690673428801 -0.0483471400161 0.933 1.00100690812e-38
0.00863341786002 -0.0483471400161 0.933 1.01937400735e-38
0.0103823095809 -0.048450778044 0.935 1.12042892637e-38
0.012112694511 -0.048450778044 0.935 1.1578447164e-38
0.0138430794411 -0.048450778044 0.935 1.31504826359e-38
0.0155734643713 -0.048450778044 0.935 1.02855755697e-38
0.0173593696735 -0.0486062350858 0.938 1.14794370197e-38
0.0190953066409 -0.0486062350858 0.938 1.15727074455e-38
0.0208312436082 -0.0486062350858 0.938 1.30482032622e-38
0.0226874747151 -0.0488653301556 0.943 1.15752185724e-38
0.0244326650778 -0.0488653301556 0.943 1.37854053649e-38
0.0262611359986 -0.0490207871974 0.946 1.17549435082e-38
0.0280118783985 -0.0490207871974 0.946 2.31986698379e-38
-0.0322129198867 -0.04831937983 0.967 2.24715542816e-38
-0.0302660055054 -0.0480695381556 0.962 2.31168872569e-38
-0.0283079870497 -0.0477697281463 0.956 2.34871355346e-38
-0.0263999369289 -0.0475198864719 0.951 1.27960129789e-38
-0.0245622126127 -0.0473699814673 0.948 6.79582671569e-39
-0.0228077688546 -0.0473699814673 0.948 1.26984405668e-38
-0.0210533250966 -0.0473699814673 0.948 1.45476752957e-38
-0.019258166399 -0.0472700447975 0.946 7.36226518613e-39
-0.017451903627 -0.0471201397929 0.943 4.40847656098e-39
-0.0157067132643 -0.0471201397929 0.943 8.63720296274e-39
-0.0138874957388 -0.0468702981185 0.938 7.89785266959e-39
-0.0121515587715 -0.0468702981185 0.938 7.80601717343e-39
-0.0103823095809 -0.0467203931138 0.935 7.80637590584e-39
-0.00865192465071 -0.0467203931138 0.935 6.06114274643e-39
-0.00692153972057 -0.0467203931138 0.935 6.70399121953e-39
-0.00518005071601 -0.0466204564441 0.933 7.4386751888e-39
-0.00345336714401 -0.0466204564441 0.933 9.73959605683e-39
-0.001726683572 -0.0466204564441 0.933 1.4259679034e-38
0.0 -0.0466204564441 0.933 1.55644574614e-38
0.001726683572 -0.0466204564441 0.933 1.5563361646e-38
0.00345336714401 -0.0466204564441 0.933 1.54704625643e-38
0.00518005071601 -0.0466204564441 0.933 8.90804312733e-39
0.00692153972057 -0.0467203931138 0.935 1.03774110659e-38
0.00865192465071 -0.0467203931138 0.935 1.06529175543e-38
0.0103823095809 -0.0467203931138 0.935 1.08365885466e-38
0.012112694511 -0.0467203931138 0.935 1.12979184219e-38
0.0138430794411 -0.0467203931138 0.935 1.11153236268e-38
0.0156234327062 -0.0468702981185 0.938 1.19432780218e-38
0.0173593696735 -0.0468702981185 0.938 1.13883189884e-38
0.0190953066409 -0.0468702981185 0.938 1.1020259539e-38
0.0208756599059 -0.0469702347883 0.94 1.1938621507e-38
0.0226874747151 -0.0471201397929 0.943 1.23981507137e-38
0.0244326650778 -0.0471201397929 0.943 1.21226554356e-38
0.0262611359986 -0.0472700447975 0.946 1.24896274775e-38
0.0280118783985 -0.0472700447975 0.946 2.30139464704e-38
-0.0322129198867 -0.0465297731697 0.967 2.18261638531e-38
-0.0302660055054 -0.0462891848906 0.962 2.24711619181e-38
-0.0283079870497 -0.0460004789557 0.956 2.34867627892e-38
-0.026483217487 -0.0459042436441 0.954 1.15974697907e-38
-0.0245622126127 -0.0456155377093 0.948 8.9119891838e-39
-0.0228077688546 -0.0456155377093 0.948 1.19609175669e-38
-0.0210533250966 -0.0456155377093 0.948 1.45501892251e-38
-0.019258166399 -0.0455193023976 0.946 4.59823199122e-39
-0.017451903627 -0.0453749494302 0.943 4.87232316825e-39
-0.0157067132643 -0.0453749494302 0.943 7.35078574911e-39
-0.0138874957388 -0.0451343611511 0.938 7.16316870032e-39
-0.0121515587715 -0.0451343611511 0.938 8.08833957763e-39
-0.0103823095809 -0.0449900081837 0.935 1.19612314578e-38
-0.00865192465071 -0.0449900081837 0.935 1.3441044675e-38
-0.00692153972057 -0.0449900081837 0.935 1.44580902849e-38
-0.00519115479043 -0.0449900081837 0.935 1.53807682522e-38
-0.00346076986028 -0.0449900081837 0.935 1.53796962589e-38
-0.00173038493014 -0.0449900081837 0.935 1.57456103204e-38
0.0 -0.0448937728721 0.933 1.50083956061e-38
0.001726683572 -0.0448937728721 0.933 1.6391330054e-38
0.00346076986028 -0.0449900081837 0.935 1.50076921543e-38
0.00519115479043 -0.0449900081837 0.935 9.27538511196e-39
0.00692153972057 -0.0449900081837 0.935 1.07447530505e-38
0.00865192465071 -0.0449900081837 0.935 1.02855755697e-38
0.0103823095809 -0.0449900081837 0.935 1.09284240428e-38
0.0121515587715 -0.0451343611511 0.938 1.07447530505e-38
0.0138874957388 -0.0451343611511 0.938 1.07447530505e-38
0.0156234327062 -0.0451343611511 0.938 1.12957660274e-38
0.0173593696735 -0.0451343611511 0.938 1.09284240428e-38
0.0191360215804 -0.0452305964628 0.94 1.11120950351e-38
0.0208756599059 -0.0452305964628 0.94 1.12957702313e-38
0.0227596511988 -0.0455193023976 0.946 1.37900324524e-38
0.0245103935987 -0.0455193023976 0.946 1.36957208618e-38
0.0262611359986 -0.0455193023976 0.946 1.17560197054e-38
0.0280118783985 -0.0455193023976 0.946 2.34781714283e-38
-0.034108015254 -0.0448789674395 0.97 2.2287881888e-38
-0.0322129198867 -0.0447401665093 0.967 2.24729611853e-38
-0.0302660055054 -0.0445088316256 0.962 2.19180049545e-38
-0.028396819645 -0.0443700306954 0.959 2.34896508653e-38
-0.0265387378591 -0.0442312297651 0.956 1.0583340283e-38
-0.0246399411336 -0.0439998948814 0.951 9.92684316283e-39
-0.0228077688546 -0.0438610939512 0.948 6.42848473106e-39
-0.0210533250966 -0.0438610939512 0.948 1.17822351971e-38
-0.019258166399 -0.0437685599977 0.946 5.79281090609e-39
-0.0175074239991 -0.0437685599977 0.946 7.17536560216e-39
-0.0157067132643 -0.0436297590675 0.943 7.26397250665e-39
-0.0139171066039 -0.0434909581373 0.94 9.29160514168e-39
-0.0121515587715 -0.0433984241838 0.938 1.30758845121e-38
-0.0104156218041 -0.0433984241838 0.938 1.5011639612e-38
-0.00867968483676 -0.0433984241838 0.938 1.54686450802e-38
-0.00694374786941 -0.0433984241838 0.938 1.4916180358e-38
-0.00520781090205 -0.0433984241838 0.938 1.52828188908e-38
-0.00346076986028 -0.0432596232536 0.935 1.55590456467e-38
-0.00173038493014 -0.0432596232536 0.935 1.50995220452e-38
0.0 -0.0432596232536 0.935 1.5837790536e-38
0.00173038493014 -0.0432596232536 0.935 1.61147501709e-38
0.00346076986028 -0.0432596232536 0.935 1.50069732881e-38
0.00520781090205 -0.0433984241838 0.938 9.1835496158e-39
0.00694374786941 -0.0433984241838 0.938 1.06529175543e-38
0.00867968483676 -0.0433984241838 0.938 1.02855755697e-38
0.0104156218041 -0.0433984241838 0.938 1.09284240428e-38
0.0121515587715 -0.0433984241838 0.938 1.0469246562e-38
0.0138874957388 -0.0433984241838 0.938 1.08365885466e-38
0.0156234327062 -0.0433984241838 0.938 1.1020259539e-38
0.0173593696735 -0.0433984241838 0.938 1.13876015236e-38
0.0191360215804 -0.0434909581373 0.94 1.36949823775e-38
0.0210089087989 -0.0437685599977 0.946 1.47141761779e-38
0.0227596511988 -0.0437685599977 0.946 1.21369935215e-38
0.0245103935987 -0.0437685599977 0.946 1.46162534412e-38
0.0262611359986 -0.0437685599977 0.946 1.18485726664e-38
0.0280711001288 -0.0438610939512 0.948 2.34767154792e-38
0.0298255438868 -0.0438610939512 0.948 2.34878529994e-38
-0.034108015254 -0.0430838087419 0.97 2.20105537116e-38
-0.0322129198867 -0.0429505598489 0.967 2.19183160427e-38
-0.0302660055054 -0.0427284783606 0.962 2.21034583984e-38
-0.0284856522404 -0.0427284783606 0.962 2.34900124003e-38
-0.0265387378591 -0.0424619805745 0.956 1.02141976298e-38
-0.0247176696545 -0.0423731479792 0.954 1.08466414618e-38
-0.0228799453383 -0.0422398990862 0.951 5.4222403298e-39
-0.0210533250966 -0.0421066501932 0.948 6.89591305721e-39
-0.0192988813385 -0.0421066501932 0.948 7.26684236591e-39
-0.0175074239991 -0.0420178175978 0.946 7.72458491707e-39
-0.0157566815992 -0.0420178175978 0.946 7.81678054693e-39
-0.0139615229016 -0.0418845687048 0.943 1.15978229179e-38
-0.0121774682784 -0.0417513198118 0.94 1.196379163e-38
-0.0104156218041 -0.0416624872164 0.938 1.46413885318e-38
-0.00867968483676 -0.0416624872164 0.938 1.40874986891e-38
-0.00694374786941 -0.0416624872164 0.938 1.53768249983e-38
-0.00520781090205 -0.0416624872164 0.938 1.51924211269e-38
-0.0034718739347 -0.0416624872164 0.938 1.51909889999e-38
-0.00173593696735 -0.0416624872164 0.938 1.5652337092e-38
0.0 -0.0416624872164 0.938 1.52849852983e-38
0.00173593696735 -0.0416624872164 0.938 1.62054968582e-38
0.0034718739347 -0.0416624872164 0.938 1.43615982739e-38
0.00520781090205 -0.0416624872164 0.938 9.27538511196e-39
0.00694374786941 -0.0416624872164 0.938 1.08365885466e-38
0.00867968483676 -0.0416624872164 0.938 1.03774110659e-38
0.0104156218041 -0.0416624872164 0.938 1.06529175543e-38
0.0121515587715 -0.0416624872164 0.938 1.21287426762e-38
0.0138874957388 -0.0416624872164 0.938 1.27769721354e-38
0.0156567449294 -0.0417513198118 0.94 1.3418395488e-38
0.0173963832549 -0.0417513198118 0.94 1.27780651482e-38
0.0191360215804 -0.0417513198118 0.94 9.9200272471e-39
0.0210089087989 -0.0420178175978 0.946 1.36099543893e-38
0.0227596511988 -0.0420178175978 0.946 1.26862128365e-38
0.0245103935987 -0.0420178175978 0.946 1.45304687518e-38
0.0262611359986 -0.0420178175978 0.946 1.26776032587e-38
0.0280711001288 -0.0421066501932 0.948 2.34806839564e-38
0.0298255438868 -0.0421066501932 0.948 2.33020141984e-38
-0.034108015254 -0.0412886500444 0.97 2.19172902923e-38
-0.0322129198867 -0.0411609531886 0.967 2.19179937441e-38
-0.0304233132263 -0.0411609531886 0.967 2.19183608843e-38
-0.028633706566 -0.0411609531886 0.967 2.34885690629e-38
-0.0265387378591 -0.0406927313839 0.956 1.05840437348e-38
-0.0247176696545 -0.0406076001467 0.954 9.28507088694e-39
-0.0229521218221 -0.0406076001467 0.954 7.44979589341e-39
-0.0211199495431 -0.0404799032909 0.951 7.26827729554e-39
-0.0192988813385 -0.0403522064351 0.948 7.35867786207e-39
-0.0175444375805 -0.0403522064351 0.948 9.01028186328e-39
-0.0157566815992 -0.0402670751979 0.946 7.90287492328e-39
-0.0139615229016 -0.0401393783421 0.943 1.45466537491e-38
-0.0121774682784 -0.0400116814863 0.94 1.45473754178e-38
-0.0104378299529 -0.0400116814863 0.94 1.39020326334e-38
-0.00867968483676 -0.0399265502491 0.938 1.47314555893e-38
-0.00694374786941 -0.0399265502491 0.938 1.46406822774e-38
-0.00520781090205 -0.0399265502491 0.938 1.50998695672e-38
-0.0034718739347 -0.0399265502491 0.938 1.52824657636e-38
