# .PCD v0.7 - Point Cloud Data file format
VERSION 0.7
FIELDS x y z rgb
SIZE 4 4 4 4
TYPE F F F F
COUNT 1 1 1 1
WIDTH 848
HEIGHT 1
VIEWPOINT 0 0 0 1 0 0 0
POINTS 848
DATA ascii
0.0149571882411 -0.117995596124 0.898 8.81620763117e-39
0.0166190980456 -0.117995596124 0.898 8.81620763117e-39
0.0182810078502 -0.117995596124 0.898 8.90804312733e-39
0.0200095421013 -0.118389790766 0.901 7.62234618111e-39
0.0217251215989 -0.118652587194 0.903 9.09171411964e-39
0.0233962847988 -0.118652587194 0.903 1.83198824798e-38
0.0250674479987 -0.118652587194 0.903 1.61147627826e-38
0.026827443794 -0.119046781836 0.906 1.37115597384e-38
0.0285041590311 -0.119046781836 0.906 1.50951555992e-38
0.0302474987147 -0.119309578264 0.908 1.5369644745e-38
0.03192791531 -0.119309578264 0.908 9.64272709659e-39
0.033682359068 -0.119572374691 0.91 2.31849987701e-38
-0.0253450498591 -0.118276899343 0.913 1.87742605134e-38
-0.0236553798685 -0.118276899343 0.913 1.9237395261e-38
-0.0219657098779 -0.118276899343 0.913 1.99796770706e-38
-0.0202760398873 -0.118276899343 0.913 5.78563625795e-39
-0.0185252974874 -0.117888256738 0.91 6.3366492349e-39
-0.016841179534 -0.117888256738 0.91 6.97949770801e-39
-0.0151237493574 -0.117629161668 0.908 7.07133320417e-39
-0.0134433327621 -0.117629161668 0.908 7.07133320417e-39
-0.0117370066599 -0.117370066599 0.906 7.25500419648e-39
-0.0100602914227 -0.117370066599 0.906 7.25500419648e-39
-0.00835581599956 -0.116981423994 0.903 7.34683969264e-39
-0.00668465279965 -0.116981423994 0.903 7.71418167727e-39
-0.00501348959974 -0.116981423994 0.903 7.71418167727e-39
-0.00333492368355 -0.116722328924 0.901 7.62234618111e-39
-0.00166746184177 -0.116722328924 0.901 8.26519465422e-39
0.0 -0.11633368632 0.898 8.26519465422e-39
0.00166190980456 -0.11633368632 0.898 8.54070114269e-39
0.00332381960913 -0.11633368632 0.898 8.44886564654e-39
0.00498572941369 -0.11633368632 0.898 8.72437213501e-39
0.00664763921826 -0.11633368632 0.898 8.90804312733e-39
0.00830954902282 -0.11633368632 0.898 8.81620763117e-39
0.00997145882739 -0.11633368632 0.898 8.26519465422e-39
0.011633368632 -0.11633368632 0.898 8.54070114269e-39
0.0132952784365 -0.11633368632 0.898 8.72437213501e-39
0.0149571882411 -0.11633368632 0.898 8.99987862348e-39
0.0166746184177 -0.116722328924 0.901 8.99987862348e-39
0.0183420802595 -0.116722328924 0.901 7.16316870032e-39
0.020053958399 -0.116981423994 0.903 1.49043085575e-38
0.0217251215989 -0.116981423994 0.903 1.76806619685e-38
0.0234740133197 -0.117370066599 0.906 1.62058471828e-38
0.0251507285568 -0.117370066599 0.906 1.38984326977e-38
0.026827443794 -0.117370066599 0.906 1.64799103339e-38
0.0285670821194 -0.117629161668 0.908 1.56537622125e-38
0.0302474987147 -0.117629161668 0.908 1.68512137892e-38
0.03192791531 -0.117629161668 0.908 7.16316870032e-39
0.033682359068 -0.117888256738 0.91 2.2361706495e-38
-0.0236553798685 -0.116587229352 0.913 1.95154366984e-38
-0.0219657098779 -0.116587229352 0.913 2.02565792523e-38
-0.0202760398873 -0.116587229352 0.913 6.06114274643e-39
-0.0185863698967 -0.116587229352 0.913 6.3366492349e-39
-0.016841179534 -0.116204138785 0.91 6.97949770801e-39
-0.0151237493574 -0.115948745073 0.908 7.07133320417e-39
-0.0134433327621 -0.115948745073 0.908 6.97949770801e-39
-0.0117370066599 -0.115693351361 0.906 6.61215572338e-39
-0.0100602914227 -0.115693351361 0.906 9.93406405381e-39
-0.00838357618561 -0.115693351361 0.906 7.4386751888e-39
-0.00668465279965 -0.115310260794 0.903 6.88766221185e-39
-0.00501348959974 -0.115310260794 0.903 6.88766221185e-39
-0.00334232639983 -0.115310260794 0.903 6.97949770801e-39
-0.00166746184177 -0.115054867082 0.901 7.80601717343e-39
0.0 -0.115054867082 0.901 8.26519465422e-39
0.00166190980456 -0.114671776515 0.898 8.26519465422e-39
0.00332381960913 -0.114671776515 0.898 8.26519465422e-39
0.00498572941369 -0.114671776515 0.898 8.35703015038e-39
0.00664763921826 -0.114671776515 0.898 8.90804312733e-39
0.00830954902282 -0.114671776515 0.898 8.35703015038e-39
0.00997145882739 -0.114671776515 0.898 8.63253663885e-39
0.011633368632 -0.114671776515 0.898 8.81620763117e-39
0.0132952784365 -0.114671776515 0.898 8.81620763117e-39
0.015007156576 -0.115054867082 0.901 8.35703015038e-39
0.0166746184177 -0.115054867082 0.901 7.16316870032e-39
0.018382795199 -0.115310260794 0.903 1.68454362357e-38
0.020053958399 -0.115310260794 0.903 1.5564460264e-38
0.0217972980826 -0.115693351361 0.906 1.29761302783e-38
0.0234740133197 -0.115693351361 0.906 1.49075875959e-38
0.0251507285568 -0.115693351361 0.906 1.59242324343e-38
0.0268866655242 -0.115948745073 0.908 1.63895153725e-38
0.0285670821194 -0.115948745073 0.908 1.4822556805e-38
0.0302474987147 -0.115948745073 0.908 1.55590708701e-38
0.0319982411146 -0.116204138785 0.91 7.71812773375e-39
0.0337933998122 -0.116587229352 0.913 2.1634141122e-38
-0.0273900502311 -0.116407713482 0.925 1.85923831831e-38
-0.0256781720917 -0.116407713482 0.925 1.87774891051e-38
-0.0239144749383 -0.116156021129 0.923 2.03437232012e-38
-0.0221341216733 -0.115778482599 0.92 1.92409979994e-38
-0.0203870806315 -0.115526790245 0.918 6.70399121953e-39
-0.0185863698967 -0.114897559361 0.913 6.79582671569e-39
-0.016841179534 -0.114520020831 0.91 6.97949770801e-39
-0.0151570615806 -0.114520020831 0.91 7.16316870032e-39
-0.0134433327621 -0.114268328478 0.908 7.25500419648e-39
-0.0117370066599 -0.114016636124 0.906 5.6938007618e-39
-0.0100602914227 -0.114016636124 0.906 1.49183733901e-38
-0.00838357618561 -0.114016636124 0.906 1.34435880317e-38
-0.00668465279965 -0.113639097594 0.903 1.32591995746e-38
-0.00501348959974 -0.113639097594 0.903 1.15049644739e-38
-0.00334232639983 -0.113639097594 0.903 8.54751705842e-39
-0.00167116319991 -0.113639097594 0.903 8.63253663885e-39
0.0 -0.113387405241 0.901 7.71418167727e-39
0.00166746184177 -0.113387405241 0.901 7.34683969264e-39
0.00332381960913 -0.11300986671 0.898 7.89785266959e-39
0.00498572941369 -0.11300986671 0.898 7.71418167727e-39
0.00664763921826 -0.11300986671 0.898 7.71418167727e-39
0.00830954902282 -0.11300986671 0.898 6.88766221185e-39
0.00997145882739 -0.11300986671 0.898 6.97949770801e-39
0.011633368632 -0.11300986671 0.898 7.53051068496e-39
0.0132952784365 -0.11300986671 0.898 7.71418167727e-39
0.015007156576 -0.113387405241 0.901 9.1835496158e-39
0.0167116319991 -0.113639097594 0.903 1.75823524734e-38
0.018382795199 -0.113639097594 0.903 1.56530559581e-38
0.0201205828455 -0.114016636124 0.906 1.11307687385e-38
0.0217972980826 -0.114016636124 0.906 1.48132661962e-38
0.0234740133197 -0.114016636124 0.906 1.50001209387e-38
0.0252062489289 -0.114268328478 0.908 1.63848434434e-38
0.0268866655242 -0.114268328478 0.908 1.74929678483e-38
0.0286300052078 -0.114520020831 0.91 1.32515807149e-38
0.0303141231612 -0.114520020831 0.91 1.379939733e-38
0.0319982411146 -0.114520020831 0.91 1.05700503683e-38
0.0337933998122 -0.114897559361 0.913 2.11767979409e-38
-0.0273900502311 -0.114695835343 0.925 1.89608335948e-38
-0.0256226517196 -0.114447844348 0.923 1.90540717907e-38
-0.0239144749383 -0.114447844348 0.923 1.93306544764e-38
-0.0221341216733 -0.114075857855 0.92 1.85041784513e-38
-0.0203870806315 -0.113827866859 0.918 6.3366492349e-39
-0.0185863698967 -0.113207889371 0.913 6.79582671569e-39
-0.016841179534 -0.112835902878 0.91 6.97949770801e-39
-0.0151570615806 -0.112835902878 0.91 7.07133320417e-39
-0.0134433327621 -0.112587911883 0.908 7.07133320417e-39
-0.0117370066599 -0.112339920887 0.906 5.60196526564e-39
-0.0100602914227 -0.112339920887 0.906 1.37201973421e-38
-0.00838357618561 -0.112339920887 0.906 1.18759063943e-38
-0.00670686094849 -0.112339920887 0.906 1.25202066126e-38
-0.00501348959974 -0.111967934394 0.903 1.34407167712e-38
-0.00334232639983 -0.111967934394 0.903 1.39949891684e-38
-0.00167116319991 -0.111967934394 0.903 1.46396285009e-38
0.0 -0.111967934394 0.903 1.49176419123e-38
0.00166746184177 -0.111719943399 0.901 1.48229281491e-38
0.00333492368355 -0.111719943399 0.901 1.500695367e-38
0.00500238552532 -0.111719943399 0.901 1.46403291501e-38
0.00666984736709 -0.111719943399 0.901 1.45481335203e-38
0.00833730920887 -0.111719943399 0.901 1.47328849137e-38
0.0100047710506 -0.111719943399 0.901 1.49172761734e-38
0.0116722328924 -0.111719943399 0.901 1.49176419123e-38
0.0133396947342 -0.111719943399 0.901 1.57474081863e-38
0.0150404687992 -0.111967934394 0.903 1.59300015801e-38
0.0167116319991 -0.111967934394 0.903 1.49144203272e-38
0.018382795199 -0.111967934394 0.903 1.09456922438e-38
0.0201205828455 -0.112339920887 0.906 1.54593320506e-38
0.0218454157384 -0.112587911883 0.908 1.35217664731e-38
0.0235258323337 -0.112587911883 0.908 1.37075982676e-38
0.0252062489289 -0.112587911883 0.908 1.50851040853e-38
0.0268866655242 -0.112587911883 0.908 1.30474563702e-38
0.0286300052078 -0.112835902878 0.91 1.36935698687e-38
0.0303141231612 -0.112835902878 0.91 1.4344311856e-38
0.0319982411146 -0.112835902878 0.91 1.19486926391e-38
0.033682359068 -0.112835902878 0.91 2.04374154179e-38
-0.0273900502311 -0.112983957203 0.925 1.7759047802e-38
-0.0256226517196 -0.112739667566 0.923 1.76657773762e-38
-0.0239144749383 -0.112739667566 0.923 1.87742605134e-38
-0.0221341216733 -0.11237323311 0.92 1.85949251385e-38
-0.0203870806315 -0.112128943473 0.918 6.24481373874e-39
-0.0186270848362 -0.111762509017 0.915 6.88766221185e-39
-0.016841179534 -0.111151784924 0.91 7.07133320417e-39
-0.0151570615806 -0.111151784924 0.91 6.97949770801e-39
-0.0134433327621 -0.110907495287 0.908 7.07133320417e-39
-0.0117629161668 -0.110907495287 0.908 5.60196526564e-39
-0.0100602914227 -0.11066320565 0.906 1.41804524214e-38
-0.00838357618561 -0.11066320565 0.906 1.21510373347e-38
-0.00670686094849 -0.11066320565 0.906 1.27035244777e-38
-0.00503014571137 -0.11066320565 0.906 1.31641298816e-38
-0.00335343047424 -0.11066320565 0.906 1.28882534503e-38
-0.00167671523712 -0.11066320565 0.906 1.34406943504e-38
0.0 -0.110296771194 0.903 1.38102055451e-38
0.00167116319991 -0.110296771194 0.903 1.39013319842e-38
0.00334232639983 -0.110296771194 0.903 1.39020508503e-38
0.00501348959974 -0.110296771194 0.903 1.40867952373e-38
0.00668465279965 -0.110296771194 0.903 1.4363026197e-38
0.00833730920887 -0.110052481557 0.901 1.39042004422e-38
0.0100047710506 -0.110052481557 0.901 1.39942436776e-38
0.0116722328924 -0.110052481557 0.901 1.3810946832e-38
0.0133396947342 -0.110052481557 0.901 1.43641206111e-38
0.0150404687992 -0.110296771194 0.903 1.50073362244e-38
0.0167116319991 -0.110296771194 0.903 1.42723019306e-38
0.018382795199 -0.110296771194 0.903 1.41735776512e-38
0.0201205828455 -0.11066320565 0.906 1.42611013519e-38
0.0218454157384 -0.110907495287 0.908 1.29639361791e-38
0.0235258323337 -0.110907495287 0.908 1.47216689208e-38
0.025261769301 -0.111151784924 0.91 1.20354736517e-38
0.0269458872544 -0.111151784924 0.91 1.42423954187e-38
0.0286300052078 -0.111151784924 0.91 1.54595730739e-38
0.0303141231612 -0.111151784924 0.91 1.59238821097e-38
0.0319982411146 -0.111151784924 0.91 1.36146781665e-38
0.033682359068 -0.111151784924 0.91 2.08998102799e-38
-0.0273900502311 -0.111272079064 0.925 1.88668134744e-38
-0.0256781720917 -0.111272079064 0.925 1.88678896716e-38
-0.0239144749383 -0.111031490785 0.923 1.8128542181e-38
-0.022206298157 -0.111031490785 0.923 1.78566384309e-38
-0.0204981213757 -0.111031490785 0.923 6.88766221185e-39
-0.0186881572455 -0.110430020087 0.918 6.52032022722e-39
-0.0169337134875 -0.110069137669 0.915 7.07133320417e-39
-0.0152070299155 -0.10982854939 0.913 6.97949770801e-39
-0.0134729436272 -0.109467666971 0.91 7.16316870032e-39
-0.0117629161668 -0.109227078692 0.908 6.24481373874e-39
-0.0100824995716 -0.109227078692 0.908 1.38116670994e-38
-0.00840208297631 -0.109227078692 0.908 1.2426899753e-38
-0.00670686094849 -0.108986490413 0.906 1.25180388039e-38
-0.00503014571137 -0.108986490413 0.906 1.28882688646e-38
-0.00335343047424 -0.108986490413 0.906 1.28896911826e-38
-0.00167671523712 -0.108986490413 0.906 1.30737349203e-38
0.0 -0.108986490413 0.906 1.37176764062e-38
0.00167671523712 -0.108986490413 0.906 1.37176764062e-38
0.00335343047424 -0.108986490413 0.906 1.3809496488e-38
0.00501348959974 -0.108625607994 0.903 1.40853631102e-38
0.00668465279965 -0.108625607994 0.903 1.41779328868e-38
0.00835581599956 -0.108625607994 0.903 1.39023955697e-38
0.0100269791995 -0.108625607994 0.903 1.39938905504e-38
0.0116981423994 -0.108625607994 0.903 1.44559603112e-38
0.0133693055993 -0.108625607994 0.903 1.42708501854e-38
0.0150904371341 -0.108986490413 0.906 1.41793608099e-38
0.0167671523712 -0.108986490413 0.906 1.3903847315e-38
0.0184438676083 -0.108986490413 0.906 1.41714644931e-38
0.0201649991431 -0.109227078692 0.908 1.05611311036e-38
0.0218454157384 -0.109227078692 0.908 1.5067139439e-38
0.0235776513476 -0.109467666971 0.91 1.37043626695e-38
0.0253450498591 -0.10982854939 0.913 1.61075334838e-38
0.0270347198498 -0.10982854939 0.913 1.73100269324e-38
0.0287243898404 -0.10982854939 0.913 1.62044122532e-38
0.030414059831 -0.10982854939 0.913 1.42664921471e-38
0.0321037298216 -0.10982854939 0.913 1.39855416141e-38
0.0337933998122 -0.10982854939 0.913 2.06249834212e-38
-0.0274788828265 -0.109915531306 0.928 2.03430071377e-38
-0.0256781720917 -0.109560200925 0.925 1.91448338923e-38
-0.0239662939522 -0.109560200925 0.925 1.97905508233e-38
-0.0222544158128 -0.109560200925 0.925 1.83186829684e-38
-0.0204981213757 -0.109323314004 0.923 6.70399121953e-39
-0.0187288721851 -0.108967983622 0.92 6.42848473106e-39
-0.0169892338596 -0.108731096701 0.918 7.16316870032e-39
-0.0152403421387 -0.10837576632 0.915 7.16316870032e-39
-0.0134729436272 -0.107783549018 0.91 6.97949770801e-39
-0.0117888256738 -0.107783549018 0.91 5.87747175411e-39
-0.0100824995716 -0.107546662097 0.908 1.33485239439e-38
-0.00840208297631 -0.107546662097 0.908 1.22421511622e-38
-0.00672166638105 -0.107546662097 0.908 1.3256694053e-38
-0.00504124978578 -0.107546662097 0.908 1.27038705984e-38
-0.00335343047424 -0.107309775176 0.906 1.28886318009e-38
-0.00167671523712 -0.107309775176 0.906 1.33499728865e-38
0.0 -0.107309775176 0.906 1.38091461634e-38
0.00167671523712 -0.107309775176 0.906 1.39013319842e-38
0.00335343047424 -0.107309775176 0.906 1.37173008582e-38
0.00503014571137 -0.107309775176 0.906 1.39013445959e-38
0.00668465279965 -0.106954444794 0.903 1.40857358556e-38
0.00835581599956 -0.106954444794 0.903 1.41772028103e-38
0.0100269791995 -0.106954444794 0.903 1.44545029608e-38
0.0117370066599 -0.107309775176 0.906 1.44545183751e-38
0.013413721897 -0.107309775176 0.906 1.44559673177e-38
0.0150904371341 -0.107309775176 0.906 1.4824730219e-38
0.0167671523712 -0.107309775176 0.906 1.04897349469e-38
0.0184845825479 -0.107546662097 0.908 1.11120950351e-38
0.0201649991431 -0.107546662097 0.908 1.21222854929e-38
0.0218935333942 -0.107783549018 0.91 1.21222854929e-38
0.0235776513476 -0.107783549018 0.91 1.86818210576e-38
0.0253450498591 -0.108138879399 0.913 1.64817208115e-38
0.0270347198498 -0.108138879399 0.913 1.6667566619e-38
0.0287873129287 -0.10837576632 0.915 1.53753620427e-38
0.0304806842775 -0.10837576632 0.915 1.40806757669e-38
0.0321740556262 -0.10837576632 0.915 1.52773370113e-38
0.033867426975 -0.10837576632 0.915 2.09923422214e-38
-0.0274788828265 -0.108198101129 0.928 2.03423036859e-38
-0.0256781720917 -0.107848322785 0.925 1.97909081545e-38
-0.0239662939522 -0.107848322785 0.925 2.10816427686e-38
-0.0222544158128 -0.107848322785 0.925 1.7673354197e-38
-0.0205425376733 -0.107848322785 0.925 6.70399121953e-39
-0.0187899445944 -0.107615137222 0.923 6.88766221185e-39
-0.017026247441 -0.107265358878 0.92 7.07133320417e-39
-0.0152403421387 -0.106682394971 0.915 9.55340412858e-39
-0.0135173599249 -0.106449209408 0.913 7.25500419648e-39
-0.0117888256738 -0.106099431064 0.91 6.42848473106e-39
-0.0101047077204 -0.106099431064 0.91 1.39031466657e-38
-0.00840208297631 -0.105866245501 0.908 1.2334013283e-38
-0.00672166638105 -0.105866245501 0.908 1.27053223436e-38
-0.00504124978578 -0.105866245501 0.908 1.29811861632e-38
-0.00336083319052 -0.105866245501 0.908 1.32566968556e-38
-0.00167671523712 -0.105633059939 0.906 1.34407335868e-38
0.0 -0.105633059939 0.906 1.39006383415e-38
0.00167671523712 -0.105633059939 0.906 1.38087776219e-38
0.00335343047424 -0.105633059939 0.906 1.41782593893e-38
0.00503014571137 -0.105633059939 0.906 1.37180449477e-38
0.00670686094849 -0.105633059939 0.906 1.46392599594e-38
0.00838357618561 -0.105633059939 0.906 1.40857400595e-38
0.0100602914227 -0.105633059939 0.906 1.45474174568e-38
0.0117370066599 -0.105633059939 0.906 1.47325289839e-38
0.013413721897 -0.105633059939 0.906 1.41793580073e-38
0.0150904371341 -0.105633059939 0.906 1.53753830622e-38
0.0167671523712 -0.105633059939 0.906 1.52853328203e-38
0.0184845825479 -0.105866245501 0.908 9.64523822344e-39
0.0201649991431 -0.105866245501 0.908 1.18467790044e-38
0.0218935333942 -0.106099431064 0.91 1.24896274775e-38
0.0236553798685 -0.106449209408 0.913 1.92152141077e-38
0.0254005702312 -0.106682394971 0.915 1.64791942703e-38
0.02709394158 -0.106682394971 0.915 1.66635981418e-38
0.0287873129287 -0.106682394971 0.915 1.27906039668e-38
0.0304806842775 -0.106682394971 0.915 1.64744803023e-38
0.0321740556262 -0.106682394971 0.915 1.500290672e-38
0.033867426975 -0.106682394971 0.915 2.03484399719e-38
-0.0274788828265 -0.106480670953 0.928 1.90508431991e-38
-0.0257614526498 -0.106480670953 0.928 1.87742605134e-38
-0.0239662939522 -0.106136444646 0.925 2.05248998823e-38
-0.0222544158128 -0.106136444646 0.925 1.71208866722e-38
-0.0205425376733 -0.106136444646 0.925 6.15297824259e-39
-0.0187899445944 -0.105906960441 0.923 6.79582671569e-39
-0.017026247441 -0.105562734134 0.92 7.07133320417e-39
-0.0152903104736 -0.105333249929 0.918 7.25500419648e-39
-0.0135173599249 -0.104759539418 0.913 7.25500419648e-39
-0.0118276899343 -0.104759539418 0.913 6.97985644041e-39
-0.0101047077204 -0.104415313111 0.91 1.31673738875e-38
-0.008420589767 -0.104415313111 0.91 1.2610958905e-38
-0.00672166638105 -0.104185828906 0.908 1.26116749685e-38
-0.00504124978578 -0.104185828906 0.908 1.30719342517e-38
-0.00336083319052 -0.104185828906 0.908 1.33485239439e-38
-0.00168041659526 -0.104185828906 0.908 1.34410895166e-38
0.0 -0.104185828906 0.908 1.34414426438e-38
0.00168041659526 -0.104185828906 0.908 1.36254807763e-38
0.00336083319052 -0.104185828906 0.908 1.41768524857e-38
0.00503014571137 -0.103956344702 0.906 1.36261870307e-38
0.00670686094849 -0.103956344702 0.906 1.39964142889e-38
0.00838357618561 -0.103956344702 0.906 1.37187512021e-38
0.0100602914227 -0.103956344702 0.906 1.48243588749e-38
0.0117370066599 -0.103956344702 0.906 1.16940598925e-38
0.013413721897 -0.103956344702 0.906 1.15081468227e-38
0.0150904371341 -0.103956344702 0.906 1.49143222363e-38
0.0168041659526 -0.104185828906 0.908 1.04043622392e-38
0.0184845825479 -0.104185828906 0.908 1.56562607277e-38
0.0202094154408 -0.104415313111 0.91 1.39877766852e-38
0.0218935333942 -0.104415313111 0.91 1.22234480316e-38
0.0236553798685 -0.104759539418 0.913 1.30456627081e-38
0.0254005702312 -0.104989023622 0.915 1.39762145715e-38
0.02709394158 -0.104989023622 0.915 1.68435963308e-38
0.0287873129287 -0.104989023622 0.915 1.57397430837e-38
0.0304806842775 -0.104989023622 0.915 1.50958184134e-38
0.0321740556262 -0.104989023622 0.915 1.50947422162e-38
-0.0274788828265 -0.104763240776 0.928 1.84987610314e-38
-0.0257614526498 -0.104763240776 0.928 1.84069185288e-38
-0.0239662939522 -0.104424566506 0.925 2.08940299237e-38
-0.0222544158128 -0.104424566506 0.925 1.86904152211e-38
-0.0205425376733 -0.104424566506 0.925 6.3366492349e-39
-0.0188306595339 -0.104424566506 0.925 6.97949770801e-39
-0.0170817678131 -0.10419878366 0.923 7.16316870032e-39
-0.0152903104736 -0.103634326543 0.918 7.16316870032e-39
-0.01354697079 -0.103295652274 0.915 6.88766221185e-39
-0.0118276899343 -0.103069869427 0.913 6.61251445578e-39
-0.0101380199437 -0.103069869427 0.913 1.38109440294e-38
-0.008420589767 -0.102731195157 0.91 1.27946509168e-38
-0.0067364718136 -0.102731195157 0.91 1.28879157374e-38
-0.0050523538602 -0.102731195157 0.91 1.32570317659e-38
-0.0033682359068 -0.102731195157 0.91 1.32559751869e-38
-0.00168041659526 -0.102505412311 0.908 1.33503260138e-38
0.0 -0.102505412311 0.908 1.33503260138e-38
0.00168041659526 -0.102505412311 0.908 1.36269030943e-38
0.00336083319052 -0.102505412311 0.908 1.47318255321e-38
0.00504124978578 -0.102505412311 0.908 1.0585523506e-38
0.00672166638105 -0.102505412311 0.908 7.34827462227e-39
0.00838357618561 -0.102279629464 0.906 1.39995616053e-38
0.0100602914227 -0.102279629464 0.906 1.47350303017e-38
0.0117370066599 -0.102279629464 0.906 8.83704353803e-39
0.0134433327621 -0.102505412311 0.908 7.63167322369e-39
0.0151237493574 -0.102505412311 0.908 1.07580429651e-38
0.0168041659526 -0.102505412311 0.908 5.42798004831e-39
0.0185252974874 -0.102731195157 0.91 1.44580930875e-38
0.0202094154408 -0.102731195157 0.91 1.48203119249e-38
0.0218935333942 -0.102731195157 0.91 1.62964957792e-38
0.0236553798685 -0.103069869427 0.913 1.57436891402e-38
0.0254005702312 -0.103295652274 0.915 1.57415367457e-38
0.02709394158 -0.103295652274 0.915 1.70311797484e-38
0.0287873129287 -0.103295652274 0.915 1.63858201485e-38
0.0304806842775 -0.103295652274 0.915 1.23342963453e-38
0.0322795443332 -0.103634326543 0.918 1.46388143465e-38
-0.0274788828265 -0.103045810599 0.928 2.05277683402e-38
-0.0257614526498 -0.103045810599 0.928 2.23796669374e-38
-0.0239662939522 -0.102712688367 0.925 2.34885662603e-38
-0.0222544158128 -0.102712688367 0.925 1.8050125519e-38
-0.0205425376733 -0.102712688367 0.925 6.88766221185e-39
-0.0188306595339 -0.102712688367 0.925 6.88766221185e-39
-0.0170817678131 -0.102490606878 0.923 7.25500419648e-39
-0.0152903104736 -0.101935403157 0.918 7.16316870032e-39
-0.01354697079 -0.101602280925 0.915 6.61215572338e-39
-0.0118276899343 -0.101380199437 0.913 7.62450558205e-39
-0.0101380199437 -0.101380199437 0.913 1.3811294354e-38
-0.00844834995305 -0.101380199437 0.913 1.2611296618e-38
-0.0067364718136 -0.101047077204 0.91 1.27038776049e-38
-0.0050523538602 -0.101047077204 0.91 1.31641326842e-38
-0.0033682359068 -0.101047077204 0.91 1.34407335868e-38
-0.0016841179534 -0.101047077204 0.91 1.33503260138e-38
0.0 -0.100824995716 0.908 1.33503260138e-38
0.00168041659526 -0.100824995716 0.908 1.3811294354e-38
0.00336083319052 -0.100824995716 0.908 1.41793552047e-38
0.00504124978578 -0.100824995716 0.908 1.45495670486e-38
0.00672166638105 -0.100824995716 0.908 1.2336867728e-38
0.00840208297631 -0.100824995716 0.908 5.23821060507e-39
0.0100824995716 -0.100824995716 0.908 9.75179996516e-39
0.0117629161668 -0.100824995716 0.908 8.36420479851e-39
0.0134433327621 -0.100824995716 0.908 1.00219072506e-38
0.0151237493574 -0.100824995716 0.908 3.76525534248e-39
0.0168041659526 -0.100824995716 0.908 1.4737158874e-38
0.0185252974874 -0.101047077204 0.91 1.48228230518e-38
0.0202094154408 -0.101047077204 0.91 1.50032654524e-38
0.0218935333942 -0.101047077204 0.91 1.60174019666e-38
0.0236553798685 -0.101380199437 0.913 1.57440478726e-38
0.0254005702312 -0.101602280925 0.915 1.58351659039e-38
0.02709394158 -0.101602280925 0.915 1.71226565122e-38
0.0288816975613 -0.101935403157 0.918 1.21527777474e-38
0.0305806209472 -0.101935403157 0.918 6.71475319174e-39
0.0322795443332 -0.101935403157 0.918 1.61024958159e-38
-0.0274788828265 -0.101328380423 0.928 2.21063422707e-38
-0.0257614526498 -0.101328380423 0.928 2.17357646879e-38
-0.0239662939522 -0.101000810227 0.925 2.32101941165e-38
-0.0222544158128 -0.101000810227 0.925 1.67604376747e-38
-0.0205425376733 -0.101000810227 0.925 6.61215572338e-39
-0.0188306595339 -0.101000810227 0.925 6.97949770801e-39
-0.0170817678131 -0.100782430097 0.923 7.25500419648e-39
-0.0153236226969 -0.100454859902 0.92 7.07133320417e-39
-0.01354697079 -0.0999089095762 0.915 6.61215572338e-39
-0.0118535994412 -0.0999089095762 0.915 8.54573881067e-39
-0.0101602280925 -0.0999089095762 0.915 1.39960611617e-38
-0.00844834995305 -0.099690529446 0.913 1.25194639244e-38
-0.00675867996244 -0.099690529446 0.913 1.29804616919e-38
-0.00506900997183 -0.099690529446 0.913 1.29797162011e-38
-0.00337933998122 -0.099690529446 0.913 1.35314830766e-38
-0.0016841179534 -0.0993629592506 0.91 1.41790076827e-38
0.0 -0.0993629592506 0.91 1.33506917527e-38
0.0016841179534 -0.0993629592506 0.91 1.39963988746e-38
0.0033682359068 -0.0993629592506 0.91 1.2794252948e-38
0.00504124978578 -0.0991445791204 0.908 1.15906440659e-38
0.00672166638105 -0.0991445791204 0.908 1.63927747927e-38
0.00840208297631 -0.0991445791204 0.908 1.2337966346e-38
0.0100824995716 -0.0991445791204 0.908 1.19687508253e-38
0.0117629161668 -0.0991445791204 0.908 8.2748804292e-39
0.0134433327621 -0.0991445791204 0.908 4.5917748079e-39
0.0151237493574 -0.0991445791204 0.908 1.27067684836e-38
0.0168041659526 -0.0991445791204 0.908 1.4827486573e-38
0.0185252974874 -0.0993629592506 0.91 1.31676317265e-38
0.0202094154408 -0.0993629592506 0.91 1.12354989831e-38
0.0218935333942 -0.0993629592506 0.91 1.48253341786e-38
0.0236553798685 -0.099690529446 0.913 1.62975719764e-38
0.0254005702312 -0.0999089095762 0.915 1.39059030198e-38
0.0271827741753 -0.100236479772 0.918 9.66640343544e-39
0.0288816975613 -0.100236479772 0.918 6.52928853739e-39
0.0306472453938 -0.100454859902 0.92 1.39891793849e-38
0.0323498701378 -0.100454859902 0.92 1.53706116409e-38
-0.0240440224732 -0.099610950246 0.928 2.33013107465e-38
-0.0223265922965 -0.099610950246 0.928 1.56544460462e-38
-0.0206091621199 -0.099610950246 0.928 6.70399121953e-39
-0.0188306595339 -0.0992889320879 0.925 6.88766221185e-39
-0.0171187813945 -0.0992889320879 0.925 7.53051068496e-39
-0.0153236226969 -0.0987522351576 0.92 7.4386751888e-39
-0.0135913870877 -0.0985375563856 0.918 6.88766221185e-39
-0.0118535994412 -0.0982155382274 0.915 9.83467976283e-39
-0.0101602280925 -0.0982155382274 0.915 1.39960611617e-38
-0.00846685674374 -0.0982155382274 0.915 1.2612381223e-38
-0.00675867996244 -0.0980008594554 0.913 1.28882688646e-38
-0.00506900997183 -0.0980008594554 0.913 1.33488714659e-38
-0.00337933998122 -0.0980008594554 0.913 1.35318390064e-38
-0.00168966999061 -0.0980008594554 0.913 1.33485267465e-38
0.0 -0.0980008594554 0.913 1.48257839954e-38
0.0016841179534 -0.0976788412972 0.91 1.37216014432e-38
0.0033682359068 -0.0976788412972 0.91 1.17876217884e-38
0.0050523538602 -0.0976788412972 0.91 7.720997593e-39
0.0067364718136 -0.0976788412972 0.91 1.51823163637e-38
0.008420589767 -0.0976788412972 0.91 1.11336456042e-38
0.0101047077204 -0.0976788412972 0.91 8.63253663885e-39
0.0117629161668 -0.0974641625252 0.908 9.65420653361e-39
0.0134433327621 -0.0974641625252 0.908 5.32968736883e-39
0.0151570615806 -0.0976788412972 0.91 1.55683867023e-38
0.016841179534 -0.0976788412972 0.91 9.5752854041e-39
0.0185863698967 -0.0980008594554 0.913 4.68468650128e-39
0.0202760398873 -0.0980008594554 0.913 5.5162282204e-39
0.0219657098779 -0.0980008594554 0.913 1.4913997135e-38
0.0237071988825 -0.0982155382274 0.915 1.33459217327e-38
0.0254838507894 -0.0985375563856 0.918 5.33722074937e-39
0.0271827741753 -0.0985375563856 0.918 3.13890856009e-39
0.0288816975613 -0.0985375563856 0.918 1.51995032893e-38
0.0307471820635 -0.0990742533158 0.923 1.25129450839e-38
-0.0223265922965 -0.0978935200693 0.928 1.51920385724e-38
-0.0206091621199 -0.0978935200693 0.928 6.15297824259e-39
-0.0188306595339 -0.0975770539484 0.925 7.34683969264e-39
-0.0171187813945 -0.0975770539484 0.925 7.4386751888e-39
-0.0153735910318 -0.0973660765345 0.923 7.89785266959e-39
-0.0135913870877 -0.0968386329996 0.918 7.07133320417e-39
-0.0118924637017 -0.0968386329996 0.918 1.02034622823e-38
-0.0101602280925 -0.0965221668787 0.915 1.33503204086e-38
-0.00846685674374 -0.0965221668787 0.915 1.22428994556e-38
-0.006773485395 -0.0965221668787 0.915 1.35343221073e-38
-0.00508011404625 -0.0965221668787 0.915 1.29822399396e-38
-0.0033867426975 -0.0965221668787 0.915 1.32566912504e-38
-0.00169337134875 -0.0965221668787 0.915 1.39031172385e-38
0.0 -0.0965221668787 0.915 8.18808960752e-39
0.00168966999061 -0.0963111894648 0.913 7.91296287093e-39
0.00337933998122 -0.0963111894648 0.913 4.5917748079e-39
0.00506900997183 -0.0963111894648 0.913 9.56524089671e-39
0.00675867996244 -0.0963111894648 0.913 1.11282379934e-38
0.008420589767 -0.0959947233438 0.91 1.08512965753e-38
0.0101047077204 -0.0959947233438 0.91 1.11199871481e-38
0.0117888256738 -0.0959947233438 0.91 3.489748854e-39
0.0134729436272 -0.0959947233438 0.91 1.40896763069e-38
0.0151570615806 -0.0959947233438 0.91 1.52884577159e-38
0.0168966999061 -0.0963111894648 0.913 1.65303893084e-39
0.0185863698967 -0.0963111894648 0.913 1.44637739514e-38
0.0202760398873 -0.0963111894648 0.913 1.54696175813e-38
0.0220138275337 -0.0965221668787 0.915 1.178651196e-38
0.0237071988825 -0.0965221668787 0.915 1.51905784194e-38
0.0254838507894 -0.0968386329996 0.918 7.09070475414e-39
0.0271827741753 -0.0968386329996 0.918 4.70262312162e-39
0.0288816975613 -0.0968386329996 0.918 1.43718964163e-38
0.03081380651 -0.0975770539484 0.925 1.29706876351e-38
-0.02590025358 -0.0966942800322 0.933 2.21945722259e-38
-0.0240958414871 -0.0963833659485 0.93 2.34857020062e-38
-0.0223747099523 -0.0963833659485 0.93 1.51934721008e-38
-0.0206091621199 -0.0961760898927 0.928 5.87747175411e-39
-0.0188917319432 -0.0961760898927 0.928 7.34683969264e-39
-0.0171187813945 -0.095865175809 0.925 7.80601717343e-39
-0.0153735910318 -0.0956578997532 0.923 7.80601717343e-39
-0.0136209979528 -0.0953469856695 0.92 6.97949770801e-39
-0.0118924637017 -0.0951397096136 0.918 1.05729636678e-38
-0.0101935403157 -0.0951397096136 0.918 1.34428873825e-38
-0.00846685674374 -0.0948287955299 0.915 1.26109561024e-38
-0.006773485395 -0.0948287955299 0.915 1.31637767544e-38
-0.00508011404625 -0.0948287955299 0.915 1.34403706505e-38
-0.0033867426975 -0.0948287955299 0.915 1.33481876323e-38
-0.00169337134875 -0.0948287955299 0.915 1.39949625437e-38
0.0 -0.0948287955299 0.915 1.27982368396e-38
0.00169337134875 -0.0948287955299 0.915 6.80049023698e-39
0.0033867426975 -0.0948287955299 0.915 8.08439352116e-39
0.00506900997183 -0.0946215194741 0.913 7.98968816575e-39
0.00675867996244 -0.0946215194741 0.913 1.14005158902e-38
0.00844834995305 -0.0946215194741 0.913 1.00183199266e-38
0.0101380199437 -0.0946215194741 0.913 7.98968816575e-39
0.0117888256738 -0.0943106053904 0.91 4.68863255775e-39
0.0134729436272 -0.0943106053904 0.91 1.62144175242e-38
0.0152070299155 -0.0946215194741 0.913 1.09542527761e-38
0.0168966999061 -0.0946215194741 0.913 5.24036299952e-39
0.0185863698967 -0.0946215194741 0.913 1.51069573349e-38
0.020320456185 -0.0948287955299 0.915 1.61117485896e-38
0.0220138275337 -0.0948287955299 0.915 1.12311941942e-38
0.0237849274034 -0.0951397096136 0.918 1.69419226414e-38
0.0255393711615 -0.0953469856695 0.92 4.60146058288e-39
0.0272419959056 -0.0953469856695 0.92 3.60203209735e-39
0.0291019283706 -0.095865175809 0.925 1.46481231722e-38
-0.024173570008 -0.0949675964602 0.933 2.33023673256e-38
-0.022446886436 -0.0949675964602 0.933 1.66696741719e-38
-0.0206091621199 -0.094458659716 0.928 6.24481373874e-39
-0.0188917319432 -0.094458659716 0.928 6.97949770801e-39
-0.0171743017665 -0.094458659716 0.928 7.4386751888e-39
-0.015406903255 -0.0941532976695 0.925 7.53051068496e-39
-0.0136654142505 -0.0939497229719 0.923 7.16316870032e-39
-0.0119183732087 -0.0936443609254 0.92 1.13116077066e-38
-0.0101935403157 -0.0934407862277 0.918 1.35354529552e-38
-0.00849461692979 -0.0934407862277 0.918 1.24276592568e-38
-0.006773485395 -0.0931354241812 0.915 1.32566604218e-38
-0.00508011404625 -0.0931354241812 0.915 1.32552591233e-38
-0.0033867426975 -0.0931354241812 0.915 1.35332851464e-38
-0.00169337134875 -0.0931354241812 0.915 1.34417901658e-38
0.0 -0.0931354241812 0.915 1.43630233944e-38
0.00169337134875 -0.0931354241812 0.915 1.60236167253e-38
0.0033867426975 -0.0931354241812 0.915 9.57029818286e-39
0.00508011404625 -0.0931354241812 0.915 8.26519465422e-39
0.006773485395 -0.0931354241812 0.915 8.63684142773e-39
0.00844834995305 -0.0929318494835 0.913 1.0207371905e-38
0.0101380199437 -0.0929318494835 0.913 3.21424236553e-39
0.0118276899343 -0.0929318494835 0.913 1.28911387239e-38
0.0135173599249 -0.0929318494835 0.913 1.52895717481e-38
0.0152070299155 -0.0929318494835 0.913 9.85043316017e-39
0.0169337134875 -0.0931354241812 0.915 1.83670992316e-39
0.0186270848362 -0.0931354241812 0.915 1.48321683112e-38
0.020320456185 -0.0931354241812 0.915 1.26166187495e-38
0.0220138275337 -0.0931354241812 0.915 1.09581988326e-38
0.0237849274034 -0.0934407862277 0.918 9.19754017967e-39
0.0255393711615 -0.0936443609254 0.92 6.99851052557e-39
0.0272419959056 -0.0936443609254 0.92 1.31758895783e-38
0.0291019283706 -0.0941532976695 0.925 1.08652871392e-38
-0.024173570008 -0.0932409128882 0.933 2.34863998529e-38
-0.022446886436 -0.0932409128882 0.933 1.5654801976e-38
-0.0206091621199 -0.0927412295394 0.928 6.06114274643e-39
-0.0188917319432 -0.0927412295394 0.928 7.34683969264e-39
-0.0171743017665 -0.0927412295394 0.928 8.0815236619e-39
-0.015406903255 -0.0924414195301 0.925 7.4386751888e-39
-0.0136950251156 -0.0924414195301 0.925 6.88766221185e-39
-0.0119572374691 -0.0922415461905 0.923 1.16800342962e-38
-0.0102490606878 -0.0922415461905 0.923 1.33506889501e-38
-0.00851312372049 -0.0919417361813 0.92 1.27038705984e-38
-0.00679569354383 -0.0917418628417 0.918 1.28886318009e-38
-0.00508011404625 -0.0914420528324 0.915 1.32559877985e-38
-0.0033867426975 -0.0914420528324 0.915 1.3533287949e-38
-0.00169337134875 -0.0914420528324 0.915 1.33492666321e-38
0.0 -0.0914420528324 0.915 1.54679416284e-38
0.00169337134875 -0.0914420528324 0.915 1.18773749551e-38
0.0033867426975 -0.0914420528324 0.915 5.51012976948e-39
0.00508011404625 -0.0914420528324 0.915 9.0949469152e-39
0.006773485395 -0.0914420528324 0.915 6.06329514087e-39
0.00846685674374 -0.0914420528324 0.915 8.18232746823e-39
0.0101602280925 -0.0914420528324 0.915 1.56120343469e-39
0.0118535994412 -0.0914420528324 0.915 1.53839870348e-38
0.01354697079 -0.0914420528324 0.915 1.47306288232e-38
0.0152403421387 -0.0914420528324 0.915 1.537849955e-38
0.0169337134875 -0.0914420528324 0.915 1.1020259539e-39
0.0186270848362 -0.0914420528324 0.915 1.84101471204e-39
0.0203870806315 -0.0917418628417 0.918 6.80874108234e-39
0.0220860040175 -0.0917418628417 0.918 1.62114874091e-38
0.0238367464174 -0.0919417361813 0.92 1.22464069056e-38
0.0255393711615 -0.0919417361813 0.92 1.55686277256e-38
0.0273308285009 -0.0922415461905 0.923 1.73124259554e-38
0.0291019283706 -0.0924414195301 0.925 1.12326291238e-38
0.03081380651 -0.0924414195301 0.925 8.26878197829e-40
-0.0259557739521 -0.0917104012975 0.935 2.24707989818e-38
-0.024225389022 -0.0917104012975 0.935 2.33016456569e-38
-0.0224950040919 -0.0917104012975 0.935 1.53782122838e-38
-0.0206535784175 -0.0912199713441 0.93 6.24481373874e-39
-0.0188917319432 -0.0910237993627 0.928 7.71418167727e-39
-0.0171743017665 -0.0910237993627 0.928 7.53051068496e-39
-0.0154568715899 -0.0910237993627 0.928 7.4386751888e-39
-0.0136950251156 -0.0907295413906 0.925 7.16316870032e-39
-0.0119831469761 -0.0907295413906 0.925 1.16778692901e-38
-0.0102490606878 -0.0905333694092 0.923 1.34428873825e-38
-0.00854088390653 -0.0905333694092 0.923 1.27953473622e-38
-0.00679569354383 -0.0900429394558 0.918 1.30733789905e-38
-0.00509677015787 -0.0900429394558 0.918 1.30730258632e-38
-0.0033867426975 -0.0897486814837 0.915 1.34410895166e-38
-0.00169337134875 -0.0897486814837 0.915 1.40868120528e-38
0.0 -0.0897486814837 0.915 1.03978882403e-38
0.00169337134875 -0.0897486814837 0.915 4.77544580022e-39
0.0033867426975 -0.0897486814837 0.915 1.057617124e-38
0.00508011404625 -0.0897486814837 0.915 1.29778622832e-38
0.006773485395 -0.0897486814837 0.915 4.68361030406e-39
0.00846685674374 -0.0897486814837 0.915 6.0701110566e-39
0.0101602280925 -0.0897486814837 0.915 5.6209836884e-39
0.0118535994412 -0.0897486814837 0.915 1.40939544711e-38
0.01354697079 -0.0897486814837 0.915 1.45448054364e-38
0.0152403421387 -0.0897486814837 0.915 1.5744406605e-38
0.0169337134875 -0.0897486814837 0.915 1.2892125238e-38
0.0186881572455 -0.0900429394558 0.918 1.08703093929e-38
0.0203870806315 -0.0900429394558 0.918 1.51955460225e-38
0.0220860040175 -0.0900429394558 0.918 1.5744406605e-38
0.0238367464174 -0.0902391114372 0.92 1.55596594155e-38
0.0256226517196 -0.0905333694092 0.923 1.54714112434e-38
0.0273308285009 -0.0905333694092 0.923 1.34424207501e-38
0.0291019283706 -0.0907295413906 0.925 9.2047148278e-39
0.03081380651 -0.0907295413906 0.925 1.92998034895e-39
-0.0259557739521 -0.0899800163674 0.935 2.19187112089e-38
-0.024173570008 -0.0897875457442 0.933 2.34878473942e-38
-0.022446886436 -0.0897875457442 0.933 1.44559042593e-38
-0.020720202864 -0.0897875457442 0.933 6.70399121953e-39
-0.0189324468827 -0.0894988398093 0.93 7.71418167727e-39
-0.0172113153479 -0.0894988398093 0.93 7.34683969264e-39
-0.0154568715899 -0.089306369186 0.928 7.80601717343e-39
-0.0137394414132 -0.089306369186 0.928 7.16316870032e-39
-0.0119831469761 -0.0890176632512 0.925 1.36121796513e-38
-0.0102712688367 -0.0890176632512 0.925 1.37183952723e-38
-0.00854088390653 -0.0888251926279 0.923 1.24276466451e-38
-0.00679569354383 -0.0883440160698 0.918 1.27063789227e-38
-0.00509677015787 -0.0883440160698 0.918 1.29818742007e-38
-0.00339784677192 -0.0883440160698 0.918 1.39942562893e-38
-0.00169892338596 -0.0883440160698 0.918 1.37173008582e-38
0.0 -0.0883440160698 0.918 1.42704606244e-38
0.00169337134875 -0.0880553101349 0.915 1.45484894501e-38
0.0033867426975 -0.0880553101349 0.915 1.53797116732e-38
0.00508011404625 -0.0880553101349 0.915 1.54711912395e-38
0.006773485395 -0.0880553101349 0.915 3.58158435016e-39
0.00846685674374 -0.0880553101349 0.915 1.28820807306e-39
0.0101602280925 -0.0880553101349 0.915 1.26199468334e-38
0.0118535994412 -0.0880553101349 0.915 1.45476752957e-38
0.01354697079 -0.0880553101349 0.915 1.48224643193e-38
0.0152403421387 -0.0880553101349 0.915 8.37245564387e-39
0.0169892338596 -0.0883440160698 0.918 5.51730441762e-39
0.0186881572455 -0.0883440160698 0.918 1.61125347181e-38
0.0203870806315 -0.0883440160698 0.918 1.43679503598e-38
0.0220860040175 -0.0883440160698 0.918 1.32623370819e-38
0.0238367464174 -0.0885364866931 0.92 8.47038959095e-39
0.0256226517196 -0.0888251926279 0.923 1.12376513775e-38
0.0273308285009 -0.0888251926279 0.923 1.16971875907e-38
0.0291019283706 -0.0890176632512 0.925 9.02498989196e-39
-0.0259557739521 -0.0882496314373 0.935 2.20105565142e-38
-0.024173570008 -0.0880608621722 0.933 2.34878684137e-38
-0.022446886436 -0.0880608621722 0.933 1.32577170008e-38
-0.020720202864 -0.0880608621722 0.933 5.96930725027e-39
-0.0189324468827 -0.0877777082745 0.93 7.89785266959e-39
-0.0172113153479 -0.0877777082745 0.93 7.80601717343e-39
-0.0154568715899 -0.0875889390094 0.928 7.98968816575e-39
-0.0137394414132 -0.0875889390094 0.928 6.61215572338e-39
-0.0119831469761 -0.0873057851117 0.925 1.33370346978e-38
-0.0102712688367 -0.0873057851117 0.925 1.33499700839e-38
-0.00855939069723 -0.0873057851117 0.925 1.27038776049e-38
-0.00681049897639 -0.086833861949 0.92 1.3258140193e-38
-0.00509677015787 -0.0866450926839 0.918 1.30740852449e-38
-0.00339784677192 -0.0866450926839 0.918 1.33488868802e-38
-0.00169892338596 -0.0866450926839 0.918 1.41779118673e-38
0.0 -0.0866450926839 0.918 1.4914011148e-38
0.00169892338596 -0.0866450926839 0.918 1.32519674732e-38
0.00339784677192 -0.0866450926839 0.918 1.0852731505e-38
0.00509677015787 -0.0866450926839 0.918 9.55734878375e-39
0.00679569354383 -0.0866450926839 0.918 6.97949770801e-39
0.00849461692979 -0.0866450926839 0.918 0.0
0.0101935403157 -0.0866450926839 0.918 1.45542670037e-38
0.0118924637017 -0.0866450926839 0.918 1.56522123764e-38
0.0135913870877 -0.0866450926839 0.918 3.30607786169e-39
0.0152903104736 -0.0866450926839 0.918 1.17887133999e-38
0.0169892338596 -0.0866450926839 0.918 1.14198874402e-38
0.0186881572455 -0.0866450926839 0.918 1.43668741626e-38
0.0204314969292 -0.086833861949 0.92 9.01781524383e-39
0.0221341216733 -0.086833861949 0.92 5.24610271803e-39
0.0239144749383 -0.0871170158466 0.923 2.3141827567e-39
0.0256226517196 -0.0871170158466 0.923 8.48366269e-39
0.0273308285009 -0.0871170158466 0.923 8.93674171987e-39
0.0291019283706 -0.0873057851117 0.925 4.05152380316e-39
-0.0277749914776 -0.0867968483676 0.938 2.21927995833e-38
-0.0259557739521 -0.0865192465071 0.935 2.32083766324e-38
-0.024225389022 -0.0865192465071 0.935 2.34871397385e-38
-0.0224950040919 -0.0865192465071 0.935 1.32580701281e-38
-0.020720202864 -0.0863341786002 0.933 6.15297824259e-39
-0.018993519292 -0.0863341786002 0.933 7.80601717343e-39
-0.0172113153479 -0.0860565767397 0.93 8.44886564654e-39
-0.0154901838131 -0.0860565767397 0.93 8.35703015038e-39
-0.0137394414132 -0.0858715088327 0.928 6.70399121953e-39
-0.0120220112366 -0.0858715088327 0.928 1.28764124783e-38
-0.0103045810599 -0.0858715088327 0.928 1.4640708902e-38
-0.00855939069723 -0.0855939069723 0.925 1.30705091312e-38
-0.00683270712523 -0.0854088390653 0.923 1.33488868802e-38
-0.00510787423229 -0.0851312372049 0.92 1.33488868802e-38
-0.00340524948819 -0.0851312372049 0.92 1.39013417933e-38
-0.00169892338596 -0.0849461692979 0.918 1.44541624453e-38
0.0 -0.0849461692979 0.918 9.65277160398e-39
0.00169892338596 -0.0849461692979 0.918 1.20343960532e-38
0.00339784677192 -0.0849461692979 0.918 1.50840334933e-38
0.00509677015787 -0.0849461692979 0.918 1.67524923124e-38
0.00679569354383 -0.0849461692979 0.918 1.01245873956e-38
0.00849461692979 -0.0849461692979 0.918 1.93141527857e-39
0.0101935403157 -0.0849461692979 0.918 1.49250673929e-38
0.0118924637017 -0.0849461692979 0.918 1.5744406605e-38
0.0135913870877 -0.0849461692979 0.918 1.92854541932e-39
0.0152903104736 -0.0849461692979 0.918 1.63069452618e-38
0.0169892338596 -0.0849461692979 0.918 1.1877271259e-38
0.0186881572455 -0.0849461692979 0.918 1.05908568479e-38
0.0204314969292 -0.0851312372049 0.92 1.07673531921e-38
0.0221341216733 -0.0851312372049 0.92 1.29911353823e-38
0.0239662939522 -0.0855939069723 0.925 6.17091486293e-39
0.0256226517196 -0.0854088390653 0.923 9.57707906613e-39
0.0273308285009 -0.0854088390653 0.923 1.47317288425e-38
0.0291019283706 -0.0855939069723 0.925 1.24361763489e-38
0.03081380651 -0.0855939069723 0.925 1.09571226354e-38
-0.0277749914776 -0.0850609114002 0.938 2.21935156468e-38
-0.0259557739521 -0.084788861577 0.935 2.29318149662e-38
-0.024225389022 -0.084788861577 0.935 2.3491808865e-38
-0.0224950040919 -0.084788861577 0.935 1.23357564983e-38
-0.020720202864 -0.0846074950282 0.933 5.60196526564e-39
-0.018993519292 -0.0846074950282 0.933 8.54070114269e-39
-0.01726683572 -0.0846074950282 0.933 8.44886564654e-39
-0.0154901838131 -0.0843354452049 0.93 8.17335915806e-39
-0.0137394414132 -0.0841540786561 0.928 7.07133320417e-39
-0.0120220112366 -0.0841540786561 0.928 1.41653520292e-38
-0.0103045810599 -0.0841540786561 0.928 1.33499728865e-38
-0.00855939069723 -0.0838820288328 0.925 1.29783106987e-38
-0.00683270712523 -0.083700662284 0.923 1.38080741701e-38
-0.00512453034392 -0.083700662284 0.923 1.34417901658e-38
-0.00341635356261 -0.083700662284 0.923 1.38091461634e-38
-0.0017026247441 -0.0834286124608 0.92 1.41786419438e-38
0.0 -0.0834286124608 0.92 1.01076442959e-38
0.0017026247441 -0.0834286124608 0.92 1.24917798719e-38
0.00340524948819 -0.0834286124608 0.92 1.23985094461e-38
0.00510787423229 -0.0834286124608 0.92 1.59094347225e-38
0.00681049897639 -0.0834286124608 0.92 4.13259732711e-39
0.00851312372049 -0.0834286124608 0.92 7.09253484993e-39
0.0102157484646 -0.0834286124608 0.92 1.48296473753e-38
0.0119183732087 -0.0834286124608 0.92 1.35317451194e-38
0.0136654142505 -0.083700662284 0.923 2.8469003809e-39
0.0153735910318 -0.083700662284 0.923 1.65835125332e-38
0.0170817678131 -0.083700662284 0.923 3.58409547701e-39
0.0187899445944 -0.083700662284 0.923 8.1030588167e-39
0.0204981213757 -0.083700662284 0.923 9.58069021227e-39
0.022206298157 -0.083700662284 0.923 9.86011893515e-39
0.0240440224732 -0.0841540786561 0.928 1.27084542457e-38
0.0257614526498 -0.0841540786561 0.928 1.65748721269e-38
0.0274788828265 -0.0841540786561 0.928 1.83211814835e-38
0.0291963130031 -0.0841540786561 0.928 1.10425009482e-38
0.0309137431798 -0.0841540786561 0.928 9.47986258387e-39
-0.0259557739521 -0.0830584766468 0.935 2.21024018194e-38
-0.024225389022 -0.0830584766468 0.935 2.34910899988e-38
-0.0224950040919 -0.0830584766468 0.935 1.19669753802e-38
-0.020720202864 -0.0828808114561 0.933 6.79582671569e-39
-0.018993519292 -0.0828808114561 0.933 8.81620763117e-39
-0.01726683572 -0.0828808114561 0.933 8.26519465422e-39
-0.0154901838131 -0.0826143136701 0.93 8.44886564654e-39
-0.0137394414132 -0.0824366484794 0.928 6.97949770801e-39
-0.0120220112366 -0.0824366484794 0.928 1.46256085098e-38
-0.0103045810599 -0.0824366484794 0.928 1.28897136033e-38
-0.00855939069723 -0.0821701506934 0.925 1.33492273958e-38
-0.00684751255778 -0.0821701506934 0.925 1.35318390064e-38
-0.00512453034392 -0.0819924855027 0.923 1.30733789905e-38
-0.00341635356261 -0.0819924855027 0.923 1.35332851464e-38
-0.00170817678131 -0.0819924855027 0.923 1.29782966858e-38
0.0 -0.0819924855027 0.923 1.19497352052e-38
0.0017026247441 -0.0817259877167 0.92 1.24071190239e-38
0.00340524948819 -0.0817259877167 0.92 1.24975195904e-38
0.00512453034392 -0.0819924855027 0.923 1.41577331694e-38
0.00683270712523 -0.0819924855027 0.923 3.21424236553e-39
0.00854088390653 -0.0819924855027 0.923 1.26177930376e-38
0.0102490606878 -0.0819924855027 0.923 1.45483927605e-38
0.0119572374691 -0.0819924855027 0.923 1.55607356127e-38
0.0136654142505 -0.0819924855027 0.923 1.92854541932e-39
0.0153735910318 -0.0819924855027 0.923 6.81269274401e-39
0.0170817678131 -0.0819924855027 0.923 4.31734451665e-39
0.0187899445944 -0.0819924855027 0.923 1.44608872766e-38
0.0204981213757 -0.0819924855027 0.923 8.09479676096e-39
0.0222544158128 -0.0821701506934 0.925 1.39091806569e-38
0.0240440224732 -0.0824366484794 0.928 1.48289215027e-38
0.0257614526498 -0.0824366484794 0.928 1.80474714597e-38
0.0274788828265 -0.0824366484794 0.928 1.59291537945e-38
0.0291963130031 -0.0824366484794 0.928 7.1724957429e-39
-0.0259557739521 -0.0813280917167 0.935 2.23804152308e-38
-0.024225389022 -0.0813280917167 0.935 2.34900095977e-38
-0.0224950040919 -0.0813280917167 0.935 1.25197722101e-38
-0.0207646191617 -0.0813280917167 0.935 7.34683969264e-39
-0.0190342342316 -0.0813280917167 0.935 8.7243791415e-39
-0.01726683572 -0.0811541278841 0.933 7.98968816575e-39
-0.015540152148 -0.0811541278841 0.933 7.89785266959e-39
-0.0137690522784 -0.0808931821353 0.93 6.97949770801e-39
-0.0120220112366 -0.0807192183028 0.928 1.52695401866e-38
-0.0103045810599 -0.0807192183028 0.928 1.31659277475e-38
-0.00855939069723 -0.0804582725539 0.925 1.30744355695e-38
-0.00684751255778 -0.0804582725539 0.925 1.34421404904e-38
-0.00513563441834 -0.0804582725539 0.925 1.30733663788e-38
-0.00341635356261 -0.0802843087214 0.923 1.35343389229e-38
-0.00170817678131 -0.0802843087214 0.923 1.33441631031e-38
0.0 -0.0802843087214 0.923 1.16767398435e-38
0.00170817678131 -0.0802843087214 0.923 1.25043355062e-38
0.00341635356261 -0.0802843087214 0.923 1.35156021611e-38
0.00512453034392 -0.0802843087214 0.923 1.49946909071e-38
0.00683270712523 -0.0802843087214 0.923 1.83670992316e-39
0.00854088390653 -0.0802843087214 0.923 1.40028504528e-38
0.0102490606878 -0.0802843087214 0.923 1.41778221842e-38
0.0119572374691 -0.0802843087214 0.923 1.51901650364e-38
0.0136654142505 -0.0802843087214 0.923 1.35374848379e-38
0.0153735910318 -0.0802843087214 0.923 1.05915743128e-38
0.0170817678131 -0.0802843087214 0.923 1.3077950026e-38
0.0187899445944 -0.0802843087214 0.923 1.54717699758e-38
0.0204981213757 -0.0802843087214 0.923 1.65730784649e-38
0.0222544158128 -0.0804582725539 0.925 1.65741546621e-38
0.0240440224732 -0.0807192183028 0.928 9.66066371693e-39
0.0257614526498 -0.0807192183028 0.928 1.34452906094e-38
0.0274788828265 -0.0807192183028 0.928 1.23360900073e-38
0.0291963130031 -0.0807192183028 0.928 1.50979750117e-38
