# .PCD v0.7 - Point Cloud Data file format
VERSION 0.7
FIELDS x y z rgb
SIZE 4 4 4 4
TYPE F F F F
COUNT 1 1 1 1
WIDTH 846
HEIGHT 1
VIEWPOINT 0 0 0 1 0 0 0
POINTS 846
DATA ascii
0.0367322781748 -0.0765255795309 0.827 1.78924962573e-38
0.0382627897654 -0.0765255795309 0.827 1.7803171888e-38
0.0397933013561 -0.0765255795309 0.827 1.8170872605e-38
0.0412238762769 -0.0763405116239 0.825 1.89991857325e-38
0.0427506865094 -0.0763405116239 0.825 1.82609144392e-38
0.0442774967419 -0.0763405116239 0.825 1.8814438543e-38
0.0458043069744 -0.0763405116239 0.825 1.94580044809e-38
0.0475606014115 -0.0767106474379 0.829 1.89044803771e-38
0.0490948143602 -0.0767106474379 0.829 1.05930092424e-38
0.00920527769254 -0.0751764344891 0.829 1.0469246562e-38
0.0107394906413 -0.0751764344891 0.829 1.61886056065e-38
0.0122737035901 -0.0751764344891 0.829 1.29064745343e-38
0.0138079165388 -0.0751764344891 0.829 2.11157685901e-38
0.0153421294876 -0.0751764344891 0.829 1.90881513694e-38
0.0168356274968 -0.0749950679403 0.827 1.83531086677e-38
0.0183661390874 -0.0749950679403 0.827 1.9089586299e-38
0.019896650678 -0.0749950679403 0.827 1.88119274161e-38
0.0214271622687 -0.0749950679403 0.827 1.91799868656e-38
0.0229576738593 -0.0749950679403 0.827 1.88115686837e-38
0.0244881854499 -0.0749950679403 0.827 1.87208093848e-38
0.0260186970405 -0.0749950679403 0.827 1.86289738886e-38
0.0275492086311 -0.0749950679403 0.827 1.83534674001e-38
0.0290797202217 -0.0749950679403 0.827 1.83538261325e-38
0.0306102318124 -0.0749950679403 0.827 1.82612731716e-38
0.032140743403 -0.0749950679403 0.827 1.8629332621e-38
0.0336712549936 -0.0749950679403 0.827 1.89984682677e-38
0.0352017665842 -0.0749950679403 0.827 1.83520324705e-38
0.0367322781748 -0.0749950679403 0.827 1.85382145897e-38
0.0382627897654 -0.0749950679403 0.827 1.80786783765e-38
0.0397933013561 -0.0749950679403 0.827 1.81705138726e-38
0.0412238762769 -0.0748137013915 0.825 1.83538261325e-38
0.0427506865094 -0.0748137013915 0.825 1.93672451819e-38
0.0441701573558 -0.0746323348426 0.823 1.99178994265e-38
0.0456932662302 -0.0746323348426 0.823 1.75230018782e-38
0.0472163751045 -0.0746323348426 0.823 1.99196986937e-38
0.0487394839789 -0.0746323348426 0.823 1.1420604905e-38
0.00920527769254 -0.0736422215403 0.829 1.0469246562e-38
0.0107135811343 -0.0734645563497 0.827 1.61846497409e-38
0.0122440927249 -0.0734645563497 0.827 1.17940453406e-38
0.0137746043156 -0.0734645563497 0.827 1.46632263671e-38
0.0153051159062 -0.0734645563497 0.827 2.00090861215e-38
0.0168356274968 -0.0734645563497 0.827 1.87197331875e-38
0.0183661390874 -0.0734645563497 0.827 1.85371383925e-38
0.019896650678 -0.0734645563497 0.827 1.78924962573e-38
0.0214271622687 -0.0734645563497 0.827 1.86289738886e-38
0.0229576738593 -0.0734645563497 0.827 1.89973920705e-38
0.0244881854499 -0.0734645563497 0.827 1.85364209276e-38
0.0260186970405 -0.0734645563497 0.827 1.80768847144e-38
0.0275492086311 -0.0734645563497 0.827 1.77099014622e-38
0.0290797202217 -0.0734645563497 0.827 1.9276485883e-38
0.0306102318124 -0.0734645563497 0.827 1.81687202106e-38
0.032140743403 -0.0734645563497 0.827 1.82612731716e-38
0.0336712549936 -0.0734645563497 0.827 1.81683614782e-38
0.0352017665842 -0.0734645563497 0.827 1.83531086677e-38
0.0367322781748 -0.0734645563497 0.827 1.79861254155e-38
0.0382627897654 -0.0734645563497 0.827 1.83556197946e-38
0.0397933013561 -0.0734645563497 0.827 1.78006607612e-38
0.0412238762769 -0.073286891159 0.825 1.88147972754e-38
0.0427506865094 -0.073286891159 0.825 1.91810630628e-38
0.0441701573558 -0.0731092259683 0.823 1.87197331875e-38
0.0456932662302 -0.0731092259683 0.823 1.6233717608e-38
0.0472163751045 -0.0731092259683 0.823 1.80754497848e-38
0.0487394839789 -0.0731092259683 0.823 1.0771657981e-38
0.0502625928532 -0.0731092259683 0.823 1.60712118276e-38
0.00767106474379 -0.0721080085916 0.829 1.12957660274e-38
0.00920527769254 -0.0721080085916 0.829 1.0469246562e-38
0.0107135811343 -0.071934044759 0.827 1.3790087103e-38
0.0122440927249 -0.071934044759 0.827 1.41882436409e-38
0.0137746043156 -0.071934044759 0.827 1.04175890954e-38
0.0153051159062 -0.071934044759 0.827 1.59553692862e-38
0.0168356274968 -0.071934044759 0.827 2.07473139745e-38
0.0183661390874 -0.071934044759 0.827 1.82594795095e-38
0.019896650678 -0.071934044759 0.827 1.88137210781e-38
0.0214271622687 -0.071934044759 0.827 1.85364209276e-38
0.0229576738593 -0.071934044759 0.827 1.85371383925e-38
0.0244881854499 -0.071934044759 0.827 1.87222443144e-38
0.0260186970405 -0.071934044759 0.827 1.86296913534e-38
0.0275492086311 -0.071934044759 0.827 1.78003020287e-38
0.0290797202217 -0.071934044759 0.827 1.85382145897e-38
0.0305362046496 -0.0717600809265 0.825 1.8721885582e-38
0.0320630148821 -0.0717600809265 0.825 1.88137210781e-38
0.0335898251145 -0.0717600809265 0.825 1.88140798106e-38
0.0352017665842 -0.071934044759 0.827 1.84442266991e-38
0.0367322781748 -0.071934044759 0.827 1.84463790935e-38
0.0382627897654 -0.071934044759 0.827 1.89069915039e-38
0.0397933013561 -0.071934044759 0.827 1.87208093848e-38
0.0412238762769 -0.0717600809265 0.825 1.98271401275e-38
0.0427506865094 -0.0717600809265 0.825 1.95509217795e-38
0.0442774967419 -0.0717600809265 0.825 1.40203386576e-38
0.0456932662302 -0.0715861170939 0.823 1.66017770574e-38
0.0472163751045 -0.0715861170939 0.823 1.66889490323e-38
0.0487394839789 -0.0715861170939 0.823 1.18740426673e-38
0.0502625928532 -0.0715861170939 0.823 1.71732377815e-38
0.00765255795309 -0.0704035331684 0.827 1.12039305313e-38
0.00918306954371 -0.0704035331684 0.827 1.02855755697e-38
0.0107135811343 -0.0704035331684 0.827 1.11189347729e-38
0.0122440927249 -0.0704035331684 0.827 1.44655564031e-38
0.0137746043156 -0.0704035331684 0.827 1.26284569189e-38
0.0153051159062 -0.0704035331684 0.827 1.05130119156e-38
0.0168356274968 -0.0704035331684 0.827 1.3926712302e-38
0.0183661390874 -0.0704035331684 0.827 2.01934241318e-38
0.019896650678 -0.0704035331684 0.827 2.04703473331e-38
0.0214271622687 -0.0704035331684 0.827 1.90881513694e-38
0.0229576738593 -0.0704035331684 0.827 1.85364209276e-38
0.0244881854499 -0.0704035331684 0.827 1.82601997769e-38
0.0259557739521 -0.070233270694 0.825 1.94601568753e-38
0.0274825841846 -0.070233270694 0.825 1.79857666831e-38
0.0290093944171 -0.070233270694 0.825 1.78928549897e-38
0.0305362046496 -0.070233270694 0.825 1.80779609117e-38
0.0320630148821 -0.070233270694 0.825 1.83538261325e-38
0.0335898251145 -0.070233270694 0.825 1.8261631904e-38
0.035116635347 -0.070233270694 0.825 1.86296913534e-38
0.0366434455795 -0.070233270694 0.825 1.89984682677e-38
0.038170255812 -0.070233270694 0.825 1.88140798106e-38
0.0396970660444 -0.070233270694 0.825 2.08391242473e-38
0.0412238762769 -0.070233270694 0.825 1.79811031618e-38
0.0427506865094 -0.070233270694 0.825 1.19935005588e-38
0.0442774967419 -0.070233270694 0.825 1.48533181089e-38
0.0456932662302 -0.0700630082196 0.823 1.5956058725e-38
0.0472163751045 -0.0700630082196 0.823 1.75179796245e-38
0.0487394839789 -0.0700630082196 0.823 1.09535353113e-38
0.0502625928532 -0.0700630082196 0.823 1.79104384829e-38
0.0107135811343 -0.0688730215778 0.827 9.64452496252e-39
0.0122440927249 -0.0688730215778 0.827 1.42814958498e-38
0.0137746043156 -0.0688730215778 0.827 1.29968751008e-38
0.0153051159062 -0.0688730215778 0.827 1.29997449601e-38
0.0168356274968 -0.0688730215778 0.827 1.04222526167e-38
0.0183661390874 -0.0688730215778 0.827 1.23608425434e-38
0.019896650678 -0.0688730215778 0.827 1.6600347733e-38
0.0213753432547 -0.0687064604615 0.825 1.98253464655e-38
0.0229021534872 -0.0687064604615 0.825 1.94572870161e-38
0.0244289637197 -0.0687064604615 0.825 1.99171819617e-38
0.0259557739521 -0.0687064604615 0.825 1.93654515199e-38
0.0274825841846 -0.0687064604615 0.825 1.86289738886e-38
0.0290093944171 -0.0687064604615 0.825 1.88140798106e-38
0.0305362046496 -0.0687064604615 0.825 1.83531086677e-38
0.0320630148821 -0.0687064604615 0.825 1.81705138726e-38
0.0335898251145 -0.0687064604615 0.825 1.9276485883e-38
0.035116635347 -0.0687064604615 0.825 1.872009192e-38
0.0366434455795 -0.0687064604615 0.825 2.01955583094e-38
0.038170255812 -0.0687064604615 0.825 1.84449441639e-38
0.0396970660444 -0.0687064604615 0.825 1.42951276812e-38
0.0412238762769 -0.0687064604615 0.825 1.28225311511e-38
0.0427506865094 -0.0687064604615 0.825 1.1902023795e-38
0.0441701573558 -0.0685398993453 0.823 1.70620307354e-38
0.045582225486 -0.068373338229 0.821 1.52152763049e-38
0.0471016330022 -0.068373338229 0.821 1.65946024093e-38
0.0486210405184 -0.068373338229 0.821 1.26137488903e-38
0.0501404480346 -0.068373338229 0.821 1.64396300095e-38
0.0516598555508 -0.068373338229 0.821 1.72668669397e-38
0.00636633599967 -0.0700296959964 0.86 1.07447586557e-38
0.0107135811343 -0.0673425099872 0.827 9.27574384436e-39
0.0122440927249 -0.0673425099872 0.827 1.31726820061e-38
0.0137746043156 -0.0673425099872 0.827 1.2443350997e-38
0.0153051159062 -0.0673425099872 0.827 1.31823397551e-38
0.0168356274968 -0.0673425099872 0.827 1.24469383211e-38
0.0183661390874 -0.0673425099872 0.827 1.1804089848e-38
0.0198485330222 -0.0671796502291 0.825 1.14360303985e-38
0.0213753432547 -0.0671796502291 0.825 1.2818943827e-38
0.0229021534872 -0.0671796502291 0.825 1.55858482825e-38
0.0244289637197 -0.0671796502291 0.825 1.72446255305e-38
0.0259557739521 -0.0671796502291 0.825 1.88119274161e-38
0.0274825841846 -0.0671796502291 0.825 2.07476474836e-38
0.0290093944171 -0.0671796502291 0.825 1.92725398265e-38
0.0305362046496 -0.0671796502291 0.825 1.89044803771e-38
0.0320630148821 -0.0671796502291 0.825 1.89062740391e-38
0.0335898251145 -0.0671796502291 0.825 1.75240780755e-38
0.035116635347 -0.0671796502291 0.825 1.73371784915e-38
0.0366434455795 -0.0671796502291 0.825 1.51234408087e-38
0.038170255812 -0.0671796502291 0.825 1.35582913175e-38
0.0396970660444 -0.0671796502291 0.825 1.09811577066e-38
0.0412238762769 -0.0671796502291 0.825 1.36544316026e-38
0.0427506865094 -0.0671796502291 0.825 1.70627510028e-38
0.0441701573558 -0.0670167904709 0.823 1.55833357543e-38
0.045582225486 -0.0668539307128 0.821 1.60407195731e-38
0.0471016330022 -0.0668539307128 0.821 1.58559723835e-38
0.0486210405184 -0.0668539307128 0.821 1.15988949112e-38
0.0501404480346 -0.0668539307128 0.821 1.73608548303e-38
0.0516598555508 -0.0668539307128 0.821 1.80065773666e-38
0.0 -0.0684381119964 0.86 2.35004394622e-38
0.00159158399992 -0.0684381119964 0.86 2.35098113463e-38
0.00318316799983 -0.0684381119964 0.86 5.42331652702e-39
0.00477475199975 -0.0684381119964 0.86 8.35703015038e-39
0.00636633599967 -0.0684381119964 0.86 1.06529189556e-38
0.00795791999959 -0.0684381119964 0.86 9.91823358506e-39
0.00952729585067 -0.0682789535964 0.858 9.45905610427e-39
0.0111151784924 -0.0682789535964 0.858 8.26519465422e-39
0.0122440927249 -0.0658119983966 0.827 1.14202643895e-38
0.0137746043156 -0.0658119983966 0.827 1.22571688778e-38
0.0153051159062 -0.0658119983966 0.827 1.27206511475e-38
0.0168356274968 -0.0658119983966 0.827 1.21703556354e-38
0.0183217227897 -0.0656528399966 0.825 1.33692393391e-38
0.0198485330222 -0.0656528399966 0.825 1.39227634429e-38
0.0213753432547 -0.0656528399966 0.825 1.37398099154e-38
0.0229021534872 -0.0656528399966 0.825 1.18980777386e-38
0.0244289637197 -0.0656528399966 0.825 1.22682895824e-38
0.0259557739521 -0.0656528399966 0.825 1.19913481643e-38
0.0274825841846 -0.0656528399966 0.825 1.26363490319e-38
0.0290093944171 -0.0656528399966 0.825 1.31895144033e-38
0.0305362046496 -0.0656528399966 0.825 1.22686483149e-38
0.0320630148821 -0.0656528399966 0.825 1.23615600082e-38
0.0335898251145 -0.0656528399966 0.825 1.39256333022e-38
0.035116635347 -0.0656528399966 0.825 1.21743016919e-38
0.0366434455795 -0.0656528399966 0.825 1.17176353379e-38
0.038170255812 -0.0656528399966 0.825 1.17176353379e-38
0.0396970660444 -0.0656528399966 0.825 1.58649406937e-38
0.0412238762769 -0.0656528399966 0.825 1.52167112345e-38
0.0427506865094 -0.0656528399966 0.825 1.41082280973e-38
0.0441701573558 -0.0654936815966 0.823 1.53978711e-38
0.045582225486 -0.0653345231966 0.821 1.55808246275e-38
0.0471016330022 -0.0653345231966 0.821 1.548432561e-38
0.0486210405184 -0.0653345231966 0.821 1.37139811821e-38
0.0501404480346 -0.0653345231966 0.821 1.69906429864e-38
0.0541138559972 -0.0684381119964 0.86 1.74508994671e-38
0.0557054399971 -0.0684381119964 0.86 1.88320388517e-38
0.0 -0.0668465279965 0.86 2.35000877363e-38
0.00159158399992 -0.0668465279965 0.86 2.35098183528e-38
0.00318316799983 -0.0668465279965 0.86 5.88070034577e-39
0.00476364792533 -0.0666910709547 0.858 8.63253663885e-39
0.00635153056711 -0.0666910709547 0.858 1.01937400735e-38
0.00793941320889 -0.0666910709547 0.858 9.73456259275e-39
0.00952729585067 -0.0666910709547 0.858 8.72437213501e-39
0.0111151784924 -0.0666910709547 0.858 7.71418167727e-39
0.0122440927249 -0.064281486806 0.827 1.27946032727e-38
0.0137746043156 -0.064281486806 0.827 1.21653333817e-38
0.0153051159062 -0.064281486806 0.827 1.23515155008e-38
0.0168356274968 -0.064281486806 0.827 1.32752542511e-38
0.0183217227897 -0.0641260297641 0.825 1.16186392066e-38
0.0198485330222 -0.0641260297641 0.825 1.24487319831e-38
0.0213753432547 -0.0641260297641 0.825 1.38302104819e-38
0.0229021534872 -0.0641260297641 0.825 1.35550627259e-38
0.0244289637197 -0.0641260297641 0.825 1.40160338687e-38
0.0258928508638 -0.0639705727222 0.823 1.31895144033e-38
0.0274159597381 -0.0639705727222 0.823 1.40199799252e-38
0.0289390686124 -0.0639705727222 0.823 1.30054846786e-38
0.0304621774868 -0.0639705727222 0.823 1.3741244845e-38
0.0319852863611 -0.0639705727222 0.823 1.3373544128e-38
0.0335083952355 -0.0639705727222 0.823 1.43844520506e-38
0.0350315041098 -0.0639705727222 0.823 1.25434373385e-38
0.0366434455795 -0.0641260297641 0.825 1.4113250351e-38
0.038170255812 -0.0641260297641 0.825 1.66021455989e-38
0.0397933013561 -0.064281486806 0.827 1.48472168554e-38
0.0413238129467 -0.064281486806 0.827 1.53049594066e-38
0.0428543245373 -0.064281486806 0.827 1.45684817753e-38
0.0442774967419 -0.0641260297641 0.825 1.49361824923e-38
0.0458043069744 -0.0641260297641 0.825 1.53950012407e-38
0.0473311172068 -0.0641260297641 0.825 1.47449781195e-38
0.0508122445369 -0.0666910709547 0.858 1.38922711883e-38
0.0522779823601 -0.0665356139128 0.856 1.80062144303e-38
0.0538621636437 -0.0665356139128 0.856 1.71804124297e-38
0.0553167973925 -0.066380156871 0.854 1.92079735985e-38
0.056897277318 -0.066380156871 0.854 1.63467183161e-38
0.0586147074946 -0.0665356139128 0.856 1.36834889275e-38
-0.00158788264178 -0.0651031883129 0.858 2.35026282904e-38
0.0 -0.0651031883129 0.858 2.35040281876e-38
0.00158418128364 -0.0649514326292 0.856 2.35097903269e-38
0.00316836256728 -0.0649514326292 0.856 5.4225990622e-39
0.00476364792533 -0.0651031883129 0.858 8.35703015038e-39
0.00635153056711 -0.0651031883129 0.858 1.06529175543e-38
0.00793941320889 -0.0651031883129 0.858 1.00100690812e-38
0.00950508770183 -0.0649514326292 0.856 9.1835496158e-39
0.0110633594785 -0.0647996769455 0.854 8.35703015038e-39
0.012643839404 -0.0647996769455 0.854 1.1862238129e-38
0.0137412920923 -0.0625992195316 0.825 1.11483270082e-38
0.0152681023248 -0.0625992195316 0.825 1.19827385866e-38
0.0168356274968 -0.0627509752153 0.827 1.21685619733e-38
0.0183217227897 -0.0625992195316 0.825 1.18955666117e-38
0.0198485330222 -0.0625992195316 0.825 1.24469383211e-38
0.0213753432547 -0.0625992195316 0.825 1.31841334172e-38
0.0229021534872 -0.0625992195316 0.825 1.32770451106e-38
0.0244289637197 -0.0625992195316 0.825 1.30926566534e-38
0.0258928508638 -0.0624474638479 0.823 1.26349141023e-38
0.0274159597381 -0.0624474638479 0.823 1.22672133852e-38
0.0289390686124 -0.0624474638479 0.823 1.33728266632e-38
0.0304621774868 -0.0624474638479 0.823 1.33724679308e-38
0.0319852863611 -0.0624474638479 0.823 1.30047672137e-38
0.0335083952355 -0.0624474638479 0.823 1.51220058791e-38
0.0350315041098 -0.0624474638479 0.823 1.50290941857e-38
0.0366434455795 -0.0625992195316 0.825 1.53967949027e-38
0.038170255812 -0.0625992195316 0.825 1.45674055781e-38
0.0397933013561 -0.0627509752153 0.827 1.52124064456e-38
0.0413238129467 -0.0627509752153 0.827 1.47510765704e-38
0.0428543245373 -0.0627509752153 0.827 1.48439882638e-38
0.0443848361279 -0.0627509752153 0.827 1.46595998066e-38
0.0459153477185 -0.0627509752153 0.827 1.43797885293e-38
0.0474458593092 -0.0627509752153 0.827 1.4186431762e-38
0.050575357616 -0.0647996769455 0.854 1.49892748885e-38
0.0521558375415 -0.0647996769455 0.854 1.85647607878e-38
0.053736317467 -0.0647996769455 0.854 1.72769114471e-38
0.0553167973925 -0.0647996769455 0.854 1.81945489439e-38
0.056897277318 -0.0647996769455 0.854 1.65303893084e-38
0.0584777572435 -0.0647996769455 0.854 1.41426664083e-38
0.0601988887783 -0.0649514326292 0.856 2.35098309645e-38
0.0617830700619 -0.0649514326292 0.856 2.35098407736e-38
-0.00158788264178 -0.0635153056711 0.858 2.35032840981e-38
0.0 -0.0633672513455 0.856 2.34997290039e-38
0.00158418128364 -0.0633672513455 0.856 2.3507307226e-38
0.00316836256728 -0.0633672513455 0.856 8.10089521187e-39
0.00476364792533 -0.0635153056711 0.858 8.26519465422e-39
0.00633672513455 -0.0633672513455 0.856 1.05610820582e-38
0.00792090641819 -0.0633672513455 0.856 1.01937400735e-38
0.00948287955299 -0.06321919702 0.854 9.82639808891e-39
0.0110633594785 -0.06321919702 0.854 8.72437213501e-39
0.012643839404 -0.06321919702 0.854 8.26519465422e-39
0.0137412920923 -0.0610724092991 0.825 1.11429530286e-38
0.0152681023248 -0.0610724092991 0.825 1.12444672933e-38
0.0168356274968 -0.0612204636247 0.827 1.1709743225e-38
0.0183661390874 -0.0612204636247 0.827 1.1709743225e-38
0.019896650678 -0.0612204636247 0.827 1.2632044243e-38
0.0214271622687 -0.0612204636247 0.827 1.24498081803e-38
0.0229576738593 -0.0612204636247 0.827 1.26345553699e-38
0.0244289637197 -0.0610724092991 0.825 1.33692393391e-38
0.0259557739521 -0.0610724092991 0.825 1.31880794737e-38
0.0274825841846 -0.0610724092991 0.825 1.31877207413e-38
0.0289390686124 -0.0609243549736 0.823 1.31880794737e-38
0.0304621774868 -0.0609243549736 0.823 1.42007810582e-38
0.0319852863611 -0.0609243549736 0.823 1.43840933182e-38
0.0335083952355 -0.0609243549736 0.823 1.47521527676e-38
0.0350315041098 -0.0609243549736 0.823 1.429046416e-38
0.0366434455795 -0.0610724092991 0.825 1.48411184045e-38
0.0382627897654 -0.0612204636247 0.827 1.49333126331e-38
0.0397933013561 -0.0612204636247 0.827 1.49361824923e-38
0.0414237496164 -0.0613685179503 0.829 1.44744938847e-38
0.0429579625652 -0.0613685179503 0.829 1.43812640966e-38
0.0445995149 -0.0615165722759 0.831 1.45659706484e-38
0.0461374292069 -0.0615165722759 0.831 1.37326352673e-38
0.0489948776905 -0.06321919702 0.854 1.37103938581e-38
0.050575357616 -0.06321919702 0.854 1.66329867768e-38
0.0521558375415 -0.06321919702 0.854 1.80087395701e-38
0.053736317467 -0.06321919702 0.854 1.89310517986e-38
0.0553167973925 -0.06321919702 0.854 1.93012412217e-38
0.056897277318 -0.06321919702 0.854 1.625488282e-38
0.0584777572435 -0.06321919702 0.854 1.97629970916e-38
0.060058237169 -0.06321919702 0.854 2.35098281619e-38
0.0616387170945 -0.06321919702 0.854 2.3507307226e-38
0.06321919702 -0.06321919702 0.854 2.35047975004e-38
-0.00158418128364 -0.0617830700619 0.856 2.35000919402e-38
0.0 -0.0617830700619 0.856 2.35015408828e-38
0.00158418128364 -0.0617830700619 0.856 2.3506194595e-38
0.00316836256728 -0.0617830700619 0.856 1.82423948787e-38
0.00476364792533 -0.0619274230293 0.858 8.54070114269e-39
0.00633672513455 -0.0617830700619 0.856 1.01937400735e-38
0.00792090641819 -0.0617830700619 0.856 1.0469246562e-38
0.00948287955299 -0.0616387170945 0.854 1.01019045774e-38
0.0110633594785 -0.0616387170945 0.854 9.55089160043e-39
0.0125994231063 -0.0614221876433 0.851 8.44886564654e-39
0.0138079165388 -0.0598343050015 0.829 1.16785727419e-38
0.0153421294876 -0.0598343050015 0.829 1.02274609198e-38
0.0168763424363 -0.0598343050015 0.829 1.17068733657e-38
0.0184105553851 -0.0598343050015 0.829 1.1524637303e-38
0.019896650678 -0.0596899520341 0.827 1.19863259107e-38
0.0214271622687 -0.0596899520341 0.827 1.22654197232e-38
0.0229576738593 -0.0596899520341 0.827 1.25420024089e-38
0.0244881854499 -0.0596899520341 0.827 1.24498081803e-38
0.0260186970405 -0.0596899520341 0.827 1.2633837905e-38
0.0275492086311 -0.0596899520341 0.827 1.27281845281e-38
0.0290093944171 -0.0595455990667 0.825 1.33706742688e-38
0.0305362046496 -0.0595455990667 0.825 1.429046416e-38
0.0320630148821 -0.0595455990667 0.825 1.36447458276e-38
0.0335898251145 -0.0595455990667 0.825 1.49340300979e-38
0.0352017665842 -0.0596899520341 0.827 1.43808647265e-38
0.0367322781748 -0.0596899520341 0.827 1.42893879627e-38
0.0383553237189 -0.0598343050015 0.829 1.47503591056e-38
0.0398895366677 -0.0598343050015 0.829 1.49343888303e-38
0.0414237496164 -0.0598343050015 0.829 1.39202523161e-38
0.0430616005931 -0.059978657969 0.831 1.38280580875e-38
0.0445995149 -0.059978657969 0.831 1.33652932826e-38
0.0464705514394 -0.0604117168713 0.837 1.35396372324e-38
0.0482490540254 -0.0607004228061 0.841 1.4708387414e-38
0.0503976924253 -0.0614221876433 0.851 1.78236322469e-38
0.0521558375415 -0.0616387170945 0.854 1.8100587678e-38
0.053736317467 -0.0616387170945 0.854 1.82850111676e-38
0.0553167973925 -0.0616387170945 0.854 1.82882033255e-38
0.056897277318 -0.0616387170945 0.854 1.58875408353e-38
0.0584777572435 -0.0616387170945 0.854 2.3451901286e-38
0.060058237169 -0.0616387170945 0.854 2.35098197541e-38
0.0616387170945 -0.0616387170945 0.854 2.35098337671e-38
0.06321919702 -0.0616387170945 0.854 2.35073058247e-38
-0.0015804799255 -0.060058237169 0.854 2.34993856858e-38
0.0 -0.060058237169 0.854 2.35008052011e-38
0.0015804799255 -0.060058237169 0.854 2.35047372446e-38
0.003160959851 -0.060058237169 0.854 2.34993730741e-38
0.00476364792533 -0.0603395403876 0.858 1.01937400735e-38
0.00633672513455 -0.0601988887783 0.856 9.73456259275e-39
0.00792090641819 -0.0601988887783 0.856 1.0469246562e-38
0.00948287955299 -0.060058237169 0.854 1.01019045774e-38
0.0110633594785 -0.060058237169 0.854 9.73456259275e-39
0.0125994231063 -0.059847259755 0.851 9.36722060812e-39
0.0141410387714 -0.0597066081457 0.849 7.34683969264e-39
0.0154531702318 -0.0587220468807 0.835 1.20555920937e-38
0.0169170573759 -0.0584407436621 0.831 1.09664496779e-38
0.0184105553851 -0.0583000920528 0.829 1.11547841915e-38
0.0199447683338 -0.0583000920528 0.829 1.15242785706e-38
0.0214789812826 -0.0583000920528 0.829 1.23543853601e-38
0.0230131942314 -0.0583000920528 0.829 1.1804089848e-38
0.0245474071801 -0.0583000920528 0.829 1.25420024089e-38
0.0260186970405 -0.0581594404435 0.827 1.22654197232e-38
0.0275492086311 -0.0581594404435 0.827 1.27267495984e-38
0.0291500460264 -0.0583000920528 0.829 1.30926566534e-38
0.0306842589751 -0.0583000920528 0.829 1.39220459781e-38
0.032140743403 -0.0581594404435 0.827 1.37380162534e-38
0.0336712549936 -0.0581594404435 0.827 1.45659706484e-38
0.0352868978214 -0.0583000920528 0.829 1.38284168199e-38
0.0368211107702 -0.0583000920528 0.829 1.39224047105e-38
0.0383553237189 -0.0583000920528 0.829 1.47510765704e-38
0.0399857719793 -0.0584407436621 0.831 1.39206110485e-38
0.0415236862862 -0.0584407436621 0.831 1.36454632924e-38
0.0430616005931 -0.0584407436621 0.831 1.34592811732e-38
0.044706854286 -0.0585813952714 0.833 1.3727971746e-38
0.0464705514394 -0.05886269849 0.837 1.08498616457e-38
0.0482490540254 -0.0591440017085 0.841 1.52461300945e-38
0.0503976924253 -0.059847259755 0.851 1.91133144859e-38
0.0519726203136 -0.059847259755 0.851 1.70910880604e-38
0.053736317467 -0.060058237169 0.854 1.83764458924e-38
0.0553167973925 -0.060058237169 0.854 1.72747590527e-38
0.056897277318 -0.060058237169 0.854 1.53365278584e-38
0.0582723318667 -0.059847259755 0.851 2.3459831234e-38
0.059847259755 -0.059847259755 0.851 2.35098267606e-38
0.0616387170945 -0.060058237169 0.854 2.35098253593e-38
0.06321919702 -0.060058237169 0.854 2.35098183528e-38
-0.0015804799255 -0.0584777572435 0.854 2.35029800163e-38
0.0 -0.0584777572435 0.854 2.35015366789e-38
0.0015804799255 -0.0584777572435 0.854 2.3502950589e-38
0.003160959851 -0.0584777572435 0.854 2.35047498563e-38
0.00475254385092 -0.0586147074946 0.856 1.23059564852e-38
0.00633672513455 -0.0586147074946 0.856 8.99987862348e-39
0.0079023996275 -0.0584777572435 0.854 1.01019045774e-38
0.00948287955299 -0.0584777572435 0.854 1.01937400735e-38
0.0110633594785 -0.0584777572435 0.854 9.91823358506e-39
0.0125994231063 -0.0582723318667 0.851 9.73456259275e-39
0.0141410387714 -0.0581353816156 0.849 9.27538511196e-39
0.0156382381387 -0.0578614811133 0.845 7.89785266959e-39
0.0170392021945 -0.0573136801086 0.837 1.10453708074e-38
0.0185438042781 -0.0571767298575 0.835 1.25319663093e-38
0.0200410036455 -0.0570397796063 0.833 1.143029068e-38
0.0214789812826 -0.056765879104 0.829 1.18930554849e-38
0.0230131942314 -0.056765879104 0.829 1.16175489964e-38
0.0245474071801 -0.056765879104 0.829 1.21703556354e-38
0.0260816201289 -0.056765879104 0.829 1.28164327001e-38
0.0276158330776 -0.056765879104 0.829 1.2817150165e-38
0.0291500460264 -0.056765879104 0.829 1.30015386221e-38
0.0306842589751 -0.056765879104 0.829 1.3739451183e-38
0.0322184719239 -0.056765879104 0.829 1.33699568039e-38
0.0337526848727 -0.056765879104 0.829 1.41049995056e-38
0.0352868978214 -0.056765879104 0.829 1.42890292303e-38
0.0369099433655 -0.0569028293552 0.831 1.41049995056e-38
0.0384478576724 -0.0569028293552 0.831 1.32745339837e-38
0.0399857719793 -0.0569028293552 0.831 1.39209697809e-38
0.041623622956 -0.0570397796063 0.833 1.31819810227e-38
0.0432688766489 -0.0571767298575 0.835 1.30818946812e-38
0.0450288724442 -0.0574506303598 0.839 9.92863682486e-39
0.0466926329278 -0.057587580611 0.841 1.42388066934e-38
0.0485932803324 -0.0579984313644 0.847 1.44181728968e-38
0.0503976924253 -0.0582723318667 0.851 1.65346940973e-38
0.0519726203136 -0.0582723318667 0.851 1.69938715781e-38
0.0535475482019 -0.0582723318667 0.851 1.92043960835e-38
0.0553167973925 -0.0584777572435 0.854 1.51542917957e-38
0.056897277318 -0.0584777572435 0.854 1.4510008393e-38
0.0582723318667 -0.0582723318667 0.851 2.34692479597e-38
0.059847259755 -0.0582723318667 0.851 2.35098155502e-38
0.0614221876433 -0.0582723318667 0.851 2.35080106778e-38
-0.0015804799255 -0.056897277318 0.854 2.34975766094e-38
0.0 -0.056897277318 0.854 2.35004632843e-38
0.0015804799255 -0.056897277318 0.854 2.35000835324e-38
0.00316836256728 -0.057030526211 0.856 2.35094400022e-38
0.00475254385092 -0.057030526211 0.856 1.05610820582e-38
0.00633672513455 -0.057030526211 0.856 8.90804312733e-39
0.0079023996275 -0.056897277318 0.854 1.05610820582e-38
0.00948287955299 -0.056897277318 0.854 1.0469246562e-38
0.011024495218 -0.0566974039784 0.851 1.00100690812e-38
0.0125994231063 -0.0566974039784 0.851 1.01019045774e-38
0.0141743509946 -0.0566974039784 0.851 9.55089160043e-39
0.0157122653015 -0.0565641550854 0.849 9.55089160043e-39
0.0171613470131 -0.0561644084064 0.843 8.35703015038e-39
0.0186326368734 -0.0558979106203 0.839 1.05754313544e-38
0.0201372389571 -0.0557646617273 0.837 1.24329477572e-38
0.0216344383245 -0.0556314128343 0.835 1.17050797037e-38
0.0231242349755 -0.0554981639413 0.833 1.18923380201e-38
0.0246658506406 -0.0554981639413 0.833 1.18026549183e-38
0.0261445432172 -0.0553649150483 0.831 1.17101019574e-38
0.0276824575241 -0.0553649150483 0.831 1.24465795887e-38
0.029220371831 -0.0553649150483 0.831 1.2724597204e-38
0.0307582861379 -0.0553649150483 0.831 1.3184850882e-38
0.0322184719239 -0.0552316661553 0.829 1.29997449601e-38
0.0337526848727 -0.0552316661553 0.829 1.29990274952e-38
0.0353720290586 -0.0553649150483 0.831 1.42879530331e-38
0.0369099433655 -0.0553649150483 0.831 1.37347876617e-38
0.0385403916259 -0.0554981639413 0.833 1.4563818254e-38
0.0400820072909 -0.0554981639413 0.833 1.45609483947e-38
0.0417235596257 -0.0556314128343 0.835 1.10485993991e-38
0.0433725146768 -0.0557646617273 0.837 1.15827519529e-38
0.0451362118302 -0.0560311595134 0.841 1.37771180857e-38
0.046803673672 -0.0561644084064 0.843 1.42380892286e-38
0.0485932803324 -0.0564309061924 0.847 1.46086598049e-38
0.0503976924253 -0.0566974039784 0.851 1.53451374361e-38
0.0519726203136 -0.0566974039784 0.851 1.59826049232e-38
0.0535475482019 -0.0566974039784 0.851 1.69002466238e-38
0.0553167973925 -0.056897277318 0.854 1.50610213699e-38
0.056897277318 -0.056897277318 0.854 1.44181728968e-38
0.0584777572435 -0.056897277318 0.854 2.3472812863e-38
0.060058237169 -0.056897277318 0.854 2.35097987346e-38
0.0616387170945 -0.056897277318 0.854 2.35098309645e-38
-0.00158418128364 -0.0554463449273 0.856 2.3503288302e-38
0.0 -0.0554463449273 0.856 2.35029379774e-38
0.00158418128364 -0.0554463449273 0.856 2.35004310544e-38
0.00316836256728 -0.0554463449273 0.856 2.35098169515e-38
0.00476364792533 -0.0555758924622 0.858 8.17335915806e-39
0.00633672513455 -0.0554463449273 0.856 1.1020259539e-38
0.0079023996275 -0.0553167973925 0.854 1.03774110659e-38
0.00944956732974 -0.0551224760902 0.851 1.06529175543e-38
0.011024495218 -0.0551224760902 0.851 1.0469246562e-38
0.0125994231063 -0.0551224760902 0.851 1.01019045774e-38
0.0141410387714 -0.0549929285553 0.849 1.01937400735e-38
0.0157122653015 -0.0549929285553 0.849 9.73456259275e-39
0.0172020619526 -0.0547338334855 0.845 9.55089160043e-39
0.0187214694688 -0.0546042859506 0.843 8.99987862348e-39
0.0202334742687 -0.0544747384158 0.841 7.98968816575e-39
0.0217898953663 -0.0544747384158 0.841 9.92827949375e-39
0.0232352757197 -0.054215643346 0.837 1.17911796852e-38
0.024784294101 -0.054215643346 0.837 1.20760090124e-38
0.026270389394 -0.0540860958111 0.835 1.18005025239e-38
0.0278157064172 -0.0540860958111 0.835 1.23536678953e-38
0.0293610234403 -0.0540860958111 0.835 1.318305722e-38
0.0308323133007 -0.0539565482763 0.833 1.36422347008e-38
0.0323739289658 -0.0539565482763 0.833 1.34578462436e-38
0.0339155446308 -0.0539565482763 0.833 1.31823397551e-38
0.0354571602958 -0.0539565482763 0.833 1.39163062596e-38
0.0370876085562 -0.0540860958111 0.835 1.48339437564e-38
0.0387254595329 -0.054215643346 0.837 1.15110054716e-38
0.0402744779142 -0.054215643346 0.837 9.09350778168e-39
0.0419234329653 -0.0543451908809 0.839 1.26732984698e-38
0.0435797907326 -0.0544747384158 0.841 1.43284897951e-38
0.0452435512162 -0.0546042859506 0.843 1.36852825896e-38
0.0469147144162 -0.0547338334855 0.845 1.46032788187e-38
0.0485932803324 -0.0548633810204 0.847 1.36845651248e-38
0.0503976924253 -0.0551224760902 0.851 1.59876271768e-38
0.0519726203136 -0.0551224760902 0.851 1.34079824391e-38
0.0535475482019 -0.0551224760902 0.851 1.46018438891e-38
0.0553167973925 -0.0553167973925 0.854 1.70857519158e-38
0.056897277318 -0.0553167973925 0.854 1.3958995416e-38
0.0584777572435 -0.0553167973925 0.854 2.34800295501e-38
0.060058237169 -0.0553167973925 0.854 2.35098407736e-38
0.0616387170945 -0.0553167973925 0.854 2.35080176843e-38
0.00158788264178 -0.0539880098204 0.858 2.35043897226e-38
0.00317576528356 -0.0539880098204 0.858 2.35072876078e-38
0.00476364792533 -0.0539880098204 0.858 8.44886564654e-39
0.00633672513455 -0.0538621636437 0.856 1.19404137678e-38
0.0079023996275 -0.053736317467 0.854 1.04692717854e-38
0.00944956732974 -0.0535475482019 0.851 1.05610820582e-38
0.011024495218 -0.0535475482019 0.851 1.07447530505e-38
0.0125994231063 -0.0535475482019 0.851 1.07447530505e-38
0.0141410387714 -0.0534217020251 0.849 1.03774110659e-38
0.0157122653015 -0.0534217020251 0.849 1.01937400735e-38
0.0172020619526 -0.0531700096716 0.845 1.01937400735e-38
0.0187658857665 -0.0531700096716 0.845 1.01019045774e-38
0.0202815919245 -0.0530441634949 0.843 9.82639808891e-39
0.0218417143803 -0.0530441634949 0.843 9.55089160043e-39
0.0233463164639 -0.0529183173182 0.841 7.71418167727e-39
0.0249027375615 -0.0529183173182 0.841 7.4386751888e-39
0.0263962355707 -0.0527924711414 0.839 9.65169540676e-39
0.0279489553102 -0.0527924711414 0.839 1.14084346279e-38
0.029431349245 -0.0526666249647 0.837 1.1692165337e-38
0.0309803676263 -0.0526666249647 0.837 1.21534952123e-38
0.0324516574867 -0.052540778788 0.835 1.24282842359e-38
0.0339969745099 -0.052540778788 0.835 1.02141878207e-38
0.0356274227702 -0.0526666249647 0.837 8.63253663885e-39
0.0371764411516 -0.0526666249647 0.837 1.0469246562e-38
0.0388179934863 -0.0527924711414 0.839 1.24896274775e-38
0.0403707132258 -0.0527924711414 0.839 1.31324759506e-38
0.0419234329653 -0.0527924711414 0.839 1.38671599199e-38
0.0436834287605 -0.0530441634949 0.843 1.35916674444e-38
0.0453508906023 -0.0531700096716 0.845 1.41426664083e-38
0.0469147144162 -0.0531700096716 0.845 1.59829636556e-38
0.0485932803324 -0.0532958558484 0.847 1.23059564852e-38
0.0502792489648 -0.0534217020251 0.849 1.43342295136e-38
0.0519726203136 -0.0535475482019 0.851 1.33161469429e-38
0.0535475482019 -0.0535475482019 0.851 1.45100153995e-38
0.0553167973925 -0.053736317467 0.854 1.81928379585e-38
0.056897277318 -0.053736317467 0.854 1.34079824391e-38
0.0584777572435 -0.053736317467 0.854 2.34807596266e-38
0.060058237169 -0.053736317467 0.854 2.35098323658e-38
0.00159158399992 -0.0525222719973 0.86 2.34972276861e-38
0.00318316799983 -0.0525222719973 0.86 2.35069260728e-38
0.00476364792533 -0.0524001271787 0.858 6.97949770801e-39
0.00633672513455 -0.0522779823601 0.856 1.01019045774e-38
0.00792090641819 -0.0522779823601 0.856 1.20344100662e-38
0.00944956732974 -0.0519726203136 0.851 1.01019045774e-38
0.011024495218 -0.0519726203136 0.851 1.07447530505e-38
0.0125994231063 -0.0519726203136 0.851 1.07447530505e-38
0.0141410387714 -0.051850475495 0.849 1.08365885466e-38
0.0157122653015 -0.051850475495 0.849 1.1020259539e-38
0.0172427768921 -0.0517283306764 0.847 1.07447530505e-38
0.0187658857665 -0.0516061858578 0.845 1.01019045774e-38
0.0202815919245 -0.0514840410392 0.843 1.01019045774e-38
0.0218417143803 -0.0514840410392 0.843 1.01937400735e-38
0.023401836836 -0.0514840410392 0.843 1.01019045774e-38
0.0249027375615 -0.0513618962206 0.841 1.03774110659e-38
0.0264591586591 -0.0513618962206 0.841 1.06529175543e-38
0.0280155797567 -0.0513618962206 0.841 1.05610820582e-38
0.0295720008543 -0.0513618962206 0.841 1.01019045774e-38
0.0310543947891 -0.051239751402 0.839 1.06529175543e-38
0.0326071145285 -0.051239751402 0.839 1.09284240428e-38
0.034159834268 -0.051239751402 0.839 1.14794370197e-38
0.0357976852446 -0.0513618962206 0.841 1.23059564852e-38
0.0373541063422 -0.0513618962206 0.841 1.34079824391e-38
0.0389105274398 -0.0513618962206 0.841 1.36834889275e-38
0.040563183849 -0.0514840410392 0.843 1.23059564852e-38
0.0421233063048 -0.0514840410392 0.843 1.34079824391e-38
0.0437870667884 -0.0516061858578 0.845 1.47855148814e-38
0.0453508906023 -0.0516061858578 0.845 1.35916534314e-38
0.0470257551603 -0.0517283306764 0.847 1.55219925127e-38
0.0485932803324 -0.0517283306764 0.847 1.38671599199e-38
0.0502792489648 -0.051850475495 0.849 1.40508309122e-38
0.0519726203136 -0.0519726203136 0.851 1.41426664083e-38
0.0535475482019 -0.0519726203136 0.851 1.69967610555e-38
0.0553167973925 -0.0521558375415 0.854 1.34998179352e-38
0.056897277318 -0.0521558375415 0.854 1.38671599199e-38
0.0584777572435 -0.0521558375415 0.854 2.34958235851e-38
0.00159158399992 -0.0509306879973 0.86 2.35026100735e-38
0.00318316799983 -0.0509306879973 0.86 2.35073030221e-38
0.00477475199975 -0.0509306879973 0.86 8.3634873337e-39
0.00633672513455 -0.0506938010764 0.856 1.09284240428e-38
0.00792090641819 -0.0506938010764 0.856 1.21262315493e-38
0.00948287955299 -0.050575357616 0.854 1.11214220777e-38
0.011024495218 -0.0503976924253 0.851 1.05610820582e-38
0.0125994231063 -0.0503976924253 0.851 1.09284240428e-38
0.0141743509946 -0.0503976924253 0.851 1.1020259539e-38
0.0157122653015 -0.0502792489648 0.849 1.1020259539e-38
0.0172834918317 -0.0502792489648 0.849 1.08365885466e-38
0.0188103020641 -0.0501608055044 0.847 1.06529175543e-38
0.0203778272361 -0.0501608055044 0.847 1.08365885466e-38
0.0219453524082 -0.0501608055044 0.847 1.08365885466e-38
0.0234573572081 -0.0500423620439 0.845 1.07447530505e-38
0.025021181022 -0.0500423620439 0.845 1.11120950351e-38
0.0265850048358 -0.0500423620439 0.845 1.12957660274e-38
0.0281488286497 -0.0500423620439 0.845 1.12957660274e-38
0.0297126524636 -0.0500423620439 0.845 1.16631080121e-38
0.0312764762774 -0.0500423620439 0.845 1.19386145005e-38
0.0328403000913 -0.0500423620439 0.845 1.23977919813e-38
0.0344041239052 -0.0500423620439 0.845 1.23977919813e-38
0.0358828164819 -0.0499239185834 0.843 1.23977919813e-38
0.0374429389376 -0.0499239185834 0.843 1.21222854929e-38
0.0390030613933 -0.0499239185834 0.843 1.26732984698e-38
0.040563183849 -0.0499239185834 0.843 1.30420753841e-38
0.0422232429745 -0.0500423620439 0.845 1.39615065429e-38
0.0437870667884 -0.0500423620439 0.845 1.48773503776e-38
0.0453508906023 -0.0500423620439 0.845 1.41426664083e-38
0.0470257551603 -0.0501608055044 0.847 1.49695446062e-38
0.0485932803324 -0.0501608055044 0.847 1.55201988507e-38
0.0502792489648 -0.0502792489648 0.849 1.47855148814e-38
0.051850475495 -0.0502792489648 0.849 1.56138280089e-38
0.0535475482019 -0.0503976924253 0.851 1.50707085462e-38
0.0553167973925 -0.050575357616 0.854 1.54341563224e-38
0.056897277318 -0.050575357616 0.854 1.37753244237e-38
0.0584777572435 -0.050575357616 0.854 2.34976424705e-38
0.00159158399992 -0.0493391039974 0.86 2.34964906031e-38
0.00318316799983 -0.0493391039974 0.86 2.35083722128e-38
0.00477475199975 -0.0493391039974 0.86 1.50039997328e-38
0.00635153056711 -0.0492243618951 0.858 1.1020259539e-38
0.00792090641819 -0.0491096197928 0.856 1.25007481821e-38
0.00948287955299 -0.0489948776905 0.854 1.01969686652e-38
0.011024495218 -0.048822764537 0.851 1.07476229097e-38
0.0125994231063 -0.048822764537 0.851 1.1020259539e-38
0.0141743509946 -0.048822764537 0.851 1.1020259539e-38
0.0157122653015 -0.0487080224347 0.849 1.11120950351e-38
0.0172834918317 -0.0487080224347 0.849 1.12957660274e-38
0.0188103020641 -0.0485932803324 0.847 1.12957660274e-38
0.0203778272361 -0.0485932803324 0.847 1.11120950351e-38
0.0219453524082 -0.0485932803324 0.847 1.12039305313e-38
0.0235128775802 -0.0485932803324 0.847 1.15712725159e-38
0.0250804027522 -0.0485932803324 0.847 1.13876015236e-38
0.0266479279242 -0.0485932803324 0.847 1.17549435082e-38
0.0281488286497 -0.04847853823 0.845 1.2214120989e-38
0.0297126524636 -0.04847853823 0.845 1.23059564852e-38
0.0312764762774 -0.04847853823 0.845 1.24896274775e-38
0.0328403000913 -0.04847853823 0.845 1.2765133966e-38
0.0344041239052 -0.04847853823 0.845 1.34079824391e-38
0.0359679477191 -0.04847853823 0.845 1.34998179352e-38
0.0375317715329 -0.04847853823 0.845 1.30406404544e-38
0.0390955953468 -0.04847853823 0.845 1.30406404544e-38
0.0406594191607 -0.04847853823 0.845 1.32243114468e-38
0.0422232429745 -0.04847853823 0.845 1.50610213699e-38
0.0437870667884 -0.04847853823 0.845 1.47855148814e-38
0.0453508906023 -0.04847853823 0.845 1.48773503776e-38
0.0470257551603 -0.0485932803324 0.847 1.44181728968e-38
0.0485932803324 -0.0485932803324 0.847 1.50610213699e-38
0.0502792489648 -0.0487080224347 0.849 1.54283633545e-38
0.051850475495 -0.0487080224347 0.849 1.61770519007e-38
0.0535475482019 -0.048822764537 0.851 1.43388930349e-38
0.0553167973925 -0.0489948776905 0.854 1.27654926984e-38
0.056897277318 -0.0489948776905 0.854 2.09607975917e-38
0.0584777572435 -0.0489948776905 0.854 2.35022989853e-38
0.00318316799983 -0.0477475199975 0.86 2.35080036713e-38
0.00477475199975 -0.0477475199975 0.86 1.6304096422e-38
0.00636633599967 -0.0477475199975 0.86 1.11120950351e-38
0.00792090641819 -0.0475254385092 0.856 1.1020259539e-38
0.00948287955299 -0.047414397765 0.854 1.13025819432e-38
0.011024495218 -0.0472478366487 0.851 1.1210746447e-38
0.0125994231063 -0.0472478366487 0.851 1.06557874136e-38
0.0141743509946 -0.0472478366487 0.851 1.14794370197e-38
0.0157492788829 -0.0472478366487 0.851 1.1020259539e-38
0.0172834918317 -0.0471367959045 0.849 1.16631080121e-38
0.0188547183618 -0.0471367959045 0.849 1.14794370197e-38
0.0203778272361 -0.0470257551603 0.847 1.12957660274e-38
0.0219453524082 -0.0470257551603 0.847 1.12039305313e-38
0.0235128775802 -0.0470257551603 0.847 1.20304499967e-38
0.0250804027522 -0.0470257551603 0.847 1.2214120989e-38
0.0266479279242 -0.0470257551603 0.847 1.24896274775e-38
0.0282154530962 -0.0470257551603 0.847 1.25814629736e-38
0.0297829782682 -0.0470257551603 0.847 1.24896274775e-38
0.0313505034402 -0.0470257551603 0.847 1.38671599199e-38
0.0329180286122 -0.0470257551603 0.847 1.30406404544e-38
0.0344041239052 -0.0469147144162 0.845 1.34998179352e-38
0.0359679477191 -0.0469147144162 0.845 1.19386145005e-38
0.0375317715329 -0.0469147144162 0.845 1.35916534314e-38
0.0390955953468 -0.0469147144162 0.845 1.33161469429e-38
0.0406594191607 -0.0469147144162 0.845 1.40508309122e-38
0.0422232429745 -0.0469147144162 0.845 1.51528568661e-38
0.0437870667884 -0.0469147144162 0.845 1.50610213699e-38
0.0454582299883 -0.0470257551603 0.847 1.44181728968e-38
0.0470257551603 -0.0470257551603 0.847 1.46936793853e-38
0.0487080224347 -0.0471367959045 0.849 1.46018438891e-38
0.0502792489648 -0.0471367959045 0.849 1.6174184844e-38
0.0519726203136 -0.0472478366487 0.851 1.44339571227e-38
0.0535475482019 -0.0472478366487 0.851 1.37853689311e-38
0.0553167973925 -0.047414397765 0.854 1.46936793853e-38
0.056897277318 -0.047414397765 0.854 2.16084174861e-38
0.0584777572435 -0.047414397765 0.854 2.3502297584e-38
0.00638114143223 -0.0462632753836 0.862 1.56343528275e-38
0.00792090641819 -0.0459412572255 0.856 1.1020259539e-38
0.00948287955299 -0.0458339178395 0.854 1.13951349041e-38
0.011024495218 -0.0456729087604 0.851 1.1114606162e-38
0.0125994231063 -0.0456729087604 0.851 1.03795634603e-38
0.0141743509946 -0.0456729087604 0.851 1.12039305313e-38
0.0157492788829 -0.0456729087604 0.851 1.19386145005e-38
0.0173242067712 -0.0456729087604 0.851 1.13876015236e-38
0.0188547183618 -0.0455655693744 0.849 1.13876015236e-38
0.020425944892 -0.0455655693744 0.849 1.16631080121e-38
0.0219971714221 -0.0455655693744 0.849 1.19386145005e-38
0.0235683979523 -0.0455655693744 0.849 1.24896274775e-38
0.0251396244824 -0.0455655693744 0.849 1.26732984698e-38
0.0266479279242 -0.0454582299883 0.847 1.29488049583e-38
0.0282154530962 -0.0454582299883 0.847 1.32243114468e-38
0.0297829782682 -0.0454582299883 0.847 1.32243114468e-38
0.0313505034402 -0.0454582299883 0.847 1.34079824391e-38
0.0329180286122 -0.0454582299883 0.847 1.37753244237e-38
0.0344855537843 -0.0454582299883 0.847 1.34079824391e-38
0.0359679477191 -0.0453508906023 0.845 1.23059564852e-38
0.0375317715329 -0.0453508906023 0.845 1.46036375512e-38
0.0390955953468 -0.0453508906023 0.845 1.53393977176e-38
0.0406594191607 -0.0453508906023 0.845 1.42345019045e-38
0.0422232429745 -0.0453508906023 0.845 1.46018438891e-38
0.0438907048163 -0.0454582299883 0.847 1.43263514136e-38
0.0454582299883 -0.0454582299883 0.847 1.5433032481e-38
0.0471367959045 -0.0455655693744 0.849 1.25821804385e-38
0.0487080224347 -0.0455655693744 0.849 1.42345019045e-38
0.0502792489648 -0.0455655693744 0.849 1.48863186878e-38
0.0519726203136 -0.0456729087604 0.851 1.41519934509e-38
0.0535475482019 -0.0456729087604 0.851 1.31378779562e-38
0.0553167973925 -0.0458339178395 0.854 1.97665704027e-38
0.056897277318 -0.0458339178395 0.854 2.19015102703e-38
0.00792090641819 -0.0443570759419 0.856 1.04692829958e-38
0.00948287955299 -0.044253437914 0.854 1.06529175543e-38
0.0110633594785 -0.044253437914 0.854 1.12975596895e-38
0.0125994231063 -0.0440979808721 0.851 1.07472641773e-38
0.0141743509946 -0.0440979808721 0.851 1.13876015236e-38
0.0157492788829 -0.0440979808721 0.851 1.23977919813e-38
0.0173242067712 -0.0440979808721 0.851 1.12039305313e-38
0.0188991346595 -0.0440979808721 0.851 1.20304499967e-38
0.020425944892 -0.0439943428442 0.849 1.29488049583e-38
0.0219971714221 -0.0439943428442 0.849 1.26732984698e-38
0.0235683979523 -0.0439943428442 0.849 1.28569694621e-38
0.0251396244824 -0.0439943428442 0.849 1.29488049583e-38
0.0266479279242 -0.0438907048163 0.847 1.32243114468e-38
0.0282154530962 -0.0438907048163 0.847 1.32243114468e-38
0.0297829782682 -0.0438907048163 0.847 1.29488049583e-38
0.0313505034402 -0.0438907048163 0.847 1.31324759506e-38
0.0329180286122 -0.0438907048163 0.847 1.37753244237e-38
0.0344855537843 -0.0438907048163 0.847 1.25814629736e-38
0.0360530789563 -0.0438907048163 0.847 1.41426664083e-38
0.0376206041283 -0.0438907048163 0.847 1.36842063924e-38
0.0391881293003 -0.0438907048163 0.847 1.35916534314e-38
0.0407556544723 -0.0438907048163 0.847 1.51611217244e-38
0.0423231796443 -0.0438907048163 0.847 1.40537077779e-38
0.0438907048163 -0.0438907048163 0.847 1.31324759506e-38
0.0455655693744 -0.0439943428442 0.849 1.46057899456e-38
0.0471367959045 -0.0439943428442 0.849 1.29488049583e-38
0.048822764537 -0.0440979808721 0.851 1.59855028084e-38
0.0503976924253 -0.0440979808721 0.851 1.42470575387e-38
0.0519726203136 -0.0440979808721 0.851 1.30449452433e-38
0.053736317467 -0.044253437914 0.854 1.75492439946e-38
0.0553167973925 -0.044253437914 0.854 1.89505088277e-38
0.056897277318 -0.044253437914 0.854 2.34734980979e-38
0.00793941320889 -0.042872831328 0.858 1.66527955319e-38
0.00950508770183 -0.0427728946582 0.856 1.0469246562e-38
0.0110633594785 -0.0426729579885 0.854 1.17549603238e-38
0.0125994231063 -0.0425230529838 0.851 1.13015057459e-38
0.0141743509946 -0.0425230529838 0.851 1.11153236268e-38
0.0157492788829 -0.0425230529838 0.851 1.23059564852e-38
0.0173242067712 -0.0425230529838 0.851 1.08365885466e-38
0.0188991346595 -0.0425230529838 0.851 1.2214482524e-38
0.020425944892 -0.0424231163141 0.849 1.18478552016e-38
0.0219971714221 -0.0424231163141 0.849 1.31342696126e-38
0.0235683979523 -0.0424231163141 0.849 1.2765133966e-38
0.0251396244824 -0.0424231163141 0.849 1.32264666438e-38
0.0266479279242 -0.0423231796443 0.847 1.37832165366e-38
0.0282154530962 -0.0423231796443 0.847 1.33222453938e-38
0.0297829782682 -0.0423231796443 0.847 1.23063152176e-38
0.0313505034402 -0.0423231796443 0.847 1.40562118983e-38
0.0329180286122 -0.0423231796443 0.847 1.28576869269e-38
0.0344855537843 -0.0423231796443 0.847 1.37814494993e-38
0.0360530789563 -0.0423231796443 0.847 1.46076004232e-38
0.0376206041283 -0.0423231796443 0.847 1.28591498825e-38
0.0391881293003 -0.0423231796443 0.847 1.4238447961e-38
0.0407556544723 -0.0423231796443 0.847 1.31378569367e-38
0.0423231796443 -0.0423231796443 0.847 1.49781625917e-38
0.0439943428442 -0.0424231163141 0.849 1.29488049583e-38
0.0455655693744 -0.0424231163141 0.849 1.38711059763e-38
0.0472478366487 -0.0425230529838 0.851 1.25814938022e-38
0.048822764537 -0.0425230529838 0.851 1.5251508278e-38
0.0503976924253 -0.0425230529838 0.851 1.31392918663e-38
0.0521558375415 -0.0426729579885 0.854 1.38671599199e-38
0.053736317467 -0.0426729579885 0.854 1.986310165e-38
0.0554463449273 -0.0427728946582 0.856 2.21766496185e-38
0.057030526211 -0.0427728946582 0.856 2.34886741603e-38
0.00950508770183 -0.0411887133746 0.856 1.56411421186e-38
0.0110633594785 -0.041092478063 0.854 1.02855755697e-38
0.012643839404 -0.041092478063 0.854 1.13876099314e-38
0.0142243193295 -0.041092478063 0.854 1.15727074455e-38
0.0157492788829 -0.0409481250955 0.851 1.15712725159e-38
0.0173242067712 -0.0409481250955 0.851 1.07454705153e-38
0.0188991346595 -0.0409481250955 0.851 1.29549160209e-38
0.0204740625478 -0.0409481250955 0.851 1.15712725159e-38
0.0219971714221 -0.0408518897839 0.849 1.23977919813e-38
0.0235683979523 -0.0408518897839 0.849 1.35952407555e-38
0.0251396244824 -0.0408518897839 0.849 1.16649016741e-38
0.0266479279242 -0.0407556544723 0.847 1.2033319856e-38
0.0282154530962 -0.0407556544723 0.847 1.26747333994e-38
0.0297829782682 -0.0407556544723 0.847 1.23070326824e-38
0.0313505034402 -0.0407556544723 0.847 1.28569694621e-38
0.0329180286122 -0.0407556544723 0.847 1.32264638412e-38
0.0344855537843 -0.0407556544723 0.847 1.25814629736e-38
0.0360530789563 -0.0407556544723 0.847 1.45168369204e-38
0.0376206041283 -0.0407556544723 0.847 1.2214120989e-38
0.0391881293003 -0.0407556544723 0.847 1.34079824391e-38
0.0408518897839 -0.0408518897839 0.849 1.42409590878e-38
