# .PCD v0.7 - Point Cloud Data file format
VERSION 0.7
FIELDS x y z rgb
SIZE 4 4 4 4
TYPE F F F F
COUNT 1 1 1 1
WIDTH 851
HEIGHT 1
VIEWPOINT 0 0 0 1 0 0 0
POINTS 851
DATA ascii
0.00323868837192 -0.161934418596 0.875 8.76706129143e-39
0.00487468866951 -0.162489622317 0.878 9.13440327606e-39
0.00649958489268 -0.162489622317 0.878 9.59537441888e-39
0.00812448111586 -0.162489622317 0.878 9.59573315129e-39
0.00977158548786 -0.162859758131 0.88 9.59501568648e-39
0.0114001830692 -0.162859758131 0.88 9.96379260074e-39
0.0130583915156 -0.163229893945 0.882 1.09768529177e-38
0.0146573782318 -0.162859758131 0.88 1.06077172711e-38
0.0162859758131 -0.162859758131 0.88 1.1253076871e-38
0.0179145733944 -0.162859758131 0.88 1.07903120662e-38
0.0195431709757 -0.162859758131 0.88 1.58460301709e-38
-0.0213401803524 -0.162513681145 0.887 1.62991120034e-38
-0.0196986280176 -0.162513681145 0.887 1.77767798327e-38
-0.0180570756828 -0.162513681145 0.887 4.96736763789e-39
-0.016415523348 -0.162513681145 0.887 6.91671953681e-39
-0.0147406587899 -0.162147246689 0.885 7.19294349009e-39
-0.0130583915156 -0.161597595006 0.882 7.83866182245e-39
-0.0114260925761 -0.161597595006 0.882 8.3007091625e-39
-0.00977158548786 -0.16123116055 0.88 7.8408142169e-39
-0.00814298790655 -0.16123116055 0.88 8.02699633606e-39
-0.00651439032524 -0.16123116055 0.88 8.2117435256e-39
-0.00487468866951 -0.160864726094 0.878 8.12134295907e-39
-0.00324979244634 -0.160864726094 0.878 7.75077238277e-39
-0.00162489622317 -0.160864726094 0.878 8.76634382661e-39
0.0 -0.160864726094 0.878 8.95037355134e-39
0.00162489622317 -0.160864726094 0.878 8.58374903152e-39
0.00324979244634 -0.160864726094 0.878 8.8596142524e-39
0.00487468866951 -0.160864726094 0.878 8.76813748865e-39
0.00651439032524 -0.16123116055 0.88 9.78012160842e-39
0.00814298790655 -0.16123116055 0.88 9.68792737985e-39
0.0097937936367 -0.161597595006 0.882 9.87123963976e-39
0.0114260925761 -0.161597595006 0.882 1.12527335529e-38
0.0130583915156 -0.161597595006 0.882 1.06073585387e-38
0.014690690455 -0.161597595006 0.882 1.06073585387e-38
0.0163229893945 -0.161597595006 0.882 1.13445536348e-38
0.0179552883339 -0.161597595006 0.882 1.09747005233e-38
0.0195875872734 -0.161597595006 0.882 1.6676529324e-38
-0.0213882980082 -0.161234861908 0.889 1.74965635801e-38
-0.0197430443153 -0.161234861908 0.889 1.80501073021e-38
-0.0180977906223 -0.161234861908 0.889 6.06867612697e-39
-0.016415523348 -0.16087212881 0.887 7.10110799394e-39
-0.0147739710132 -0.16087212881 0.887 7.37733194722e-39
-0.0131028078133 -0.160509395713 0.885 7.56207913676e-39
-0.0114260925761 -0.159965296066 0.882 8.3007091625e-39
-0.00977158548786 -0.159602562968 0.88 8.11847309981e-39
-0.00814298790655 -0.159602562968 0.88 8.02627887125e-39
-0.00651439032524 -0.159602562968 0.88 8.11954929703e-39
-0.00487468866951 -0.159239829871 0.878 8.4886849437e-39
-0.00324979244634 -0.159239829871 0.878 8.02843126569e-39
-0.00162489622317 -0.159239829871 0.878 8.94965608652e-39
0.0 -0.159239829871 0.878 8.58374903152e-39
0.00162489622317 -0.159239829871 0.878 8.49155480295e-39
0.00324979244634 -0.159239829871 0.878 8.95180848096e-39
0.00488579274393 -0.159602562968 0.88 8.67522579527e-39
0.00651439032524 -0.159602562968 0.88 9.59573315129e-39
0.00816149469725 -0.159965296066 0.882 9.41026849694e-39
0.0097937936367 -0.159965296066 0.882 1.01485397903e-38
0.0114649568366 -0.160509395713 0.885 1.02392990892e-38
0.0131028078133 -0.160509395713 0.885 1.13449123672e-38
0.0147406587899 -0.160509395713 0.885 1.09757767205e-38
0.0163785097666 -0.160509395713 0.885 1.11594477128e-38
0.0180163607432 -0.160509395713 0.885 1.12520006738e-38
0.0196986280176 -0.16087212881 0.887 1.81513104785e-38
-0.0213882980082 -0.159589608215 0.889 1.80519079706e-38
-0.0197430443153 -0.159589608215 0.889 1.399637225e-38
-0.0180977906223 -0.159589608215 0.889 6.80945854715e-39
-0.0164525369294 -0.159589608215 0.889 7.28262659181e-39
-0.0147739710132 -0.159230576475 0.887 7.19294349009e-39
-0.0131028078133 -0.158871544736 0.885 7.56207913676e-39
-0.0114260925761 -0.158332997127 0.882 7.65606702736e-39
-0.0097937936367 -0.158332997127 0.882 8.02520267403e-39
-0.00814298790655 -0.157973965387 0.88 8.02556140643e-39
-0.00651439032524 -0.157973965387 0.88 8.02627887125e-39
-0.00488579274393 -0.157973965387 0.88 8.39505578551e-39
-0.00324979244634 -0.157614933648 0.878 8.48725001407e-39
-0.00162489622317 -0.157614933648 0.878 7.66037181624e-39
0.0 -0.157973965387 0.88 8.49155480295e-39
0.00162859758131 -0.157973965387 0.88 8.5826728343e-39
0.00325719516262 -0.157973965387 0.88 8.49227226777e-39
0.00488579274393 -0.157973965387 0.88 8.58374903152e-39
0.0065291957578 -0.158332997127 0.882 9.13619693809e-39
0.00816149469725 -0.158332997127 0.882 9.59501568648e-39
0.00982710585995 -0.158871544736 0.885 1.00538344349e-38
0.0114908663436 -0.159230576475 0.887 1.07917469958e-38
0.0131324186784 -0.159230576475 0.887 1.06995527672e-38
0.0147739710132 -0.159230576475 0.887 1.07913882634e-38
0.016415523348 -0.159230576475 0.887 1.13427599727e-38
0.0180570756828 -0.159230576475 0.887 1.21703556354e-38
0.0196986280176 -0.159230576475 0.887 1.67683746292e-38
-0.021436415664 -0.158299684903 0.891 6.42848473106e-39
-0.0197874606129 -0.158299684903 0.891 5.78563625795e-39
-0.0181385055618 -0.158299684903 0.891 8.00905971572e-39
-0.0164525369294 -0.157944354522 0.889 6.82165544899e-39
-0.0148072832364 -0.157944354522 0.889 7.10039052912e-39
-0.0131324186784 -0.157589024141 0.887 7.10182545875e-39
-0.0114649568366 -0.157233693759 0.885 7.93121478343e-39
-0.0097937936367 -0.156700698187 0.882 7.93157351583e-39
-0.00816149469725 -0.156700698187 0.882 8.20959113115e-39
-0.00651439032524 -0.156345367806 0.88 7.84153168171e-39
-0.00488579274393 -0.156345367806 0.88 8.48725001407e-39
-0.00325719516262 -0.156345367806 0.88 8.12062549425e-39
-0.00162859758131 -0.156345367806 0.88 8.21353718763e-39
0.0 -0.156345367806 0.88 8.30680761342e-39
0.00162859758131 -0.156345367806 0.88 8.85925551999e-39
0.00325719516262 -0.156345367806 0.88 8.8596142524e-39
0.00488579274393 -0.156345367806 0.88 9.13547947328e-39
0.0065291957578 -0.156700698187 0.882 8.95180848096e-39
0.00816149469725 -0.156700698187 0.882 9.41026849694e-39
0.00982710585995 -0.157233693759 0.885 1.01467461282e-38
0.0114908663436 -0.157589024141 0.887 1.00541931673e-38
0.0131324186784 -0.157589024141 0.887 1.06066410738e-38
0.0147739710132 -0.157589024141 0.887 1.09747005233e-38
0.016415523348 -0.157589024141 0.887 1.18037311156e-38
0.0180570756828 -0.157589024141 0.887 1.01406476773e-38
0.0196986280176 -0.157589024141 0.887 1.27055843864e-38
-0.0230853707151 -0.156650729852 0.891 5.41829427332e-39
-0.021436415664 -0.156650729852 0.891 6.24481373874e-39
-0.0197874606129 -0.156650729852 0.891 8.54900383609e-39
-0.0180977906223 -0.156299100829 0.889 7.46091659802e-39
-0.0164525369294 -0.156299100829 0.889 6.91384967755e-39
-0.0148072832364 -0.156299100829 0.889 6.82380784343e-39
-0.0131324186784 -0.155947471806 0.887 7.46952617579e-39
-0.0114908663436 -0.155947471806 0.887 7.47060237301e-39
-0.00982710585995 -0.155595842783 0.885 7.65534956255e-39
-0.00816149469725 -0.155068399248 0.882 7.47275476745e-39
-0.0065291957578 -0.155068399248 0.882 8.02627887125e-39
-0.00488579274393 -0.154716770224 0.88 8.21066732838e-39
-0.00325719516262 -0.154716770224 0.88 8.02843126569e-39
-0.00162859758131 -0.154716770224 0.88 8.39649071513e-39
0.0 -0.154716770224 0.88 8.67199720361e-39
0.00162859758131 -0.154716770224 0.88 8.76419143217e-39
0.00325719516262 -0.154716770224 0.88 8.94965608652e-39
0.00488579274393 -0.154716770224 0.88 8.76742002383e-39
0.0065291957578 -0.155068399248 0.882 9.04292651231e-39
0.00818925488329 -0.155595842783 0.885 9.59358075685e-39
0.00984931400879 -0.155947471806 0.887 9.77832794638e-39
0.0114908663436 -0.155947471806 0.887 1.0330775853e-38
0.0131620295435 -0.156299100829 0.889 1.04215351519e-38
0.0148072832364 -0.156299100829 0.889 1.08814300975e-38
0.016415523348 -0.155947471806 0.887 1.15249960354e-38
0.0180570756828 -0.155947471806 0.887 1.05994664257e-38
0.0197430443153 -0.156299100829 0.889 8.44886564654e-39
-0.0230853707151 -0.155001774801 0.891 7.99148322908e-39
-0.021436415664 -0.155001774801 0.891 7.5330218118e-39
-0.0197874606129 -0.155001774801 0.891 5.32645877716e-39
-0.0180977906223 -0.154653847136 0.889 8.19058952398e-39
-0.0164525369294 -0.154653847136 0.889 6.82165544899e-39
-0.0148072832364 -0.154653847136 0.889 6.73197234727e-39
-0.0131620295435 -0.154653847136 0.889 7.56243786917e-39
-0.0114908663436 -0.154305919471 0.887 7.46988490819e-39
-0.00984931400879 -0.154305919471 0.887 7.37948434166e-39
-0.00818925488329 -0.153957991806 0.885 7.84153168171e-39
-0.0065291957578 -0.153436100308 0.882 7.74933745314e-39
-0.00489689681835 -0.153436100308 0.882 8.39433832069e-39
-0.00325719516262 -0.153088172643 0.88 8.21102606078e-39
-0.00162859758131 -0.153088172643 0.88 8.57980297504e-39
0.0 -0.153088172643 0.88 8.57980297504e-39
0.00163229893945 -0.153436100308 0.882 8.76419143217e-39
0.0032645978789 -0.153436100308 0.882 8.85746185796e-39
0.00489689681835 -0.153436100308 0.882 8.76526762939e-39
0.0065291957578 -0.153436100308 0.882 9.40990976453e-39
0.00818925488329 -0.153957991806 0.885 9.31699807115e-39
0.00984931400879 -0.154305919471 0.887 9.96092274148e-39
0.0114908663436 -0.154305919471 0.887 1.01453111986e-38
0.0131620295435 -0.154653847136 0.889 1.02385816244e-38
0.0148072832364 -0.154653847136 0.889 1.06044886794e-38
0.0164525369294 -0.154653847136 0.889 1.21685619733e-38
0.0180977906223 -0.154653847136 0.889 1.2347210712e-38
0.0197430443153 -0.154653847136 0.889 9.91823358506e-39
-0.02321491825 -0.154213385518 0.896 7.07133320417e-39
-0.0215567098035 -0.154213385518 0.896 6.24481373874e-39
-0.0198540850594 -0.153869159211 0.894 6.06114274643e-39
-0.0181385055618 -0.15335281975 0.891 4.13259732711e-39
-0.0164895505108 -0.15335281975 0.891 7.91938362049e-39
-0.0148072832364 -0.153008593443 0.889 6.6394193863e-39
-0.0131620295435 -0.153008593443 0.889 7.00819630056e-39
-0.0115167758506 -0.153008593443 0.889 7.4702436406e-39
-0.00984931400879 -0.152664367136 0.887 7.37984307407e-39
-0.00818925488329 -0.152320140829 0.885 7.47060237301e-39
-0.00655140390664 -0.152320140829 0.885 8.02520267403e-39
-0.00489689681835 -0.151803801369 0.882 7.84153168171e-39
-0.0032645978789 -0.151803801369 0.882 7.93372591027e-39
-0.00163229893945 -0.151803801369 0.882 8.21066732838e-39
0.0 -0.151803801369 0.882 8.57908551023e-39
0.00163229893945 -0.151803801369 0.882 8.21102606078e-39
0.0032645978789 -0.151803801369 0.882 8.39505578551e-39
0.00489689681835 -0.151803801369 0.882 8.67199720361e-39
0.00655140390664 -0.152320140829 0.885 9.04005665305e-39
0.00820776167399 -0.152664367136 0.887 9.49959286625e-39
0.00984931400879 -0.152664367136 0.887 1.01431588042e-38
0.0115167758506 -0.153008593443 0.889 1.01442350014e-38
0.0131620295435 -0.153008593443 0.889 9.59393948926e-39
0.0148072832364 -0.153008593443 0.889 1.08814300975e-38
0.0164525369294 -0.153008593443 0.889 1.29039634074e-38
0.0180977906223 -0.153008593443 0.889 1.00323104904e-38
0.0197874606129 -0.15335281975 0.891 1.27712324169e-38
-0.0267386111986 -0.153747014392 0.903 5.60196526564e-39
-0.0250674479987 -0.153747014392 0.903 7.16317850941e-39
-0.0232667372639 -0.15289570202 0.898 6.97949770801e-39
-0.0215567098035 -0.152555177071 0.896 6.61215572338e-39
-0.0198985013571 -0.152555177071 0.896 5.96930725027e-39
-0.0181385055618 -0.151703864699 0.891 5.87747175411e-39
-0.0164895505108 -0.151703864699 0.891 3.489748854e-39
-0.0148072832364 -0.15136333975 0.889 5.51299962873e-39
-0.0131620295435 -0.15136333975 0.889 8.84347549798e-39
-0.0115167758506 -0.15136333975 0.889 8.02089788514e-39
-0.00984931400879 -0.151022814801 0.887 7.47096110542e-39
-0.00820776167399 -0.151022814801 0.887 7.19581334935e-39
-0.00656620933919 -0.151022814801 0.887 8.02520267403e-39
-0.00491355292998 -0.150682289853 0.885 7.8408142169e-39
-0.00327570195332 -0.150682289853 0.885 7.84153168171e-39
-0.00163785097666 -0.150682289853 0.885 8.11847309981e-39
0.0 -0.150682289853 0.885 8.5776505806e-39
0.00163785097666 -0.150682289853 0.885 8.48653254926e-39
0.00327570195332 -0.150682289853 0.885 8.57872677782e-39
0.00491355292998 -0.150682289853 0.885 8.67127973879e-39
0.00656620933919 -0.151022814801 0.887 9.22444511018e-39
0.00820776167399 -0.151022814801 0.887 9.40739863768e-39
0.00984931400879 -0.151022814801 0.887 1.06012600877e-38
0.0115167758506 -0.15136333975 0.889 1.0417230363e-38
0.0131916404086 -0.151703864699 0.891 1.13398901135e-38
0.0148405954597 -0.151703864699 0.891 1.17007749148e-38
0.0164895505108 -0.151703864699 0.891 8.18304493305e-39
0.0181995779711 -0.152214652122 0.894 1.36016979388e-38
0.0198540850594 -0.152214652122 0.894 1.3594882023e-38
0.0216048274593 -0.15289570202 0.898 1.42391654258e-38
-0.0283468513102 -0.151739027601 0.901 9.10895149205e-39
-0.0266793894684 -0.151739027601 0.901 5.14278778485e-39
-0.0248731266964 -0.150896968625 0.896 6.79582811699e-39
-0.02321491825 -0.150896968625 0.896 7.07133320417e-39
-0.0216048274593 -0.151233792215 0.898 6.79582671569e-39
-0.0198985013571 -0.150896968625 0.896 6.42848473106e-39
-0.0181995779711 -0.150560145034 0.894 6.52032022722e-39
-0.0164895505108 -0.150054909648 0.891 6.52032022722e-39
-0.0148405954597 -0.150054909648 0.891 6.42848473106e-39
-0.0131620295435 -0.149718086057 0.889 4.13259732711e-39
-0.0115167758506 -0.149718086057 0.889 4.49993931174e-39
-0.00987152215763 -0.149718086057 0.889 6.80659989829e-39
-0.00820776167399 -0.149381262467 0.887 8.47612930946e-39
-0.00656620933919 -0.149381262467 0.887 8.93961157913e-39
-0.00492465700439 -0.149381262467 0.887 9.30982342302e-39
-0.0032831046696 -0.149381262467 0.887 9.22049905371e-39
-0.00163785097666 -0.149044438876 0.885 9.40596370806e-39
0.0 -0.149044438876 0.885 9.40596370806e-39
0.00163785097666 -0.149044438876 0.885 9.58999343278e-39
0.00327570195332 -0.149044438876 0.885 9.68218766134e-39
0.00491355292998 -0.149044438876 0.885 1.06016188201e-38
0.00656620933919 -0.149381262467 0.887 1.00484534488e-38
0.00820776167399 -0.149381262467 0.887 1.06913019219e-38
0.00984931400879 -0.149381262467 0.887 1.13319980005e-38
0.0115167758506 -0.149718086057 0.889 1.04021636019e-38
0.0131916404086 -0.150054909648 0.891 7.81247435675e-39
0.0148405954597 -0.150054909648 0.891 1.16684889982e-38
0.0165450708829 -0.150560145034 0.894 1.35970344175e-38
0.0182402929107 -0.150896968625 0.896 1.4240241623e-38
0.0199429176548 -0.151233792215 0.898 1.42413178202e-38
0.0216048274593 -0.151233792215 0.898 1.50699896801e-38
0.0233444657848 -0.151739027601 0.901 1.3781781607e-38
0.0250119276266 -0.151739027601 0.901 1.30406404544e-38
-0.0299143764822 -0.149571882411 0.898 1.96065351116e-38
-0.0282524666776 -0.149571882411 0.898 1.17786198471e-38
-0.026590556873 -0.149571882411 0.898 6.06114274643e-39
-0.0248731266964 -0.149238760178 0.896 7.07133320417e-39
-0.02321491825 -0.149238760178 0.896 7.16316870032e-39
-0.0215567098035 -0.149238760178 0.896 7.07133320417e-39
-0.0198985013571 -0.149238760178 0.896 7.07133320417e-39
-0.0181995779711 -0.148905637946 0.894 6.97949770801e-39
-0.0164895505108 -0.148405954597 0.891 6.97949770801e-39
-0.0148405954597 -0.148405954597 0.891 7.07133320417e-39
-0.0131620295435 -0.148072832364 0.889 6.97949770801e-39
-0.0115167758506 -0.148072832364 0.889 7.07133320417e-39
-0.00987152215763 -0.148072832364 0.889 6.61215572338e-39
-0.00820776167399 -0.147739710132 0.887 6.24481373874e-39
-0.00656620933919 -0.147739710132 0.887 6.3366492349e-39
-0.00492465700439 -0.147739710132 0.887 5.6938007618e-39
-0.0032831046696 -0.147739710132 0.887 5.32645877716e-39
-0.0016415523348 -0.147739710132 0.887 5.87747175411e-39
0.0 -0.147739710132 0.887 6.61538431504e-39
0.0016415523348 -0.147739710132 0.887 7.4440561749e-39
0.0032831046696 -0.147739710132 0.887 7.90215745847e-39
0.00492465700439 -0.147739710132 0.887 7.53051068496e-39
0.00656620933919 -0.147739710132 0.887 8.81764256079e-39
0.00820776167399 -0.147739710132 0.887 1.05725614952e-38
0.00984931400879 -0.147739710132 0.887 1.27759099512e-38
0.0115167758506 -0.148072832364 0.889 1.38833028782e-38
0.0131916404086 -0.148405954597 0.891 1.45243576892e-38
0.0148405954597 -0.148405954597 0.891 1.36020566712e-38
0.0165450708829 -0.148905637946 0.894 1.40580055603e-38
0.0182402929107 -0.149238760178 0.896 1.41491235917e-38
0.0199429176548 -0.149571882411 0.898 1.44239126153e-38
0.0216770039431 -0.15007156576 0.901 1.48845250257e-38
0.0233444657848 -0.15007156576 0.901 1.38729290656e-38
0.0250119276266 -0.15007156576 0.901 1.2214120989e-38
-0.0299143764822 -0.147909972606 0.898 2.08954592482e-38
-0.0282524666776 -0.147909972606 0.898 1.02095242994e-38
-0.0265313351428 -0.147580551732 0.896 6.06114274643e-39
-0.0248731266964 -0.147580551732 0.896 6.79582671569e-39
-0.02321491825 -0.147580551732 0.896 7.07133320417e-39
-0.0215567098035 -0.147580551732 0.896 7.25500419648e-39
-0.0198985013571 -0.147580551732 0.896 7.62234618111e-39
-0.0181995779711 -0.147251130857 0.894 7.53051068496e-39
-0.0164895505108 -0.146756999546 0.891 7.53051068496e-39
-0.0148405954597 -0.146756999546 0.891 7.4386751888e-39
-0.0131916404086 -0.146756999546 0.891 7.53051068496e-39
-0.0115426853575 -0.146756999546 0.891 7.62234618111e-39
-0.00987152215763 -0.146427578671 0.889 7.53051068496e-39
-0.00822626846469 -0.146427578671 0.889 7.71418167727e-39
-0.00658101477175 -0.146427578671 0.889 7.98968816575e-39
-0.00492465700439 -0.146098157797 0.887 8.17335915806e-39
-0.0032831046696 -0.146098157797 0.887 8.35703015038e-39
-0.0016415523348 -0.146098157797 0.887 8.35703015038e-39
0.0 -0.146098157797 0.887 9.45905610427e-39
0.0016415523348 -0.146098157797 0.887 1.01937400735e-38
0.0032831046696 -0.146098157797 0.887 1.1020259539e-38
0.00492465700439 -0.146098157797 0.887 1.18474964692e-38
0.00656620933919 -0.146098157797 0.887 1.3874001059e-38
0.00820776167399 -0.146098157797 0.887 1.34187444113e-38
0.00984931400879 -0.146098157797 0.887 1.49828289156e-38
0.0115167758506 -0.146427578671 0.889 1.45239989568e-38
0.0131916404086 -0.146756999546 0.891 1.46147736701e-38
0.0148405954597 -0.146756999546 0.891 1.45218745884e-38
0.0165450708829 -0.147251130857 0.894 1.45164655763e-38
0.0182402929107 -0.147580551732 0.896 1.45179005059e-38
0.0198985013571 -0.147580551732 0.896 1.43335120488e-38
0.0216048274593 -0.147909972606 0.898 1.46118883965e-38
0.0232667372639 -0.147909972606 0.898 1.38757694976e-38
0.0249286470685 -0.147909972606 0.898 1.12957660274e-38
-0.0300809375984 -0.147062361592 0.903 2.11720391313e-38
-0.0283468513102 -0.146736642076 0.901 1.29757098888e-38
-0.0265313351428 -0.145922343285 0.896 5.87747175411e-39
-0.0248731266964 -0.145922343285 0.896 7.07133320417e-39
-0.02321491825 -0.145922343285 0.896 6.97949770801e-39
-0.0215567098035 -0.145922343285 0.896 7.07133320417e-39
-0.0198985013571 -0.145922343285 0.896 7.62234618111e-39
-0.0181995779711 -0.145596623769 0.894 7.71418167727e-39
-0.0164895505108 -0.145108044495 0.891 7.89785266959e-39
-0.0148405954597 -0.145108044495 0.891 7.98968816575e-39
-0.0131916404086 -0.145108044495 0.891 8.26519465422e-39
-0.0115167758506 -0.144782324979 0.889 8.17335915806e-39
-0.00987152215763 -0.144782324979 0.889 7.98968816575e-39
-0.00822626846469 -0.144782324979 0.889 8.35703015038e-39
-0.00658101477175 -0.144782324979 0.889 8.81620763117e-39
-0.00493576107881 -0.144782324979 0.889 8.81620763117e-39
-0.00329050738588 -0.144782324979 0.889 8.99987862348e-39
-0.0016415523348 -0.144456605462 0.887 9.55089160043e-39
0.0 -0.144456605462 0.887 1.02855755697e-38
0.0016415523348 -0.144456605462 0.887 1.11120950351e-38
0.0032831046696 -0.144456605462 0.887 1.15712725159e-38
0.00492465700439 -0.144456605462 0.887 1.31364332175e-38
0.00656620933919 -0.144456605462 0.887 1.26790381883e-38
0.00822626846469 -0.144782324979 0.889 1.34144396224e-38
0.00987152215763 -0.144782324979 0.889 1.51657936535e-38
0.0115167758506 -0.144782324979 0.889 1.44318047283e-38
0.0131916404086 -0.145108044495 0.891 1.48906332857e-38
0.0148905637946 -0.145596623769 0.894 1.46129701989e-38
0.0165450708829 -0.145596623769 0.894 1.54416392562e-38
0.0182402929107 -0.145922343285 0.896 1.48902829611e-38
0.0198985013571 -0.145922343285 0.896 1.47977117833e-38
0.0216048274593 -0.146248062802 0.898 1.36920985053e-38
0.0232667372639 -0.146248062802 0.898 1.18467790044e-38
0.0249286470685 -0.146248062802 0.898 1.07447530505e-38
-0.0300809375984 -0.145391198392 0.903 2.29258916775e-38
-0.0282524666776 -0.144586152997 0.898 1.00262120395e-38
-0.026590556873 -0.144586152997 0.898 5.6938007618e-39
-0.0248731266964 -0.144264134839 0.896 6.61215572338e-39
-0.02321491825 -0.144264134839 0.896 6.97949770801e-39
-0.0215567098035 -0.144264134839 0.896 7.16316870032e-39
-0.0198540850594 -0.143942116681 0.894 7.16316870032e-39
-0.0181385055618 -0.143459089444 0.891 7.53051068496e-39
-0.0164895505108 -0.143459089444 0.891 7.71418167727e-39
-0.0148405954597 -0.143459089444 0.891 7.98968816575e-39
-0.0131620295435 -0.143137071286 0.889 8.26519465422e-39
-0.0115167758506 -0.143137071286 0.889 8.54070114269e-39
-0.00987152215763 -0.143137071286 0.889 8.81620763117e-39
-0.00822626846469 -0.143137071286 0.889 8.90804312733e-39
-0.00658101477175 -0.143137071286 0.889 9.45905610427e-39
-0.00493576107881 -0.143137071286 0.889 9.55089160043e-39
-0.00329050738588 -0.143137071286 0.889 1.01937400735e-38
-0.0016415523348 -0.142815053127 0.887 1.01937400735e-38
0.0 -0.142815053127 0.887 1.09284240428e-38
0.0016415523348 -0.142815053127 0.887 1.14794370197e-38
0.0032831046696 -0.142815053127 0.887 1.22173495807e-38
0.00492465700439 -0.142815053127 0.887 1.29563383388e-38
0.00656620933919 -0.142815053127 0.887 1.34173094816e-38
0.00822626846469 -0.143137071286 0.889 1.36928159701e-38
0.00987152215763 -0.143137071286 0.889 1.49821016417e-38
0.0115167758506 -0.143137071286 0.889 1.4615834453e-38
0.0131620295435 -0.143137071286 0.889 1.52611968555e-38
0.0148405954597 -0.143459089444 0.891 1.47080286816e-38
0.0165450708829 -0.143942116681 0.894 1.48924367569e-38
0.0182402929107 -0.144264134839 0.896 1.36935334349e-38
0.0198985013571 -0.144264134839 0.896 1.14794370197e-38
0.0216048274593 -0.144586152997 0.898 1.12039305313e-38
0.0232667372639 -0.144586152997 0.898 1.1020259539e-38
0.0249286470685 -0.144586152997 0.898 9.82639808891e-39
-0.0300809375984 -0.143720035193 0.903 2.17277983061e-38
-0.0282524666776 -0.142924243193 0.898 1.32515751097e-38
-0.0265313351428 -0.142605926393 0.896 5.96930725027e-39
-0.0248731266964 -0.142605926393 0.896 6.42848473106e-39
-0.02321491825 -0.142605926393 0.896 6.61215572338e-39
-0.0215567098035 -0.142605926393 0.896 7.25500419648e-39
-0.0197874606129 -0.141810134393 0.891 7.16316870032e-39
-0.0181385055618 -0.141810134393 0.891 7.62234618111e-39
-0.0164525369294 -0.141491817593 0.889 7.53051068496e-39
-0.0148072832364 -0.141491817593 0.889 7.71418167727e-39
-0.0131620295435 -0.141491817593 0.889 7.89785266959e-39
-0.0115167758506 -0.141491817593 0.889 8.35703015038e-39
-0.00987152215763 -0.141491817593 0.889 8.26519465422e-39
-0.00820776167399 -0.141173500793 0.887 8.81620763117e-39
-0.00656620933919 -0.141173500793 0.887 9.45905610427e-39
-0.00492465700439 -0.141173500793 0.887 9.55089160043e-39
-0.0032831046696 -0.141173500793 0.887 1.00100690812e-38
-0.0016415523348 -0.141173500793 0.887 1.03774110659e-38
0.0 -0.141173500793 0.887 1.07447530505e-38
0.0016415523348 -0.141173500793 0.887 1.13876015236e-38
0.0032831046696 -0.141173500793 0.887 1.18492901312e-38
0.00492465700439 -0.141173500793 0.887 1.24049666295e-38
0.00656620933919 -0.141173500793 0.887 1.27730260789e-38
0.00820776167399 -0.141173500793 0.887 1.31403680635e-38
0.00984931400879 -0.141173500793 0.887 1.31374982043e-38
0.0115167758506 -0.141491817593 0.889 1.23059564852e-38
0.0131620295435 -0.141491817593 0.889 1.23059564852e-38
0.0148405954597 -0.141810134393 0.891 1.08365885466e-38
0.0165450708829 -0.142287609593 0.894 1.02855755697e-38
0.0182402929107 -0.142605926393 0.896 1.05610820582e-38
0.0198985013571 -0.142605926393 0.896 1.03774110659e-38
0.0216048274593 -0.142924243193 0.898 1.1020259539e-38
0.0232667372639 -0.142924243193 0.898 1.06529175543e-38
0.0249286470685 -0.142924243193 0.898 9.45905610427e-39
-0.0300143131519 -0.141734256551 0.901 2.13568255572e-38
-0.0281895435892 -0.140947717946 0.896 9.74747695939e-39
-0.0265313351428 -0.140947717946 0.896 5.23462328101e-39
-0.0248731266964 -0.140947717946 0.896 6.61215572338e-39
-0.02321491825 -0.140947717946 0.896 6.97949770801e-39
-0.021436415664 -0.140161179342 0.891 7.25500419648e-39
-0.0197874606129 -0.140161179342 0.891 6.79582671569e-39
-0.0181385055618 -0.140161179342 0.891 7.16316870032e-39
-0.0164525369294 -0.1398465639 0.889 7.53051068496e-39
-0.0148072832364 -0.1398465639 0.889 7.62234618111e-39
-0.0131620295435 -0.1398465639 0.889 7.71418167727e-39
-0.0115167758506 -0.1398465639 0.889 8.17335915806e-39
-0.00987152215763 -0.1398465639 0.889 8.26519465422e-39
-0.00820776167399 -0.139531948458 0.887 8.35703015038e-39
-0.00656620933919 -0.139531948458 0.887 8.63253663885e-39
-0.00492465700439 -0.139531948458 0.887 9.45905610427e-39
-0.0032831046696 -0.139531948458 0.887 9.64272709659e-39
-0.0016415523348 -0.139531948458 0.887 9.91823358506e-39
0.0 -0.139531948458 0.887 1.01019045774e-38
0.0016415523348 -0.139531948458 0.887 1.01937400735e-38
0.0032831046696 -0.139531948458 0.887 1.01937400735e-38
0.00492465700439 -0.139531948458 0.887 1.0469246562e-38
0.00656620933919 -0.139531948458 0.887 1.03774110659e-38
0.00820776167399 -0.139531948458 0.887 1.03774110659e-38
0.00984931400879 -0.139531948458 0.887 1.01019045774e-38
0.0115167758506 -0.1398465639 0.889 1.01019045774e-38
0.0131620295435 -0.1398465639 0.889 1.02855755697e-38
0.0148405954597 -0.140161179342 0.891 1.03774110659e-38
0.0164895505108 -0.140161179342 0.891 9.55089160043e-39
0.0181995779711 -0.140633102504 0.894 1.03774110659e-38
0.0198985013571 -0.140947717946 0.896 1.01937400735e-38
0.0215567098035 -0.140947717946 0.896 1.03774110659e-38
0.02321491825 -0.140947717946 0.896 1.07447530505e-38
0.0248731266964 -0.140947717946 0.896 9.82639808891e-39
0.026590556873 -0.141262333388 0.898 2.08776291265e-38
-0.0300143131519 -0.140066794709 0.901 2.07096610848e-38
-0.0281895435892 -0.1392895095 0.896 1.17757499878e-38
-0.0265313351428 -0.1392895095 0.896 6.3366492349e-39
-0.0248731266964 -0.1392895095 0.896 6.52032022722e-39
-0.02321491825 -0.1392895095 0.896 6.97949770801e-39
-0.021436415664 -0.13851222429 0.891 7.07133320417e-39
-0.0197874606129 -0.13851222429 0.891 7.07133320417e-39
-0.0180977906223 -0.138201310207 0.889 7.25500419648e-39
-0.0164525369294 -0.138201310207 0.889 7.25500419648e-39
-0.0148072832364 -0.138201310207 0.889 7.25500419648e-39
-0.0131620295435 -0.138201310207 0.889 7.62234618111e-39
-0.0114908663436 -0.137890396123 0.887 7.71418167727e-39
-0.00984931400879 -0.137890396123 0.887 7.98968816575e-39
-0.00820776167399 -0.137890396123 0.887 7.80601717343e-39
-0.00656620933919 -0.137890396123 0.887 8.35703015038e-39
-0.00492465700439 -0.137890396123 0.887 8.81620763117e-39
-0.0032831046696 -0.137890396123 0.887 8.63253663885e-39
-0.0016415523348 -0.137890396123 0.887 8.81620763117e-39
0.0 -0.137890396123 0.887 8.72437213501e-39
0.0016415523348 -0.137890396123 0.887 9.09171411964e-39
0.0032831046696 -0.137890396123 0.887 9.45905610427e-39
0.00492465700439 -0.137890396123 0.887 9.45905610427e-39
0.00656620933919 -0.137890396123 0.887 8.81620763117e-39
0.00820776167399 -0.137890396123 0.887 8.99987862348e-39
0.00984931400879 -0.137890396123 0.887 9.45905610427e-39
0.0115167758506 -0.138201310207 0.889 9.82639808891e-39
0.0131620295435 -0.138201310207 0.889 9.73456259275e-39
0.0148072832364 -0.138201310207 0.889 9.82639808891e-39
0.0164895505108 -0.13851222429 0.891 8.90804312733e-39
0.0181995779711 -0.138978595416 0.894 1.01937400735e-38
0.0198985013571 -0.1392895095 0.896 1.03774110659e-38
0.0215567098035 -0.1392895095 0.896 1.09284240428e-38
0.02321491825 -0.1392895095 0.896 1.06529175543e-38
0.0248731266964 -0.1392895095 0.896 9.45905610427e-39
0.0265313351428 -0.1392895095 0.896 1.98641960641e-38
-0.0321037298216 -0.140242609221 0.913 1.87746192458e-38
-0.0301808742682 -0.139167364681 0.906 2.08965704779e-38
-0.0285041590311 -0.139167364681 0.906 8.1805338062e-39
-0.0265313351428 -0.137631301053 0.896 5.96930725027e-39
-0.0248731266964 -0.137631301053 0.896 6.61215572338e-39
-0.02321491825 -0.137631301053 0.896 7.07133320417e-39
-0.021436415664 -0.136863269239 0.891 6.97949770801e-39
-0.0197874606129 -0.136863269239 0.891 7.07133320417e-39
-0.0180977906223 -0.136556056514 0.889 6.97949770801e-39
-0.0164525369294 -0.136556056514 0.889 7.80601717343e-39
-0.0148072832364 -0.136556056514 0.889 7.4386751888e-39
-0.0131620295435 -0.136556056514 0.889 7.62234618111e-39
-0.0114908663436 -0.136248843788 0.887 7.80601717343e-39
-0.00984931400879 -0.136248843788 0.887 7.53051068496e-39
-0.00820776167399 -0.136248843788 0.887 7.98968816575e-39
-0.00656620933919 -0.136248843788 0.887 8.26519465422e-39
-0.00492465700439 -0.136248843788 0.887 8.44886564654e-39
-0.0032831046696 -0.136248843788 0.887 8.44886564654e-39
-0.0016415523348 -0.136248843788 0.887 8.54070114269e-39
0.0 -0.136248843788 0.887 8.81620763117e-39
0.0016415523348 -0.136248843788 0.887 8.72437213501e-39
0.0032831046696 -0.136248843788 0.887 8.90804312733e-39
0.00492465700439 -0.136248843788 0.887 8.90804312733e-39
0.00656620933919 -0.136248843788 0.887 8.99987862348e-39
0.00820776167399 -0.136248843788 0.887 8.99987862348e-39
0.00984931400879 -0.136248843788 0.887 8.99987862348e-39
0.0115167758506 -0.136556056514 0.889 9.45905610427e-39
0.0131620295435 -0.136556056514 0.889 9.45905610427e-39
0.0148072832364 -0.136556056514 0.889 9.55089160043e-39
0.0164895505108 -0.136863269239 0.891 9.91823358506e-39
0.0181995779711 -0.137324088328 0.894 1.01019045774e-38
0.0198985013571 -0.137631301053 0.896 1.06529175543e-38
0.0215085921477 -0.137324088328 0.894 1.08365885466e-38
0.023163099236 -0.137324088328 0.894 1.08365885466e-38
0.0248731266964 -0.137631301053 0.896 9.91823358506e-39
0.0265313351428 -0.137631301053 0.896 2.33643929995e-38
-0.033867426975 -0.138856450597 0.915 1.94196257185e-38
-0.0321037298216 -0.13855293923 0.913 1.87760541754e-38
-0.0302474987147 -0.137794160811 0.908 2.14507812179e-38
-0.0285041590311 -0.137490649444 0.906 1.06701367099e-38
-0.0267386111986 -0.137035382393 0.903 6.70399121953e-39
-0.0249286470685 -0.136276603974 0.898 6.52032022722e-39
-0.0232667372639 -0.136276603974 0.898 6.70399121953e-39
-0.0215567098035 -0.135973092607 0.896 7.07133320417e-39
-0.0197874606129 -0.135214314188 0.891 6.97949770801e-39
-0.0180977906223 -0.134910802821 0.889 7.07133320417e-39
-0.0164525369294 -0.134910802821 0.889 7.07133320417e-39
-0.0148072832364 -0.134910802821 0.889 7.25500419648e-39
-0.0131620295435 -0.134910802821 0.889 7.34683969264e-39
-0.0114908663436 -0.134607291453 0.887 7.80601717343e-39
-0.00984931400879 -0.134607291453 0.887 7.71418167727e-39
-0.00820776167399 -0.134607291453 0.887 8.0815236619e-39
-0.00656620933919 -0.134607291453 0.887 8.26519465422e-39
-0.00492465700439 -0.134607291453 0.887 8.44886564654e-39
-0.0032831046696 -0.134607291453 0.887 8.63253663885e-39
-0.0016415523348 -0.134607291453 0.887 8.72437213501e-39
0.0 -0.134607291453 0.887 8.81620763117e-39
0.0016415523348 -0.134607291453 0.887 8.81620763117e-39
0.0032831046696 -0.134607291453 0.887 8.81620763117e-39
0.00492465700439 -0.134607291453 0.887 8.99987862348e-39
0.00656620933919 -0.134607291453 0.887 9.55089160043e-39
0.00820776167399 -0.134607291453 0.887 9.27538511196e-39
0.00987152215763 -0.134910802821 0.889 8.90804312733e-39
0.0115167758506 -0.134910802821 0.889 8.90804312733e-39
0.0131620295435 -0.134910802821 0.889 9.64272709659e-39
0.0148405954597 -0.135214314188 0.891 9.82639808891e-39
0.0164895505108 -0.135214314188 0.891 9.73456259275e-39
0.0181995779711 -0.135669581239 0.894 9.82639808891e-39
0.0198985013571 -0.135973092607 0.896 1.01937400735e-38
0.0215085921477 -0.135669581239 0.894 1.05610820582e-38
0.023163099236 -0.135669581239 0.894 1.13876015236e-38
0.0248731266964 -0.135973092607 0.896 9.73456259275e-39
-0.033867426975 -0.137163079249 0.915 1.978875576e-38
-0.0321037298216 -0.136863269239 0.913 1.91448338923e-38
-0.0302474987147 -0.136113744216 0.908 2.20972198177e-38
-0.0285041590311 -0.135813934207 0.906 6.52283135407e-39
-0.0267386111986 -0.135364219193 0.903 5.14278778485e-39
-0.0249286470685 -0.13461469417 0.898 6.61215572338e-39
-0.0232667372639 -0.13461469417 0.898 7.07133320417e-39
-0.0215567098035 -0.13431488416 0.896 6.79582671569e-39
-0.0197874606129 -0.133565359137 0.891 6.97949770801e-39
-0.0181385055618 -0.133565359137 0.891 7.07133320417e-39
-0.0164525369294 -0.133265549128 0.889 7.16316870032e-39
-0.0148072832364 -0.133265549128 0.889 7.71418167727e-39
-0.0131620295435 -0.133265549128 0.889 7.98968816575e-39
-0.0114908663436 -0.132965739119 0.887 7.62234618111e-39
-0.00984931400879 -0.132965739119 0.887 7.62234618111e-39
-0.00820776167399 -0.132965739119 0.887 8.17335915806e-39
-0.00656620933919 -0.132965739119 0.887 8.35703015038e-39
-0.00492465700439 -0.132965739119 0.887 8.35703015038e-39
-0.0032831046696 -0.132965739119 0.887 8.72437213501e-39
-0.0016415523348 -0.132965739119 0.887 8.72437213501e-39
0.0 -0.132965739119 0.887 8.63253663885e-39
0.0016415523348 -0.132965739119 0.887 9.09171411964e-39
0.0032831046696 -0.132965739119 0.887 8.99987862348e-39
0.00492465700439 -0.132965739119 0.887 9.1835496158e-39
0.00656620933919 -0.132965739119 0.887 9.09171411964e-39
0.00822626846469 -0.133265549128 0.889 9.64272709659e-39
0.00987152215763 -0.133265549128 0.889 8.72437213501e-39
0.0115167758506 -0.133265549128 0.889 8.90804312733e-39
0.0131620295435 -0.133265549128 0.889 9.55089160043e-39
0.0148405954597 -0.133565359137 0.891 9.73456259275e-39
0.0164895505108 -0.133565359137 0.891 9.36722060812e-39
0.0181995779711 -0.134015074151 0.894 9.91823358506e-39
0.0198985013571 -0.13431488416 0.896 1.01937400735e-38
0.0215567098035 -0.13431488416 0.896 1.0469246562e-38
0.02321491825 -0.13431488416 0.896 1.03774110659e-38
0.0248731266964 -0.13431488416 0.896 9.36722060812e-39
-0.0302474987147 -0.134433327621 0.908 2.18196015724e-38
-0.0285041590311 -0.13413721897 0.906 6.24588993596e-39
-0.0267386111986 -0.133693055993 0.903 5.51012976948e-39
-0.0249286470685 -0.132952784365 0.898 6.42848473106e-39
-0.0232667372639 -0.132952784365 0.898 7.07133320417e-39
-0.0215567098035 -0.132656675714 0.896 7.07133320417e-39
-0.0197874606129 -0.131916404086 0.891 7.16316870032e-39
-0.0181385055618 -0.131916404086 0.891 7.07133320417e-39
-0.0164525369294 -0.131620295435 0.889 6.97949770801e-39
-0.0148072832364 -0.131620295435 0.889 7.25500419648e-39
-0.0131620295435 -0.131620295435 0.889 7.71418167727e-39
-0.0115167758506 -0.131620295435 0.889 7.71418167727e-39
-0.00984931400879 -0.131324186784 0.887 7.80601717343e-39
-0.00820776167399 -0.131324186784 0.887 8.0815236619e-39
-0.00656620933919 -0.131324186784 0.887 7.98968816575e-39
-0.00492465700439 -0.131324186784 0.887 8.54070114269e-39
-0.0032831046696 -0.131324186784 0.887 8.72437213501e-39
-0.0016415523348 -0.131324186784 0.887 8.63253663885e-39
0.0 -0.131324186784 0.887 8.99987862348e-39
0.0016415523348 -0.131324186784 0.887 9.09171411964e-39
0.0032831046696 -0.131324186784 0.887 8.90804312733e-39
0.00492465700439 -0.131324186784 0.887 8.90804312733e-39
0.00658101477175 -0.131620295435 0.889 8.90804312733e-39
0.00822626846469 -0.131620295435 0.889 8.99987862348e-39
0.00987152215763 -0.131620295435 0.889 8.81620763117e-39
0.0115167758506 -0.131620295435 0.889 9.09171411964e-39
0.0131620295435 -0.131620295435 0.889 9.82639808891e-39
0.0148405954597 -0.131916404086 0.891 1.00100690812e-38
0.0165450708829 -0.132360567063 0.894 9.55089160043e-39
0.0182402929107 -0.132656675714 0.896 9.64272709659e-39
0.0198985013571 -0.132656675714 0.896 1.01937400735e-38
0.0215567098035 -0.132656675714 0.896 1.07447530505e-38
0.02321491825 -0.132656675714 0.896 1.1020259539e-38
0.0248731266964 -0.132656675714 0.896 9.55089160043e-39
-0.0302474987147 -0.132752911026 0.908 2.2555329509e-38
-0.0285041590311 -0.132460503733 0.906 7.16747348921e-39
-0.026827443794 -0.132460503733 0.906 4.95911679253e-39
-0.0251507285568 -0.132460503733 0.906 6.88766221185e-39
-0.0233444657848 -0.1317294855 0.901 7.07133320417e-39
-0.0216048274593 -0.131290874561 0.898 6.79582671569e-39
-0.0198985013571 -0.130998467268 0.896 7.07133320417e-39
-0.0181385055618 -0.130267449035 0.891 7.34683969264e-39
-0.0164895505108 -0.130267449035 0.891 7.25500419648e-39
-0.0148072832364 -0.129975041742 0.889 7.71418167727e-39
-0.0131620295435 -0.129975041742 0.889 7.80601717343e-39
-0.0115167758506 -0.129975041742 0.889 7.71418167727e-39
-0.00987152215763 -0.129975041742 0.889 7.62234618111e-39
-0.00822626846469 -0.129975041742 0.889 7.71418167727e-39
-0.00656620933919 -0.129682634449 0.887 7.98968816575e-39
-0.00492465700439 -0.129682634449 0.887 8.72437213501e-39
-0.0032831046696 -0.129682634449 0.887 8.72437213501e-39
-0.0016415523348 -0.129682634449 0.887 8.54070114269e-39
0.0 -0.129682634449 0.887 8.99987862348e-39
0.0016415523348 -0.129682634449 0.887 9.09171411964e-39
0.0032831046696 -0.129682634449 0.887 9.09171411964e-39
0.00493576107881 -0.129975041742 0.889 9.09171411964e-39
0.00658101477175 -0.129975041742 0.889 9.55089160043e-39
0.00822626846469 -0.129975041742 0.889 9.55089160043e-39
0.00987152215763 -0.129975041742 0.889 8.99987862348e-39
0.0115167758506 -0.129975041742 0.889 8.90804312733e-39
0.0131620295435 -0.129975041742 0.889 9.45905610427e-39
0.0148405954597 -0.130267449035 0.891 1.00100690812e-38
0.0165450708829 -0.130706059975 0.894 1.01019045774e-38
0.0182402929107 -0.130998467268 0.896 1.01019045774e-38
0.0198985013571 -0.130998467268 0.896 1.07447530505e-38
0.0215085921477 -0.130706059975 0.894 1.05610820582e-38
0.023163099236 -0.130706059975 0.894 1.05610820582e-38
0.0248731266964 -0.130998467268 0.896 9.55089160043e-39
-0.0319982411146 -0.131361200365 0.91 1.9973861682e-38
-0.0302474987147 -0.13107249443 0.908 2.20954247543e-38
-0.0285041590311 -0.130783788496 0.906 6.61394938541e-39
-0.026827443794 -0.130783788496 0.906 5.23462328101e-39
-0.0251507285568 -0.130783788496 0.906 6.52032022722e-39
-0.0234740133197 -0.130783788496 0.906 6.79582671569e-39
-0.0216048274593 -0.129628964756 0.898 7.07133320417e-39
-0.0199429176548 -0.129628964756 0.898 7.80601717343e-39
-0.0181995779711 -0.129051552886 0.894 7.53051068496e-39
-0.0164895505108 -0.128618493984 0.891 7.53051068496e-39
-0.0148405954597 -0.128618493984 0.891 7.53051068496e-39
-0.0131620295435 -0.128329788049 0.889 7.98968816575e-39
-0.0115167758506 -0.128329788049 0.889 7.62234618111e-39
-0.00987152215763 -0.128329788049 0.889 7.80601717343e-39
-0.00822626846469 -0.128329788049 0.889 7.80601717343e-39
-0.00656620933919 -0.128041082114 0.887 8.0815236619e-39
-0.00492465700439 -0.128041082114 0.887 8.72437213501e-39
-0.0032831046696 -0.128041082114 0.887 8.90804312733e-39
-0.00164525369294 -0.128329788049 0.889 9.1835496158e-39
0.0 -0.128329788049 0.889 8.99987862348e-39
0.0016415523348 -0.128041082114 0.887 9.09171411964e-39
0.0032831046696 -0.128041082114 0.887 9.09171411964e-39
0.00493576107881 -0.128329788049 0.889 9.45905610427e-39
0.00658101477175 -0.128329788049 0.889 9.45905610427e-39
0.00822626846469 -0.128329788049 0.889 9.27538511196e-39
0.00989373030646 -0.128618493984 0.891 8.90804312733e-39
0.0115426853575 -0.128618493984 0.891 8.99987862348e-39
0.0131916404086 -0.128618493984 0.891 9.55089160043e-39
0.0148405954597 -0.128618493984 0.891 1.01019045774e-38
0.0165450708829 -0.129051552886 0.894 1.01937400735e-38
0.0182402929107 -0.129340258821 0.896 1.01937400735e-38
0.0198985013571 -0.129340258821 0.896 1.03774110659e-38
0.0215085921477 -0.129051552886 0.894 1.12039305313e-38
0.023163099236 -0.129051552886 0.894 1.08365885466e-38
-0.0319982411146 -0.129677082412 0.91 1.95132492715e-38
-0.0303141231612 -0.129677082412 0.91 2.26493370178e-38
-0.0285670821194 -0.129392077835 0.908 7.53625040347e-39
-0.026827443794 -0.129107073258 0.906 5.60196526564e-39
-0.0251507285568 -0.129107073258 0.906 6.52032022722e-39
-0.0234740133197 -0.129107073258 0.906 6.52032022722e-39
-0.0217972980826 -0.129107073258 0.906 6.97949770801e-39
-0.0200095421013 -0.128394561817 0.901 7.71418167727e-39
-0.0182402929107 -0.127682050375 0.896 7.62234618111e-39
-0.0165450708829 -0.127397045798 0.894 7.62234618111e-39
-0.0148905637946 -0.127397045798 0.894 7.71418167727e-39
-0.0131916404086 -0.126969538933 0.891 7.98968816575e-39
-0.0115167758506 -0.126684534356 0.889 7.53051068496e-39
-0.00987152215763 -0.126684534356 0.889 7.98968816575e-39
-0.00822626846469 -0.126684534356 0.889 7.71418167727e-39
-0.00658101477175 -0.126684534356 0.889 7.98968816575e-39
-0.00492465700439 -0.126399529779 0.887 8.72437213501e-39
-0.0032831046696 -0.126399529779 0.887 8.63253663885e-39
-0.00164525369294 -0.126684534356 0.889 8.99987862348e-39
0.0 -0.126684534356 0.889 8.90804312733e-39
0.00164525369294 -0.126684534356 0.889 8.99987862348e-39
0.00329050738588 -0.126684534356 0.889 9.55089160043e-39
0.00493576107881 -0.126684534356 0.889 9.55089160043e-39
0.00659582020431 -0.126969538933 0.891 9.82639808891e-39
0.00824477525538 -0.126969538933 0.891 9.73456259275e-39
0.00989373030646 -0.126969538933 0.891 8.81620763117e-39
0.011581549618 -0.127397045798 0.894 8.99987862348e-39
0.0132360567063 -0.127397045798 0.894 9.55089160043e-39
0.0148905637946 -0.127397045798 0.894 1.01019045774e-38
0.0165820844643 -0.127682050375 0.896 9.91823358506e-39
0.0182402929107 -0.127682050375 0.896 1.02855755697e-38
0.0199429176548 -0.127967054951 0.898 1.1020259539e-38
0.0215567098035 -0.127682050375 0.896 1.07447530505e-38
0.02321491825 -0.127682050375 0.896 1.06529175543e-38
-0.0321037298216 -0.128414919286 0.913 1.95121870873e-38
-0.0303141231612 -0.127992964458 0.91 2.22787818558e-38
-0.0285670821194 -0.12771166124 0.908 6.61394938541e-39
-0.026827443794 -0.127430358021 0.906 5.60196526564e-39
-0.0251507285568 -0.127430358021 0.906 6.61215572338e-39
-0.0234740133197 -0.127430358021 0.906 6.52032022722e-39
-0.0217972980826 -0.127430358021 0.906 6.97949770801e-39
-0.020053958399 -0.127008403193 0.903 7.25500419648e-39
-0.0182402929107 -0.126023841928 0.896 6.97949770801e-39
-0.0165820844643 -0.126023841928 0.896 7.53051068496e-39
-0.0148905637946 -0.12574253871 0.894 7.62234618111e-39
-0.0132360567063 -0.12574253871 0.894 7.98968816575e-39
-0.0115426853575 -0.125320583882 0.891 7.80601717343e-39
-0.00989373030646 -0.125320583882 0.891 8.26519465422e-39
-0.00822626846469 -0.125039280663 0.889 8.26519465422e-39
-0.00658101477175 -0.125039280663 0.889 8.35703015038e-39
-0.00493576107881 -0.125039280663 0.889 8.72437213501e-39
-0.00329050738588 -0.125039280663 0.889 8.99987862348e-39
-0.00164525369294 -0.125039280663 0.889 8.81620763117e-39
0.0 -0.125039280663 0.889 9.1835496158e-39
0.00164525369294 -0.125039280663 0.889 9.09171411964e-39
0.00329050738588 -0.125039280663 0.889 9.64272709659e-39
0.00493576107881 -0.125039280663 0.889 9.73456259275e-39
0.00659582020431 -0.125320583882 0.891 9.73456259275e-39
0.00824477525538 -0.125320583882 0.891 9.55089160043e-39
0.00992704252972 -0.12574253871 0.894 8.72437213501e-39
0.011581549618 -0.12574253871 0.894 8.90804312733e-39
0.0132656675714 -0.126023841928 0.896 9.64272709659e-39
0.0149238760178 -0.126023841928 0.896 1.01019045774e-38
0.0165820844643 -0.126023841928 0.896 1.01019045774e-38
0.0182810078502 -0.126305145147 0.898 1.01937400735e-38
0.0200095421013 -0.126727099975 0.901 1.07447530505e-38
0.0216770039431 -0.126727099975 0.901 1.06529175543e-38
0.0233444657848 -0.126727099975 0.901 1.00100690812e-38
-0.0321037298216 -0.126725249296 0.913 2.07111086261e-38
-0.0303141231612 -0.126308846505 0.91 2.21884065126e-38
-0.0285670821194 -0.126031244645 0.908 6.98308503208e-39
-0.026827443794 -0.125753642784 0.906 5.41829427332e-39
-0.0251507285568 -0.125753642784 0.906 6.70399121953e-39
-0.0234740133197 -0.125753642784 0.906 6.79582671569e-39
-0.0217972980826 -0.125753642784 0.906 7.07133320417e-39
-0.0201205828455 -0.125753642784 0.906 7.07133320417e-39
-0.0182810078502 -0.124643235342 0.898 7.25500419648e-39
-0.0165820844643 -0.124365633482 0.896 7.34683969264e-39
-0.0149238760178 -0.124365633482 0.896 7.34683969264e-39
-0.0132360567063 -0.124088031621 0.894 7.62234618111e-39
-0.011581549618 -0.124088031621 0.894 7.62234618111e-39
-0.00989373030646 -0.123671628831 0.891 7.71418167727e-39
-0.00824477525538 -0.123671628831 0.891 7.98968816575e-39
-0.00659582020431 -0.123671628831 0.891 8.26519465422e-39
-0.00493576107881 -0.12339402697 0.889 8.63253663885e-39
-0.00329050738588 -0.12339402697 0.889 8.54070114269e-39
-0.00164525369294 -0.12339402697 0.889 8.63253663885e-39
0.0 -0.12339402697 0.889 8.63253663885e-39
0.00164895505108 -0.123671628831 0.891 8.99987862348e-39
0.00329791010215 -0.123671628831 0.891 9.55089160043e-39
0.00494686515323 -0.123671628831 0.891 9.55089160043e-39
0.00661802835314 -0.124088031621 0.894 9.55089160043e-39
0.00827253544143 -0.124088031621 0.894 9.55089160043e-39
0.00992704252972 -0.124088031621 0.894 9.64272709659e-39
0.011607459125 -0.124365633482 0.896 8.90804312733e-39
0.0132656675714 -0.124365633482 0.896 8.99987862348e-39
0.0149571882411 -0.124643235342 0.898 9.73456259275e-39
0.0166190980456 -0.124643235342 0.898 9.73456259275e-39
0.0183420802595 -0.125059638133 0.901 1.00100690812e-38
0.020053958399 -0.125337239993 0.903 9.73456259275e-39
0.0216770039431 -0.125059638133 0.901 1.01937400735e-38
0.0233444657848 -0.125059638133 0.901 9.73456259275e-39
-0.0321037298216 -0.125035579305 0.913 2.03430491767e-38
-0.0303141231612 -0.124624728552 0.91 2.25578728658e-38
-0.0286300052078 -0.124624728552 0.91 6.33880162934e-39
-0.0268866655242 -0.124350828049 0.908 5.78563625795e-39
-0.0251507285568 -0.124076927547 0.906 6.52032022722e-39
-0.0234740133197 -0.124076927547 0.906 6.79582671569e-39
-0.0217972980826 -0.124076927547 0.906 7.16316870032e-39
-0.020053958399 -0.123666076794 0.903 7.25500419648e-39
-0.0182810078502 -0.122981325538 0.898 7.25500419648e-39
-0.0166190980456 -0.122981325538 0.898 7.34683969264e-39
-0.0149238760178 -0.122707425035 0.896 7.71418167727e-39
-0.0132656675714 -0.122707425035 0.896 7.98968816575e-39
-0.011607459125 -0.122707425035 0.896 7.53051068496e-39
-0.00992704252972 -0.122433524533 0.894 7.80601717343e-39
-0.00827253544143 -0.122433524533 0.894 8.26519465422e-39
-0.00661802835314 -0.122433524533 0.894 8.63253663885e-39
-0.00494686515323 -0.12202267378 0.891 8.72437213501e-39
-0.00329791010215 -0.12202267378 0.891 8.54070114269e-39
-0.00164895505108 -0.12202267378 0.891 8.72437213501e-39
0.0 -0.12202267378 0.891 8.81620763117e-39
0.00164895505108 -0.12202267378 0.891 8.99987862348e-39
0.00330901417657 -0.122433524533 0.894 9.55089160043e-39
0.00496352126486 -0.122433524533 0.894 9.45905610427e-39
0.00661802835314 -0.122433524533 0.894 8.99987862348e-39
0.00827253544143 -0.122433524533 0.894 8.81620763117e-39
0.00994925067855 -0.122707425035 0.896 9.45905610427e-39
0.011607459125 -0.122707425035 0.896 9.09171411964e-39
0.0132952784365 -0.122981325538 0.898 9.1835496158e-39
0.0149571882411 -0.122981325538 0.898 9.55089160043e-39
0.0166746184177 -0.123392176291 0.901 9.91823358506e-39
0.0183420802595 -0.123392176291 0.901 9.82639808891e-39
0.020053958399 -0.123666076794 0.903 9.55089160043e-39
0.0217251215989 -0.123666076794 0.903 9.91823358506e-39
0.0233962847988 -0.123666076794 0.903 1.00100690812e-38
-0.033867426975 -0.123616108459 0.915 1.95129353807e-38
-0.0321037298216 -0.123345909315 0.913 1.9790257952e-38
-0.0303141231612 -0.122940610598 0.91 2.23738473449e-38
-0.0286300052078 -0.122940610598 0.91 8.73477537481e-39
-0.0268866655242 -0.122670411454 0.908 6.15297824259e-39
-0.0251507285568 -0.12240021231 0.906 6.52032022722e-39
