# .PCD v0.7 - Point Cloud Data file format
VERSION 0.7
FIELDS x y z rgb
SIZE 4 4 4 4
TYPE F F F F
COUNT 1 1 1 1
WIDTH 848
HEIGHT 1
VIEWPOINT 0 0 0 1 0 0 0
POINTS 848
DATA ascii
-0.0182402929107 -0.126023841928 0.896 7.25500419648e-39
-0.0165450708829 -0.12574253871 0.894 7.4386751888e-39
-0.0148405954597 -0.125320583882 0.891 7.62234618111e-39
-0.0131916404086 -0.125320583882 0.891 7.80601717343e-39
-0.0115167758506 -0.125039280663 0.889 7.98968816575e-39
-0.00987152215763 -0.125039280663 0.889 8.54070114269e-39
-0.00822626846469 -0.125039280663 0.889 8.26519465422e-39
-0.00658101477175 -0.125039280663 0.889 8.44886564654e-39
-0.00493576107881 -0.125039280663 0.889 8.72437213501e-39
-0.00329050738588 -0.125039280663 0.889 8.81620763117e-39
-0.00164525369294 -0.125039280663 0.889 8.26519465422e-39
0.0 -0.125039280663 0.889 8.35703015038e-39
0.00164525369294 -0.125039280663 0.889 8.44886564654e-39
0.00329050738588 -0.125039280663 0.889 8.90804312733e-39
0.00493576107881 -0.125039280663 0.889 8.99987862348e-39
0.00658101477175 -0.125039280663 0.889 9.1835496158e-39
0.00822626846469 -0.125039280663 0.889 8.99987862348e-39
0.00987152215763 -0.125039280663 0.889 9.45905610427e-39
0.0115426853575 -0.125320583882 0.891 9.82639808891e-39
0.0131916404086 -0.125320583882 0.891 9.55089160043e-39
0.0148405954597 -0.125320583882 0.891 1.01019045774e-38
0.0165450708829 -0.12574253871 0.894 1.05610820582e-38
0.0182402929107 -0.126023841928 0.896 1.01019045774e-38
0.0198985013571 -0.126023841928 0.896 1.0469246562e-38
0.0215567098035 -0.126023841928 0.896 1.08365885466e-38
0.02321491825 -0.126023841928 0.896 1.07447530505e-38
-0.0354830698028 -0.126725249296 0.913 2.03423205015e-38
-0.033682359068 -0.126308846505 0.91 1.96977344183e-38
-0.03192791531 -0.126031244645 0.908 2.11717308456e-38
-0.0301808742682 -0.125753642784 0.906 2.24642871478e-38
-0.0284097743985 -0.125337239993 0.903 6.61215572338e-39
-0.0267386111986 -0.125337239993 0.903 5.87747175411e-39
-0.0250674479987 -0.125337239993 0.903 6.52032022722e-39
-0.0233962847988 -0.125337239993 0.903 7.16316870032e-39
-0.0216770039431 -0.125059638133 0.901 6.97949770801e-39
-0.0199429176548 -0.124643235342 0.898 7.16316870032e-39
-0.0182402929107 -0.124365633482 0.896 7.53051068496e-39
-0.0165450708829 -0.124088031621 0.894 7.62234618111e-39
-0.0148905637946 -0.124088031621 0.894 7.34683969264e-39
-0.0131916404086 -0.123671628831 0.891 7.62234618111e-39
-0.0115167758506 -0.12339402697 0.889 7.71418167727e-39
-0.00987152215763 -0.12339402697 0.889 8.26519465422e-39
-0.00822626846469 -0.12339402697 0.889 8.35703015038e-39
-0.00658101477175 -0.12339402697 0.889 8.35703015038e-39
-0.00493576107881 -0.12339402697 0.889 8.35703015038e-39
-0.00329050738588 -0.12339402697 0.889 8.35703015038e-39
-0.00164525369294 -0.12339402697 0.889 8.63253663885e-39
0.0 -0.12339402697 0.889 8.26519465422e-39
0.00164525369294 -0.12339402697 0.889 8.81620763117e-39
0.00329050738588 -0.12339402697 0.889 8.99987862348e-39
0.00493576107881 -0.12339402697 0.889 8.63253663885e-39
0.00658101477175 -0.12339402697 0.889 8.99987862348e-39
0.00822626846469 -0.12339402697 0.889 8.90804312733e-39
0.00987152215763 -0.12339402697 0.889 8.99987862348e-39
0.011581549618 -0.124088031621 0.894 9.82639808891e-39
0.0132360567063 -0.124088031621 0.894 9.82639808891e-39
0.0148905637946 -0.124088031621 0.894 1.01937400735e-38
0.0165820844643 -0.124365633482 0.896 1.01937400735e-38
0.0182810078502 -0.124643235342 0.898 1.0469246562e-38
0.0199429176548 -0.124643235342 0.898 1.02855755697e-38
0.0216048274593 -0.124643235342 0.898 1.0469246562e-38
0.0232667372639 -0.124643235342 0.898 1.0469246562e-38
-0.0354830698028 -0.125035579305 0.913 1.96969314742e-38
-0.033682359068 -0.124624728552 0.91 1.95125696418e-38
-0.03192791531 -0.124350828049 0.908 1.98809499886e-38
-0.0301808742682 -0.124076927547 0.906 2.30178098503e-38
-0.0284097743985 -0.123666076794 0.903 5.78563625795e-39
-0.0267386111986 -0.123666076794 0.903 6.06114274643e-39
-0.0250674479987 -0.123666076794 0.903 6.61215572338e-39
-0.0233962847988 -0.123666076794 0.903 6.97949770801e-39
-0.0217251215989 -0.123666076794 0.903 6.97949770801e-39
-0.0200095421013 -0.123392176291 0.901 7.07133320417e-39
-0.0182810078502 -0.122981325538 0.898 7.25500419648e-39
-0.0165820844643 -0.122707425035 0.896 7.62234618111e-39
-0.0149238760178 -0.122707425035 0.896 7.62234618111e-39
-0.0132360567063 -0.122433524533 0.894 7.71418167727e-39
-0.0115426853575 -0.12202267378 0.891 7.62234618111e-39
-0.00989373030646 -0.12202267378 0.891 7.80601717343e-39
-0.00824477525538 -0.12202267378 0.891 7.98968816575e-39
-0.00659582020431 -0.12202267378 0.891 8.35703015038e-39
-0.00494686515323 -0.12202267378 0.891 8.0815236619e-39
-0.00329791010215 -0.12202267378 0.891 8.54070114269e-39
-0.00164895505108 -0.12202267378 0.891 8.72437213501e-39
0.0 -0.12202267378 0.891 8.81620763117e-39
0.00164895505108 -0.12202267378 0.891 8.81620763117e-39
0.00329791010215 -0.12202267378 0.891 9.36722060812e-39
0.00494686515323 -0.12202267378 0.891 8.99987862348e-39
0.00659582020431 -0.12202267378 0.891 8.99987862348e-39
0.00824477525538 -0.12202267378 0.891 8.90804312733e-39
0.00989373030646 -0.12202267378 0.891 9.45905610427e-39
0.011581549618 -0.122433524533 0.894 9.45905610427e-39
0.0132656675714 -0.122707425035 0.896 9.55089160043e-39
0.0149238760178 -0.122707425035 0.896 9.91823358506e-39
0.0166190980456 -0.122981325538 0.898 1.00100690812e-38
0.0182810078502 -0.122981325538 0.898 1.01019045774e-38
0.0200095421013 -0.123392176291 0.901 1.02855755697e-38
0.0216770039431 -0.123392176291 0.901 1.03774110659e-38
0.0233444657848 -0.123392176291 0.901 1.0469246562e-38
-0.0354830698028 -0.123345909315 0.913 2.07121652052e-38
-0.033682359068 -0.122940610598 0.91 1.92370449364e-38
-0.03192791531 -0.122670411454 0.908 2.10806324325e-38
-0.0301808742682 -0.12240021231 0.906 2.23731677152e-38
-0.0284097743985 -0.121994913594 0.903 5.32645877716e-39
-0.0267386111986 -0.121994913594 0.903 5.51012976948e-39
-0.0250674479987 -0.121994913594 0.903 6.79582671569e-39
-0.0233962847988 -0.121994913594 0.903 7.07133320417e-39
-0.0217251215989 -0.121994913594 0.903 7.07133320417e-39
-0.0200095421013 -0.121724714449 0.901 7.34683969264e-39
-0.0182810078502 -0.121319415733 0.898 7.62234618111e-39
-0.0166190980456 -0.121319415733 0.898 7.62234618111e-39
-0.0149238760178 -0.121049216589 0.896 7.62234618111e-39
-0.0132656675714 -0.121049216589 0.896 7.80601717343e-39
-0.011581549618 -0.120779017445 0.894 7.80601717343e-39
-0.00992704252972 -0.120779017445 0.894 7.71418167727e-39
-0.00827253544143 -0.120779017445 0.894 8.26519465422e-39
-0.00661802835314 -0.120779017445 0.894 8.26519465422e-39
-0.00496352126486 -0.120779017445 0.894 8.44886564654e-39
-0.00330901417657 -0.120779017445 0.894 8.72437213501e-39
-0.00164895505108 -0.120373718729 0.891 9.09171411964e-39
0.0 -0.120373718729 0.891 8.72437213501e-39
0.00164895505108 -0.120373718729 0.891 8.99987862348e-39
0.00329791010215 -0.120373718729 0.891 9.45905610427e-39
0.00494686515323 -0.120373718729 0.891 9.1835496158e-39
0.00659582020431 -0.120373718729 0.891 9.36722060812e-39
0.00824477525538 -0.120373718729 0.891 9.27538511196e-39
0.00989373030646 -0.120373718729 0.891 9.45905610427e-39
0.011607459125 -0.121049216589 0.896 9.27538511196e-39
0.0132656675714 -0.121049216589 0.896 9.45905610427e-39
0.0149571882411 -0.121319415733 0.898 1.01019045774e-38
0.0166190980456 -0.121319415733 0.898 1.01019045774e-38
0.0183420802595 -0.121724714449 0.901 1.01019045774e-38
0.0200095421013 -0.121724714449 0.901 1.01019045774e-38
0.0216770039431 -0.121724714449 0.901 1.01019045774e-38
0.0233444657848 -0.121724714449 0.901 1.01019045774e-38
-0.0354830698028 -0.121656239324 0.913 1.84991141586e-38
-0.033682359068 -0.121256492645 0.91 2.00653426496e-38
-0.03192791531 -0.120989994859 0.908 1.94214235845e-38
-0.0301808742682 -0.120723497073 0.906 2.20965387866e-38
-0.0284097743985 -0.120323750394 0.903 5.41829427332e-39
-0.0267386111986 -0.120323750394 0.903 4.95911679253e-39
-0.0250674479987 -0.120323750394 0.903 6.42848473106e-39
-0.0233962847988 -0.120323750394 0.903 7.07133320417e-39
-0.0217251215989 -0.120323750394 0.903 6.97949770801e-39
-0.0200095421013 -0.120057252608 0.901 6.97949770801e-39
-0.0182810078502 -0.119657505929 0.898 7.34683969264e-39
-0.0166190980456 -0.119657505929 0.898 7.62234618111e-39
-0.0149571882411 -0.119657505929 0.898 7.71418167727e-39
-0.0132656675714 -0.119391008143 0.896 7.71418167727e-39
-0.011607459125 -0.119391008143 0.896 7.71418167727e-39
-0.00994925067855 -0.119391008143 0.896 7.98968816575e-39
-0.00827253544143 -0.119124510357 0.894 8.35703015038e-39
-0.00661802835314 -0.119124510357 0.894 8.26519465422e-39
-0.00496352126486 -0.119124510357 0.894 8.44886564654e-39
-0.00330901417657 -0.119124510357 0.894 8.63253663885e-39
-0.00164895505108 -0.118724763678 0.891 8.90804312733e-39
0.0 -0.118724763678 0.891 8.90804312733e-39
0.00164895505108 -0.118724763678 0.891 8.90804312733e-39
0.00329791010215 -0.118724763678 0.891 8.90804312733e-39
0.00496352126486 -0.119124510357 0.894 9.45905610427e-39
0.00661802835314 -0.119124510357 0.894 9.45905610427e-39
0.00827253544143 -0.119124510357 0.894 8.90804312733e-39
0.00992704252972 -0.119124510357 0.894 9.36722060812e-39
0.011633368632 -0.119657505929 0.898 9.36722060812e-39
0.0132952784365 -0.119657505929 0.898 9.45905610427e-39
0.0149571882411 -0.119657505929 0.898 9.73456259275e-39
0.0166746184177 -0.120057252608 0.901 9.91823358506e-39
0.0183420802595 -0.120057252608 0.901 1.01019045774e-38
0.0200095421013 -0.120057252608 0.901 9.82639808891e-39
0.0216770039431 -0.120057252608 0.901 1.01019045774e-38
0.0233444657848 -0.120057252608 0.901 1.06529175543e-38
-0.033682359068 -0.119572374691 0.91 1.74814099385e-38
-0.03192791531 -0.119309578264 0.908 1.79448711887e-38
-0.0302474987147 -0.119309578264 0.908 2.09890954129e-38
-0.0285041590311 -0.119046781836 0.906 5.6938007618e-39
-0.026827443794 -0.119046781836 0.906 7.53230995218e-39
-0.0251507285568 -0.119046781836 0.906 6.06114274643e-39
-0.0234740133197 -0.119046781836 0.906 6.97949770801e-39
-0.0217972980826 -0.119046781836 0.906 6.97949770801e-39
-0.020053958399 -0.118652587194 0.903 7.25500419648e-39
-0.0183420802595 -0.118389790766 0.901 7.25500419648e-39
-0.0166190980456 -0.117995596124 0.898 7.62234618111e-39
-0.0149571882411 -0.117995596124 0.898 7.98968816575e-39
-0.0132952784365 -0.117995596124 0.898 7.89785266959e-39
-0.011607459125 -0.117732799696 0.896 7.80601717343e-39
-0.00994925067855 -0.117732799696 0.896 8.26519465422e-39
-0.00829104223213 -0.117732799696 0.896 8.26519465422e-39
-0.0066328337857 -0.117732799696 0.896 8.35703015038e-39
-0.00496352126486 -0.117470003268 0.894 8.63253663885e-39
-0.00330901417657 -0.117470003268 0.894 8.99987862348e-39
-0.00165450708829 -0.117470003268 0.894 8.81620763117e-39
0.0 -0.117470003268 0.894 8.90804312733e-39
0.00165450708829 -0.117470003268 0.894 8.99987862348e-39
0.00330901417657 -0.117470003268 0.894 8.90804312733e-39
0.00496352126486 -0.117470003268 0.894 8.99987862348e-39
0.00661802835314 -0.117470003268 0.894 9.55089160043e-39
0.00827253544143 -0.117470003268 0.894 9.27538511196e-39
0.00992704252972 -0.117470003268 0.894 9.36722060812e-39
0.011607459125 -0.117732799696 0.896 9.09171411964e-39
0.0132656675714 -0.117732799696 0.896 9.55089160043e-39
0.0149571882411 -0.117995596124 0.898 9.91823358506e-39
0.0166746184177 -0.118389790766 0.901 1.01019045774e-38
0.018382795199 -0.118652587194 0.903 1.02855755697e-38
0.020053958399 -0.118652587194 0.903 1.00100690812e-38
0.0217251215989 -0.118652587194 0.903 9.64272709659e-39
0.0233962847988 -0.118652587194 0.903 1.0469246562e-38
-0.033682359068 -0.117888256738 0.91 1.78508832981e-38
-0.03192791531 -0.117629161668 0.908 1.78512420305e-38
-0.0302474987147 -0.117629161668 0.908 2.09894849738e-38
-0.0285041590311 -0.117370066599 0.906 5.78563625795e-39
-0.026827443794 -0.117370066599 0.906 6.88766221185e-39
-0.0251507285568 -0.117370066599 0.906 8.82768706819e-39
-0.0234740133197 -0.117370066599 0.906 6.61215572338e-39
-0.0217972980826 -0.117370066599 0.906 7.34683969264e-39
-0.020053958399 -0.116981423994 0.903 7.53051068496e-39
-0.0183420802595 -0.116722328924 0.901 7.34683969264e-39
-0.0166190980456 -0.11633368632 0.898 7.34683969264e-39
-0.0149571882411 -0.11633368632 0.898 7.89785266959e-39
-0.0132952784365 -0.11633368632 0.898 7.80601717343e-39
-0.011633368632 -0.11633368632 0.898 7.71418167727e-39
-0.00994925067855 -0.11607459125 0.896 7.98968816575e-39
-0.00829104223213 -0.11607459125 0.896 8.26519465422e-39
-0.0066328337857 -0.11607459125 0.896 8.35703015038e-39
-0.00497462533928 -0.11607459125 0.896 8.54070114269e-39
-0.00331641689285 -0.11607459125 0.896 8.90804312733e-39
-0.00165820844643 -0.11607459125 0.896 8.81620763117e-39
0.0 -0.11607459125 0.896 8.63253663885e-39
0.00165820844643 -0.11607459125 0.896 8.99987862348e-39
0.00331641689285 -0.11607459125 0.896 8.90804312733e-39
0.00497462533928 -0.11607459125 0.896 8.90804312733e-39
0.00661802835314 -0.11581549618 0.894 9.45905610427e-39
0.00827253544143 -0.11581549618 0.894 9.36722060812e-39
0.00994925067855 -0.11607459125 0.896 9.45905610427e-39
0.011607459125 -0.11607459125 0.896 8.90804312733e-39
0.0132656675714 -0.11607459125 0.896 9.45905610427e-39
0.0149571882411 -0.11633368632 0.898 9.91823358506e-39
0.0166746184177 -0.116722328924 0.901 1.00100690812e-38
0.018382795199 -0.116981423994 0.903 9.82639808891e-39
0.020053958399 -0.116981423994 0.903 1.00100690812e-38
0.0217972980826 -0.117370066599 0.906 1.00100690812e-38
0.0234740133197 -0.117370066599 0.906 1.03774110659e-38
-0.033682359068 -0.116204138785 0.91 1.87746192458e-38
-0.03192791531 -0.115948745073 0.908 1.86820662848e-38
-0.0302474987147 -0.115948745073 0.908 2.11738818388e-38
-0.0285670821194 -0.115948745073 0.908 5.87747175411e-39
-0.0268866655242 -0.115948745073 0.908 6.70399121953e-39
-0.0251507285568 -0.115693351361 0.906 7.16316870032e-39
-0.0234740133197 -0.115693351361 0.906 9.74605183886e-39
-0.0218454157384 -0.115948745073 0.908 9.37009046737e-39
-0.020053958399 -0.115310260794 0.903 7.4386751888e-39
-0.018382795199 -0.115310260794 0.903 7.16316870032e-39
-0.0166746184177 -0.115054867082 0.901 7.53051068496e-39
-0.0149571882411 -0.114671776515 0.898 7.53051068496e-39
-0.0132952784365 -0.114671776515 0.898 7.98968816575e-39
-0.011633368632 -0.114671776515 0.898 8.17335915806e-39
-0.00997145882739 -0.114671776515 0.898 8.26519465422e-39
-0.00829104223213 -0.114416382803 0.896 8.26519465422e-39
-0.0066328337857 -0.114416382803 0.896 8.35703015038e-39
-0.00497462533928 -0.114416382803 0.896 8.54070114269e-39
-0.00331641689285 -0.114416382803 0.896 8.81620763117e-39
-0.00165820844643 -0.114416382803 0.896 8.90804312733e-39
0.0 -0.114416382803 0.896 8.63253663885e-39
0.00165820844643 -0.114416382803 0.896 8.81620763117e-39
0.00331641689285 -0.114416382803 0.896 8.99987862348e-39
0.00497462533928 -0.114416382803 0.896 9.45905610427e-39
0.0066328337857 -0.114416382803 0.896 9.45905610427e-39
0.00829104223213 -0.114416382803 0.896 9.36722060812e-39
0.00994925067855 -0.114416382803 0.896 9.27538511196e-39
0.011633368632 -0.114671776515 0.898 9.09171411964e-39
0.0132952784365 -0.114671776515 0.898 9.36722060812e-39
0.015007156576 -0.115054867082 0.901 9.45905610427e-39
0.0167116319991 -0.115310260794 0.903 9.55089160043e-39
0.0184438676083 -0.115693351361 0.906 9.64272709659e-39
0.0201205828455 -0.115693351361 0.906 1.10202763545e-38
0.0217972980826 -0.115693351361 0.906 1.03774110659e-38
0.0234740133197 -0.115693351361 0.906 1.01937400735e-38
-0.0321037298216 -0.114897559361 0.913 1.83132893706e-38
-0.0303141231612 -0.114520020831 0.91 1.99735590015e-38
-0.0285670821194 -0.114268328478 0.908 6.3366492349e-39
-0.0268866655242 -0.114268328478 0.908 6.79582671569e-39
-0.0252062489289 -0.114268328478 0.908 7.16316870032e-39
-0.0235258323337 -0.114268328478 0.908 6.79582671569e-39
-0.0218454157384 -0.114268328478 0.908 8.63253663885e-39
-0.0201205828455 -0.114016636124 0.906 1.05704301202e-38
-0.018382795199 -0.113639097594 0.903 8.82736476954e-39
-0.0167116319991 -0.113639097594 0.903 1.07547975579e-38
-0.015007156576 -0.113387405241 0.901 7.34683969264e-39
-0.0133396947342 -0.113387405241 0.901 1.00125998262e-38
-0.011633368632 -0.11300986671 0.898 8.17335915806e-39
-0.00997145882739 -0.11300986671 0.898 7.89785266959e-39
-0.00830954902282 -0.11300986671 0.898 7.98968816575e-39
-0.00664763921826 -0.11300986671 0.898 8.26519465422e-39
-0.00497462533928 -0.112758174357 0.896 8.35703015038e-39
-0.00331641689285 -0.112758174357 0.896 8.81620763117e-39
-0.00165820844643 -0.112758174357 0.896 8.99987862348e-39
0.0 -0.112758174357 0.896 8.90804312733e-39
0.00165820844643 -0.112758174357 0.896 9.27538511196e-39
0.00331641689285 -0.112758174357 0.896 9.1835496158e-39
0.00497462533928 -0.112758174357 0.896 9.36722060812e-39
0.0066328337857 -0.112758174357 0.896 9.27538511196e-39
0.00829104223213 -0.112758174357 0.896 9.09171411964e-39
0.00997145882739 -0.11300986671 0.898 9.36722060812e-39
0.011633368632 -0.11300986671 0.898 8.35703015038e-39
0.0133396947342 -0.113387405241 0.901 9.45905890687e-39
0.0150404687992 -0.113639097594 0.903 1.28706167079e-38
0.0167116319991 -0.113639097594 0.903 1.39852010986e-38
0.0184438676083 -0.114016636124 0.906 1.38008042337e-38
0.0201205828455 -0.114016636124 0.906 7.98969236964e-39
0.0217972980826 -0.114016636124 0.906 9.55089160043e-39
0.0234740133197 -0.114016636124 0.906 1.17578133675e-38
-0.0321740556262 -0.113455880366 0.915 1.89593692379e-38
-0.030414059831 -0.113207889371 0.913 2.15430539192e-38
-0.0287243898404 -0.113207889371 0.913 5.51012976948e-39
-0.0269458872544 -0.112835902878 0.91 6.79582671569e-39
-0.025261769301 -0.112835902878 0.91 7.07133320417e-39
-0.0235776513476 -0.112835902878 0.91 8.91270664861e-39
-0.0218454157384 -0.112587911883 0.908 7.62234618111e-39
-0.0201205828455 -0.112339920887 0.906 7.34683969264e-39
-0.018382795199 -0.111967934394 0.903 7.16316870032e-39
-0.0167116319991 -0.111967934394 0.903 1.13955216625e-38
-0.0150404687992 -0.111967934394 0.903 7.80601717343e-39
-0.0133396947342 -0.111719943399 0.901 1.01184567148e-38
-0.0116722328924 -0.111719943399 0.901 1.22378015318e-38
-0.00997145882739 -0.111347956906 0.898 9.92827809246e-39
-0.00830954902282 -0.111347956906 0.898 9.09566017612e-39
-0.00664763921826 -0.111347956906 0.898 1.06636795265e-38
-0.00498572941369 -0.111347956906 0.898 8.35703015038e-39
-0.00332381960913 -0.111347956906 0.898 9.45905610427e-39
-0.00166190980456 -0.111347956906 0.898 1.11131768375e-38
0.0 -0.111347956906 0.898 1.03849444464e-38
0.00166190980456 -0.111347956906 0.898 9.18357063528e-39
0.00332381960913 -0.111347956906 0.898 8.54071235308e-39
0.00498572941369 -0.111347956906 0.898 1.18522216476e-38
0.00664763921826 -0.111347956906 0.898 9.27538511196e-39
0.00830954902282 -0.111347956906 0.898 1.05629051475e-38
0.00997145882739 -0.111347956906 0.898 1.22324163418e-38
0.0116722328924 -0.111719943399 0.901 1.13040266819e-38
0.0133396947342 -0.111719943399 0.901 1.36196457695e-38
0.0150404687992 -0.111967934394 0.903 1.24208069073e-38
0.0167671523712 -0.112339920887 0.906 1.03835095168e-38
0.0184438676083 -0.112339920887 0.906 9.55089160043e-39
0.0201205828455 -0.112339920887 0.906 1.24028184389e-38
0.0217972980826 -0.112339920887 0.906 1.19457891487e-38
0.0234740133197 -0.112339920887 0.906 8.99987862348e-39
-0.0321740556262 -0.111762509017 0.915 2.04352167806e-38
-0.030414059831 -0.11151821938 0.913 2.03455799217e-38
-0.0287243898404 -0.11151821938 0.913 5.6938007618e-39
-0.0269458872544 -0.111151784924 0.91 7.07133320417e-39
-0.025261769301 -0.111151784924 0.91 8.17443535528e-39
-0.0235776513476 -0.111151784924 0.91 7.25500419648e-39
-0.0218454157384 -0.110907495287 0.908 7.4386751888e-39
-0.0201649991431 -0.110907495287 0.908 8.35703015038e-39
-0.0184438676083 -0.11066320565 0.906 7.80601717343e-39
-0.0167671523712 -0.11066320565 0.906 8.63253663885e-39
-0.0150404687992 -0.110296771194 0.903 7.71418167727e-39
-0.0133693055993 -0.110296771194 0.903 7.89785266959e-39
-0.0116722328924 -0.110052481557 0.901 9.46265323743e-39
-0.0100047710506 -0.110052481557 0.901 1.24153964939e-38
-0.00830954902282 -0.109686047101 0.898 8.08655292209e-39
-0.00664763921826 -0.109686047101 0.898 1.29714191129e-38
-0.00498572941369 -0.109686047101 0.898 9.28399468972e-39
-0.00332381960913 -0.109686047101 0.898 1.00197744744e-38
-0.00166190980456 -0.109686047101 0.898 1.46155499894e-38
0.0 -0.109686047101 0.898 1.02098830318e-38
0.00166746184177 -0.110052481557 0.901 1.26037534283e-38
0.00333492368355 -0.110052481557 0.901 1.18705366185e-38
0.00500238552532 -0.110052481557 0.901 1.16835557593e-38
0.00666984736709 -0.110052481557 0.901 1.26015519884e-38
0.00833730920887 -0.110052481557 0.901 1.33394813649e-38
0.0100047710506 -0.110052481557 0.901 1.02117369497e-38
0.0116722328924 -0.110052481557 0.901 8.54070114269e-39
0.0133396947342 -0.110052481557 0.901 9.09171411964e-39
0.0150404687992 -0.110296771194 0.903 9.36722060812e-39
0.0167671523712 -0.11066320565 0.906 1.19393543861e-38
0.0184438676083 -0.11066320565 0.906 1.19411522521e-38
0.0201205828455 -0.11066320565 0.906 1.07472641773e-38
0.0218454157384 -0.110907495287 0.908 1.12039305313e-38
0.0235258323337 -0.110907495287 0.908 9.36722060812e-39
-0.0340524948819 -0.110670608366 0.92 1.95125374119e-38
-0.0322795443332 -0.110430020087 0.918 2.02511618325e-38
-0.0304806842775 -0.110069137669 0.915 2.0438134284e-38
-0.0287873129287 -0.110069137669 0.915 5.87747175411e-39
-0.0270347198498 -0.10982854939 0.913 7.4386751888e-39
-0.025261769301 -0.109467666971 0.91 7.98968816575e-39
-0.0235776513476 -0.109467666971 0.91 7.07133320417e-39
-0.0218935333942 -0.109467666971 0.91 7.89785266959e-39
-0.0201649991431 -0.109227078692 0.908 8.0815236619e-39
-0.0184845825479 -0.109227078692 0.908 7.62234618111e-39
-0.0167671523712 -0.108986490413 0.906 8.17335915806e-39
-0.0150904371341 -0.108986490413 0.906 1.05671805091e-38
-0.0133693055993 -0.108625607994 0.903 1.04785736046e-38
-0.0116981423994 -0.108625607994 0.903 8.8180012932e-39
-0.0100047710506 -0.108385019715 0.901 8.90840185973e-39
-0.00833730920887 -0.108385019715 0.901 8.35703015038e-39
-0.00666984736709 -0.108385019715 0.901 8.44886564654e-39
-0.00500238552532 -0.108385019715 0.901 9.55089160043e-39
-0.00333492368355 -0.108385019715 0.901 7.98968816575e-39
-0.00166746184177 -0.108385019715 0.901 8.54070114269e-39
0.0 -0.108385019715 0.901 8.35703015038e-39
0.00166746184177 -0.108385019715 0.901 9.09171411964e-39
0.00334232639983 -0.108625607994 0.903 8.17335915806e-39
0.00500238552532 -0.108385019715 0.901 8.81620763117e-39
0.00666984736709 -0.108385019715 0.901 9.73456259275e-39
0.00833730920887 -0.108385019715 0.901 1.03774110659e-38
0.0100269791995 -0.108625607994 0.903 1.02862930345e-38
0.0116981423994 -0.108625607994 0.903 1.2774843563e-38
0.0133693055993 -0.108625607994 0.903 1.17678592762e-38
0.0150904371341 -0.108986490413 0.906 1.23221695084e-38
0.0167671523712 -0.108986490413 0.906 8.99987862348e-39
0.0184845825479 -0.109227078692 0.908 1.08365885466e-38
0.0201649991431 -0.109227078692 0.908 1.32355260384e-38
0.0218454157384 -0.109227078692 0.908 1.09305764372e-38
0.0235776513476 -0.109467666971 0.91 8.90804312733e-39
-0.0340524948819 -0.108967983622 0.92 1.86824250172e-38
-0.0322795443332 -0.108731096701 0.918 1.9235949121e-38
-0.0304806842775 -0.10837576632 0.915 2.1359754271e-38
-0.0287873129287 -0.10837576632 0.915 5.41829427332e-39
-0.0270347198498 -0.108138879399 0.913 7.34683969264e-39
-0.0253450498591 -0.108138879399 0.913 6.88766221185e-39
-0.0236553798685 -0.108138879399 0.913 7.4386751888e-39
-0.0218935333942 -0.107783549018 0.91 7.16316870032e-39
-0.0202094154408 -0.107783549018 0.91 8.0815236619e-39
-0.0184845825479 -0.107546662097 0.908 8.26519465422e-39
-0.0168041659526 -0.107546662097 0.908 9.18750548136e-39
-0.0150904371341 -0.107309775176 0.906 7.62234618111e-39
-0.0133693055993 -0.106954444794 0.903 9.09171411964e-39
-0.0116981423994 -0.106954444794 0.903 7.71418167727e-39
-0.0100269791995 -0.106954444794 0.903 9.64272709659e-39
-0.00835581599956 -0.106954444794 0.903 9.1835496158e-39
-0.00666984736709 -0.106717557874 0.901 1.13076041969e-38
-0.00500238552532 -0.106717557874 0.901 1.14891269986e-38
-0.00334232639983 -0.106954444794 0.903 1.01123078172e-38
-0.00167116319991 -0.106954444794 0.903 8.45317043542e-39
0.0 -0.106954444794 0.903 1.18590165439e-38
0.00167116319991 -0.106954444794 0.903 1.05732817626e-38
0.00334232639983 -0.106954444794 0.903 1.26830164747e-38
0.00500238552532 -0.106717557874 0.901 1.06644404316e-38
0.00666984736709 -0.106717557874 0.901 1.12132575739e-38
0.00835581599956 -0.106954444794 0.903 9.55089160043e-39
0.0100269791995 -0.106954444794 0.903 9.91823358506e-39
0.0117370066599 -0.107309775176 0.906 9.91823358506e-39
0.013413721897 -0.107309775176 0.906 9.45905610427e-39
0.0150904371341 -0.107309775176 0.906 1.39694589116e-38
0.0167671523712 -0.107309775176 0.906 1.10281516519e-38
0.0184845825479 -0.107546662097 0.908 1.03774110659e-38
0.0201649991431 -0.107546662097 0.908 1.16631080121e-38
0.0218454157384 -0.107546662097 0.908 1.1020259539e-38
0.0235776513476 -0.107783549018 0.91 8.54070114269e-39
-0.0322795443332 -0.107032173315 0.918 1.95125318067e-38
-0.0304806842775 -0.106682394971 0.915 2.14515575373e-38
-0.0287873129287 -0.106682394971 0.915 5.51012976948e-39
-0.0270347198498 -0.106449209408 0.913 7.34683969264e-39
-0.0253450498591 -0.106449209408 0.913 7.71633407171e-39
-0.0236553798685 -0.106449209408 0.913 7.99043225523e-39
-0.0219657098779 -0.106449209408 0.913 6.61215572338e-39
-0.0202094154408 -0.106099431064 0.91 8.26519465422e-39
-0.0185252974874 -0.106099431064 0.91 9.09171411964e-39
-0.0168041659526 -0.105866245501 0.908 7.98968816575e-39
-0.0151237493574 -0.105866245501 0.908 7.62234618111e-39
-0.013413721897 -0.105633059939 0.906 9.1835496158e-39
-0.0116981423994 -0.105283281595 0.903 1.02027209954e-38
-0.0100269791995 -0.105283281595 0.903 9.00238975033e-39
-0.00835581599956 -0.105283281595 0.903 1.00158214114e-38
-0.00668465279965 -0.105283281595 0.903 1.04789379422e-38
-0.00501348959974 -0.105283281595 0.903 9.92864523265e-39
-0.00334232639983 -0.105283281595 0.903 8.44886564654e-39
-0.00167116319991 -0.105283281595 0.903 1.16692372915e-38
0.0 -0.105283281595 0.903 1.09345224937e-38
0.00167116319991 -0.105283281595 0.903 1.02009147217e-38
0.00334232639983 -0.105283281595 0.903 9.1835496158e-39
0.00501348959974 -0.105283281595 0.903 1.12972107661e-38
0.00668465279965 -0.105283281595 0.903 1.1393706981e-38
0.00835581599956 -0.105283281595 0.903 1.12115185625e-38
0.0100602914227 -0.105633059939 0.906 1.222238865e-38
0.0117370066599 -0.105633059939 0.906 1.08419695327e-38
0.013413721897 -0.105633059939 0.906 9.64272709659e-39
0.0150904371341 -0.105633059939 0.906 1.14794370197e-38
0.0168041659526 -0.105866245501 0.908 1.00100690812e-38
0.0184845825479 -0.105866245501 0.908 1.35052353551e-38
0.0201649991431 -0.105866245501 0.908 1.09309351696e-38
0.0218935333942 -0.106099431064 0.91 1.18568235118e-38
0.0236553798685 -0.106449209408 0.913 8.63253663885e-39
-0.0305806209472 -0.105333249929 0.918 2.05296236594e-38
-0.0287873129287 -0.104989023622 0.915 6.06114274643e-39
-0.02709394158 -0.104989023622 0.915 7.53051068496e-39
-0.0253450498591 -0.104759539418 0.913 8.35882381241e-39
-0.0236553798685 -0.104759539418 0.913 6.97949770801e-39
-0.0219657098779 -0.104759539418 0.913 7.34683969264e-39
-0.0202094154408 -0.104415313111 0.91 7.80601717343e-39
-0.0185252974874 -0.104415313111 0.91 8.44886564654e-39
-0.0168041659526 -0.104185828906 0.908 8.35703015038e-39
-0.0151237493574 -0.104185828906 0.908 7.89785266959e-39
-0.013413721897 -0.103956344702 0.906 1.00125998262e-38
-0.0116981423994 -0.103612118395 0.903 1.0016884997e-38
-0.0100269791995 -0.103612118395 0.903 8.72760072667e-39
-0.00835581599956 -0.103612118395 0.903 9.00274848274e-39
-0.00668465279965 -0.103612118395 0.903 8.63253663885e-39
-0.00501348959974 -0.103612118395 0.903 8.72437213501e-39
-0.00335343047424 -0.103956344702 0.906 8.81620763117e-39
-0.00167671523712 -0.103956344702 0.906 1.00100690812e-38
0.0 -0.103956344702 0.906 1.01937400735e-38
0.00167671523712 -0.103956344702 0.906 1.01937400735e-38
0.00335343047424 -0.103956344702 0.906 9.1835496158e-39
0.00503014571137 -0.103956344702 0.906 9.55089160043e-39
0.00670686094849 -0.103956344702 0.906 1.05610820582e-38
0.00838357618561 -0.103956344702 0.906 9.91823358506e-39
0.0100602914227 -0.103956344702 0.906 1.19450828943e-38
0.0117370066599 -0.103956344702 0.906 1.04710570396e-38
0.013413721897 -0.103956344702 0.906 1.25973424878e-38
0.0151237493574 -0.104185828906 0.908 9.92397330357e-39
0.0168041659526 -0.104185828906 0.908 9.64272709659e-39
0.0185252974874 -0.104415313111 0.91 1.43435929899e-38
0.0202094154408 -0.104415313111 0.91 9.82641490449e-39
0.0218935333942 -0.104415313111 0.91 9.91823358506e-39
0.0236553798685 -0.104759539418 0.913 9.1835496158e-39
-0.0305806209472 -0.103634326543 0.918 2.0806544058e-38
-0.0287873129287 -0.103295652274 0.915 5.96930725027e-39
-0.02709394158 -0.103295652274 0.915 8.0815236619e-39
-0.0253450498591 -0.103069869427 0.913 6.79582671569e-39
-0.0236553798685 -0.103069869427 0.913 7.53051068496e-39
-0.0219657098779 -0.103069869427 0.913 7.71418167727e-39
-0.0202760398873 -0.103069869427 0.913 7.80601717343e-39
-0.0185252974874 -0.102731195157 0.91 8.63253663885e-39
-0.016841179534 -0.102731195157 0.91 7.89785266959e-39
-0.0151237493574 -0.102505412311 0.908 7.98968816575e-39
-0.013413721897 -0.102279629464 0.906 9.09171411964e-39
-0.0117370066599 -0.102279629464 0.906 8.35703015038e-39
-0.0100602914227 -0.102279629464 0.906 8.63253663885e-39
-0.00838357618561 -0.102279629464 0.906 9.27538511196e-39
-0.00668465279965 -0.101940955195 0.903 8.35703015038e-39
-0.00501348959974 -0.101940955195 0.903 1.21327363768e-38
-0.00335343047424 -0.102279629464 0.906 9.74101977607e-39
-0.00167671523712 -0.102279629464 0.906 9.737432452e-39
0.0 -0.102279629464 0.906 1.23196261517e-38
0.00167671523712 -0.102279629464 0.906 9.9265026473e-39
0.00335343047424 -0.102279629464 0.906 9.45905610427e-39
0.00503014571137 -0.102279629464 0.906 9.82639808891e-39
0.00670686094849 -0.102279629464 0.906 1.17624768888e-38
0.00840208297631 -0.102505412311 0.908 9.64272709659e-39
0.0100602914227 -0.102279629464 0.906 1.03774110659e-38
0.0117370066599 -0.102279629464 0.906 8.17335915806e-39
0.0134433327621 -0.102505412311 0.908 1.19519002113e-38
0.0151237493574 -0.102505412311 0.908 1.01080030283e-38
0.016841179534 -0.102731195157 0.91 1.07469054449e-38
0.0185252974874 -0.102731195157 0.91 9.91823358506e-39
0.0202094154408 -0.102731195157 0.91 1.02855755697e-38
0.0219657098779 -0.103069869427 0.913 9.73456259275e-39
0.0237071988825 -0.103295652274 0.915 9.73456259275e-39
-0.0305806209472 -0.101935403157 0.918 2.10813330817e-38
-0.0287873129287 -0.101602280925 0.915 6.24481373874e-39
-0.02709394158 -0.101602280925 0.915 8.0815236619e-39
-0.0254005702312 -0.101602280925 0.915 8.0865459156e-39
-0.0237071988825 -0.101602280925 0.915 7.34719842505e-39
-0.0220138275337 -0.101602280925 0.915 7.16316870032e-39
-0.0202760398873 -0.101380199437 0.913 7.25500419648e-39
-0.0185863698967 -0.101380199437 0.913 1.02002182763e-38
-0.016841179534 -0.101047077204 0.91 7.34683969264e-39
-0.0151570615806 -0.101047077204 0.91 8.44886564654e-39
-0.013413721897 -0.100602914227 0.906 8.81620763117e-39
-0.0117370066599 -0.100602914227 0.906 9.00023735589e-39
-0.0100602914227 -0.100602914227 0.906 9.64559975844e-39
-0.00838357618561 -0.100602914227 0.906 1.12176268225e-38
-0.00670686094849 -0.100602914227 0.906 8.0815236619e-39
-0.00503014571137 -0.100602914227 0.906 1.12147037139e-38
-0.00335343047424 -0.100602914227 0.906 1.04789729747e-38
-0.00167671523712 -0.100602914227 0.906 8.44922437894e-39
0.0 -0.100824995716 0.908 1.20383701356e-38
0.00168041659526 -0.100824995716 0.908 8.54392973435e-39
0.00336083319052 -0.100824995716 0.908 1.37018151089e-38
0.00504124978578 -0.100824995716 0.908 1.10350152118e-38
0.00672166638105 -0.100824995716 0.908 9.1835496158e-39
0.00840208297631 -0.100824995716 0.908 1.36975201291e-38
0.0100824995716 -0.100824995716 0.908 1.07533920555e-38
0.0117629161668 -0.100824995716 0.908 9.45905610427e-39
0.0134433327621 -0.100824995716 0.908 9.55089160043e-39
0.0151570615806 -0.101047077204 0.91 9.55089160043e-39
0.016841179534 -0.101047077204 0.91 9.64272709659e-39
0.0185863698967 -0.101380199437 0.913 9.91823358506e-39
0.0202760398873 -0.101380199437 0.913 1.00100690812e-38
0.0219657098779 -0.101380199437 0.913 1.25875810427e-38
0.0236553798685 -0.101380199437 0.913 9.55089160043e-39
-0.0306472453938 -0.100454859902 0.92 2.09894877764e-38
-0.0288816975613 -0.100236479772 0.918 5.96930725027e-39
-0.0271827741753 -0.100236479772 0.918 8.26519465422e-39
-0.0254005702312 -0.0999089095762 0.915 9.83430982003e-39
-0.0237071988825 -0.0999089095762 0.915 6.3366492349e-39
-0.0220138275337 -0.0999089095762 0.915 6.88766221185e-39
-0.0202760398873 -0.099690529446 0.913 8.26519465422e-39
-0.0185863698967 -0.099690529446 0.913 7.98968816575e-39
-0.016841179534 -0.0993629592506 0.91 7.89785266959e-39
-0.0151570615806 -0.0993629592506 0.91 1.06583097508e-38
-0.0134433327621 -0.0991445791204 0.908 1.12172218472e-38
-0.0117370066599 -0.0989261989902 0.906 9.00279192299e-39
-0.0100602914227 -0.0989261989902 0.906 9.45906311077e-39
-0.00838357618561 -0.0989261989902 0.906 9.737432452e-39
-0.00670686094849 -0.0989261989902 0.906 8.54070114269e-39
-0.00503014571137 -0.0989261989902 0.906 8.72437213501e-39
-0.00335343047424 -0.0989261989902 0.906 1.02855755697e-38
-0.00168041659526 -0.0991445791204 0.908 9.09171411964e-39
0.0 -0.0991445791204 0.908 9.45905610427e-39
0.00168041659526 -0.0991445791204 0.908 9.09171411964e-39
0.00336083319052 -0.0991445791204 0.908 8.90804312733e-39
0.00504124978578 -0.0991445791204 0.908 8.90804312733e-39
0.00672166638105 -0.0991445791204 0.908 9.64272709659e-39
0.00840208297631 -0.0991445791204 0.908 9.36722060812e-39
0.0100824995716 -0.0991445791204 0.908 8.99987862348e-39
0.0117629161668 -0.0991445791204 0.908 9.36722060812e-39
0.0134433327621 -0.0991445791204 0.908 1.00100690812e-38
0.0151570615806 -0.0993629592506 0.91 1.01019045774e-38
0.0168966999061 -0.099690529446 0.913 1.0469246562e-38
0.0185863698967 -0.099690529446 0.913 1.3418395488e-38
0.0202760398873 -0.099690529446 0.913 9.64272709659e-39
0.0219657098779 -0.099690529446 0.913 1.11128237103e-38
0.0236553798685 -0.099690529446 0.913 1.06529175543e-38
-0.0306472453938 -0.0987522351576 0.92 2.09901884257e-38
-0.0289446206497 -0.0987522351576 0.92 6.61215572338e-39
-0.0271827741753 -0.0985375563856 0.918 7.4386751888e-39
-0.0254838507894 -0.0985375563856 0.918 7.71418167727e-39
-0.0237849274034 -0.0985375563856 0.918 9.46982508297e-39
-0.0220138275337 -0.0982155382274 0.915 8.1762430303e-39
-0.020320456185 -0.0982155382274 0.915 7.89785266959e-39
-0.0185863698967 -0.0980008594554 0.913 8.81620763117e-39
-0.0168966999061 -0.0980008594554 0.913 1.056612393e-38
-0.0151570615806 -0.0976788412972 0.91 8.90947805695e-39
-0.0134433327621 -0.0974641625252 0.908 7.89785266959e-39
-0.0117629161668 -0.0974641625252 0.908 8.35703015038e-39
-0.0100824995716 -0.0974641625252 0.908 8.99987862348e-39
-0.00840208297631 -0.0974641625252 0.908 9.27538511196e-39
-0.00670686094849 -0.0972494837531 0.906 1.14866200757e-38
-0.00503014571137 -0.0972494837531 0.906 1.1306900745e-38
-0.00336083319052 -0.0974641625252 0.908 1.24971776736e-38
-0.00168041659526 -0.0974641625252 0.908 8.90804312733e-39
0.0 -0.0974641625252 0.908 9.09171411964e-39
0.00168041659526 -0.0974641625252 0.908 8.81620763117e-39
0.00336083319052 -0.0974641625252 0.908 9.27538511196e-39
0.00504124978578 -0.0974641625252 0.908 9.45905610427e-39
0.00672166638105 -0.0974641625252 0.908 9.45905610427e-39
0.008420589767 -0.0976788412972 0.91 9.36722060812e-39
0.0101047077204 -0.0976788412972 0.91 9.45905610427e-39
0.0117888256738 -0.0976788412972 0.91 9.45905610427e-39
0.0134729436272 -0.0976788412972 0.91 1.29556545052e-38
0.0152070299155 -0.0980008594554 0.913 1.28745501527e-38
0.0168966999061 -0.0980008594554 0.913 1.14894815271e-38
0.0186270848362 -0.0982155382274 0.915 9.1835496158e-39
0.020320456185 -0.0982155382274 0.915 1.34266421294e-38
0.0220138275337 -0.0982155382274 0.915 9.45905610427e-39
0.0237071988825 -0.0982155382274 0.915 1.16641842093e-38
-0.0289446206497 -0.0970496104135 0.92 6.97949770801e-39
-0.0271827741753 -0.0968386329996 0.918 8.81764256079e-39
-0.0254838507894 -0.0968386329996 0.918 7.98968816575e-39
-0.0237849274034 -0.0968386329996 0.918 7.25500419648e-39
-0.0220860040175 -0.0968386329996 0.918 7.62234618111e-39
-0.020320456185 -0.0965221668787 0.915 8.35703015038e-39
-0.0186270848362 -0.0965221668787 0.915 1.02013323086e-38
-0.0169337134875 -0.0965221668787 0.915 7.89785266959e-39
-0.0152070299155 -0.0963111894648 0.913 8.63253663885e-39
-0.0134729436272 -0.0959947233438 0.91 8.45030057616e-39
-0.0117629161668 -0.0957837459299 0.908 1.10285342064e-38
-0.0100824995716 -0.0957837459299 0.908 7.80601717343e-39
-0.00840208297631 -0.0957837459299 0.908 8.72437213501e-39
-0.00672166638105 -0.0957837459299 0.908 1.01029821759e-38
-0.00504124978578 -0.0957837459299 0.908 9.09171411964e-39
-0.00336083319052 -0.0957837459299 0.908 1.13929825097e-38
-0.0016841179534 -0.0959947233438 0.91 1.00100690812e-38
0.0 -0.0959947233438 0.91 1.03774110659e-38
0.0016841179534 -0.0959947233438 0.91 8.54070114269e-39
0.00336083319052 -0.0957837459299 0.908 1.25029201947e-38
0.00504124978578 -0.0957837459299 0.908 1.13083216617e-38
0.00672166638105 -0.0957837459299 0.908 1.17686173786e-38
0.008420589767 -0.0959947233438 0.91 1.20415707013e-38
0.0101047077204 -0.0959947233438 0.91 1.16767720734e-38
0.0117888256738 -0.0959947233438 0.91 1.00100690812e-38
0.0134729436272 -0.0959947233438 0.91 9.55089160043e-39
0.0152070299155 -0.0963111894648 0.913 1.25011083158e-38
0.0169337134875 -0.0965221668787 0.915 1.14895123557e-38
0.0186270848362 -0.0965221668787 0.915 1.19483030781e-38
0.020320456185 -0.0965221668787 0.915 8.81620763117e-39
0.0220138275337 -0.0965221668787 0.915 1.02855755697e-38
0.0237849274034 -0.0968386329996 0.918 1.1484100541e-38
-0.0290390052822 -0.0956578997532 0.923 8.08224112672e-39
-0.0272419959056 -0.0953469856695 0.92 7.62234618111e-39
-0.0255393711615 -0.0953469856695 0.92 8.17335915806e-39
-0.0238367464174 -0.0953469856695 0.92 7.16316870032e-39
-0.0220860040175 -0.0951397096136 0.918 7.89785266959e-39
-0.0203870806315 -0.0951397096136 0.918 7.53051068496e-39
-0.0186270848362 -0.0948287955299 0.915 7.80601717343e-39
-0.0169337134875 -0.0948287955299 0.915 7.98968816575e-39
-0.0152403421387 -0.0948287955299 0.915 8.26519465422e-39
-0.0134729436272 -0.0943106053904 0.91 1.10285342064e-38
-0.0117888256738 -0.0943106053904 0.91 9.65061920954e-39
-0.0101047077204 -0.0943106053904 0.91 9.18821313709e-39
-0.008420589767 -0.0943106053904 0.91 8.72437213501e-39
-0.00672166638105 -0.0941033293346 0.908 9.45905610427e-39
-0.00504124978578 -0.0941033293346 0.908 9.45905610427e-39
-0.0033682359068 -0.0943106053904 0.91 9.1835496158e-39
-0.0016841179534 -0.0943106053904 0.91 1.02855755697e-38
0.0 -0.0943106053904 0.91 9.73456259275e-39
0.0016841179534 -0.0943106053904 0.91 8.72437213501e-39
0.0033682359068 -0.0943106053904 0.91 9.91823358506e-39
0.0050523538602 -0.0943106053904 0.91 8.26519465422e-39
0.0067364718136 -0.0943106053904 0.91 1.1947584212e-38
0.008420589767 -0.0943106053904 0.91 9.55089160043e-39
0.0101047077204 -0.0943106053904 0.91 1.10263579899e-38
0.0117888256738 -0.0943106053904 0.91 1.12093157213e-38
0.0134729436272 -0.0943106053904 0.91 1.13947901847e-38
0.0152403421387 -0.0948287955299 0.915 1.09291415076e-38
0.0169337134875 -0.0948287955299 0.915 1.01944575384e-38
0.0186270848362 -0.0948287955299 0.915 1.35113324047e-38
0.0203870806315 -0.0951397096136 0.918 1.00143822779e-38
0.0220860040175 -0.0951397096136 0.918 1.12993575554e-38
0.0237849274034 -0.0951397096136 0.918 1.42502987421e-38
0.0255393711615 -0.0953469856695 0.92 2.10789116379e-38
-0.0290390052822 -0.0939497229719 0.923 9.18749567227e-39
-0.0272419959056 -0.0936443609254 0.92 7.71418167727e-39
-0.0255393711615 -0.0936443609254 0.92 8.26519465422e-39
-0.0238367464174 -0.0936443609254 0.92 8.0815236619e-39
-0.0221341216733 -0.0936443609254 0.92 8.54141860751e-39
-0.0203870806315 -0.0934407862277 0.918 8.17335915806e-39
-0.0186881572455 -0.0934407862277 0.918 9.09171411964e-39
-0.0169337134875 -0.0931354241812 0.915 9.65061920954e-39
-0.0152403421387 -0.0931354241812 0.915 9.00238975033e-39
-0.0135173599249 -0.0929318494835 0.913 8.63253663885e-39
-0.0117888256738 -0.092626487437 0.91 8.81620763117e-39
-0.0101047077204 -0.092626487437 0.91 9.45905610427e-39
-0.008420589767 -0.092626487437 0.91 1.01036982394e-38
-0.0067364718136 -0.092626487437 0.91 1.1209328333e-38
-0.0050523538602 -0.092626487437 0.91 1.05714965084e-38
-0.0033682359068 -0.092626487437 0.91 1.02045342756e-38
-0.0016841179534 -0.092626487437 0.91 8.7243791415e-39
0.0 -0.092626487437 0.91 1.20441098541e-38
0.0016841179534 -0.092626487437 0.91 1.15877742066e-38
0.0033682359068 -0.092626487437 0.91 1.09395853851e-38
0.0050523538602 -0.092626487437 0.91 1.01047744366e-38
0.0067364718136 -0.092626487437 0.91 1.18550354549e-38
0.00844834995305 -0.0929318494835 0.913 9.91823358506e-39
0.0101380199437 -0.0929318494835 0.913 9.64272709659e-39
0.0118276899343 -0.0929318494835 0.913 1.11164110344e-38
0.0135173599249 -0.0929318494835 0.913 1.19508464348e-38
0.0152403421387 -0.0931354241812 0.915 1.21341432805e-38
0.0169337134875 -0.0931354241812 0.915 9.36722060812e-39
0.0186881572455 -0.0934407862277 0.918 1.00100690812e-38
0.0203870806315 -0.0934407862277 0.918 1.30482004596e-38
0.0220860040175 -0.0934407862277 0.918 9.09171411964e-39
0.0238367464174 -0.0936443609254 0.92 1.4430742544e-38
0.0255393711615 -0.0936443609254 0.92 2.12664319971e-38
-0.0328069878681 -0.0932409128882 0.933 1.85905895211e-38
-0.0309137431798 -0.0927412295394 0.928 2.03430099403e-38
-0.0291019283706 -0.0924414195301 0.925 9.19072426394e-39
-0.0273308285009 -0.0922415461905 0.923 9.64918427991e-39
-0.0255393711615 -0.0919417361813 0.92 7.80781083546e-39
-0.0238367464174 -0.0919417361813 0.92 7.25500419648e-39
-0.0221341216733 -0.0919417361813 0.92 6.97949770801e-39
-0.0203870806315 -0.0917418628417 0.918 8.81656636357e-39
-0.0186881572455 -0.0917418628417 0.918 8.17335915806e-39
-0.0169337134875 -0.0914420528324 0.915 8.0815236619e-39
-0.0152403421387 -0.0914420528324 0.915 8.26519465422e-39
-0.0135173599249 -0.0912421794929 0.913 8.99987862348e-39
-0.0118276899343 -0.0912421794929 0.913 9.8264050954e-39
-0.0101380199437 -0.0912421794929 0.913 1.2410021113e-38
-0.00844834995305 -0.0912421794929 0.913 7.89785266959e-39
-0.0067364718136 -0.0909423694836 0.91 1.08412688835e-38
-0.0050523538602 -0.0909423694836 0.91 1.04818021963e-38
-0.0033682359068 -0.0909423694836 0.91 9.46766568204e-39
-0.00168966999061 -0.0912421794929 0.913 9.55878371338e-39
0.0 -0.0912421794929 0.913 1.03853031788e-38
0.0016841179534 -0.0909423694836 0.91 1.1487692069e-38
0.0033682359068 -0.0909423694836 0.91 1.09366762895e-38
0.00506900997183 -0.0912421794929 0.913 1.10303292697e-38
0.00675867996244 -0.0912421794929 0.913 1.07537423801e-38
0.00844834995305 -0.0912421794929 0.913 9.82858411451e-39
0.0101380199437 -0.0912421794929 0.913 9.1835496158e-39
0.0118535994412 -0.0914420528324 0.915 9.45905610427e-39
0.01354697079 -0.0914420528324 0.915 1.06529175543e-38
0.0152903104736 -0.0917418628417 0.918 1.25986821292e-38
0.0169892338596 -0.0917418628417 0.918 1.13026351925e-38
0.0187288721851 -0.0919417361813 0.92 1.03774110659e-38
0.0204314969292 -0.0919417361813 0.92 1.29588620774e-38
0.0221341216733 -0.0919417361813 0.92 1.03777697983e-38
0.0239144749383 -0.0922415461905 0.923 1.48953024122e-38
-0.0362603550121 -0.0915142293162 0.933 1.81292596458e-38
-0.0345336714401 -0.0915142293162 0.933 1.82218126068e-38
-0.0327014991611 -0.0912199713441 0.93 1.79445124563e-38
-0.0309137431798 -0.0910237993627 0.928 1.96972874041e-38
-0.0291019283706 -0.0907295413906 0.925 9.74711822699e-39
-0.0273900502311 -0.0907295413906 0.925 7.16316870032e-39
-0.0256226517196 -0.0905333694092 0.923 8.54357100195e-39
-0.0239144749383 -0.0905333694092 0.923 6.52032022722e-39
-0.0221341216733 -0.0902391114372 0.92 9.28399468972e-39
-0.0204314969292 -0.0902391114372 0.92 9.83501327186e-39
-0.0186881572455 -0.0900429394558 0.918 7.89785266959e-39
-0.0169892338596 -0.0900429394558 0.918 8.35703015038e-39
-0.0152403421387 -0.0897486814837 0.915 8.72437213501e-39
-0.0135173599249 -0.0895525095023 0.913 1.16728470364e-38
-0.0118276899343 -0.0895525095023 0.913 9.92650825249e-39
-0.0101380199437 -0.0895525095023 0.913 8.72437213501e-39
-0.00844834995305 -0.0895525095023 0.913 9.45905610427e-39
-0.0067364718136 -0.0892582515302 0.91 9.55089160043e-39
-0.0050523538602 -0.0892582515302 0.91 1.00100690812e-38
-0.0033682359068 -0.0892582515302 0.91 9.45905610427e-39
-0.00168966999061 -0.0895525095023 0.913 8.63253663885e-39
0.0 -0.0895525095023 0.913 8.90804312733e-39
0.00168966999061 -0.0895525095023 0.913 1.18532361877e-38
0.00337933998122 -0.0895525095023 0.913 8.81620763117e-39
0.00506900997183 -0.0895525095023 0.913 9.91823358506e-39
0.00675867996244 -0.0895525095023 0.913 1.12103877146e-38
0.00844834995305 -0.0895525095023 0.913 1.09334519017e-38
0.0101380199437 -0.0895525095023 0.913 1.36078314222e-38
0.0118535994412 -0.0897486814837 0.915 1.00187206979e-38
0.01354697079 -0.0897486814837 0.915 1.04713989565e-38
0.0152903104736 -0.0900429394558 0.918 1.06557874136e-38
0.0169892338596 -0.0900429394558 0.918 1.19443640281e-38
0.0187288721851 -0.0902391114372 0.92 1.28677454473e-38
0.0204314969292 -0.0902391114372 0.92 9.91823358506e-39
0.0221341216733 -0.0902391114372 0.92 1.00100690812e-38
0.0239144749383 -0.0905333694092 0.923 1.47109545927e-38
-0.0362603550121 -0.0897875457442 0.933 1.86817075524e-38
-0.0345336714401 -0.0897875457442 0.933 1.79437949915e-38
-0.0327014991611 -0.0894988398093 0.93 1.757394188e-38
-0.0309137431798 -0.089306369186 0.928 2.0247591324e-38
-0.0291963130031 -0.089306369186 0.928 9.9304304869e-39
-0.0273900502311 -0.0890176632512 0.925 1.14030354249e-38
-0.0256226517196 -0.0888251926279 0.923 6.52032022722e-39
-0.0239144749383 -0.0888251926279 0.923 7.34683969264e-39
-0.022206298157 -0.0888251926279 0.923 8.44958311135e-39
-0.0204314969292 -0.0885364866931 0.92 7.62234618111e-39
-0.0186881572455 -0.0883440160698 0.918 9.73599752237e-39
-0.0169892338596 -0.0883440160698 0.918 7.71418167727e-39
-0.0152903104736 -0.0883440160698 0.918 8.72437213501e-39
-0.01354697079 -0.0880553101349 0.915 1.01998385245e-38
-0.0118535994412 -0.0880553101349 0.915 8.35703015038e-39
-0.0101602280925 -0.0880553101349 0.915 9.27538511196e-39
-0.00844834995305 -0.0878628395117 0.913 1.01019045774e-38
-0.00675867996244 -0.0878628395117 0.913 9.45905610427e-39
-0.00506900997183 -0.0878628395117 0.913 1.17628398251e-38
-0.00337933998122 -0.0878628395117 0.913 1.1305844166e-38
-0.00169337134875 -0.0880553101349 0.915 8.26520586461e-39
0.0 -0.0880553101349 0.915 1.1762881864e-38
0.00168966999061 -0.0878628395117 0.913 1.01083953919e-38
0.00337933998122 -0.0878628395117 0.913 1.15795373742e-38
0.00506900997183 -0.0878628395117 0.913 9.73671498719e-39
0.006773485395 -0.0880553101349 0.915 1.14812306818e-38
0.00846685674374 -0.0880553101349 0.915 9.91823358506e-39
0.0101602280925 -0.0880553101349 0.915 1.01940988059e-38
0.0118535994412 -0.0880553101349 0.915 1.17653537545e-38
0.01354697079 -0.0880553101349 0.915 9.45905610427e-39
0.0152903104736 -0.0883440160698 0.918 1.32397369402e-38
0.017026247441 -0.0885364866931 0.92 9.27538511196e-39
0.0187288721851 -0.0885364866931 0.92 1.02855755697e-38
0.0204981213757 -0.0888251926279 0.923 1.05610820582e-38
