# .PCD v0.7 - Point Cloud Data file format
VERSION 0.7
FIELDS x y z rgb
SIZE 4 4 4 4
TYPE F F F F
COUNT 1 1 1 1
WIDTH 840
HEIGHT 1
VIEWPOINT 0 0 0 1 0 0 0
POINTS 840
DATA ascii
0.00950508770183 -0.074456520331 0.856 1.16631080121e-38
0.0110892689855 -0.074456520331 0.856 1.13876015236e-38
0.0126734502691 -0.074456520331 0.856 1.16631080121e-38
0.0142576315527 -0.074456520331 0.856 1.19386145005e-38
0.0158418128364 -0.074456520331 0.856 1.24910624071e-38
0.0174667090596 -0.0746304841636 0.858 1.19389844433e-38
0.0190545917013 -0.0746304841636 0.858 1.2399226911e-38
0.0206424743431 -0.0746304841636 0.858 1.23988709811e-38
0.0222821759988 -0.0748044479961 0.86 1.25857831768e-38
0.0238737599988 -0.0748044479961 0.86 1.30442375876e-38
0.0255245657289 -0.0749784118287 0.862 1.35041395397e-38
0.0272771588079 -0.07541332141 0.867 1.24921582225e-38
0.0288816975613 -0.07541332141 0.867 1.72834386954e-38
0.0305565621193 -0.0755872852426 0.869 2.22933343404e-38
0.0322388293937 -0.0757612490751 0.871 1.96207358702e-38
0.0338507708634 -0.0757612490751 0.871 1.73068193603e-38
0.035462712333 -0.0757612490751 0.871 2.16410481221e-38
-0.0177720711061 -0.0743195700798 0.873 8.55076106437e-39
-0.0161564282782 -0.0743195700798 0.873 1.18633339444e-38
-0.0145407854504 -0.0743195700798 0.873 1.21398844003e-38
-0.0128955317575 -0.0741493076054 0.871 9.37118067758e-39
-0.0112576807808 -0.073979045131 0.869 1.21352320894e-38
-0.00959392029717 -0.073553388945 0.864 1.0380646664e-38
-0.00799493358098 -0.073553388945 0.864 1.05621834788e-38
-0.00638114143223 -0.0733831264706 0.862 1.21377334071e-38
-0.00478585607417 -0.0733831264706 0.862 1.31533300743e-38
-0.00319057071611 -0.0733831264706 0.862 1.09388553086e-38
-0.00159158399992 -0.0732128639962 0.86 1.10252972069e-38
0.0 -0.0732128639962 0.86 1.02866517669e-38
0.00159158399992 -0.0732128639962 0.86 1.07447530505e-38
0.00318316799983 -0.0732128639962 0.86 1.07447530505e-38
0.00476364792533 -0.0730426015218 0.858 1.10202637429e-38
0.00635153056711 -0.0730426015218 0.858 1.11120950351e-38
0.00795791999959 -0.0732128639962 0.86 1.12039501495e-38
0.00952729585067 -0.0730426015218 0.858 1.12039305313e-38
0.0110892689855 -0.0728723390474 0.856 1.18467790044e-38
0.0126734502691 -0.0728723390474 0.856 1.17549575212e-38
0.0142576315527 -0.0728723390474 0.856 1.17549435082e-38
0.0158418128364 -0.0728723390474 0.856 1.18474964692e-38
0.0174667090596 -0.0730426015218 0.858 1.21255140845e-38
0.019099007999 -0.0732128639962 0.86 1.23988681785e-38
0.0206905919989 -0.0732128639962 0.86 1.23995940512e-38
0.0222821759988 -0.0732128639962 0.86 1.31364332175e-38
0.0239292803708 -0.0733831264706 0.862 1.31357171539e-38
0.0255837874591 -0.073553388945 0.864 1.33211776044e-38
0.0272771588079 -0.0738087826566 0.867 1.26744040943e-38
0.0288816975613 -0.0738087826566 0.867 1.65458722552e-38
0.0305565621193 -0.073979045131 0.869 2.2017100578e-38
0.0322388293937 -0.0741493076054 0.871 2.06348892e-38
0.0338507708634 -0.0741493076054 0.871 2.00813426755e-38
-0.0161934418596 -0.0728704883683 0.875 1.15831106853e-38
-0.0145740976737 -0.0728704883683 0.875 1.1680390226e-38
-0.0129251426226 -0.072703927252 0.873 1.02016700215e-38
-0.0112835902878 -0.0725373661358 0.871 1.09305806411e-38
-0.00962723252043 -0.0722042439032 0.867 1.16695876162e-38
-0.00802269376702 -0.0722042439032 0.867 1.1674295979e-38
-0.00639594686478 -0.0719544022288 0.864 1.01984035948e-38
-0.00479696014859 -0.0719544022288 0.864 1.02855755697e-38
-0.00319057071611 -0.0717878411125 0.862 1.19450983085e-38
-0.00159528535806 -0.0717878411125 0.862 1.27830874019e-38
0.0 -0.0716212799963 0.86 1.51823626065e-38
0.00159158399992 -0.0716212799963 0.86 1.38959173669e-38
0.00318316799983 -0.0716212799963 0.86 1.30654896801e-38
0.00477475199975 -0.0716212799963 0.86 1.30632672207e-38
0.00636633599967 -0.0716212799963 0.86 1.47227843544e-38
0.00795791999959 -0.0716212799963 0.86 1.26030499765e-38
0.0095495039995 -0.0716212799963 0.86 1.23210232463e-38
0.0111410879994 -0.0716212799963 0.86 1.09284240428e-38
0.0127326719993 -0.0716212799963 0.86 1.1848213934e-38
0.014290943776 -0.07145471888 0.858 1.16641842093e-38
0.0158788264178 -0.07145471888 0.858 1.16641842093e-38
0.0175074239991 -0.0716212799963 0.86 1.2033319856e-38
0.019099007999 -0.0716212799963 0.86 1.21233616901e-38
0.0206905919989 -0.0716212799963 0.86 1.26732984698e-38
0.0223339950128 -0.0717878411125 0.862 1.29509573527e-38
0.0239292803708 -0.0717878411125 0.862 1.30417194543e-38
0.0255837874591 -0.0719544022288 0.864 1.34108565022e-38
0.0272771588079 -0.0722042439032 0.867 1.35942122024e-38
0.0289483220078 -0.0723708050195 0.869 1.78358922071e-38
0.0305565621193 -0.0723708050195 0.869 2.22014946403e-38
0.0322388293937 -0.0725373661358 0.871 2.00813454781e-38
0.0339284993843 -0.072703927252 0.873 2.10018696497e-38
-0.0179145733944 -0.0716582935777 0.88 9.47485994835e-39
-0.0161934418596 -0.0712511441823 0.875 1.27823545228e-38
-0.0145740976737 -0.0712511441823 0.875 1.12201337454e-38
-0.0129547534877 -0.0712511441823 0.875 1.16756986788e-38
-0.0112835902878 -0.0709254246661 0.871 1.04714129694e-38
-0.00964944066926 -0.0707625649079 0.869 1.03784872631e-38
-0.00804120055772 -0.0707625649079 0.869 9.92074471191e-39
-0.00641815501362 -0.0705997051498 0.867 1.07476313175e-38
-0.00479696014859 -0.0703554155126 0.864 1.08373060115e-38
-0.00319797343239 -0.0703554155126 0.864 1.05610848608e-38
-0.00159528535806 -0.0701925557545 0.862 1.00100690812e-38
0.0 -0.0701925557545 0.862 1.01019045774e-38
0.00159158399992 -0.0700296959964 0.86 1.07447642609e-38
0.00318316799983 -0.0700296959964 0.86 1.01937652969e-38
0.00477475199975 -0.0700296959964 0.86 1.14816216441e-38
0.00636633599967 -0.0700296959964 0.86 1.08376815594e-38
0.00795791999959 -0.0700296959964 0.86 1.24042954075e-38
0.0095495039995 -0.0700296959964 0.86 1.06536378217e-38
0.0111410879994 -0.0700296959964 0.86 1.17549435082e-38
0.0127326719993 -0.0700296959964 0.86 1.19386145005e-38
0.0143242559993 -0.0700296959964 0.86 1.18467790044e-38
0.0159158399992 -0.0700296959964 0.86 1.20304570032e-38
0.0175481389386 -0.0701925557545 0.862 1.20326023911e-38
0.0191434242967 -0.0701925557545 0.862 1.2215914651e-38
0.0207387096547 -0.0701925557545 0.862 1.23073984213e-38
0.0223858140267 -0.0703554155126 0.864 1.26751047435e-38
0.0239848007429 -0.0703554155126 0.864 1.3594186979e-38
0.0256726200545 -0.0705997051498 0.867 1.33201112163e-38
0.0273400818963 -0.0707625649079 0.869 1.21223177227e-38
0.0290149464543 -0.0709254246661 0.871 1.73752741915e-38
0.0306972137286 -0.0710882844242 0.873 2.24777059819e-38
0.0323128565565 -0.0710882844242 0.873 2.04508636792e-38
0.0339284993843 -0.0710882844242 0.873 2.00781084786e-38
0.0356255720912 -0.0712511441823 0.875 2.19201979866e-38
-0.0179145733944 -0.0700296959964 0.88 9.66067913122e-39
-0.0162859758131 -0.0700296959964 0.88 1.41645701046e-38
-0.0146240660085 -0.0698705375964 0.878 1.19627224393e-38
-0.0129547534877 -0.0696317999964 0.875 1.01080450672e-38
-0.0113094997948 -0.0694726415964 0.873 1.06558056305e-38
-0.0096716488181 -0.0693134831964 0.871 1.04713989565e-38
-0.00804120055772 -0.0691543247964 0.869 1.15780884316e-38
-0.00643296044618 -0.0691543247964 0.869 1.00111452784e-38
-0.00481361626021 -0.0689951663964 0.867 1.0469246562e-38
-0.00320907750681 -0.0689951663964 0.867 1.07447544518e-38
-0.0015989867162 -0.0687564287964 0.864 1.0469246562e-38
0.0 -0.0685972703964 0.862 1.1020259539e-38
0.00159528535806 -0.0685972703964 0.862 1.08365885466e-38
0.00319057071611 -0.0685972703964 0.862 1.09284240428e-38
0.00478585607417 -0.0685972703964 0.862 1.0469246562e-38
0.00638114143223 -0.0685972703964 0.862 1.14794370197e-38
0.00797642679028 -0.0685972703964 0.862 1.10202623416e-38
0.00957171214834 -0.0685972703964 0.862 1.13876015236e-38
0.0111669975064 -0.0685972703964 0.862 1.15712725159e-38
0.0127622828645 -0.0685972703964 0.862 1.17553022406e-38
0.0143575682225 -0.0685972703964 0.862 1.20329751365e-38
0.0159528535806 -0.0685972703964 0.862 1.17556946042e-38
0.0175481389386 -0.0685972703964 0.862 1.21233616901e-38
0.0191434242967 -0.0685972703964 0.862 1.26747390046e-38
0.0207387096547 -0.0685972703964 0.862 1.2217350982e-38
0.0223858140267 -0.0687564287964 0.864 1.23977975865e-38
0.0240680813011 -0.0689951663964 0.867 1.35945246919e-38
0.0257318417847 -0.0691543247964 0.869 1.34133732343e-38
0.0274030049846 -0.0693134831964 0.871 1.12957772378e-38
0.0290815709008 -0.0694726415964 0.873 1.63643620651e-38
0.0307675395333 -0.0696317999964 0.875 2.20167474508e-38
0.0323868837192 -0.0696317999964 0.875 2.04490461951e-38
0.0340062279052 -0.0696317999964 0.875 2.02621339994e-38
0.0356255720912 -0.0696317999964 0.875 2.21045850424e-38
0.0372449162771 -0.0696317999964 0.875 2.34929327063e-38
-0.0179145733944 -0.068401098415 0.88 1.07659490911e-38
-0.0162859758131 -0.068401098415 0.88 1.28706111027e-38
-0.0146573782318 -0.068401098415 0.88 1.2050611879e-38
-0.0129991697854 -0.0682456413732 0.878 1.1766111857e-38
-0.0113354093017 -0.0680124558104 0.875 9.91859231747e-39
-0.00969385696694 -0.0678569987686 0.873 1.01937400735e-38
-0.00805970734842 -0.0677015417267 0.871 1.4062708318e-38
-0.00644776587873 -0.0677015417267 0.871 9.00167228552e-39
-0.00482472033463 -0.0675460846849 0.869 1.41639297112e-38
-0.00321648022309 -0.0675460846849 0.869 9.92074471191e-39
-0.00160824011154 -0.0675460846849 0.869 1.03774264801e-38
0.0 -0.067390627643 0.867 1.03774110659e-38
0.0015989867162 -0.0671574420802 0.864 1.09284240428e-38
0.00319797343239 -0.0671574420802 0.864 1.09284240428e-38
0.00481361626021 -0.067390627643 0.867 1.12039333339e-38
0.00641815501362 -0.067390627643 0.867 1.13876057275e-38
0.00802269376702 -0.067390627643 0.867 1.14794370197e-38
0.00962723252043 -0.067390627643 0.867 1.15712809237e-38
0.0112317712738 -0.067390627643 0.867 1.12965073143e-38
0.0127918937296 -0.0671574420802 0.864 1.13876015236e-38
0.0143908804458 -0.0671574420802 0.864 1.18467790044e-38
0.015989867162 -0.0671574420802 0.864 1.21222854929e-38
0.0175888538782 -0.0671574420802 0.864 1.21222953019e-38
0.0191878405943 -0.0671574420802 0.864 1.24896414905e-38
0.0208590037943 -0.067390627643 0.867 1.25832594383e-38
0.0224635425477 -0.067390627643 0.867 1.33179588218e-38
0.0241236016732 -0.0675460846849 0.869 1.31368087654e-38
0.0257910635149 -0.0677015417267 0.871 1.35985029783e-38
0.027465928073 -0.0678569987686 0.873 1.13876169379e-38
0.0291481953473 -0.0680124558104 0.875 1.83908652536e-38
0.0307675395333 -0.0680124558104 0.875 2.22018575766e-38
0.0324979244634 -0.0682456413732 0.878 2.05408943029e-38
0.0341228206866 -0.0682456413732 0.878 1.96160485269e-38
0.0357477169098 -0.0682456413732 0.878 2.25644743828e-38
0.0373726131329 -0.0682456413732 0.878 2.34957955591e-38
-0.0163229893945 -0.0669242565174 0.882 1.379618135e-38
-0.0146573782318 -0.0667725008337 0.88 1.01090792255e-38
-0.0129991697854 -0.06662074515 0.878 1.20419602623e-38
-0.0113742735622 -0.06662074515 0.878 1.03784984735e-38
-0.00969385696694 -0.0662413559407 0.873 1.00100690812e-38
-0.00807821413911 -0.0662413559407 0.873 1.59098887432e-38
-0.00644776587873 -0.066089600257 0.871 8.54177733991e-39
-0.00483582440905 -0.066089600257 0.871 1.07480040629e-38
-0.00321648022309 -0.0659378445733 0.869 1.22288752605e-38
-0.00160824011154 -0.0659378445733 0.869 1.41696526142e-38
0.0 -0.0657860888896 0.867 1.3155112526e-38
0.0016045387534 -0.0657860888896 0.867 1.16789230665e-38
0.00320907750681 -0.0657860888896 0.867 1.16742511375e-38
0.00481361626021 -0.0657860888896 0.867 1.09284240428e-38
0.00641815501362 -0.0657860888896 0.867 1.13876015236e-38
0.00802269376702 -0.0657860888896 0.867 1.12957660274e-38
0.00962723252043 -0.0657860888896 0.867 1.16631080121e-38
0.0112317712738 -0.0657860888896 0.867 1.15716340509e-38
0.0127918937296 -0.065558455364 0.864 1.18474964692e-38
0.0143908804458 -0.065558455364 0.864 1.20308087291e-38
0.015989867162 -0.065558455364 0.864 1.23059634917e-38
0.0176499262875 -0.0657860888896 0.867 1.21244701172e-38
0.0192544650409 -0.0657860888896 0.867 1.28569694621e-38
0.0209071214501 -0.0659378445733 0.869 1.25825615916e-38
0.0225671805756 -0.066089600257 0.871 1.32250415233e-38
0.0241791220453 -0.066089600257 0.871 1.33201084137e-38
0.0257910635149 -0.066089600257 0.871 1.34140921004e-38
0.027465928073 -0.0662413559407 0.873 1.12957730339e-38
0.0292481320171 -0.06662074515 0.878 1.90362346626e-38
0.0308730282403 -0.06662074515 0.878 2.16486837974e-38
0.0324979244634 -0.06662074515 0.878 2.11862609094e-38
0.0341228206866 -0.06662074515 0.878 1.8233832945e-38
0.0357477169098 -0.06662074515 0.878 2.30229133793e-38
0.0373726131329 -0.06662074515 0.878 2.34932620115e-38
-0.016415523348 -0.0656620933919 0.887 1.27809546256e-38
-0.014690690455 -0.065291957578 0.882 1.01105239642e-38
-0.0130287806505 -0.0651439032524 0.88 1.19519324411e-38
-0.0113742735622 -0.0649958489268 0.878 1.06565104836e-38
-0.00971606511577 -0.0647737674385 0.875 1.02859343021e-38
-0.00809672092981 -0.0647737674385 0.875 1.25890453996e-38
-0.00646257131129 -0.0646257131129 0.873 1.08427612664e-38
-0.00483582440905 -0.0644776587873 0.871 1.21399012158e-38
-0.00322388293937 -0.0644776587873 0.871 1.37101360191e-38
-0.00161194146968 -0.0644776587873 0.871 1.14934780304e-38
0.0 -0.0643296044618 0.869 9.27789623881e-39
0.00160824011154 -0.0643296044618 0.869 1.12086248811e-38
0.00321648022309 -0.0643296044618 0.869 1.10274355884e-38
0.00482472033463 -0.0643296044618 0.869 1.06529469816e-38
0.00643296044618 -0.0643296044618 0.869 1.12957660274e-38
0.00804120055772 -0.0643296044618 0.869 1.13876057275e-38
0.00962723252043 -0.0641815501362 0.867 1.17549435082e-38
0.0112317712738 -0.0641815501362 0.867 1.15712725159e-38
0.0127918937296 -0.0639594686478 0.864 1.15712725159e-38
0.0143908804458 -0.0639594686478 0.864 1.20304570032e-38
0.015989867162 -0.0639594686478 0.864 1.20304570032e-38
0.0176499262875 -0.0641815501362 0.867 1.1938621507e-38
0.0192544650409 -0.0641815501362 0.867 1.21222854929e-38
0.0209552391059 -0.0644776587873 0.871 1.29491706972e-38
0.0225671805756 -0.0644776587873 0.871 1.29488049583e-38
0.0241791220453 -0.0644776587873 0.871 1.35041395397e-38
0.0258502852452 -0.0646257131129 0.873 1.35988434938e-38
0.0276232357939 -0.0649958489268 0.878 1.2214120989e-38
0.0292481320171 -0.0649958489268 0.878 1.83905177315e-38
0.0308730282403 -0.0649958489268 0.878 2.16486683831e-38
0.0324979244634 -0.0649958489268 0.878 2.12791810106e-38
0.0341228206866 -0.0649958489268 0.878 1.98962283457e-38
0.0358291467888 -0.0651439032524 0.88 2.20131278968e-38
0.0374577443701 -0.0651439032524 0.88 2.34940075022e-38
-0.0164525369294 -0.0641648940246 0.889 1.31464721197e-38
-0.0147406587899 -0.0638761880897 0.885 1.17747116257e-38
-0.0130583915156 -0.0636596586385 0.882 1.06604747569e-38
-0.0114001830692 -0.0635153056711 0.88 1.06568636108e-38
-0.00974937733903 -0.0633709527037 0.878 9.55196779765e-39
-0.00809672092981 -0.0631544232525 0.875 1.07469082475e-38
-0.00646257131129 -0.0630100702851 0.873 1.02855895827e-38
-0.00484692848347 -0.0630100702851 0.873 1.47099526643e-38
-0.00323128565565 -0.0630100702851 0.873 1.09381966983e-38
-0.00161194146968 -0.0628657173177 0.871 1.01973512197e-38
0.0 -0.0628657173177 0.871 1.30553905221e-38
0.00161194146968 -0.0628657173177 0.871 1.30593169604e-38
0.00322388293937 -0.0628657173177 0.871 1.49036177173e-38
0.00482472033463 -0.0627213643502 0.869 1.18630270601e-38
0.00643296044618 -0.0627213643502 0.869 1.02855951879e-38
0.00804120055772 -0.0627213643502 0.869 1.15712781211e-38
0.00964944066926 -0.0627213643502 0.869 1.15712725159e-38
0.0112576807808 -0.0627213643502 0.869 1.13876015236e-38
0.0128659208924 -0.0627213643502 0.869 1.21222854929e-38
0.0144741610039 -0.0627213643502 0.869 1.20308087291e-38
0.016045387534 -0.0625770113828 0.867 1.2399226911e-38
0.0176499262875 -0.0625770113828 0.867 1.22152154031e-38
0.0193432976362 -0.0628657173177 0.871 1.21222854929e-38
0.0210033567617 -0.0630100702851 0.873 1.3041366327e-38
0.0226708186035 -0.0631544232525 0.875 1.30413635244e-38
0.0242901627894 -0.0631544232525 0.875 1.29502468944e-38
0.0259983395707 -0.0633709527037 0.878 1.33186790892e-38
0.0276861588823 -0.0635153056711 0.88 1.25818217061e-38
0.0293147564636 -0.0635153056711 0.88 1.82043187968e-38
0.0310136798495 -0.0636596586385 0.882 2.28461185586e-38
0.032645978789 -0.0636596586385 0.882 2.10033143884e-38
0.0344725990308 -0.0640205410571 0.887 2.0911459274e-38
0.0361141513656 -0.0640205410571 0.887 2.10014646744e-38
-0.0181995779711 -0.0628712693549 0.894 1.25190953829e-38
-0.0164525369294 -0.0625196403316 0.889 1.35141994614e-38
-0.0147739710132 -0.0623789887223 0.887 1.16810880727e-38
-0.0130583915156 -0.0620273596991 0.882 1.03863891851e-38
-0.0114001830692 -0.0618867080898 0.88 1.06568636108e-38
-0.00974937733903 -0.0617460564805 0.878 1.01937414748e-38
-0.00812448111586 -0.0617460564805 0.878 1.02859343021e-38
-0.00647737674385 -0.0615350790666 0.875 1.01937400735e-38
-0.00484692848347 -0.0613944274573 0.873 1.43457818181e-38
-0.00323128565565 -0.0613944274573 0.873 9.0059770744e-39
-0.00161564282782 -0.0613944274573 0.873 1.26873324739e-38
0.0 -0.061253775848 0.871 9.64274110957e-39
0.00161194146968 -0.061253775848 0.871 1.01019045774e-38
0.00322388293937 -0.061253775848 0.871 1.06529231595e-38
0.00482472033463 -0.0611131242387 0.869 1.0652930166e-38
0.00643296044618 -0.0611131242387 0.869 1.12957660274e-38
0.00804120055772 -0.0611131242387 0.869 1.15712725159e-38
0.00964944066926 -0.0611131242387 0.869 1.14794370197e-38
0.0112576807808 -0.0611131242387 0.869 1.19386243096e-38
0.0128659208924 -0.0611131242387 0.869 1.17549435082e-38
0.0144741610039 -0.0611131242387 0.869 1.17549477121e-38
0.0160824011154 -0.0611131242387 0.869 1.24903477449e-38
0.017690641227 -0.0611131242387 0.869 1.2214120989e-38
0.0193877139339 -0.0613944274573 0.873 1.230667395e-38
0.0210514744175 -0.0615350790666 0.875 1.26733068776e-38
0.0227485471244 -0.0617460564805 0.878 1.27651451763e-38
0.0243734433476 -0.0617460564805 0.878 1.31349870774e-38
0.026057561301 -0.0618867080898 0.88 1.36881832774e-38
0.0276861588823 -0.0618867080898 0.88 1.13876043262e-38
0.0293813809101 -0.0620273596991 0.882 1.82039530579e-38
0.0311191685565 -0.062238337113 0.885 2.23847886833e-38
0.032831046696 -0.0623789887223 0.887 2.07260086327e-38
0.0345503275517 -0.0625196403316 0.889 2.09104153067e-38
0.0361955812446 -0.0625196403316 0.889 1.97100167993e-38
-0.0181995779711 -0.0612167622666 0.894 1.48254140526e-38
-0.0164895505108 -0.0610113368898 0.891 1.16746070673e-38
-0.0148072832364 -0.0608743866387 0.889 1.13105132925e-38
-0.0131324186784 -0.0607374363875 0.887 1.07573128886e-38
-0.0114649568366 -0.0606004861364 0.885 1.07490704511e-38
-0.00974937733903 -0.0601211602573 0.878 1.02866517669e-38
-0.00812448111586 -0.0601211602573 0.878 1.06532762867e-38
-0.00647737674385 -0.0599157348806 0.875 1.05610820582e-38
-0.00485803255789 -0.0599157348806 0.875 1.05610960712e-38
-0.00323128565565 -0.0597787846294 0.873 1.31497399477e-38
-0.00161564282782 -0.0597787846294 0.873 1.52748861402e-38
0.0 -0.0597787846294 0.873 1.15885701442e-38
0.00161194146968 -0.0596418343783 0.871 1.24110650804e-38
0.00322388293937 -0.0596418343783 0.871 1.12957856456e-38
0.00483582440905 -0.0596418343783 0.871 1.03774236775e-38
0.00644776587873 -0.0596418343783 0.871 1.03774110659e-38
0.00804120055772 -0.0595048841271 0.869 1.09284240428e-38
0.00964944066926 -0.0595048841271 0.869 1.12039305313e-38
0.0112576807808 -0.0595048841271 0.869 1.1112113252e-38
0.0128659208924 -0.0595048841271 0.869 1.39651583267e-38
0.0144741610039 -0.0595048841271 0.869 1.20304598058e-38
0.0161194146968 -0.0596418343783 0.871 1.2489634484e-38
0.0177313561665 -0.0596418343783 0.871 1.2309552217e-38
0.0194321302315 -0.0599157348806 0.875 1.23081088796e-38
0.0211236509012 -0.0601211602573 0.878 1.26750949344e-38
0.0227485471244 -0.0601211602573 0.878 1.33190294138e-38
0.0243734433476 -0.0601211602573 0.878 1.32279127838e-38
0.026057561301 -0.0602581105085 0.88 1.36892538694e-38
0.0277490819706 -0.0603950607596 0.882 1.14794482301e-38
0.0293813809101 -0.0603950607596 0.882 1.81117560267e-38
0.0311191685565 -0.0606004861364 0.885 2.24780717208e-38
0.032831046696 -0.0607374363875 0.887 2.01739068468e-38
0.0345503275517 -0.0608743866387 0.889 2.12795341378e-38
0.0361955812446 -0.0608743866387 0.889 2.12780543666e-38
-0.0199429176548 -0.0598287529643 0.898 2.34943494191e-38
-0.0181995779711 -0.0595622551783 0.894 1.63016357419e-38
-0.0164895505108 -0.0593623818388 0.891 1.09388370917e-38
-0.0148405954597 -0.0593623818388 0.891 1.19590902737e-38
-0.0131620295435 -0.0592291329458 0.889 9.55878371338e-39
-0.0114908663436 -0.0590958840527 0.887 1.07497767055e-38
-0.0097937936367 -0.0587627618202 0.882 1.03781285307e-38
-0.00812448111586 -0.0584962640342 0.878 1.05632372552e-38
-0.00649958489268 -0.0584962640342 0.878 1.05614407906e-38
-0.00487468866951 -0.0584962640342 0.878 1.02855755697e-38
-0.00323868837192 -0.0582963906946 0.875 1.03774110659e-38
-0.00161934418596 -0.0582963906946 0.875 1.02855755697e-38
0.0 -0.0582963906946 0.875 1.05610890647e-38
0.00161564282782 -0.0581631418016 0.873 1.1754951916e-38
0.00323128565565 -0.0581631418016 0.873 1.37911436821e-38
0.00483582440905 -0.0580298929086 0.871 1.41670784289e-38
0.00644776587873 -0.0580298929086 0.871 1.45370072105e-38
0.00805970734842 -0.0580298929086 0.871 1.44470018101e-38
0.0096716488181 -0.0580298929086 0.871 1.56455183737e-38
0.0112835902878 -0.0580298929086 0.871 1.45402147827e-38
0.0128955317575 -0.0580298929086 0.871 1.34288772005e-38
0.0145074732272 -0.0580298929086 0.871 1.48085354126e-38
0.0161564282782 -0.0581631418016 0.873 1.14794594405e-38
0.0177720711061 -0.0581631418016 0.873 1.17570987053e-38
0.0194987546781 -0.0584962640342 0.878 1.23095438092e-38
0.0211236509012 -0.0584962640342 0.878 1.26754508642e-38
0.0228003661383 -0.0586295129272 0.88 1.24903449423e-38
0.0244289637197 -0.0586295129272 0.88 1.3594186979e-38
0.026057561301 -0.0586295129272 0.88 1.33229768716e-38
0.0277490819706 -0.0587627618202 0.882 1.12039333339e-38
0.0294813175799 -0.0589626351597 0.885 1.82064725925e-38
0.0311894943612 -0.0590958840527 0.887 2.23866019635e-38
0.0329050738588 -0.0592291329458 0.889 2.11891377751e-38
0.0345503275517 -0.0592291329458 0.889 2.08192636442e-38
0.0361955812446 -0.0592291329458 0.889 2.20142139031e-38
-0.0199429176548 -0.0581668431598 0.898 2.34940018971e-38
-0.0182402929107 -0.0580372956249 0.896 1.78686125263e-38
-0.0165450708829 -0.05790774809 0.894 1.11243199629e-38
-0.0148405954597 -0.0577134267877 0.891 1.18647562624e-38
-0.0131916404086 -0.0577134267877 0.891 9.65026888492e-39
-0.0115167758506 -0.0575838792528 0.889 1.08409157563e-38
-0.00982710585995 -0.0573247841831 0.885 1.02859343021e-38
-0.00814298790655 -0.0570009153459 0.88 1.04692521672e-38
-0.00651439032524 -0.0570009153459 0.88 1.09295268647e-38
-0.00488579274393 -0.0570009153459 0.88 1.06529175543e-38
-0.00324979244634 -0.056871367811 0.878 1.05614407906e-38
-0.00162489622317 -0.056871367811 0.878 1.08365885466e-38
0.0 -0.056871367811 0.878 1.06529175543e-38
0.00162489622317 -0.056871367811 0.878 1.06529175543e-38
0.00323868837192 -0.0566770465087 0.875 1.06529175543e-38
0.00484692848347 -0.0565474989738 0.873 1.08365885466e-38
0.00646257131129 -0.0565474989738 0.873 1.07447530505e-38
0.00807821413911 -0.0565474989738 0.873 1.07447530505e-38
0.0096716488181 -0.0564179514389 0.871 1.09284240428e-38
0.0112835902878 -0.0564179514389 0.871 1.07447558531e-38
0.0129251426226 -0.0565474989738 0.873 1.14794370197e-38
0.0145407854504 -0.0565474989738 0.873 1.15712725159e-38
0.0161934418596 -0.0566770465087 0.875 1.20308087291e-38
0.0178127860456 -0.0566770465087 0.875 1.18474964692e-38
0.0194987546781 -0.056871367811 0.878 1.230667395e-38
0.021171768557 -0.0570009153459 0.88 1.26754508642e-38
0.0228003661383 -0.0570009153459 0.88 1.28584043917e-38
0.0244289637197 -0.0570009153459 0.88 1.294881757e-38
0.026057561301 -0.0570009153459 0.88 1.41477236945e-38
0.0278434666032 -0.0573247841831 0.885 1.20326220093e-38
0.0295479420264 -0.0574543317179 0.887 1.82986682224e-38
0.0312598201658 -0.0575838792528 0.889 2.24795010452e-38
0.0329050738588 -0.0575838792528 0.889 1.97154370218e-38
0.0346280560726 -0.0577134267877 0.891 2.15568412948e-38
-0.0216048274593 -0.0565049333552 0.898 2.34889488148e-38
-0.0199429176548 -0.0565049333552 0.898 2.34904117704e-38
-0.0182810078502 -0.0565049333552 0.898 1.86047412343e-38
-0.0165820844643 -0.0563790871785 0.896 8.81908589821e-39
-0.0148905637946 -0.0562532410017 0.894 1.19551344081e-38
-0.0132360567063 -0.0562532410017 0.894 1.01108742888e-38
-0.0115167758506 -0.0559386255599 0.889 1.02877447797e-38
-0.00984931400879 -0.0558127793831 0.887 1.04703227592e-38
-0.00818925488329 -0.0556869332064 0.885 1.40677628015e-38
-0.00655140390664 -0.0556869332064 0.885 1.2138141185e-38
-0.00491355292998 -0.0556869332064 0.885 1.01019143865e-38
-0.00325719516262 -0.0553723177646 0.88 9.9214859988e-39
-0.00162859758131 -0.0553723177646 0.88 1.01019059787e-38
0.0 -0.0553723177646 0.88 1.07447530505e-38
0.00162859758131 -0.0553723177646 0.88 1.13876015236e-38
0.00324979244634 -0.0552464715878 0.878 1.1020259539e-38
0.00485803255789 -0.0550577023227 0.875 1.13876015236e-38
0.00647737674385 -0.0550577023227 0.875 1.15712781211e-38
0.00809672092981 -0.0550577023227 0.875 1.15712725159e-38
0.00969385696694 -0.054931856146 0.873 1.16631094134e-38
0.0113094997948 -0.054931856146 0.873 1.15712809237e-38
0.0129547534877 -0.0550577023227 0.875 1.17549463108e-38
0.0145740976737 -0.0550577023227 0.875 1.20304570032e-38
0.0161934418596 -0.0550577023227 0.875 1.25832622409e-38
0.0178738584549 -0.0552464715878 0.878 1.20308101304e-38
0.0195431709757 -0.0553723177646 0.88 1.21230057603e-38
0.021171768557 -0.0553723177646 0.88 1.31342696126e-38
0.0228003661383 -0.0553723177646 0.88 1.33190168022e-38
0.0244289637197 -0.0553723177646 0.88 1.34151570872e-38
0.0261167830312 -0.0554981639413 0.882 1.41488054969e-38
0.0279063896916 -0.0558127793831 0.887 1.14794510327e-38
0.0296145664729 -0.0559386255599 0.889 1.78358922071e-38
0.0313301459705 -0.0560644717366 0.891 2.27550131389e-38
0.0329791010215 -0.0560644717366 0.891 2.00831377388e-38
0.0346280560726 -0.0560644717366 0.891 2.1279178208e-38
-0.0216048274593 -0.0548430235506 0.898 2.19205539164e-38
-0.0199429176548 -0.0548430235506 0.898 2.3493269018e-38
-0.0182810078502 -0.0548430235506 0.898 1.99873267589e-38
-0.0165820844643 -0.054720878732 0.896 9.64991295511e-39
-0.0148905637946 -0.0545987339134 0.894 1.14015976927e-38
-0.0132360567063 -0.0545987339134 0.894 1.06651438834e-38
-0.0115167758506 -0.0542933718669 0.889 1.06626033293e-38
-0.00984931400879 -0.0541712270483 0.887 1.08387479476e-38
-0.00820776167399 -0.0541712270483 0.887 9.82639808891e-39
-0.00655140390664 -0.0540490822297 0.885 1.19504708868e-38
-0.00491355292998 -0.0540490822297 0.885 1.13944426627e-38
-0.0032645978789 -0.0538658650018 0.882 1.32473249714e-38
-0.00163229893945 -0.0538658650018 0.882 1.22335584e-38
0.0 -0.0537437201832 0.88 1.31515097876e-38
0.00162859758131 -0.0537437201832 0.88 9.45906030817e-39
0.00325719516262 -0.0537437201832 0.88 1.03774110659e-38
0.00488579274393 -0.0537437201832 0.88 1.12957954547e-38
0.00651439032524 -0.0537437201832 0.88 1.13876141353e-38
0.00814298790655 -0.0537437201832 0.88 1.12961359702e-38
0.00974937733903 -0.0536215753646 0.878 1.14794370197e-38
0.0113742735622 -0.0536215753646 0.878 1.17549435082e-38
0.0129991697854 -0.0536215753646 0.878 1.26747698332e-38
0.0146573782318 -0.0537437201832 0.88 1.10202805584e-38
0.0162859758131 -0.0537437201832 0.88 1.35931205909e-38
0.0179552883339 -0.0538658650018 0.882 1.21223065123e-38
0.0195875872734 -0.0538658650018 0.882 1.28569694621e-38
0.0212198862128 -0.0538658650018 0.882 1.26750949344e-38
0.0229299136732 -0.0540490822297 0.885 1.32268323827e-38
0.0245677646499 -0.0540490822297 0.885 1.36878147359e-38
0.0262648373568 -0.0541712270483 0.887 1.43317576231e-38
0.0279693127799 -0.0542933718669 0.889 1.24900128346e-38
0.0296145664729 -0.0542933718669 0.889 1.86642109398e-38
0.0314356346774 -0.0545987339134 0.894 2.22943909194e-38
0.0330901417657 -0.0545987339134 0.894 2.08185573898e-38
0.0348223773749 -0.054720878732 0.896 2.15561252313e-38
-0.0216048274593 -0.0531811137461 0.898 2.26584846942e-38
-0.0199429176548 -0.0531811137461 0.898 2.33942364529e-38
-0.0182810078502 -0.0531811137461 0.898 2.0447937768e-38
-0.0166190980456 -0.0531811137461 0.898 9.5602242482e-39
-0.0149238760178 -0.0530626702856 0.896 1.14009096551e-38
-0.0132656675714 -0.0530626702856 0.896 1.04789757772e-38
-0.0115426853575 -0.0527665616345 0.891 9.82747428613e-39
-0.00987152215763 -0.052648118174 0.889 1.05614407906e-38
-0.00820776167399 -0.0525296747135 0.887 1.36946544737e-38
-0.00656620933919 -0.0525296747135 0.887 1.52861091396e-38
-0.00492465700439 -0.0525296747135 0.887 6.9795033132e-39
-0.00327570195332 -0.0524112312531 0.885 8.44886564654e-39
-0.00163229893945 -0.0522335660624 0.882 1.22180754533e-38
0.0 -0.0521151226019 0.88 1.29656934074e-38
0.00162859758131 -0.0521151226019 0.88 1.24132833359e-38
0.00325719516262 -0.0521151226019 0.88 1.40778227232e-38
0.00488579274393 -0.0521151226019 0.88 1.37076220897e-38
0.00651439032524 -0.0521151226019 0.88 1.07501522535e-38
0.00814298790655 -0.0521151226019 0.88 1.00100872981e-38
0.00977158548786 -0.0521151226019 0.88 1.70251359481e-38
0.0114001830692 -0.0521151226019 0.88 1.50901809897e-38
0.0130287806505 -0.0521151226019 0.88 1.36171542608e-38
0.0146573782318 -0.0521151226019 0.88 1.07566108381e-38
0.0162859758131 -0.0521151226019 0.88 1.56315390202e-38
0.0179552883339 -0.0522335660624 0.882 9.73958484644e-39
0.0196542117199 -0.0524112312531 0.885 1.32243114468e-38
0.0212920626966 -0.0524112312531 0.885 1.28584170034e-38
0.0229299136732 -0.0524112312531 0.885 1.33186790892e-38
0.0245677646499 -0.0524112312531 0.885 1.35934835272e-38
0.026324059087 -0.052648118174 0.889 1.39633254283e-38
0.0279693127799 -0.052648118174 0.889 1.22141378046e-38
0.0296811909194 -0.0527665616345 0.891 1.84808986799e-38
0.0314356346774 -0.0529442268251 0.894 2.15553797405e-38
0.0330901417657 -0.0529442268251 0.894 2.15561224287e-38
0.0348223773749 -0.0530626702856 0.896 1.98976800909e-38
0.0365620157004 -0.0531811137461 0.898 2.29354569409e-38
-0.0200095421013 -0.051691317095 0.901 2.34882299487e-38
-0.0182810078502 -0.0515192039415 0.898 2.12773481122e-38
-0.0166190980456 -0.0515192039415 0.898 1.05747489221e-38
-0.0149571882411 -0.0515192039415 0.898 1.19598245541e-38
-0.0132656675714 -0.0514044618392 0.896 8.82018031231e-39
-0.011581549618 -0.0512897197369 0.894 1.06536560386e-38
-0.00989373030646 -0.0511176065834 0.891 1.06539937515e-38
-0.00822626846469 -0.0510028644811 0.889 9.45905610427e-39
-0.00658101477175 -0.0510028644811 0.889 1.85136414198e-38
-0.00493576107881 -0.0510028644811 0.889 1.71325202521e-38
-0.0032831046696 -0.0508881223787 0.887 1.70428525646e-38
-0.0016415523348 -0.0508881223787 0.887 1.37219727873e-38
0.0 -0.0507733802764 0.885 8.63617721226e-39
0.00163785097666 -0.0507733802764 0.885 9.36722060812e-39
0.00327570195332 -0.0507733802764 0.885 8.90804312733e-39
0.00489689681835 -0.0506012671229 0.882 8.63253663885e-39
0.0065291957578 -0.0506012671229 0.882 9.45905610427e-39
0.00816149469725 -0.0506012671229 0.882 8.72437213501e-39
0.0097937936367 -0.0506012671229 0.882 1.03774110659e-38
0.0114260925761 -0.0506012671229 0.882 9.91823358506e-39
0.0130583915156 -0.0506012671229 0.882 8.99987862348e-39
0.014690690455 -0.0506012671229 0.882 8.99987862348e-39
0.0163785097666 -0.0507733802764 0.885 1.45175683982e-38
0.0180163607432 -0.0507733802764 0.885 1.06529175543e-38
0.0196542117199 -0.0507733802764 0.885 1.35927296286e-38
0.0212920626966 -0.0507733802764 0.885 1.25833014772e-38
0.0229299136732 -0.0507733802764 0.885 1.30420921996e-38
0.024623285022 -0.0508881223787 0.887 1.36874616087e-38
0.026324059087 -0.0510028644811 0.889 1.39654750201e-38
0.0280322358683 -0.0511176065834 0.891 1.2765133966e-38
0.0297811275891 -0.0512897197369 0.894 1.94936240865e-38
0.0314356346774 -0.0512897197369 0.894 2.23847886833e-38
0.0330901417657 -0.0512897197369 0.894 2.08178413262e-38
0.0349001058959 -0.0515192039415 0.898 2.1464279926e-38
0.0365620157004 -0.0515192039415 0.898 2.29354443292e-38
0.038223925505 -0.0515192039415 0.898 2.34914543364e-38
-0.0183420802595 -0.0500238552532 0.901 2.21078290484e-38
-0.0166190980456 -0.0498572941369 0.898 8.17658774972e-39
-0.0149571882411 -0.0498572941369 0.898 1.16817971297e-38
-0.0132952784365 -0.0498572941369 0.898 1.21456619538e-38
-0.011607459125 -0.0497462533928 0.896 9.18680483213e-39
-0.00992704252972 -0.0496352126486 0.894 1.05636085993e-38
-0.00822626846469 -0.0493576107881 0.889 8.81620763117e-39
-0.00658101477175 -0.0493576107881 0.889 1.89728427227e-38
-0.00493576107881 -0.0493576107881 0.889 1.2434496192e-38
-0.0032831046696 -0.0492465700439 0.887 1.38210628056e-38
-0.0016415523348 -0.0492465700439 0.887 1.61226689086e-38
0.0 -0.0491355292998 0.885 1.71368432578e-38
0.00163785097666 -0.0491355292998 0.885 1.85183315658e-38
0.00327570195332 -0.0491355292998 0.885 1.87920261753e-38
0.00491355292998 -0.0491355292998 0.885 1.79622697104e-38
0.0065291957578 -0.0489689681835 0.882 1.75924109938e-38
0.00816149469725 -0.0489689681835 0.882 1.786720282e-38
0.0097937936367 -0.0489689681835 0.882 1.80505052709e-38
0.0114260925761 -0.0489689681835 0.882 1.87884388513e-38
0.0130583915156 -0.0489689681835 0.882 1.94356229418e-38
0.014690690455 -0.0489689681835 0.882 2.0911459274e-38
0.0163785097666 -0.0491355292998 0.885 2.03582826923e-38
0.0180163607432 -0.0491355292998 0.885 8.26522688408e-39
0.0196986280176 -0.0492465700439 0.887 1.32243114468e-38
0.0213401803524 -0.0492465700439 0.887 1.31332088297e-38
0.0229817326872 -0.0492465700439 0.887 1.32268323827e-38
0.0246788053941 -0.0493576107881 0.889 1.35963379721e-38
0.0263832808172 -0.0494686515323 0.891 1.39633254283e-38
0.0280322358683 -0.0494686515323 0.891 1.1754951916e-38
0.0297811275891 -0.0496352126486 0.894 1.82046747266e-38
0.0314356346774 -0.0496352126486 0.894 2.266031479e-38
0.0331641689285 -0.0497462533928 0.896 2.13720674806e-38
0.0349001058959 -0.0498572941369 0.898 2.17383388732e-38
0.0365620157004 -0.0498572941369 0.898 2.34882509682e-38
0.038223925505 -0.0498572941369 0.898 2.34882215409e-38
-0.0183420802595 -0.0483563934114 0.901 2.18305190888e-38
-0.0166746184177 -0.0483563934114 0.901 9.19290468435e-39
-0.015007156576 -0.0483563934114 0.901 1.27881615036e-38
-0.0132952784365 -0.0481953843324 0.898 1.01155854543e-38
-0.011633368632 -0.0481953843324 0.898 1.17679139268e-38
-0.00994925067855 -0.0480880449463 0.896 1.04735625613e-38
-0.00827253544143 -0.0479807055603 0.894 9.09171411964e-39
-0.00661802835314 -0.0479807055603 0.894 1.86040700123e-38
-0.00494686515323 -0.0478196964812 0.891 1.33564538919e-38
-0.00329050738588 -0.0477123570952 0.889 1.14211430036e-38
-0.00164525369294 -0.0477123570952 0.889 1.18824518594e-38
0.0 -0.0476050177091 0.887 1.17031192871e-38
0.0016415523348 -0.0476050177091 0.887 1.26239867768e-38
0.0032831046696 -0.0476050177091 0.887 1.39122074616e-38
0.00492465700439 -0.0476050177091 0.887 1.47405051748e-38
0.00655140390664 -0.0474976783231 0.885 1.60301425723e-38
0.00818925488329 -0.0474976783231 0.885 1.71375439071e-38
0.00982710585995 -0.0474976783231 0.885 1.70435714307e-38
0.0114649568366 -0.0474976783231 0.885 1.65822499633e-38
0.0131028078133 -0.0474976783231 0.885 1.584397867e-38
0.0147406587899 -0.0474976783231 0.885 1.89786132697e-38
0.016415523348 -0.0476050177091 0.887 1.93459412414e-38
0.0180570756828 -0.0476050177091 0.887 8.08153767489e-39
0.0196986280176 -0.0476050177091 0.887 1.31324759506e-38
0.0213401803524 -0.0476050177091 0.887 1.31342696126e-38
0.0229817326872 -0.0476050177091 0.887 1.33186594711e-38
0.0246788053941 -0.0477123570952 0.889 1.33183231594e-38
0.0263832808172 -0.0478196964812 0.891 1.41488054969e-38
0.0281266205009 -0.0479807055603 0.894 1.19386341187e-38
0.0297811275891 -0.0479807055603 0.894 1.86649298059e-38
0.0315059604821 -0.0480880449463 0.896 2.24752018616e-38
0.0331641689285 -0.0480880449463 0.896 2.10015011082e-38
0.0349001058959 -0.0481953843324 0.898 2.11855448459e-38
0.036684160519 -0.0483563934114 0.901 2.29354443292e-38
0.0383516223608 -0.0483563934114 0.901 2.34921970246e-38
-0.0183420802595 -0.0466889315697 0.901 2.27513991902e-38
-0.0166746184177 -0.0466889315697 0.901 7.99473284022e-39
-0.015007156576 -0.0466889315697 0.901 1.26941694091e-38
-0.0133396947342 -0.0466889315697 0.901 1.08549259383e-38
-0.011633368632 -0.0465334745278 0.898 1.08499205002e-38
-0.00994925067855 -0.0464298364999 0.896 1.02020203462e-38
-0.00829104223213 -0.0464298364999 0.896 8.17335915806e-39
-0.0066328337857 -0.0464298364999 0.896 1.85125778343e-38
-0.00496352126486 -0.046326198472 0.894 1.43680876871e-38
-0.00329791010215 -0.0461707414302 0.891 1.48319581164e-38
-0.00164525369294 -0.0460671034023 0.889 1.37288643731e-38
0.0 -0.0460671034023 0.889 1.31782101286e-38
0.00164525369294 -0.0460671034023 0.889 1.21633589521e-38
0.0032831046696 -0.0459634653743 0.887 1.26229119809e-38
0.00492465700439 -0.0459634653743 0.887 1.14250876588e-38
0.00656620933919 -0.0459634653743 0.887 1.19771950499e-38
0.00820776167399 -0.0459634653743 0.887 1.27147362667e-38
0.00984931400879 -0.0459634653743 0.887 1.11477945148e-38
0.0114908663436 -0.0459634653743 0.887 1.28065983875e-38
0.0131324186784 -0.0459634653743 0.887 1.54820232766e-38
0.0147739710132 -0.0459634653743 0.887 1.70450259786e-38
0.016415523348 -0.0459634653743 0.887 1.93455755025e-38
0.0180570756828 -0.0459634653743 0.887 7.98968816575e-39
0.0197430443153 -0.0460671034023 0.889 1.34998179352e-38
0.0213882980082 -0.0460671034023 0.889 1.29516748175e-38
0.0230335517011 -0.0460671034023 0.889 1.37789159517e-38
0.0246788053941 -0.0460671034023 0.889 1.34126894006e-38
0.0263832808172 -0.0461707414302 0.891 1.38736479317e-38
0.0281266205009 -0.046326198472 0.894 1.26744040943e-38
0.0297811275891 -0.046326198472 0.894 1.83883443176e-38
0.0314356346774 -0.046326198472 0.894 2.266031479e-38
0.0332381960913 -0.0465334745278 0.898 2.11862482977e-38
0.0349001058959 -0.0465334745278 0.898 2.10929722667e-38
0.036684160519 -0.0466889315697 0.901 2.33049260966e-38
0.0383516223608 -0.0466889315697 0.901 2.34925543557e-38
-0.0166746184177 -0.0450214697279 0.901 7.81033877789e-39
-0.015007156576 -0.0450214697279 0.901 1.31533272717e-38
-0.0133396947342 -0.0450214697279 0.901 1.07602261881e-38
-0.011633368632 -0.0448715647232 0.898 1.21384943122e-38
-0.00997145882739 -0.0448715647232 0.898 1.19537275045e-38
-0.00829104223213 -0.0447716280535 0.896 8.99987862348e-39
-0.0066328337857 -0.0447716280535 0.896 1.88777660232e-38
-0.00497462533928 -0.0447716280535 0.896 1.45532160298e-38
-0.00330901417657 -0.0446716913837 0.894 1.4279867541e-38
-0.00164895505108 -0.0445217863791 0.891 1.48351951159e-38
0.0 -0.0445217863791 0.891 1.42802234708e-38
0.00164525369294 -0.0444218497093 0.889 1.49223712947e-38
0.00329050738588 -0.0444218497093 0.889 1.61216179347e-38
0.00493576107881 -0.0444218497093 0.889 1.48362713131e-38
0.00658101477175 -0.0444218497093 0.889 1.49292054273e-38
0.00822626846469 -0.0444218497093 0.889 1.50221227258e-38
0.00984931400879 -0.0443219130396 0.887 1.43785497814e-38
0.0114908663436 -0.0443219130396 0.887 1.51154169737e-38
0.0131324186784 -0.0443219130396 0.887 1.46544164036e-38
0.0147739710132 -0.0443219130396 0.887 1.73252001922e-38
0.0164525369294 -0.0444218497093 0.889 1.89789635944e-38
0.0180977906223 -0.0444218497093 0.889 7.89786948517e-39
0.0197430443153 -0.0444218497093 0.889 1.30409991868e-38
0.0213882980082 -0.0444218497093 0.889 1.28605567862e-38
0.0230335517011 -0.0444218497093 0.889 1.32257463764e-38
0.0246788053941 -0.0444218497093 0.889 1.35941897816e-38
0.0264721134126 -0.0446716913837 0.894 1.30420950022e-38
0.0281266205009 -0.0446716913837 0.894 1.4057708485e-38
0.0297811275891 -0.0446716913837 0.894 1.78358922071e-38
0.0314356346774 -0.0446716913837 0.894 2.27546656169e-38
0.0332381960913 -0.0448715647232 0.898 2.10944057951e-38
0.0349001058959 -0.0448715647232 0.898 2.12791627937e-38
0.036684160519 -0.0450214697279 0.901 2.31209047796e-38
0.0383516223608 -0.0450214697279 0.901 2.34918242792e-38
-0.0150904371341 -0.0435945961652 0.906 1.23196261517e-38
-0.0133693055993 -0.0434502431977 0.903 1.20484342612e-38
-0.0116722328924 -0.0433540078861 0.901 1.16753511567e-38
-0.00997145882739 -0.0432096549187 0.898 9.55268526247e-39
-0.00829104223213 -0.0431134196071 0.896 8.63253663885e-39
-0.0066328337857 -0.0431134196071 0.896 1.98904872259e-38
-0.00497462533928 -0.0431134196071 0.896 1.46454088571e-38
-0.00331641689285 -0.0431134196071 0.896 1.40965552811e-38
-0.00165820844643 -0.0431134196071 0.896 1.46472109269e-38
0.0 -0.0430171842954 0.894 1.47390534296e-38
0.00164895505108 -0.042872831328 0.891 1.58457541151e-38
0.00329791010215 -0.042872831328 0.891 1.49238006191e-38
0.00494686515323 -0.042872831328 0.891 1.5570258837e-38
0.00658101477175 -0.0427765960164 0.889 1.56649726002e-38
0.00822626846469 -0.0427765960164 0.889 1.58500827261e-38
0.00987152215763 -0.0427765960164 0.889 1.53898136338e-38
0.0115167758506 -0.0427765960164 0.889 1.55745748363e-38
0.0131620295435 -0.0427765960164 0.889 1.52990669465e-38
0.0148072832364 -0.0427765960164 0.889 1.65887365739e-38
0.0164525369294 -0.0427765960164 0.889 1.81520867978e-38
0.0180977906223 -0.0427765960164 0.889 7.80602978512e-39
0.0197430443153 -0.0427765960164 0.889 1.31324759506e-38
0.0213882980082 -0.0427765960164 0.889 1.29495238244e-38
0.0230335517011 -0.0427765960164 0.889 1.36860140674e-38
0.0247343257662 -0.042872831328 0.891 1.37803466774e-38
0.0264721134126 -0.0430171842954 0.894 1.41495117513e-38
0.0281895435892 -0.0431134196071 0.896 1.18467986226e-38
0.0298477520357 -0.0431134196071 0.896 1.82046747266e-38
0.0315059604821 -0.0431134196071 0.896 2.30305266339e-38
0.0333492368355 -0.0433540078861 0.901 2.11862454951e-38
0.0350166986772 -0.0433540078861 0.901 2.11876832273e-38
0.0367655903981 -0.0434502431977 0.903 2.26610210444e-38
-0.0150904371341 -0.041917880928 0.906 1.1125376542e-38
-0.013413721897 -0.041917880928 0.906 1.12179645354e-38
-0.0116981423994 -0.0417790799978 0.903 1.24143259019e-38
-0.0100047710506 -0.0416865460443 0.901 1.17667998945e-38
-0.00830954902282 -0.0415477451141 0.898 8.99987862348e-39
-0.00664763921826 -0.0415477451141 0.898 2.02592655415e-38
-0.00498572941369 -0.0415477451141 0.898 1.22504776777e-38
-0.00331641689285 -0.0414552111606 0.896 1.24374249058e-38
-0.00165820844643 -0.0414552111606 0.896 1.35459024378e-38
0.0 -0.0414552111606 0.896 1.41912746495e-38
0.00165450708829 -0.0413626772071 0.894 1.44667825392e-38
0.00330901417657 -0.0413626772071 0.894 1.52940250747e-38
0.00494686515323 -0.0412238762769 0.891 1.52929460748e-38
0.00659582020431 -0.0412238762769 0.891 1.63974887608e-38
0.00824477525538 -0.0412238762769 0.891 1.61194921649e-38
0.00987152215763 -0.0411313423234 0.889 1.65822471607e-38
0.0115167758506 -0.0411313423234 0.889 1.6583319154e-38
0.0131620295435 -0.0411313423234 0.889 1.55706091617e-38
0.0148072832364 -0.0411313423234 0.889 1.56639216264e-38
0.0164525369294 -0.0411313423234 0.889 1.94417536226e-38
0.0180977906223 -0.0411313423234 0.889 7.43868359659e-39
0.0197874606129 -0.0412238762769 0.891 1.32243114468e-38
0.021436415664 -0.0412238762769 0.891 1.3594186979e-38
0.0230853707151 -0.0412238762769 0.891 1.33197608916e-38
0.0248176063243 -0.0413626772071 0.894 1.36899461109e-38
0.0265313351428 -0.0414552111606 0.896 1.42420577058e-38
0.0282524666776 -0.0415477451141 0.898 1.26776228769e-38
0.0299143764822 -0.0415477451141 0.898 1.70061315384e-38
0.0315762862867 -0.0415477451141 0.898 2.29383141884e-38
0.0334232639983 -0.0417790799978 0.903 2.16472390587e-38
0.0350944271982 -0.0417790799978 0.903 2.12795187235e-38
0.0367655903981 -0.0417790799978 0.903 2.24755381732e-38
-0.0151237493574 -0.0403299982863 0.908 1.14948681184e-38
-0.013413721897 -0.0402411656909 0.906 9.83432663562e-39
-0.0117370066599 -0.0402411656909 0.906 1.06604775595e-38
-0.0100047710506 -0.0400190842026 0.901 1.08412534692e-38
-0.00830954902282 -0.0398858353096 0.898 8.90804312733e-39
-0.00664763921826 -0.0398858353096 0.898 1.97997391374e-38
-0.00498572941369 -0.0398858353096 0.898 1.23451914409e-38
-0.00332381960913 -0.0398858353096 0.898 1.04134594688e-38
-0.00165820844643 -0.0397970027142 0.896 1.19807851765e-38
0.0 -0.0397970027142 0.896 1.11531726983e-38
0.00165820844643 -0.0397970027142 0.896 1.17949519807e-38
0.00330901417657 -0.0397081701189 0.894 1.30838733147e-38
0.00496352126486 -0.0397081701189 0.894 1.38203593537e-38
0.00659582020431 -0.0395749212258 0.891 1.40958700461e-38
0.00824477525538 -0.0395749212258 0.891 1.40040471616e-38
0.00989373030646 -0.0395749212258 0.891 1.4005119155e-38
0.0115426853575 -0.0395749212258 0.891 1.44671763041e-38
0.0131916404086 -0.0395749212258 0.891 1.55749251609e-38
0.0148405954597 -0.0395749212258 0.891 1.67709782418e-38
0.0164895505108 -0.0395749212258 0.891 1.8978966397e-38
0.0181385055618 -0.0395749212258 0.891 7.25500699908e-39
0.0198540850594 -0.0397081701189 0.894 1.3133196218e-38
0.0215085921477 -0.0397081701189 0.894 1.34105061776e-38
0.023163099236 -0.0397081701189 0.894 1.32257575868e-38
0.0248731266964 -0.0397970027142 0.896 1.3688533602e-38
0.026590556873 -0.0398858353096 0.898 1.41491432098e-38
0.0282524666776 -0.0398858353096 0.898 1.17549603238e-38
0.0300143131519 -0.0400190842026 0.901 1.82039530579e-38
0.0316817749937 -0.0400190842026 0.901 2.27550019285e-38
0.0334232639983 -0.0401079167979 0.903 2.07259918171e-38
0.0350944271982 -0.0401079167979 0.903 2.14617561875e-38
0.0368877352167 -0.0402411656909 0.906 2.18280051593e-38
-0.0168041659526 -0.038649581691 0.908 7.72244233172e-39
-0.0151237493574 -0.038649581691 0.908 1.18554039964e-38
-0.0134433327621 -0.038649581691 0.908 1.27842364666e-38
-0.0117370066599 -0.0385644504538 0.906 9.27789623881e-39
-0.0100269791995 -0.038436753598 0.903 1.06550853631e-38
-0.00833730920887 -0.0383516223608 0.901 8.72437213501e-39
-0.00664763921826 -0.038223925505 0.898 1.96135430052e-38
-0.00498572941369 -0.038223925505 0.898 1.31763968484e-38
-0.00332381960913 -0.038223925505 0.898 1.03219672908e-38
-0.00166190980456 -0.038223925505 0.898 1.11485035718e-38
0.0 -0.0381387942678 0.896 1.17052702803e-38
0.00165820844643 -0.0381387942678 0.896 1.13382800215e-38
0.00331641689285 -0.0381387942678 0.896 1.1798892432e-38
0.00496352126486 -0.0380536630306 0.894 1.21662428244e-38
0.00661802835314 -0.0380536630306 0.894 1.18896685465e-38
0.00827253544143 -0.0380536630306 0.894 1.19825802399e-38
0.00992704252972 -0.0380536630306 0.894 1.24446401916e-38
0.011581549618 -0.0380536630306 0.894 1.11542671124e-38
0.0132360567063 -0.0380536630306 0.894 1.56703998292e-38
0.0148905637946 -0.0380536630306 0.894 1.89829068482e-38
0.0165450708829 -0.0380536630306 0.894 1.93452251779e-38
0.0181995779711 -0.0380536630306 0.894 7.53051068496e-39
0.0198985013571 -0.0381387942678 0.896 1.28569694621e-38
0.0215567098035 -0.0381387942678 0.896 1.32264638412e-38
0.02321491825 -0.0381387942678 0.896 1.36874644113e-38
0.0249286470685 -0.038223925505 0.898 1.33197889176e-38
0.026590556873 -0.038223925505 0.898 1.44235847115e-38
0.0282524666776 -0.038223925505 0.898 1.22141434098e-38
0.0300143131519 -0.0383516223608 0.901 1.73741909878e-38
0.0317521007983 -0.038436753598 0.903 2.32131200277e-38
0.0335343047424 -0.0385644504538 0.906 2.14624624419e-38
0.0352110199796 -0.0385644504538 0.906 2.04497552521e-38
0.0368877352167 -0.0385644504538 0.906 2.03484539848e-38
-0.0168041659526 -0.0369691650957 0.908 8.73587259151e-39
-0.0151237493574 -0.0369691650957 0.908 1.41660218498e-38
-0.0134433327621 -0.0369691650957 0.908 1.62059018334e-38
-0.0117370066599 -0.0368877352167 0.906 1.02142550831e-38
-0.0100602914227 -0.0368877352167 0.906 1.0010439024e-38
-0.00835581599956 -0.0367655903981 0.903 8.81620763117e-39
