# .PCD v0.7 - Point Cloud Data file format
VERSION 0.7
FIELDS x y z rgb
SIZE 4 4 4 4
TYPE F F F F
COUNT 1 1 1 1
WIDTH 849
HEIGHT 1
VIEWPOINT 0 0 0 1 0 0 0
POINTS 849
DATA ascii
0.00655140390664 -0.126114525203 0.885 8.44886564654e-39
0.00818925488329 -0.126114525203 0.885 9.1835496158e-39
0.00982710585995 -0.126114525203 0.885 9.91859231747e-39
0.0114649568366 -0.126114525203 0.885 8.99987862348e-39
0.0131028078133 -0.126114525203 0.885 9.55089160043e-39
0.0147739710132 -0.126399529779 0.887 9.91823358506e-39
0.016415523348 -0.126399529779 0.887 1.00100690812e-38
0.0180570756828 -0.126399529779 0.887 1.00100690812e-38
0.0197430443153 -0.126684534356 0.889 9.73456259275e-39
0.0213882980082 -0.126684534356 0.889 1.01937400735e-38
0.0230335517011 -0.126684534356 0.889 1.02855755697e-38
0.0247343257662 -0.126969538933 0.891 1.01019045774e-38
0.0264721134126 -0.127397045798 0.894 1.1020259539e-38
0.0281266205009 -0.127397045798 0.894 1.03774110659e-38
0.0298477520357 -0.127682050375 0.896 1.0469246562e-38
0.0315059604821 -0.127682050375 0.896 8.99987862348e-39
0.0331641689285 -0.127682050375 0.896 2.34795054644e-38
0.0348223773749 -0.127682050375 0.896 2.0619982187e-38
-0.0200095421013 -0.126727099975 0.901 5.6938007618e-39
-0.0182402929107 -0.126023841928 0.896 6.97949770801e-39
-0.0165450708829 -0.12574253871 0.894 6.97949770801e-39
-0.0148905637946 -0.12574253871 0.894 7.80601717343e-39
-0.0131620295435 -0.125039280663 0.889 7.62234618111e-39
-0.0114908663436 -0.124757977445 0.887 7.80601717343e-39
-0.00984931400879 -0.124757977445 0.887 7.62234618111e-39
-0.00820776167399 -0.124757977445 0.887 7.34683969264e-39
-0.00656620933919 -0.124757977445 0.887 7.71418167727e-39
-0.00491355292998 -0.124476674226 0.885 7.98968816575e-39
-0.00327570195332 -0.124476674226 0.885 8.26519465422e-39
-0.00163785097666 -0.124476674226 0.885 8.26519465422e-39
0.0 -0.124476674226 0.885 8.44886564654e-39
0.00163785097666 -0.124476674226 0.885 8.63253663885e-39
0.00327570195332 -0.124476674226 0.885 8.99987862348e-39
0.00491355292998 -0.124476674226 0.885 8.81620763117e-39
0.00655140390664 -0.124476674226 0.885 8.54070114269e-39
0.00820776167399 -0.124757977445 0.887 8.99987862348e-39
0.00984931400879 -0.124757977445 0.887 8.81620763117e-39
0.0114908663436 -0.124757977445 0.887 9.09171411964e-39
0.0131324186784 -0.124757977445 0.887 8.90804312733e-39
0.0147739710132 -0.124757977445 0.887 9.64272709659e-39
0.016415523348 -0.124757977445 0.887 9.73456259275e-39
0.0180977906223 -0.125039280663 0.889 9.91823358506e-39
0.0197430443153 -0.125039280663 0.889 9.82639808891e-39
0.021436415664 -0.125320583882 0.891 1.01937400735e-38
0.023163099236 -0.12574253871 0.894 1.0469246562e-38
0.0248176063243 -0.12574253871 0.894 1.01937400735e-38
0.0264721134126 -0.12574253871 0.894 1.1020259539e-38
0.0281895435892 -0.126023841928 0.896 1.09284240428e-38
0.0298477520357 -0.126023841928 0.896 1.05610820582e-38
0.0315059604821 -0.126023841928 0.896 8.35703015038e-39
0.0331641689285 -0.126023841928 0.896 2.24671387902e-38
0.0348223773749 -0.126023841928 0.896 2.02490388653e-38
-0.0200095421013 -0.125059638133 0.901 5.41829427332e-39
-0.0182810078502 -0.124643235342 0.898 6.97949770801e-39
-0.0165820844643 -0.124365633482 0.896 6.97949770801e-39
-0.0148905637946 -0.124088031621 0.894 7.25500419648e-39
-0.0131916404086 -0.123671628831 0.891 7.25500419648e-39
-0.0115167758506 -0.12339402697 0.889 7.4386751888e-39
-0.00984931400879 -0.12311642511 0.887 7.4386751888e-39
-0.00820776167399 -0.12311642511 0.887 7.62234618111e-39
-0.00656620933919 -0.12311642511 0.887 7.80601717343e-39
-0.00492465700439 -0.12311642511 0.887 8.54070114269e-39
-0.0032831046696 -0.12311642511 0.887 7.98968816575e-39
-0.0016415523348 -0.12311642511 0.887 8.35703015038e-39
0.0 -0.12311642511 0.887 8.72437213501e-39
0.0016415523348 -0.12311642511 0.887 8.72437213501e-39
0.0032831046696 -0.12311642511 0.887 9.1835496158e-39
0.00492465700439 -0.12311642511 0.887 9.09171411964e-39
0.00656620933919 -0.12311642511 0.887 8.44886564654e-39
0.00820776167399 -0.12311642511 0.887 9.1835496158e-39
0.00984931400879 -0.12311642511 0.887 9.09171411964e-39
0.0114908663436 -0.12311642511 0.887 9.1835496158e-39
0.0131324186784 -0.12311642511 0.887 9.1835496158e-39
0.0148072832364 -0.12339402697 0.889 9.09171411964e-39
0.0164525369294 -0.12339402697 0.889 9.55089160043e-39
0.0180977906223 -0.12339402697 0.889 9.82639808891e-39
0.0197874606129 -0.123671628831 0.891 9.82639808891e-39
0.021436415664 -0.123671628831 0.891 1.01019045774e-38
0.023163099236 -0.124088031621 0.894 1.06529175543e-38
0.0248176063243 -0.124088031621 0.894 1.24031729674e-38
0.0264721134126 -0.124088031621 0.894 1.02855755697e-38
0.0281895435892 -0.124365633482 0.896 1.07447530505e-38
0.0299143764822 -0.124643235342 0.898 1.0469246562e-38
0.0315762862867 -0.124643235342 0.898 8.54070114269e-39
0.0332381960913 -0.124643235342 0.898 2.20994478822e-38
-0.0200095421013 -0.123392176291 0.901 4.49993931174e-39
-0.0182810078502 -0.122981325538 0.898 6.79582671569e-39
-0.0165820844643 -0.122707425035 0.896 6.97949770801e-39
-0.0149238760178 -0.122707425035 0.896 7.16316870032e-39
-0.0131916404086 -0.12202267378 0.891 7.34683969264e-39
-0.0115426853575 -0.12202267378 0.891 7.53051068496e-39
-0.00987152215763 -0.121748773277 0.889 7.07133320417e-39
-0.00822626846469 -0.121748773277 0.889 7.62234618111e-39
-0.00658101477175 -0.121748773277 0.889 7.71418167727e-39
-0.00493576107881 -0.121748773277 0.889 8.26519465422e-39
-0.00329050738588 -0.121748773277 0.889 8.26519465422e-39
-0.0016415523348 -0.121474872775 0.887 8.26519465422e-39
0.0 -0.121474872775 0.887 8.63253663885e-39
0.0016415523348 -0.121474872775 0.887 8.63253663885e-39
0.0032831046696 -0.121474872775 0.887 8.81620763117e-39
0.00492465700439 -0.121474872775 0.887 8.63253663885e-39
0.00656620933919 -0.121474872775 0.887 8.72437213501e-39
0.00820776167399 -0.121474872775 0.887 8.72437213501e-39
0.00984931400879 -0.121474872775 0.887 8.90804312733e-39
0.0114908663436 -0.121474872775 0.887 8.90804312733e-39
0.0131620295435 -0.121748773277 0.889 8.90804312733e-39
0.0148072832364 -0.121748773277 0.889 9.73456259275e-39
0.0164525369294 -0.121748773277 0.889 9.64272709659e-39
0.0180977906223 -0.121748773277 0.889 1.01019045774e-38
0.0198540850594 -0.122433524533 0.894 9.91823358506e-39
0.0215085921477 -0.122433524533 0.894 1.01937400735e-38
0.023163099236 -0.122433524533 0.894 1.06529175543e-38
0.0248176063243 -0.122433524533 0.894 1.01937400735e-38
0.0265313351428 -0.122707425035 0.896 1.02855755697e-38
0.0281895435892 -0.122707425035 0.896 1.0469246562e-38
0.0299143764822 -0.122981325538 0.898 1.01937400735e-38
0.0315762862867 -0.122981325538 0.898 8.81620763117e-39
0.0332381960913 -0.122981325538 0.898 2.32972694018e-38
-0.0200095421013 -0.121724714449 0.901 7.71890545439e-39
-0.0182810078502 -0.121319415733 0.898 6.15297824259e-39
-0.0166190980456 -0.121319415733 0.898 6.79582671569e-39
-0.0149238760178 -0.121049216589 0.896 7.07133320417e-39
-0.0132360567063 -0.120779017445 0.894 7.34683969264e-39
-0.011581549618 -0.120779017445 0.894 7.62234618111e-39
-0.00989373030646 -0.120373718729 0.891 7.34683969264e-39
-0.00824477525538 -0.120373718729 0.891 7.62234618111e-39
-0.00659582020431 -0.120373718729 0.891 7.71418167727e-39
-0.00493576107881 -0.120103519584 0.889 7.98968816575e-39
-0.00329050738588 -0.120103519584 0.889 8.26519465422e-39
-0.0016415523348 -0.11983332044 0.887 8.35703015038e-39
0.0 -0.11983332044 0.887 8.54070114269e-39
0.0016415523348 -0.11983332044 0.887 8.72437213501e-39
0.0032831046696 -0.11983332044 0.887 8.44886564654e-39
0.00492465700439 -0.11983332044 0.887 9.1835496158e-39
0.00656620933919 -0.11983332044 0.887 8.99987862348e-39
0.00820776167399 -0.11983332044 0.887 8.99987862348e-39
0.00984931400879 -0.11983332044 0.887 9.1835496158e-39
0.0115167758506 -0.120103519584 0.889 8.99987862348e-39
0.0131620295435 -0.120103519584 0.889 9.09171411964e-39
0.0148072832364 -0.120103519584 0.889 9.45905610427e-39
0.0164895505108 -0.120373718729 0.891 9.36722060812e-39
0.0181385055618 -0.120373718729 0.891 9.45905610427e-39
0.0198540850594 -0.120779017445 0.894 9.73456259275e-39
0.0215085921477 -0.120779017445 0.894 9.73456259275e-39
0.02321491825 -0.121049216589 0.896 1.01019045774e-38
0.0248731266964 -0.121049216589 0.896 1.01019045774e-38
0.0265313351428 -0.121049216589 0.896 1.01019045774e-38
0.0282524666776 -0.121319415733 0.898 1.00100690812e-38
0.0300143131519 -0.121724714449 0.901 9.64272709659e-39
0.0316817749937 -0.121724714449 0.901 1.11156949709e-38
-0.0217251215989 -0.120323750394 0.903 8.63863508977e-39
-0.0200095421013 -0.120057252608 0.901 1.1688977383e-38
-0.0182810078502 -0.119657505929 0.898 1.15085391863e-38
-0.0166190980456 -0.119657505929 0.898 6.06221894365e-39
-0.0149571882411 -0.119657505929 0.898 6.24481373874e-39
-0.0132656675714 -0.119391008143 0.896 7.16316870032e-39
-0.011581549618 -0.119124510357 0.894 7.62234618111e-39
-0.00992704252972 -0.119124510357 0.894 7.53051068496e-39
-0.00824477525538 -0.118724763678 0.891 7.62234618111e-39
-0.00659582020431 -0.118724763678 0.891 7.80601717343e-39
-0.00493576107881 -0.118458265892 0.889 7.98968816575e-39
-0.00329050738588 -0.118458265892 0.889 7.98968816575e-39
-0.0016415523348 -0.118191768105 0.887 8.35703015038e-39
0.0 -0.118191768105 0.887 8.35703015038e-39
0.0016415523348 -0.118191768105 0.887 8.63253663885e-39
0.0032831046696 -0.118191768105 0.887 8.81620763117e-39
0.00492465700439 -0.118191768105 0.887 8.99987862348e-39
0.00656620933919 -0.118191768105 0.887 8.90804312733e-39
0.00822626846469 -0.118458265892 0.889 9.09171411964e-39
0.00987152215763 -0.118458265892 0.889 8.81620763117e-39
0.0115167758506 -0.118458265892 0.889 9.45905610427e-39
0.0131620295435 -0.118458265892 0.889 9.36722060812e-39
0.0148405954597 -0.118724763678 0.891 9.36722060812e-39
0.0164895505108 -0.118724763678 0.891 8.72437213501e-39
0.0181385055618 -0.118724763678 0.891 9.36722060812e-39
0.0198540850594 -0.119124510357 0.894 9.1835496158e-39
0.0215567098035 -0.119391008143 0.896 1.00100690812e-38
0.02321491825 -0.119391008143 0.896 1.02855755697e-38
0.0248731266964 -0.119391008143 0.896 1.02855755697e-38
0.026590556873 -0.119657505929 0.898 1.01019045774e-38
0.0283468513102 -0.120057252608 0.901 9.91823358506e-39
0.0300809375984 -0.120323750394 0.903 9.27538511196e-39
0.0317521007983 -0.120323750394 0.903 1.24071526551e-38
-0.0217251215989 -0.118652587194 0.903 7.90000506403e-39
-0.0200095421013 -0.118389790766 0.901 9.01028466588e-39
-0.0182810078502 -0.117995596124 0.898 1.1317365642e-38
-0.0166190980456 -0.117995596124 0.898 1.32562834725e-38
-0.0149571882411 -0.117995596124 0.898 1.02141878207e-38
-0.0132656675714 -0.117732799696 0.896 6.15297824259e-39
-0.011607459125 -0.117732799696 0.896 6.79582671569e-39
-0.00992704252972 -0.117470003268 0.894 7.53051068496e-39
-0.00827253544143 -0.117470003268 0.894 7.62234618111e-39
-0.00659582020431 -0.117075808626 0.891 8.17335915806e-39
-0.00494686515323 -0.117075808626 0.891 8.26519465422e-39
-0.00329050738588 -0.116813012199 0.889 8.54070114269e-39
-0.00164525369294 -0.116813012199 0.889 8.54070114269e-39
0.0 -0.116813012199 0.889 8.81620763117e-39
0.00164525369294 -0.116813012199 0.889 8.72437213501e-39
0.00329050738588 -0.116813012199 0.889 8.63253663885e-39
0.00493576107881 -0.116813012199 0.889 8.99987862348e-39
0.00658101477175 -0.116813012199 0.889 8.90804312733e-39
0.00822626846469 -0.116813012199 0.889 8.90804312733e-39
0.00987152215763 -0.116813012199 0.889 8.81620763117e-39
0.0115167758506 -0.116813012199 0.889 9.45905610427e-39
0.0131620295435 -0.116813012199 0.889 9.45905610427e-39
0.0148405954597 -0.117075808626 0.891 9.36722060812e-39
0.0164895505108 -0.117075808626 0.891 8.72437213501e-39
0.0181995779711 -0.117470003268 0.894 8.90804312733e-39
0.0198540850594 -0.117470003268 0.894 9.45905610427e-39
0.0215567098035 -0.117732799696 0.896 1.01019045774e-38
0.02321491825 -0.117732799696 0.896 1.00100690812e-38
0.0248731266964 -0.117732799696 0.896 1.01019045774e-38
0.026590556873 -0.117995596124 0.898 1.01019045774e-38
0.0283468513102 -0.118389790766 0.901 1.01937400735e-38
0.0300809375984 -0.118652587194 0.903 9.27538511196e-39
0.0318575895053 -0.119046781836 0.906 1.62743286388e-38
-0.0217251215989 -0.116981423994 0.903 6.79582671569e-39
-0.020053958399 -0.116981423994 0.903 1.13148054697e-38
-0.0182810078502 -0.11633368632 0.898 1.1688977383e-38
-0.0166190980456 -0.11633368632 0.898 9.47413827964e-39
-0.0149571882411 -0.11633368632 0.898 1.31580356346e-38
-0.0132656675714 -0.11607459125 0.896 1.27060257954e-38
-0.011607459125 -0.11607459125 0.896 5.14278778485e-39
-0.00994925067855 -0.11607459125 0.896 6.42848473106e-39
-0.00827253544143 -0.11581549618 0.894 7.71418167727e-39
-0.00661802835314 -0.11581549618 0.894 8.17335915806e-39
-0.00494686515323 -0.115426853575 0.891 8.17335915806e-39
-0.00329791010215 -0.115426853575 0.891 8.54070114269e-39
-0.00164525369294 -0.115167758506 0.889 8.63253663885e-39
0.0 -0.115167758506 0.889 8.63253663885e-39
0.00164525369294 -0.115167758506 0.889 8.63253663885e-39
0.00329050738588 -0.115167758506 0.889 8.44886564654e-39
0.00493576107881 -0.115167758506 0.889 8.81620763117e-39
0.00658101477175 -0.115167758506 0.889 8.99987862348e-39
0.00822626846469 -0.115167758506 0.889 8.99987862348e-39
0.00987152215763 -0.115167758506 0.889 8.81620763117e-39
0.0115167758506 -0.115167758506 0.889 9.55089160043e-39
0.0131620295435 -0.115167758506 0.889 9.45905610427e-39
0.0148405954597 -0.115426853575 0.891 9.45905610427e-39
0.0165450708829 -0.11581549618 0.894 8.81620763117e-39
0.0181995779711 -0.11581549618 0.894 8.90804312733e-39
0.0198540850594 -0.11581549618 0.894 9.45905610427e-39
0.0215567098035 -0.11607459125 0.896 9.91823358506e-39
0.02321491825 -0.11607459125 0.896 1.01019045774e-38
0.0249286470685 -0.11633368632 0.898 1.01019045774e-38
0.026590556873 -0.11633368632 0.898 1.02855755697e-38
0.0283468513102 -0.116722328924 0.901 9.73456259275e-39
0.0301808742682 -0.117370066599 0.906 9.27538511196e-39
0.0318575895053 -0.117370066599 0.906 1.76543694054e-38
-0.0250119276266 -0.115054867082 0.901 1.95139723415e-38
-0.0233444657848 -0.115054867082 0.901 2.03455645074e-38
-0.0217251215989 -0.115310260794 0.903 7.71525787449e-39
-0.020053958399 -0.115310260794 0.903 1.14073388125e-38
-0.018382795199 -0.115310260794 0.903 1.14131191686e-38
-0.0166746184177 -0.115054867082 0.901 1.17826275607e-38
-0.0149571882411 -0.114671776515 0.898 7.53373927662e-39
-0.0132952784365 -0.114671776515 0.898 1.29729241074e-38
-0.011607459125 -0.114416382803 0.896 1.46403193411e-38
-0.00994925067855 -0.114416382803 0.896 7.44549951232e-39
-0.00829104223213 -0.114416382803 0.896 7.07133320417e-39
-0.00661802835314 -0.114160989092 0.894 7.98968816575e-39
-0.00496352126486 -0.114160989092 0.894 8.26519465422e-39
-0.00329791010215 -0.113777898524 0.891 8.35703015038e-39
-0.00164895505108 -0.113777898524 0.891 8.54070114269e-39
0.0 -0.113777898524 0.891 8.81620763117e-39
0.00164895505108 -0.113777898524 0.891 8.81620763117e-39
0.00329791010215 -0.113777898524 0.891 8.17335915806e-39
0.00494686515323 -0.113777898524 0.891 8.81620763117e-39
0.00659582020431 -0.113777898524 0.891 9.45905610427e-39
0.00822626846469 -0.113522504813 0.889 9.45905610427e-39
0.00987152215763 -0.113522504813 0.889 8.90804312733e-39
0.0115426853575 -0.113777898524 0.891 9.09171411964e-39
0.0131916404086 -0.113777898524 0.891 9.45905610427e-39
0.0148905637946 -0.114160989092 0.894 9.45905610427e-39
0.0165450708829 -0.114160989092 0.894 9.27538511196e-39
0.0181995779711 -0.114160989092 0.894 9.27538511196e-39
0.0198540850594 -0.114160989092 0.894 9.36722060812e-39
0.0215567098035 -0.114416382803 0.896 9.91823358506e-39
0.02321491825 -0.114416382803 0.896 1.00100690812e-38
0.0249286470685 -0.114671776515 0.898 1.01019045774e-38
0.026590556873 -0.114671776515 0.898 1.00100690812e-38
0.0285041590311 -0.115693351361 0.906 1.20315402069e-38
0.0301808742682 -0.115693351361 0.906 8.81620763117e-39
0.03192791531 -0.115948745073 0.908 1.91284302925e-38
-0.0250119276266 -0.113387405241 0.901 1.93295782792e-38
-0.0233444657848 -0.113387405241 0.901 2.08994599553e-38
-0.0217251215989 -0.113639097594 0.903 7.34683969264e-39
-0.020053958399 -0.113639097594 0.903 1.02077558608e-38
-0.018382795199 -0.113639097594 0.903 1.29757771511e-38
-0.0166746184177 -0.113387405241 0.901 1.14131612076e-38
-0.015007156576 -0.113387405241 0.901 1.21506870101e-38
-0.0132952784365 -0.11300986671 0.898 7.53051068496e-39
-0.011633368632 -0.11300986671 0.898 1.39823466536e-38
-0.00994925067855 -0.112758174357 0.896 1.50084180269e-38
-0.00829104223213 -0.112758174357 0.896 8.73804180153e-39
-0.0066328337857 -0.112758174357 0.896 7.07133320417e-39
-0.00496352126486 -0.112506482003 0.894 8.0815236619e-39
-0.00330901417657 -0.112506482003 0.894 7.98968816575e-39
-0.00164895505108 -0.112128943473 0.891 8.35703015038e-39
0.0 -0.112128943473 0.891 8.81620763117e-39
0.00164895505108 -0.112128943473 0.891 8.90804312733e-39
0.00329791010215 -0.112128943473 0.891 8.81620763117e-39
0.00494686515323 -0.112128943473 0.891 9.09171411964e-39
0.00659582020431 -0.112128943473 0.891 9.45905610427e-39
0.00824477525538 -0.112128943473 0.891 9.36722060812e-39
0.00989373030646 -0.112128943473 0.891 9.36722060812e-39
0.011581549618 -0.112506482003 0.894 9.55089160043e-39
0.0132360567063 -0.112506482003 0.894 9.45905610427e-39
0.0148905637946 -0.112506482003 0.894 9.45905610427e-39
0.0165450708829 -0.112506482003 0.894 9.36722060812e-39
0.0181995779711 -0.112506482003 0.894 9.27538511196e-39
0.0198985013571 -0.112758174357 0.896 9.45905610427e-39
0.0215567098035 -0.112758174357 0.896 9.82639808891e-39
0.0232667372639 -0.11300986671 0.898 9.82639808891e-39
0.0249286470685 -0.11300986671 0.898 9.91823358506e-39
0.0266793894684 -0.113387405241 0.901 1.79309745118e-38
0.0284097743985 -0.113639097594 0.903 1.26027192701e-38
0.0301808742682 -0.114016636124 0.906 8.0815236619e-39
0.0318575895053 -0.114016636124 0.906 2.04180887094e-38
-0.0250674479987 -0.111967934394 0.903 1.87749975964e-38
-0.0233962847988 -0.111967934394 0.903 2.12682228566e-38
-0.0217972980826 -0.112339920887 0.906 6.61215572338e-39
-0.0201205828455 -0.112339920887 0.906 8.44886564654e-39
-0.018382795199 -0.111967934394 0.903 1.17647091572e-38
-0.0167116319991 -0.111967934394 0.903 7.80926538327e-39
-0.015007156576 -0.111719943399 0.901 1.36236380688e-38
-0.0132952784365 -0.111347956906 0.898 7.99937394073e-39
-0.011633368632 -0.111347956906 0.898 8.54070114269e-39
-0.00997145882739 -0.111347956906 0.898 1.45344442356e-38
-0.00829104223213 -0.11109996591 0.896 1.4824392506e-38
-0.0066328337857 -0.11109996591 0.896 9.19759483031e-39
-0.00497462533928 -0.11109996591 0.896 6.70399121953e-39
-0.00330901417657 -0.110851974915 0.894 6.70399121953e-39
-0.00165450708829 -0.110851974915 0.894 7.53051068496e-39
0.0 -0.110851974915 0.894 8.35703015038e-39
0.00165450708829 -0.110851974915 0.894 8.81620763117e-39
0.00330901417657 -0.110851974915 0.894 8.63253663885e-39
0.00496352126486 -0.110851974915 0.894 8.90804312733e-39
0.00661802835314 -0.110851974915 0.894 8.81620763117e-39
0.00824477525538 -0.110479988422 0.891 8.90804312733e-39
0.00989373030646 -0.110479988422 0.891 8.81620763117e-39
0.011581549618 -0.110851974915 0.894 8.81620763117e-39
0.0132360567063 -0.110851974915 0.894 8.81620763117e-39
0.0149238760178 -0.11109996591 0.896 8.72437213501e-39
0.0165450708829 -0.110851974915 0.894 7.80601717343e-39
0.0181995779711 -0.110851974915 0.894 7.80601717343e-39
0.0198985013571 -0.11109996591 0.896 1.12039305313e-38
0.0215567098035 -0.11109996591 0.896 1.05610820582e-38
0.0232667372639 -0.111347956906 0.898 1.01019045774e-38
0.0250119276266 -0.111719943399 0.901 1.00100690812e-38
0.0266793894684 -0.111719943399 0.901 1.12039305313e-38
0.0284097743985 -0.111967934394 0.903 1.02855755697e-38
0.0301808742682 -0.112339920887 0.906 9.27538651326e-39
0.0318575895053 -0.112339920887 0.906 2.16184143493e-38
0.0335343047424 -0.112339920887 0.906 1.89626454737e-38
-0.0250674479987 -0.110296771194 0.903 1.94175027514e-38
-0.0233962847988 -0.110296771194 0.903 1.93285693443e-38
-0.0217972980826 -0.11066320565 0.906 7.34683969264e-39
-0.0201205828455 -0.11066320565 0.906 1.26934659573e-38
-0.0184438676083 -0.11066320565 0.906 7.16316870032e-39
-0.0167116319991 -0.110296771194 0.903 1.00136564053e-38
-0.015007156576 -0.110052481557 0.901 1.26076756627e-38
-0.0132952784365 -0.109686047101 0.898 1.15932084421e-38
-0.011633368632 -0.109686047101 0.898 9.82639808891e-39
-0.00997145882739 -0.109686047101 0.898 9.64272709659e-39
-0.00830954902282 -0.109686047101 0.898 1.59188332313e-38
-0.0066328337857 -0.109441757464 0.896 1.41800614591e-38
-0.00497462533928 -0.109441757464 0.896 1.35347046618e-38
-0.00331641689285 -0.109441757464 0.896 1.1413078531e-38
-0.00165820844643 -0.109441757464 0.896 1.00219226649e-38
0.0 -0.109441757464 0.896 8.81907749042e-39
0.00165820844643 -0.109441757464 0.896 8.81620763117e-39
0.00331641689285 -0.109441757464 0.896 9.1835496158e-39
0.00497462533928 -0.109441757464 0.896 8.99987862348e-39
0.00661802835314 -0.109197467827 0.894 8.81620763117e-39
0.00827253544143 -0.109197467827 0.894 8.81620763117e-39
0.00992704252972 -0.109197467827 0.894 8.81620763117e-39
0.011581549618 -0.109197467827 0.894 1.01019045774e-38
0.0132360567063 -0.109197467827 0.894 1.21319922873e-38
0.0149238760178 -0.109441757464 0.896 1.40756591184e-38
0.0165820844643 -0.109441757464 0.896 1.54664366338e-38
0.0182402929107 -0.109441757464 0.896 1.65757185112e-38
0.0198985013571 -0.109441757464 0.896 1.8878788971e-38
0.0216048274593 -0.109686047101 0.898 6.1536957074e-39
0.0233444657848 -0.110052481557 0.901 9.09171411964e-39
0.0250674479987 -0.110296771194 0.903 9.91823358506e-39
0.0267386111986 -0.110296771194 0.903 1.46133653651e-38
0.0285041590311 -0.11066320565 0.906 1.10209770038e-38
0.0301808742682 -0.11066320565 0.906 7.98968816575e-39
0.0318575895053 -0.11066320565 0.906 2.20815420905e-38
0.0335343047424 -0.11066320565 0.906 2.00704223565e-38
-0.0252062489289 -0.109227078692 0.908 1.87735430486e-38
-0.0235258323337 -0.109227078692 0.908 1.9052307556e-38
-0.0218454157384 -0.109227078692 0.908 7.34683969264e-39
-0.0201649991431 -0.109227078692 0.908 1.26020158182e-38
-0.0184845825479 -0.109227078692 0.908 7.62954605262e-39
-0.0167671523712 -0.108986490413 0.906 9.00530725373e-39
-0.0150404687992 -0.108625607994 0.903 8.90807815979e-39
-0.0133396947342 -0.108385019715 0.901 1.46241707776e-38
-0.0116722328924 -0.108385019715 0.901 9.27538511196e-39
-0.0100047710506 -0.108385019715 0.901 9.91823358506e-39
-0.00830954902282 -0.108024137297 0.898 1.07447530505e-38
-0.00664763921826 -0.108024137297 0.898 1.38077266481e-38
-0.00498572941369 -0.108024137297 0.898 1.35339703814e-38
-0.00332381960913 -0.108024137297 0.898 1.46403319527e-38
-0.00166190980456 -0.108024137297 0.898 1.5192430936e-38
0.0 -0.107783549018 0.896 1.45488635968e-38
0.00165820844643 -0.107783549018 0.896 1.52871503044e-38
0.00331641689285 -0.107783549018 0.896 1.60225503372e-38
0.00497462533928 -0.107783549018 0.896 1.55622952579e-38
0.0066328337857 -0.107783549018 0.896 1.63913496722e-38
0.00829104223213 -0.107783549018 0.896 1.59303519047e-38
0.00994925067855 -0.107783549018 0.896 1.62991344242e-38
0.011607459125 -0.107783549018 0.896 1.59307176436e-38
0.0132656675714 -0.107783549018 0.896 1.65771702564e-38
0.0149238760178 -0.107783549018 0.896 1.54690248321e-38
0.0165820844643 -0.107783549018 0.896 1.53775452657e-38
0.0182810078502 -0.108024137297 0.898 1.50076711348e-38
0.0199429176548 -0.108024137297 0.898 1.73114730725e-38
0.0216048274593 -0.108024137297 0.898 5.78563625795e-39
0.0233444657848 -0.108385019715 0.901 8.99987862348e-39
0.0250674479987 -0.108625607994 0.903 1.01019045774e-38
0.026827443794 -0.108986490413 0.906 1.12957660274e-38
0.0285041590311 -0.108986490413 0.906 1.27766162056e-38
0.0301808742682 -0.108986490413 0.906 8.44886564654e-39
0.0318575895053 -0.108986490413 0.906 2.235740591e-38
0.0335343047424 -0.108986490413 0.906 2.02537234061e-38
-0.0254005702312 -0.10837576632 0.915 1.9329225152e-38
-0.0236553798685 -0.108138879399 0.913 2.06221499957e-38
-0.0219657098779 -0.108138879399 0.913 7.62342237833e-39
-0.0202094154408 -0.107783549018 0.91 1.28771159301e-38
-0.0185252974874 -0.107783549018 0.91 1.12312460422e-38
-0.0168041659526 -0.107546662097 0.908 1.21510541503e-38
-0.0150904371341 -0.107309775176 0.906 7.25502521596e-39
-0.0133693055993 -0.106954444794 0.903 1.33320404701e-38
-0.0116722328924 -0.106717557874 0.901 1.23267629648e-38
-0.0100047710506 -0.106717557874 0.901 1.12986597088e-38
-0.00833730920887 -0.106717557874 0.901 1.06536350191e-38
-0.00664763921826 -0.106362227492 0.898 1.6014253249e-38
-0.00498572941369 -0.106362227492 0.898 1.28900667305e-38
-0.00332381960913 -0.106362227492 0.898 1.34410895166e-38
-0.00166190980456 -0.106362227492 0.898 1.36254835789e-38
0.0 -0.106362227492 0.898 1.4086456123e-38
0.00166190980456 -0.106362227492 0.898 1.40860861802e-38
0.00332381960913 -0.106362227492 0.898 1.44548686997e-38
0.00497462533928 -0.106125340571 0.896 1.40868064476e-38
0.0066328337857 -0.106125340571 0.896 1.41793608099e-38
0.00829104223213 -0.106125340571 0.896 1.44555567372e-38
0.00994925067855 -0.106125340571 0.896 1.4639610284e-38
0.011607459125 -0.106125340571 0.896 1.50995220452e-38
0.0132656675714 -0.106125340571 0.896 1.51913827647e-38
0.0149238760178 -0.106125340571 0.896 1.50988157908e-38
0.0166190980456 -0.106362227492 0.898 1.50984626636e-38
0.0182810078502 -0.106362227492 0.898 1.5282115439e-38
0.0199429176548 -0.106362227492 0.898 1.69448765786e-38
0.0216770039431 -0.106717557874 0.901 5.96930725027e-39
0.0233962847988 -0.106954444794 0.903 8.81620763117e-39
0.0251507285568 -0.107309775176 0.906 1.00100690812e-38
0.026827443794 -0.107309775176 0.906 1.35984931692e-38
0.0285670821194 -0.107546662097 0.908 1.02891628938e-38
0.0301808742682 -0.107309775176 0.906 8.99987862348e-39
0.0318575895053 -0.107309775176 0.906 2.2820166511e-38
0.0336083319052 -0.107546662097 0.908 1.98834933453e-38
-0.0254005702312 -0.106682394971 0.915 2.0068208305e-38
-0.0237071988825 -0.106682394971 0.915 2.08994851787e-38
-0.0220138275337 -0.106682394971 0.915 8.45424663264e-39
-0.020320456185 -0.106682394971 0.915 9.37834131273e-39
-0.0185863698967 -0.106449209408 0.913 1.25169584027e-38
-0.016841179534 -0.106099431064 0.91 1.21506982205e-38
-0.0151237493574 -0.105866245501 0.908 1.27039028283e-38
-0.013413721897 -0.105633059939 0.906 1.11311568981e-38
-0.0116981423994 -0.105283281595 0.903 1.02992088025e-38
-0.0100269791995 -0.105283281595 0.903 1.34302869067e-38
-0.00835581599956 -0.105283281595 0.903 1.18669072555e-38
-0.00666984736709 -0.105050096032 0.901 1.38977740874e-38
-0.00500238552532 -0.105050096032 0.901 1.34417901658e-38
-0.00333492368355 -0.105050096032 0.901 1.33488938867e-38
-0.00166746184177 -0.105050096032 0.901 1.38087930362e-38
0.0 -0.104700317688 0.898 1.39006285324e-38
0.00166190980456 -0.104700317688 0.898 1.41768552883e-38
0.00332381960913 -0.104700317688 0.898 1.43612479493e-38
0.00497462533928 -0.104467132125 0.896 1.43616136882e-38
0.0066328337857 -0.104467132125 0.896 1.43623227452e-38
0.00829104223213 -0.104467132125 0.896 1.50048208937e-38
0.00994925067855 -0.104467132125 0.896 1.50973640456e-38
0.011607459125 -0.104467132125 0.896 1.50977171728e-38
0.0132656675714 -0.104467132125 0.896 1.52817651144e-38
0.0149238760178 -0.104467132125 0.896 1.48225750219e-38
0.0166190980456 -0.104700317688 0.898 1.500695367e-38
0.0182810078502 -0.104700317688 0.898 1.51906330701e-38
0.0199429176548 -0.104700317688 0.898 1.6667566619e-38
0.0216770039431 -0.105050096032 0.901 6.24481373874e-39
0.0233962847988 -0.105283281595 0.903 8.99987862348e-39
0.0251507285568 -0.105633059939 0.906 1.01937400735e-38
0.026827443794 -0.105633059939 0.906 1.43403742074e-38
0.0285670821194 -0.105866245501 0.908 9.45907992635e-39
0.0302474987147 -0.105866245501 0.908 9.1835496158e-39
0.03192791531 -0.105866245501 0.908 2.23656483476e-38
0.0336083319052 -0.105866245501 0.908 2.02526710309e-38
-0.0254005702312 -0.104989023622 0.915 1.89604426326e-38
-0.0237071988825 -0.104989023622 0.915 2.06221345814e-38
-0.0220138275337 -0.104989023622 0.915 8.45317043542e-39
-0.020320456185 -0.104989023622 0.915 1.06748002311e-38
-0.0185863698967 -0.104759539418 0.913 1.04868244499e-38
-0.016841179534 -0.104415313111 0.91 1.24265494284e-38
-0.0151237493574 -0.104185828906 0.908 1.01198790328e-38
-0.013413721897 -0.103956344702 0.906 1.122048407e-38
-0.0116981423994 -0.103612118395 0.903 1.11225319061e-38
-0.0100269791995 -0.103612118395 0.903 1.31537028197e-38
-0.00835581599956 -0.103612118395 0.903 1.35246475427e-38
-0.00668465279965 -0.103612118395 0.903 1.35328927829e-38
-0.00500238552532 -0.10338263419 0.901 1.30733635762e-38
-0.00333492368355 -0.10338263419 0.901 1.35329194075e-38
-0.00166746184177 -0.10338263419 0.901 1.41782621919e-38
0.0 -0.10338263419 0.901 1.40850071804e-38
0.00166190980456 -0.103038407883 0.898 1.40857358556e-38
0.00332381960913 -0.103038407883 0.898 1.46363929028e-38
0.00498572941369 -0.103038407883 0.898 1.46363929028e-38
0.00664763921826 -0.103038407883 0.898 1.51917302868e-38
0.00830954902282 -0.103038407883 0.898 1.45456167882e-38
0.00997145882739 -0.103038407883 0.898 1.49136986585e-38
0.011633368632 -0.103038407883 0.898 1.5097013721e-38
0.0132952784365 -0.103038407883 0.898 1.53743110689e-38
0.0149571882411 -0.103038407883 0.898 1.51906330701e-38
0.0166190980456 -0.103038407883 0.898 1.54682975582e-38
0.0183420802595 -0.10338263419 0.901 1.5837790536e-38
0.0200095421013 -0.10338263419 0.901 1.70370722085e-38
0.0217251215989 -0.103612118395 0.903 6.24481373874e-39
0.0233962847988 -0.103612118395 0.903 9.27538511196e-39
0.0251507285568 -0.103956344702 0.906 1.01937400735e-38
0.026827443794 -0.103956344702 0.906 1.19457891487e-38
0.0285670821194 -0.104185828906 0.908 1.18532361877e-38
0.0301808742682 -0.103956344702 0.906 8.63253663885e-39
0.0318575895053 -0.103956344702 0.906 2.19968826437e-38
0.0336083319052 -0.104185828906 0.908 1.80403192323e-38
-0.0273308285009 -0.10419878366 0.923 1.9051932008e-38
-0.0254838507894 -0.103634326543 0.918 2.01600634193e-38
-0.0237849274034 -0.103634326543 0.918 2.03459204372e-38
-0.0220860040175 -0.103634326543 0.918 7.34683969264e-39
-0.0203870806315 -0.103634326543 0.918 1.0675517696e-38
-0.0186270848362 -0.103295652274 0.915 1.27012795975e-38
-0.0168966999061 -0.103069869427 0.913 1.03953476862e-38
-0.0151570615806 -0.102731195157 0.91 1.17783087588e-38
-0.013413721897 -0.102279629464 0.906 1.13166075395e-38
-0.0117370066599 -0.102279629464 0.906 1.34352671215e-38
-0.0100269791995 -0.101940955195 0.903 1.35271068215e-38
-0.00835581599956 -0.101940955195 0.903 8.923488239e-39
-0.00668465279965 -0.101940955195 0.903 1.35383228144e-38
-0.00501348959974 -0.101940955195 0.903 1.44570196928e-38
-0.00334232639983 -0.101940955195 0.903 1.36269058968e-38
-0.00167116319991 -0.101940955195 0.903 1.47325289839e-38
0.0 -0.101940955195 0.903 1.40864393074e-38
0.00166746184177 -0.101715172348 0.901 1.45467168075e-38
0.00333492368355 -0.101715172348 0.901 1.47300136532e-38
0.00498572941369 -0.101376498078 0.898 1.49144077155e-38
0.00664763921826 -0.101376498078 0.898 1.43626982932e-38
0.00830954902282 -0.101376498078 0.898 1.50987765544e-38
0.00997145882739 -0.101376498078 0.898 1.49136986585e-38
0.011633368632 -0.101376498078 0.898 1.50066173583e-38
0.0132952784365 -0.101376498078 0.898 1.54672255649e-38
0.015007156576 -0.101715172348 0.901 1.53753802596e-38
0.0166746184177 -0.101715172348 0.901 1.50995220452e-38
0.018382795199 -0.101940955195 0.903 1.59303519047e-38
0.020053958399 -0.101940955195 0.903 1.64821187802e-38
0.0217251215989 -0.101940955195 0.903 6.97949770801e-39
0.0234740133197 -0.102279629464 0.906 9.36722060812e-39
0.0251507285568 -0.102279629464 0.906 1.06529175543e-38
0.026827443794 -0.102279629464 0.906 1.17592482971e-38
0.0285670821194 -0.102505412311 0.908 1.17639118184e-38
0.0301808742682 -0.102279629464 0.906 8.72437213501e-39
0.0318575895053 -0.102279629464 0.906 2.34861097841e-38
0.0335343047424 -0.102279629464 0.906 2.34892767186e-38
-0.0273308285009 -0.102490606878 0.923 1.89583000472e-38
-0.0255393711615 -0.102157484646 0.92 1.85905895211e-38
-0.0238367464174 -0.102157484646 0.92 1.99767777841e-38
-0.0220860040175 -0.101935403157 0.918 8.45639902708e-39
-0.0203870806315 -0.101935403157 0.918 1.05843996646e-38
-0.0186270848362 -0.101602280925 0.915 1.13212360283e-38
-0.0168966999061 -0.101380199437 0.913 1.15049070206e-38
-0.0151570615806 -0.101047077204 0.91 1.16892954778e-38
-0.013413721897 -0.100602914227 0.906 1.20577136596e-38
-0.0117370066599 -0.100602914227 0.906 1.25176086052e-38
-0.0100602914227 -0.100602914227 0.906 1.31615332755e-38
-0.00838357618561 -0.100602914227 0.906 9.47950385146e-39
-0.00668465279965 -0.100269791995 0.903 3.85709083864e-39
-0.00501348959974 -0.100269791995 0.903 9.66176934142e-39
-0.00334232639983 -0.100269791995 0.903 3.76525534248e-39
-0.00167116319991 -0.100269791995 0.903 1.35325634777e-38
0.0 -0.100269791995 0.903 1.4086456123e-38
0.00166746184177 -0.100047710506 0.901 1.49133259131e-38
0.00333492368355 -0.100047710506 0.901 1.50980548857e-38
0.00498572941369 -0.0997145882739 0.898 1.43637520696e-38
0.00664763921826 -0.0997145882739 0.898 1.44548686997e-38
0.00830954902282 -0.0997145882739 0.898 1.45470643296e-38
0.00997145882739 -0.0997145882739 0.898 1.49147706518e-38
0.011633368632 -0.0997145882739 0.898 1.5099168918e-38
0.0133396947342 -0.100047710506 0.901 1.51917120699e-38
0.015007156576 -0.100047710506 0.901 1.52831678142e-38
0.0166746184177 -0.100047710506 0.901 1.4915123779e-38
0.018382795199 -0.100269791995 0.903 1.59303519047e-38
0.020053958399 -0.100269791995 0.903 1.62055122725e-38
0.0217251215989 -0.100269791995 0.903 7.53051068496e-39
0.0234740133197 -0.100602914227 0.906 9.64272709659e-39
0.0252062489289 -0.100824995716 0.908 1.01019045774e-38
0.0268866655242 -0.100824995716 0.908 1.36971459824e-38
0.0285670821194 -0.100824995716 0.908 1.01019045774e-38
0.0302474987147 -0.100824995716 0.908 8.0815236619e-39
0.03192791531 -0.100824995716 0.908 2.34896844965e-38
0.0336083319052 -0.100824995716 0.908 2.29321652908e-38
-0.0273308285009 -0.100782430097 0.923 1.85895133239e-38
-0.0255393711615 -0.100454859902 0.92 1.94199788458e-38
-0.0238367464174 -0.100454859902 0.92 1.92399568346e-38
-0.0220860040175 -0.100236479772 0.918 9.01064059569e-39
-0.0203870806315 -0.100236479772 0.918 9.38121117198e-39
-0.0186270848362 -0.0999089095762 0.915 1.14141477217e-38
-0.0168966999061 -0.099690529446 0.913 1.18754775969e-38
-0.0151570615806 -0.0993629592506 0.91 1.19655194311e-38
-0.013413721897 -0.0989261989902 0.906 1.22410259195e-38
-0.0117370066599 -0.0989261989902 0.906 1.23332201481e-38
-0.0100602914227 -0.0989261989902 0.906 1.25179673376e-38
-0.00838357618561 -0.0989261989902 0.906 1.56507886572e-38
-0.00670686094849 -0.0989261989902 0.906 2.20405190779e-39
-0.00503014571137 -0.0989261989902 0.906 6.8195450935e-39
-0.00335343047424 -0.0989261989902 0.906 5.15858181984e-39
-0.00167671523712 -0.0989261989902 0.906 1.23404676638e-38
0.0 -0.0989261989902 0.906 1.49172761734e-38
0.00167116319991 -0.0985986287949 0.903 1.46403165385e-38
0.00334232639983 -0.0985986287949 0.903 8.55580994274e-39
0.00500238552532 -0.0983802486646 0.901 1.41797237462e-38
0.00666984736709 -0.0983802486646 0.901 1.45474146542e-38
0.00833730920887 -0.0983802486646 0.901 1.47318115191e-38
0.0100047710506 -0.0983802486646 0.901 1.46399788255e-38
0.0116722328924 -0.0983802486646 0.901 1.51917120699e-38
0.0133396947342 -0.0983802486646 0.901 1.52842818464e-38
0.015007156576 -0.0983802486646 0.901 1.49154769062e-38
0.0166746184177 -0.0983802486646 0.901 1.51920679997e-38
0.018382795199 -0.0985986287949 0.903 1.53768278009e-38
0.020053958399 -0.0985986287949 0.903 1.68530494902e-38
0.0217972980826 -0.0989261989902 0.906 7.25500419648e-39
0.0234740133197 -0.0989261989902 0.906 9.36722060812e-39
0.0252062489289 -0.0991445791204 0.908 1.01019045774e-38
0.0268866655242 -0.0991445791204 0.908 1.0469246562e-38
0.0285670821194 -0.0991445791204 0.908 1.34187836476e-38
0.0302474987147 -0.0991445791204 0.908 8.0815236619e-39
0.03192791531 -0.0991445791204 0.908 2.34914683494e-38
0.0336083319052 -0.0991445791204 0.908 2.25651778346e-38
-0.0273308285009 -0.0990742533158 0.923 1.8773901781e-38
-0.0256226517196 -0.0990742533158 0.923 1.95107381447e-38
-0.0239144749383 -0.0990742533158 0.923 1.99764554854e-38
-0.0221341216733 -0.0987522351576 0.92 8.08726338041e-39
-0.0204314969292 -0.0987522351576 0.92 8.18699098952e-39
-0.0186881572455 -0.0985375563856 0.918 6.80443629346e-39
-0.0169337134875 -0.0982155382274 0.915 9.11503172609e-39
-0.0152070299155 -0.0980008594554 0.913 1.17872294248e-38
-0.0134433327621 -0.0974641625252 0.908 1.2150625353e-38
-0.0117629161668 -0.0974641625252 0.908 1.22424608492e-38
-0.0100602914227 -0.0972494837531 0.906 1.27030732596e-38
-0.00838357618561 -0.0972494837531 0.906 1.28878204491e-38
-0.00670686094849 -0.0972494837531 0.906 1.34445731446e-38
-0.00503014571137 -0.0972494837531 0.906 2.02038091548e-39
-0.00335343047424 -0.0972494837531 0.906 1.83670992316e-39
-0.00167671523712 -0.0972494837531 0.906 1.43633569035e-38
0.0 -0.0972494837531 0.906 1.22460761992e-38
0.00167116319991 -0.096927465595 0.903 1.33578607956e-38
0.00334232639983 -0.096927465595 0.903 4.40814024934e-39
0.00501348959974 -0.096927465595 0.903 1.26906549526e-38
0.00666984736709 -0.0967127868229 0.901 1.54700940228e-38
0.00833730920887 -0.0967127868229 0.901 1.41800740708e-38
0.0100047710506 -0.0967127868229 0.901 1.43623227452e-38
0.0116722328924 -0.0967127868229 0.901 1.51906218597e-38
0.0133693055993 -0.096927465595 0.903 1.50073208102e-38
0.0150404687992 -0.096927465595 0.903 1.500695367e-38
0.0167116319991 -0.096927465595 0.903 1.51920679997e-38
0.018382795199 -0.096927465595 0.903 1.50098375422e-38
0.020053958399 -0.096927465595 0.903 1.65771702564e-38
0.0217972980826 -0.0972494837531 0.906 7.4386751888e-39
0.0234740133197 -0.0972494837531 0.906 9.73456259275e-39
0.0252062489289 -0.0974641625252 0.908 1.02855755697e-38
0.0268866655242 -0.0974641625252 0.908 1.25018243793e-38
0.0286300052078 -0.0976788412972 0.91 1.23242518379e-38
0.0303141231612 -0.0976788412972 0.91 8.54070114269e-39
0.0319982411146 -0.0976788412972 0.91 2.34961150551e-38
-0.0256226517196 -0.0973660765345 0.923 1.97869663019e-38
-0.0239144749383 -0.0973660765345 0.923 2.04374098127e-38
-0.022206298157 -0.0973660765345 0.923 5.60196526564e-39
-0.0204314969292 -0.0970496104135 0.92 9.9415567967e-39
-0.0186881572455 -0.0968386329996 0.918 6.25629317576e-39
-0.0169337134875 -0.0965221668787 0.915 6.90416390257e-39
-0.0152403421387 -0.0965221668787 0.915 4.50532029784e-39
-0.0134433327621 -0.0957837459299 0.908 9.11826171905e-39
-0.0117629161668 -0.0957837459299 0.908 1.14180937782e-38
-0.0100824995716 -0.0957837459299 0.908 1.2152419015e-38
-0.00840208297631 -0.0957837459299 0.908 1.28881791815e-38
-0.00670686094849 -0.095572768516 0.906 1.61110451378e-38
-0.00503014571137 -0.095572768516 0.906 3.12240686937e-39
-0.00335343047424 -0.095572768516 0.906 7.91908094002e-39
-0.00167671523712 -0.095572768516 0.906 9.85402048423e-39
0.0 -0.095572768516 0.906 4.86728269767e-39
0.00167671523712 -0.095572768516 0.906 3.94892633479e-39
0.00335343047424 -0.095572768516 0.906 1.25148228239e-38
0.00501348959974 -0.095256302395 0.903 1.53789984122e-38
0.00668465279965 -0.095256302395 0.903 1.50091186761e-38
0.00835581599956 -0.095256302395 0.903 1.45488635968e-38
0.0100269791995 -0.095256302395 0.903 1.53750425467e-38
0.0116981423994 -0.095256302395 0.903 1.53761257504e-38
0.0133693055993 -0.095256302395 0.903 1.62058625971e-38
0.0150404687992 -0.095256302395 0.903 1.50069858998e-38
0.0167671523712 -0.095572768516 0.906 1.53753984765e-38
0.0184438676083 -0.095572768516 0.906 1.60211182101e-38
0.0201205828455 -0.095572768516 0.906 1.62073087371e-38
0.0217972980826 -0.095572768516 0.906 7.80601717343e-39
0.0235258323337 -0.0957837459299 0.908 9.91823358506e-39
0.0252062489289 -0.0957837459299 0.908 1.07447530505e-38
0.0268866655242 -0.0957837459299 0.908 1.517584797e-38
0.0286300052078 -0.0959947233438 0.91 9.09422524649e-39
0.0303141231612 -0.0959947233438 0.91 8.0815236619e-39
0.0319982411146 -0.0959947233438 0.91 2.34936095335e-38
-0.0256226517196 -0.0956578997532 0.923 1.98816674534e-38
-0.0239144749383 -0.0956578997532 0.923 2.02537206035e-38
-0.022206298157 -0.0956578997532 0.923 9.74640076217e-39
-0.0204981213757 -0.0956578997532 0.923 6.34848740433e-39
-0.0187288721851 -0.0953469856695 0.92 4.32308423516e-39
-0.0169892338596 -0.0951397096136 0.918 1.42725681773e-38
-0.0152403421387 -0.0948287955299 0.915 1.56120343469e-39
-0.0134729436272 -0.0943106053904 0.91 6.81632350833e-39
-0.0117629161668 -0.0941033293346 0.908 5.60627005452e-39
-0.0100824995716 -0.0941033293346 0.908 1.25179967649e-38
-0.00840208297631 -0.0941033293346 0.908 1.06801812172e-38
-0.00670686094849 -0.0938960532788 0.906 1.27974198826e-38
-0.00503014571137 -0.0938960532788 0.906 1.39048268226e-38
-0.00335343047424 -0.0938960532788 0.906 1.83670992316e-39
-0.00167671523712 -0.0938960532788 0.906 5.70492146641e-39
0.0 -0.0938960532788 0.906 7.90933210661e-39
0.00167671523712 -0.0938960532788 0.906 8.27955656218e-39
0.00335343047424 -0.0938960532788 0.906 6.70904850569e-39
0.00503014571137 -0.0938960532788 0.906 1.43626156166e-38
0.00668465279965 -0.0935851391951 0.903 1.48225750219e-38
0.00835581599956 -0.0935851391951 0.903 1.50998877841e-38
0.0100269791995 -0.0935851391951 0.903 1.53761019283e-38
0.0116981423994 -0.0935851391951 0.903 1.51906330701e-38
0.013413721897 -0.0938960532788 0.906 1.5375029935e-38
0.0150904371341 -0.0938960532788 0.906 1.509951644e-38
0.0167671523712 -0.0938960532788 0.906 1.53768278009e-38
0.0184438676083 -0.0938960532788 0.906 1.56523525063e-38
0.0201205828455 -0.0938960532788 0.906 1.61143942411e-38
0.0218454157384 -0.0941033293346 0.908 8.63253663885e-39
0.0235258323337 -0.0941033293346 0.908 9.64272709659e-39
0.0252062489289 -0.0941033293346 0.908 1.02855755697e-38
0.0269458872544 -0.0943106053904 0.91 1.18568235118e-38
0.0286300052078 -0.0943106053904 0.91 1.01019045774e-38
0.0303141231612 -0.0943106053904 0.91 8.54070114269e-39
0.0319982411146 -0.0943106053904 0.91 2.34989638949e-38
-0.0256226517196 -0.0939497229719 0.923 2.0343356061e-38
-0.0239144749383 -0.0939497229719 0.923 1.960836801e-38
-0.022206298157 -0.0939497229719 0.923 1.08523727725e-38
-0.0204314969292 -0.0936443609254 0.92 7.91327816308e-39
-0.0187288721851 -0.0936443609254 0.92 4.4142022665e-39
-0.0169892338596 -0.0934407862277 0.918 1.35353786864e-38
-0.0152403421387 -0.0931354241812 0.915 1.46936793853e-39
-0.0134729436272 -0.092626487437 0.91 1.22525487968e-38
-0.0117888256738 -0.092626487437 0.91 1.11368475712e-38
-0.0100824995716 -0.0924229127394 0.908 9.47878638665e-39
-0.00840208297631 -0.0924229127394 0.908 5.43515469644e-39
-0.00672166638105 -0.0924229127394 0.908 1.10464848397e-38
-0.00504124978578 -0.0924229127394 0.908 1.5378152028e-38
-0.00336083319052 -0.0924229127394 0.908 1.65303893084e-39
-0.00167671523712 -0.0922193380417 0.906 9.30377261625e-39
0.0 -0.0922193380417 0.906 7.82359506137e-39
0.00167671523712 -0.0922193380417 0.906 9.9411924591e-39
0.00335343047424 -0.0922193380417 0.906 1.26109434907e-38
0.00503014571137 -0.0922193380417 0.906 1.47321590411e-38
0.00670686094849 -0.0922193380417 0.906 1.40875155047e-38
0.00838357618561 -0.0922193380417 0.906 1.54693751567e-38
0.0100602914227 -0.0922193380417 0.906 1.48225624102e-38
0.0117370066599 -0.0922193380417 0.906 1.55579918703e-38
0.013413721897 -0.0922193380417 0.906 1.54682975582e-38
0.0150904371341 -0.0922193380417 0.906 1.51916756361e-38
0.0167671523712 -0.0922193380417 0.906 1.53761019283e-38
0.0184845825479 -0.0924229127394 0.908 1.55601400608e-38
0.0201649991431 -0.0924229127394 0.908 1.65750150593e-38
0.0218454157384 -0.0924229127394 0.908 9.36722060812e-39
0.0235258323337 -0.0924229127394 0.908 1.05610820582e-38
0.0252062489289 -0.0924229127394 0.908 1.05610820582e-38
0.0269458872544 -0.092626487437 0.91 1.11128124999e-38
0.0286300052078 -0.092626487437 0.91 1.07469054449e-38
0.0303141231612 -0.092626487437 0.91 1.12068087983e-38
-0.0256226517196 -0.0922415461905 0.923 1.94181851837e-38
-0.0239144749383 -0.0922415461905 0.923 2.08994431397e-38
-0.022206298157 -0.0922415461905 0.923 4.77544580022e-39
-0.0204314969292 -0.0919417361813 0.92 1.25212239553e-38
-0.0187288721851 -0.0919417361813 0.92 1.04954340277e-38
-0.0169892338596 -0.0917418628417 0.918 1.25204784645e-38
-0.0152403421387 -0.0914420528324 0.915 1.28569694621e-39
-0.0135173599249 -0.0912421794929 0.913 1.26188342024e-38
-0.0117888256738 -0.0909423694836 0.91 1.31661967968e-38
-0.0101047077204 -0.0909423694836 0.91 3.76848393414e-39
-0.00840208297631 -0.0907424961441 0.908 3.58732406867e-43
-0.00672166638105 -0.0907424961441 0.908 1.37209035965e-38
-0.00504124978578 -0.0907424961441 0.908 1.43618519089e-38
-0.00336083319052 -0.0907424961441 0.908 9.57349174206e-39
-0.00167671523712 -0.0905426228046 0.906 6.42848473106e-40
0.0 -0.0905426228046 0.906 7.72783172561e-39
0.00167671523712 -0.0905426228046 0.906 4.22443282327e-39
0.00335343047424 -0.0905426228046 0.906 1.40792296269e-38
0.00503014571137 -0.0905426228046 0.906 1.64856934926e-38
0.00670686094849 -0.0905426228046 0.906 1.49197943068e-38
0.00838357618561 -0.0905426228046 0.906 1.53800648004e-38
0.0100602914227 -0.0905426228046 0.906 1.52849852983e-38
0.0117370066599 -0.0905426228046 0.906 1.56516168246e-38
0.013413721897 -0.0905426228046 0.906 1.51917120699e-38
0.0150904371341 -0.0905426228046 0.906 1.57449040659e-38
0.0168041659526 -0.0907424961441 0.908 1.51906386753e-38
0.0184845825479 -0.0907424961441 0.908 1.72192928569e-38
0.0202094154408 -0.0909423694836 0.91 1.53771809281e-38
0.0218935333942 -0.0909423694836 0.91 9.27538511196e-39
0.0236553798685 -0.0912421794929 0.913 1.05610820582e-38
0.0253450498591 -0.0912421794929 0.913 1.0469246562e-38
0.02709394158 -0.0914420528324 0.915 1.27763079199e-38
0.0287873129287 -0.0914420528324 0.915 8.72437213501e-39
-0.0256226517196 -0.0905333694092 0.923 2.3209450027e-38
-0.0239144749383 -0.0905333694092 0.923 2.30279510473e-38
-0.022206298157 -0.0905333694092 0.923 3.03057137321e-39
-0.0204981213757 -0.0905333694092 0.923 9.39412553863e-39
-0.0187288721851 -0.0902391114372 0.92 1.1784718298e-38
-0.0169892338596 -0.0900429394558 0.918 1.15070594151e-38
-0.0152903104736 -0.0900429394558 0.918 7.91650675474e-39
-0.0135173599249 -0.0895525095023 0.913 1.36307734806e-38
-0.0118276899343 -0.0895525095023 0.913 8.37532550313e-39
-0.0101047077204 -0.0892582515302 0.91 2.11221641163e-39
-0.008420589767 -0.0892582515302 0.91 7.81823089084e-39
-0.00672166638105 -0.0890620795488 0.908 1.32580407008e-38
-0.00504124978578 -0.0890620795488 0.908 1.35310276546e-38
-0.00336083319052 -0.0890620795488 0.908 1.57436919428e-38
-0.00168041659526 -0.0890620795488 0.908 1.46936793853e-39
0.0 -0.0890620795488 0.908 9.48170949525e-39
0.00168041659526 -0.0890620795488 0.908 7.08030151434e-39
0.00336083319052 -0.0890620795488 0.908 1.00315930256e-38
0.00504124978578 -0.0890620795488 0.908 1.1505265753e-38
0.00672166638105 -0.0890620795488 0.908 6.98846601818e-39
0.00838357618561 -0.0888659075675 0.906 4.86728129637e-39
0.0100602914227 -0.0888659075675 0.906 8.5475408805e-39
0.0117370066599 -0.0888659075675 0.906 1.57466991293e-38
0.013413721897 -0.0888659075675 0.906 1.51924211269e-38
0.0151237493574 -0.0890620795488 0.908 1.54682947556e-38
0.0168041659526 -0.0890620795488 0.908 1.55597715193e-38
0.0184845825479 -0.0890620795488 0.908 1.62040619286e-38
0.0202094154408 -0.0892582515302 0.91 1.53764522529e-38
0.0219657098779 -0.0895525095023 0.913 9.27538511196e-39
0.0236553798685 -0.0895525095023 0.913 1.03774110659e-38
