# .PCD v0.7 - Point Cloud Data file format
VERSION 0.7
FIELDS x y z rgb
SIZE 4 4 4 4
TYPE F F F F
COUNT 1 1 1 1
WIDTH 840
HEIGHT 1
VIEWPOINT 0 0 0 1 0 0 0
POINTS 840
DATA ascii
-0.00167671523712 -0.102279629464 0.906 1.02916740206e-38
0.0 -0.102279629464 0.906 8.44886564654e-39
0.00167116319991 -0.101940955195 0.903 1.16692372915e-38
0.00334232639983 -0.101940955195 0.903 9.92361457117e-39
0.00500238552532 -0.101715172348 0.901 1.06640382589e-38
0.00666984736709 -0.101715172348 0.901 1.15834694177e-38
0.00833730920887 -0.101715172348 0.901 8.44886564654e-39
0.0100269791995 -0.101940955195 0.903 1.27748617799e-38
0.0116981423994 -0.101940955195 0.903 9.1835496158e-39
0.013413721897 -0.102279629464 0.906 8.72437213501e-39
0.0150904371341 -0.102279629464 0.906 1.21291014086e-38
0.0167671523712 -0.102279629464 0.906 1.21280252114e-38
0.0184845825479 -0.102505412311 0.908 1.19519296385e-38
0.0202094154408 -0.102731195157 0.91 1.0469246562e-38
0.0219657098779 -0.103069869427 0.913 1.00100690812e-38
0.0237071988825 -0.103295652274 0.915 9.45905610427e-39
0.0254838507894 -0.103634326543 0.918 7.89785266959e-39
-0.0341635356261 -0.102490606878 0.923 1.84973190953e-38
-0.0323498701378 -0.102157484646 0.92 1.85895133239e-38
-0.0305806209472 -0.101935403157 0.918 2.0526316595e-38
-0.0287873129287 -0.101602280925 0.915 1.40813231668e-38
-0.02709394158 -0.101602280925 0.915 1.02088698931e-38
-0.0253450498591 -0.101380199437 0.913 1.12298237243e-38
-0.0236553798685 -0.101380199437 0.913 1.2704972019e-38
-0.0219657098779 -0.101380199437 0.913 4.86728129637e-39
-0.0202094154408 -0.101047077204 0.91 6.88766221185e-39
-0.0184845825479 -0.100824995716 0.908 7.62234618111e-39
-0.0168041659526 -0.100824995716 0.908 8.0815236619e-39
-0.0151237493574 -0.100824995716 0.908 9.55304399487e-39
-0.013413721897 -0.100602914227 0.906 1.06611908205e-38
-0.0117370066599 -0.100602914227 0.906 9.1835496158e-39
-0.0100602914227 -0.100602914227 0.906 9.27538511196e-39
-0.00838357618561 -0.100602914227 0.906 9.36722060812e-39
-0.00670686094849 -0.100602914227 0.906 8.54070114269e-39
-0.00503014571137 -0.100602914227 0.906 1.0199479792e-38
-0.00335343047424 -0.100602914227 0.906 8.35703015038e-39
-0.00167671523712 -0.100602914227 0.906 1.07476229097e-38
0.0 -0.100602914227 0.906 8.54070114269e-39
0.00167116319991 -0.100269791995 0.903 9.64272709659e-39
0.00334232639983 -0.100269791995 0.903 9.91823358506e-39
0.00501348959974 -0.100269791995 0.903 9.36722060812e-39
0.00668465279965 -0.100269791995 0.903 9.55089160043e-39
0.00835581599956 -0.100269791995 0.903 8.90804312733e-39
0.0100269791995 -0.100269791995 0.903 1.07473132228e-38
0.0117370066599 -0.100602914227 0.906 1.16782224173e-38
0.013413721897 -0.100602914227 0.906 8.99987862348e-39
0.0150904371341 -0.100602914227 0.906 1.3418395488e-38
0.0168041659526 -0.100824995716 0.908 9.55089160043e-39
0.0184845825479 -0.100824995716 0.908 9.45905610427e-39
0.0202094154408 -0.101047077204 0.91 9.91823358506e-39
0.0219657098779 -0.101380199437 0.913 1.02855755697e-38
0.0237071988825 -0.101602280925 0.915 1.13890364532e-38
0.0254838507894 -0.101935403157 0.918 8.72437213501e-39
0.0271827741753 -0.101935403157 0.918 2.34935702971e-38
-0.0342375627889 -0.101000810227 0.925 1.87742605134e-38
-0.0324553588448 -0.100782430097 0.923 1.88668204809e-38
-0.0306472453938 -0.100454859902 0.92 2.09876576806e-38
-0.0288816975613 -0.100236479772 0.918 1.33434106058e-38
-0.02709394158 -0.0999089095762 0.915 1.06701661371e-38
-0.0253450498591 -0.099690529446 0.913 1.14134821049e-38
-0.0236553798685 -0.099690529446 0.913 1.29808148191e-38
-0.0219657098779 -0.099690529446 0.913 4.86728129637e-39
-0.0202094154408 -0.0993629592506 0.91 6.61215572338e-39
-0.0185252974874 -0.0993629592506 0.91 7.25500419648e-39
-0.0168041659526 -0.0991445791204 0.908 9.27574384436e-39
-0.0151237493574 -0.0991445791204 0.908 9.73850864922e-39
-0.013413721897 -0.0989261989902 0.906 8.72473086742e-39
-0.0117370066599 -0.0989261989902 0.906 8.0815236619e-39
-0.0100602914227 -0.0989261989902 0.906 8.99987862348e-39
-0.00838357618561 -0.0989261989902 0.906 8.81620763117e-39
-0.00670686094849 -0.0989261989902 0.906 8.81620763117e-39
-0.00503014571137 -0.0989261989902 0.906 1.01044157042e-38
-0.00335343047424 -0.0989261989902 0.906 1.06611810114e-38
-0.00167671523712 -0.0989261989902 0.906 9.65061920954e-39
0.0 -0.0989261989902 0.906 8.99988002478e-39
0.00167671523712 -0.0989261989902 0.906 1.08477092513e-38
0.00335343047424 -0.0989261989902 0.906 9.55340272728e-39
0.00503014571137 -0.0989261989902 0.906 1.16674170048e-38
0.00668465279965 -0.0985986287949 0.903 1.16731847493e-38
0.00835581599956 -0.0985986287949 0.903 8.63253663885e-39
0.0100602914227 -0.0989261989902 0.906 9.36722060812e-39
0.0117370066599 -0.0989261989902 0.906 9.45905610427e-39
0.013413721897 -0.0989261989902 0.906 1.01019045774e-38
0.0150904371341 -0.0989261989902 0.906 1.03774110659e-38
0.0168041659526 -0.0991445791204 0.908 1.01019045774e-38
0.0184845825479 -0.0991445791204 0.908 9.73456259275e-39
0.0202094154408 -0.0993629592506 0.91 1.03774110659e-38
0.0219657098779 -0.099690529446 0.913 1.2773744945e-38
0.0237071988825 -0.0999089095762 0.915 9.1835496158e-39
0.0254838507894 -0.100236479772 0.918 9.55089160043e-39
0.0271827741753 -0.100236479772 0.918 2.34946535008e-38
-0.0342375627889 -0.0992889320879 0.925 1.87746192458e-38
-0.0324553588448 -0.0990742533158 0.923 1.8866454742e-38
-0.0306472453938 -0.0987522351576 0.92 2.08036167455e-38
-0.0289446206497 -0.0987522351576 0.92 1.42639179619e-38
-0.0271827741753 -0.0985375563856 0.918 1.03028255538e-38
-0.0254005702312 -0.0982155382274 0.915 1.09521031843e-38
-0.0237071988825 -0.0982155382274 0.915 1.34403440258e-38
-0.0220138275337 -0.0982155382274 0.915 4.86728129637e-39
-0.0202760398873 -0.0980008594554 0.913 6.70399121953e-39
-0.0185252974874 -0.0976788412972 0.91 7.34683969264e-39
-0.016841179534 -0.0976788412972 0.91 9.36758354442e-39
-0.0151237493574 -0.0974641625252 0.908 7.62234618111e-39
-0.0134433327621 -0.0974641625252 0.908 8.63253663885e-39
-0.0117370066599 -0.0972494837531 0.906 9.1835496158e-39
-0.0100602914227 -0.0972494837531 0.906 9.73528005756e-39
-0.00838357618561 -0.0972494837531 0.906 9.92146217672e-39
-0.00670686094849 -0.0972494837531 0.906 1.02913194921e-38
-0.00503014571137 -0.0972494837531 0.906 1.19533617656e-38
-0.00335343047424 -0.0972494837531 0.906 9.65063462382e-39
-0.00167671523712 -0.0972494837531 0.906 1.04785736046e-38
0.0 -0.0972494837531 0.906 1.0478932337e-38
0.00167671523712 -0.0972494837531 0.906 1.10321047149e-38
0.00335343047424 -0.0972494837531 0.906 9.73994357885e-39
0.00503014571137 -0.0972494837531 0.906 1.13901126504e-38
0.00670686094849 -0.0972494837531 0.906 1.06550699488e-38
0.00838357618561 -0.0972494837531 0.906 1.23156548718e-38
0.0100602914227 -0.0972494837531 0.906 1.13980047634e-38
0.0117370066599 -0.0972494837531 0.906 1.25872096986e-38
0.013413721897 -0.0972494837531 0.906 9.09171411964e-39
0.0151237493574 -0.0974641625252 0.908 1.01019045774e-38
0.016841179534 -0.0976788412972 0.91 1.48885383445e-38
0.0185252974874 -0.0976788412972 0.91 1.16782224173e-38
0.0202760398873 -0.0980008594554 0.913 1.16735112519e-38
0.0220138275337 -0.0982155382274 0.915 1.07501340366e-38
0.0237071988825 -0.0982155382274 0.915 9.64272709659e-39
0.0254838507894 -0.0985375563856 0.918 1.0010786546e-38
0.0271827741753 -0.0985375563856 0.918 2.34939472464e-38
-0.0342375627889 -0.0975770539484 0.925 1.95118339601e-38
-0.0324553588448 -0.0973660765345 0.923 1.84994714897e-38
-0.0307471820635 -0.0973660765345 0.923 2.0435199965e-38
-0.0289446206497 -0.0970496104135 0.92 1.29742749592e-38
-0.0272419959056 -0.0970496104135 0.92 1.094782502e-38
-0.0254838507894 -0.0968386329996 0.918 1.13230913475e-38
-0.0237071988825 -0.0965221668787 0.915 1.35343221073e-38
-0.0220138275337 -0.0965221668787 0.915 4.86728129637e-39
-0.020320456185 -0.0965221668787 0.915 6.88766221185e-39
-0.0185863698967 -0.0963111894648 0.913 7.34683969264e-39
-0.0168966999061 -0.0963111894648 0.913 9.64453056771e-39
-0.0151570615806 -0.0959947233438 0.91 1.07544738579e-38
-0.0134433327621 -0.0957837459299 0.908 1.05757970933e-38
-0.0117629161668 -0.0957837459299 0.908 1.05729482536e-38
-0.0100824995716 -0.0957837459299 0.908 7.89785266959e-39
-0.00838357618561 -0.095572768516 0.906 8.35703015038e-39
-0.00670686094849 -0.095572768516 0.906 8.72437213501e-39
-0.00503014571137 -0.095572768516 0.906 8.44886564654e-39
-0.00335343047424 -0.095572768516 0.906 9.64272709659e-39
-0.00167671523712 -0.095572768516 0.906 9.45905610427e-39
0.0 -0.095572768516 0.906 9.64272709659e-39
0.00167671523712 -0.095572768516 0.906 9.45905610427e-39
0.00335343047424 -0.095572768516 0.906 9.09171411964e-39
0.00503014571137 -0.095572768516 0.906 9.82639808891e-39
0.00670686094849 -0.095572768516 0.906 9.55089160043e-39
0.00838357618561 -0.095572768516 0.906 9.91823358506e-39
0.0100602914227 -0.095572768516 0.906 9.36722060812e-39
0.0117629161668 -0.0957837459299 0.908 1.16645653625e-38
0.0134433327621 -0.0957837459299 0.908 1.25018243793e-38
0.0151237493574 -0.0957837459299 0.908 9.55089160043e-39
0.016841179534 -0.0959947233438 0.91 1.11121062455e-38
0.0185252974874 -0.0959947233438 0.91 8.44886564654e-39
0.0202760398873 -0.0963111894648 0.913 1.3792941548e-38
0.0220138275337 -0.0965221668787 0.915 9.55089160043e-39
0.0237071988825 -0.0965221668787 0.915 9.55089160043e-39
0.0254838507894 -0.0968386329996 0.918 1.20398120717e-38
-0.0324553588448 -0.0956578997532 0.923 1.90519193963e-38
-0.0307471820635 -0.0956578997532 0.923 2.07121343766e-38
-0.0290390052822 -0.0956578997532 0.923 1.31604570783e-38
-0.0272419959056 -0.0953469856695 0.92 1.1226554495e-38
-0.0255393711615 -0.0953469856695 0.92 1.12305397878e-38
-0.0237849274034 -0.0951397096136 0.918 1.3166981524e-38
-0.0220860040175 -0.0951397096136 0.918 4.68361030406e-39
-0.020320456185 -0.0948287955299 0.915 6.79582671569e-39
-0.0186270848362 -0.0948287955299 0.915 7.34683969264e-39
-0.0168966999061 -0.0946215194741 0.913 9.92183632341e-39
-0.0151570615806 -0.0943106053904 0.91 8.5475380779e-39
-0.0134433327621 -0.0941033293346 0.908 7.80601717343e-39
-0.0117629161668 -0.0941033293346 0.908 8.72437213501e-39
-0.0100824995716 -0.0941033293346 0.908 9.09171411964e-39
-0.00840208297631 -0.0941033293346 0.908 8.26519465422e-39
-0.00672166638105 -0.0941033293346 0.908 8.54070114269e-39
-0.00504124978578 -0.0941033293346 0.908 1.15827589594e-38
-0.00335343047424 -0.0938960532788 0.906 1.04800085342e-38
-0.00167671523712 -0.0938960532788 0.906 1.1124301746e-38
0.0 -0.0938960532788 0.906 1.1495260482e-38
0.00167671523712 -0.0938960532788 0.906 1.02938264151e-38
0.00335343047424 -0.0938960532788 0.906 1.12157995293e-38
0.00503014571137 -0.0938960532788 0.906 9.64667315306e-39
0.00672166638105 -0.0941033293346 0.908 9.36722060812e-39
0.00840208297631 -0.0941033293346 0.908 1.14816062298e-38
0.0100824995716 -0.0941033293346 0.908 1.0656146146e-38
0.0117629161668 -0.0941033293346 0.908 8.81620763117e-39
0.0134433327621 -0.0941033293346 0.908 1.08365885466e-38
0.0151570615806 -0.0943106053904 0.91 1.24135762072e-38
0.0168966999061 -0.0946215194741 0.913 1.19540652174e-38
0.0185863698967 -0.0946215194741 0.913 9.83106301149e-39
0.020320456185 -0.0948287955299 0.915 1.13990809606e-38
0.0220138275337 -0.0948287955299 0.915 9.73456259275e-39
0.0237071988825 -0.0948287955299 0.915 1.10242055954e-38
0.0254005702312 -0.0948287955299 0.915 1.33298292211e-38
-0.0325256846495 -0.0941532976695 0.925 1.84958869683e-38
-0.0307471820635 -0.0939497229719 0.923 2.04334049016e-38
-0.0290390052822 -0.0939497229719 0.923 1.26069329745e-38
-0.0273308285009 -0.0939497229719 0.923 1.15020707925e-38
-0.0255393711615 -0.0936443609254 0.92 1.12301866606e-38
-0.0237849274034 -0.0934407862277 0.918 1.27053069293e-38
-0.0220860040175 -0.0934407862277 0.918 4.68361030406e-39
-0.0203870806315 -0.0934407862277 0.918 6.79582671569e-39
-0.0186270848362 -0.0931354241812 0.915 7.53051068496e-39
-0.0168966999061 -0.0929318494835 0.913 8.72437213501e-39
-0.0152070299155 -0.0929318494835 0.913 7.25500419648e-39
-0.0134433327621 -0.0924229127394 0.908 8.72437213501e-39
-0.0117629161668 -0.0924229127394 0.908 1.06661976599e-38
-0.0100824995716 -0.0924229127394 0.908 1.14941590614e-38
-0.00840208297631 -0.0924229127394 0.908 1.07591541948e-38
-0.00672166638105 -0.0924229127394 0.908 1.05682595089e-38
-0.00504124978578 -0.0924229127394 0.908 9.64816133203e-39
-0.00336083319052 -0.0924229127394 0.908 1.29703625339e-38
-0.00168041659526 -0.0924229127394 0.908 8.36061747445e-39
0.0 -0.0924229127394 0.908 9.1835496158e-39
0.00168041659526 -0.0924229127394 0.908 1.13915587905e-38
0.00336083319052 -0.0924229127394 0.908 1.01955337356e-38
0.00504124978578 -0.0924229127394 0.908 1.15805995585e-38
0.00672166638105 -0.0924229127394 0.908 1.10310355241e-38
0.00840208297631 -0.0924229127394 0.908 1.12986414919e-38
0.0100824995716 -0.0924229127394 0.908 1.06572223432e-38
0.0117629161668 -0.0924229127394 0.908 1.02916740206e-38
0.0134433327621 -0.0924229127394 0.908 9.73456259275e-39
0.0151570615806 -0.092626487437 0.91 1.01944575384e-38
0.0168966999061 -0.0929318494835 0.913 1.09330987745e-38
0.0185863698967 -0.0929318494835 0.913 1.17589666361e-38
0.020320456185 -0.0931354241812 0.915 1.10202665455e-38
0.0220138275337 -0.0931354241812 0.915 1.31450315848e-38
0.0237849274034 -0.0934407862277 0.918 8.17335915806e-39
0.0254838507894 -0.0934407862277 0.918 1.52677381168e-38
-0.0325256846495 -0.0924414195301 0.925 2.1171338482e-38
-0.03081380651 -0.0924414195301 0.925 2.34856375465e-38
-0.0290390052822 -0.0922415461905 0.923 9.10821581036e-39
-0.0273308285009 -0.0922415461905 0.923 1.26948518415e-38
-0.0255393711615 -0.0919417361813 0.92 1.2428012384e-38
-0.0237849274034 -0.0917418628417 0.918 1.29833511693e-38
-0.0220860040175 -0.0917418628417 0.918 4.86728129637e-39
-0.0203870806315 -0.0917418628417 0.918 6.79582671569e-39
-0.0186270848362 -0.0914420528324 0.915 7.25500419648e-39
-0.0169337134875 -0.0914420528324 0.915 8.54070114269e-39
-0.0152070299155 -0.0912421794929 0.913 8.63253663885e-39
-0.0134729436272 -0.0909423694836 0.91 9.18713693987e-39
-0.0117888256738 -0.0909423694836 0.91 9.27538511196e-39
-0.0100824995716 -0.0907424961441 0.908 9.36722060812e-39
-0.00840208297631 -0.0907424961441 0.908 9.36722060812e-39
-0.00672166638105 -0.0907424961441 0.908 9.1835496158e-39
-0.00504124978578 -0.0907424961441 0.908 8.54070114269e-39
-0.00336083319052 -0.0907424961441 0.908 9.09171411964e-39
-0.00168041659526 -0.0907424961441 0.908 9.45905610427e-39
0.0 -0.0907424961441 0.908 9.73456259275e-39
0.00168041659526 -0.0907424961441 0.908 1.11153236268e-38
0.00336083319052 -0.0907424961441 0.908 1.08398171383e-38
0.00504124978578 -0.0907424961441 0.908 9.64272709659e-39
0.00672166638105 -0.0907424961441 0.908 9.55089160043e-39
0.00840208297631 -0.0907424961441 0.908 1.06529175543e-38
0.0100824995716 -0.0907424961441 0.908 1.17660642128e-38
0.0117629161668 -0.0907424961441 0.908 1.11203458805e-38
0.0134729436272 -0.0909423694836 0.91 1.19465248304e-38
0.0152070299155 -0.0912421794929 0.913 1.24121693036e-38
0.0169337134875 -0.0914420528324 0.915 9.83034414538e-39
0.0186270848362 -0.0914420528324 0.915 1.28666552371e-38
0.020320456185 -0.0914420528324 0.915 1.23134926683e-38
0.0220860040175 -0.0917418628417 0.918 1.09327288317e-38
0.0237849274034 -0.0917418628417 0.918 8.81620763117e-39
0.0254838507894 -0.0917418628417 0.918 1.84953040281e-38
-0.0325256846495 -0.0907295413906 0.925 2.24718835868e-38
-0.03081380651 -0.0907295413906 0.925 2.34885592538e-38
-0.0291019283706 -0.0907295413906 0.925 8.55576790378e-39
-0.0273308285009 -0.0905333694092 0.923 1.18572158753e-38
-0.0256226517196 -0.0905333694092 0.923 1.21514044749e-38
-0.0238367464174 -0.0902391114372 0.92 1.31662948877e-38
-0.0221341216733 -0.0902391114372 0.92 4.77544580022e-39
-0.0203870806315 -0.0900429394558 0.918 6.79582671569e-39
-0.0186270848362 -0.0897486814837 0.915 7.25500419648e-39
-0.0169337134875 -0.0897486814837 0.915 1.17635839146e-38
-0.0152070299155 -0.0895525095023 0.913 8.17335915806e-39
-0.0135173599249 -0.0895525095023 0.913 8.26519465422e-39
-0.0118276899343 -0.0895525095023 0.913 8.54070114269e-39
-0.0101047077204 -0.0892582515302 0.91 9.1835496158e-39
-0.008420589767 -0.0892582515302 0.91 9.27538511196e-39
-0.0067364718136 -0.0892582515302 0.91 9.1835496158e-39
-0.00504124978578 -0.0890620795488 0.908 8.90804312733e-39
-0.00336083319052 -0.0890620795488 0.908 1.12172414654e-38
-0.00168041659526 -0.0890620795488 0.908 1.2133061478e-38
0.0 -0.0890620795488 0.908 1.03874835992e-38
0.00168041659526 -0.0890620795488 0.908 1.13990991775e-38
0.00336083319052 -0.0890620795488 0.908 9.2786347231e-39
0.00504124978578 -0.0890620795488 0.908 1.1671014138e-38
0.00672166638105 -0.0890620795488 0.908 9.36722060812e-39
0.008420589767 -0.0892582515302 0.91 9.82639808891e-39
0.0101047077204 -0.0892582515302 0.91 1.06529175543e-38
0.0117888256738 -0.0892582515302 0.91 9.36722060812e-39
0.0134729436272 -0.0892582515302 0.91 1.01019045774e-38
0.0152070299155 -0.0895525095023 0.913 1.34195067176e-38
0.0169337134875 -0.0897486814837 0.915 1.19508604478e-38
0.0186270848362 -0.0897486814837 0.915 1.01036982394e-38
0.0203870806315 -0.0900429394558 0.918 1.30539261652e-38
0.0220860040175 -0.0900429394558 0.918 1.0469246562e-38
0.0237849274034 -0.0900429394558 0.918 9.1835496158e-39
0.0254838507894 -0.0900429394558 0.918 2.23606807446e-38
-0.0325256846495 -0.0890176632512 0.925 2.1826867305e-38
-0.03081380651 -0.0890176632512 0.925 2.3490358521e-38
-0.0291019283706 -0.0890176632512 0.925 6.4356593792e-39
-0.0273900502311 -0.0890176632512 0.925 1.1583874393e-38
-0.0256226517196 -0.0888251926279 0.923 1.25183919311e-38
-0.0239144749383 -0.0888251926279 0.923 1.35340068152e-38
-0.022206298157 -0.0888251926279 0.923 4.95911679253e-39
-0.0204314969292 -0.0885364866931 0.92 7.16316870032e-39
-0.0186881572455 -0.0883440160698 0.918 7.80601717343e-39
-0.0169337134875 -0.0880553101349 0.915 8.54070114269e-39
-0.0152403421387 -0.0880553101349 0.915 8.81620763117e-39
-0.01354697079 -0.0880553101349 0.915 9.37080793218e-39
-0.0118276899343 -0.0878628395117 0.913 9.18677820746e-39
-0.0101380199437 -0.0878628395117 0.913 1.04775100191e-38
-0.00844834995305 -0.0878628395117 0.913 9.92255939342e-39
-0.0067364718136 -0.0875741335768 0.91 1.12157967267e-38
-0.0050523538602 -0.0875741335768 0.91 1.09402622122e-38
-0.0033682359068 -0.0875741335768 0.91 9.1835496158e-39
-0.0016841179534 -0.0875741335768 0.91 9.91823358506e-39
0.0 -0.0875741335768 0.91 9.36793807293e-39
0.0016841179534 -0.0875741335768 0.91 1.16695848136e-38
0.0033682359068 -0.0875741335768 0.91 1.13054518024e-38
0.0050523538602 -0.0875741335768 0.91 1.11250206122e-38
0.0067364718136 -0.0875741335768 0.91 1.17675243658e-38
0.008420589767 -0.0875741335768 0.91 1.13047343376e-38
0.0101380199437 -0.0878628395117 0.913 1.08409031446e-38
0.0118276899343 -0.0878628395117 0.913 9.27538511196e-39
0.0135173599249 -0.0878628395117 0.913 1.01937400735e-38
0.0152403421387 -0.0880553101349 0.915 1.35073611249e-38
0.0169337134875 -0.0880553101349 0.915 1.30575008776e-38
0.0186881572455 -0.0883440160698 0.918 1.18586199764e-38
0.0203870806315 -0.0883440160698 0.918 9.55089160043e-39
0.0220860040175 -0.0883440160698 0.918 1.03774110659e-38
0.0237849274034 -0.0883440160698 0.918 8.90804312733e-39
0.0256226517196 -0.0888251926279 0.923 2.3469554844e-38
-0.0325256846495 -0.0873057851117 0.925 2.14580889894e-38
-0.03081380651 -0.0873057851117 0.925 2.34892865277e-38
-0.0291019283706 -0.0873057851117 0.925 7.72566111429e-39
-0.0273900502311 -0.0873057851117 0.925 9.28150598365e-39
-0.0256226517196 -0.0871170158466 0.923 1.31648151166e-38
-0.0239144749383 -0.0871170158466 0.923 1.34414426438e-38
-0.022206298157 -0.0871170158466 0.923 5.41829427332e-39
-0.0204314969292 -0.086833861949 0.92 7.16316870032e-39
-0.0186881572455 -0.0866450926839 0.918 8.17335915806e-39
-0.0169892338596 -0.0866450926839 0.918 8.26519465422e-39
-0.0152403421387 -0.0863619387862 0.915 9.09243158445e-39
-0.01354697079 -0.0863619387862 0.915 9.73814991682e-39
-0.0118535994412 -0.0863619387862 0.915 9.18931035379e-39
-0.0101380199437 -0.0861731695211 0.913 1.07533766412e-38
-0.00844834995305 -0.0861731695211 0.913 8.82124950304e-39
-0.00675867996244 -0.0861731695211 0.913 9.83357834224e-39
-0.00506900997183 -0.0861731695211 0.913 8.44922437894e-39
-0.00337933998122 -0.0861731695211 0.913 1.01937414748e-38
-0.0016841179534 -0.0858900156234 0.91 9.55089160043e-39
0.0 -0.0858900156234 0.91 1.04710444279e-38
0.0016841179534 -0.0858900156234 0.91 1.1023846863e-38
0.0033682359068 -0.0858900156234 0.91 8.81620763117e-39
0.0050523538602 -0.0858900156234 0.91 9.55089160043e-39
0.0067364718136 -0.0858900156234 0.91 1.05610820582e-38
0.00844834995305 -0.0861731695211 0.913 1.02855755697e-38
0.0101380199437 -0.0861731695211 0.913 1.17610615773e-38
0.0118535994412 -0.0863619387862 0.915 1.14895123557e-38
0.01354697079 -0.0863619387862 0.915 1.01019045774e-38
0.0152403421387 -0.0863619387862 0.915 1.17549435082e-38
0.0169892338596 -0.0866450926839 0.918 1.07447530505e-38
0.0186881572455 -0.0866450926839 0.918 1.02855755697e-38
0.0203870806315 -0.0866450926839 0.918 1.11120950351e-38
0.0220860040175 -0.0866450926839 0.918 1.05610820582e-38
0.0239144749383 -0.0871170158466 0.923 8.44886564654e-39
0.0256226517196 -0.0871170158466 0.923 2.34738596329e-38
-0.0326311733564 -0.0858715088327 0.928 2.24740205669e-38
-0.03081380651 -0.0855939069723 0.925 2.34892514953e-38
-0.0291019283706 -0.0855939069723 0.925 6.43530064679e-39
-0.0273900502311 -0.0855939069723 0.925 1.36089370466e-38
-0.0256226517196 -0.0854088390653 0.923 1.32581009566e-38
-0.0239144749383 -0.0854088390653 0.923 1.32581009566e-38
-0.022206298157 -0.0854088390653 0.923 5.41829427332e-39
-0.0204314969292 -0.0851312372049 0.92 7.25500419648e-39
-0.0186881572455 -0.0849461692979 0.918 7.71418167727e-39
-0.0169892338596 -0.0849461692979 0.918 1.03802907342e-38
-0.0152403421387 -0.0846685674374 0.915 1.02938264151e-38
-0.01354697079 -0.0846685674374 0.915 8.35846508e-39
-0.0118535994412 -0.0846685674374 0.915 8.0815236619e-39
-0.0101602280925 -0.0846685674374 0.915 9.36722060812e-39
-0.00846685674374 -0.0846685674374 0.915 9.18677820746e-39
-0.006773485395 -0.0846685674374 0.915 1.03831675999e-38
-0.00508011404625 -0.0846685674374 0.915 9.64954721621e-39
-0.0033867426975 -0.0846685674374 0.915 1.14934724252e-38
-0.00168966999061 -0.0844834995305 0.913 8.99987862348e-39
0.0 -0.0844834995305 0.913 1.14844704838e-38
0.00168966999061 -0.0844834995305 0.913 1.2319961062e-38
0.00337933998122 -0.0844834995305 0.913 1.0660460744e-38
0.00506900997183 -0.0844834995305 0.913 1.08398171383e-38
0.00675867996244 -0.0844834995305 0.913 1.12071619255e-38
0.00846685674374 -0.0846685674374 0.915 1.03784872631e-38
0.0101602280925 -0.0846685674374 0.915 9.1835496158e-39
0.0118535994412 -0.0846685674374 0.915 9.27538511196e-39
0.01354697079 -0.0846685674374 0.915 1.01019045774e-38
0.0152403421387 -0.0846685674374 0.915 1.11120950351e-38
0.0169892338596 -0.0849461692979 0.918 1.08365885466e-38
0.0187288721851 -0.0851312372049 0.92 1.05610820582e-38
0.0204314969292 -0.0851312372049 0.92 1.26869415117e-38
0.0221341216733 -0.0851312372049 0.92 1.24139349396e-38
0.0239144749383 -0.0854088390653 0.923 8.35703015038e-39
0.0256226517196 -0.0854088390653 0.923 2.34760470598e-38
-0.0326311733564 -0.0841540786561 0.928 2.21967260216e-38
-0.03081380651 -0.0838820288328 0.925 2.34917934507e-38
-0.0291019283706 -0.0838820288328 0.925 8.18663225712e-39
-0.0273900502311 -0.0838820288328 0.925 1.43507788485e-38
-0.0256226517196 -0.083700662284 0.923 1.261164414e-38
-0.0239144749383 -0.083700662284 0.923 1.38116474812e-38
-0.022206298157 -0.083700662284 0.923 5.14278778485e-39
-0.0204981213757 -0.083700662284 0.923 7.25500419648e-39
-0.0187288721851 -0.0834286124608 0.92 7.62234618111e-39
-0.0169892338596 -0.0832472459119 0.918 8.35703015038e-39
-0.0152903104736 -0.0832472459119 0.918 7.89785266959e-39
-0.0135913870877 -0.0832472459119 0.918 7.98968816575e-39
-0.0118924637017 -0.0832472459119 0.918 9.09171411964e-39
-0.0101602280925 -0.0829751960887 0.915 9.1835496158e-39
-0.00846685674374 -0.0829751960887 0.915 1.08459225957e-38
-0.006773485395 -0.0829751960887 0.915 1.09388398943e-38
-0.00508011404625 -0.0829751960887 0.915 1.13094020628e-38
-0.0033867426975 -0.0829751960887 0.915 1.15867120224e-38
-0.00169337134875 -0.0829751960887 0.915 1.0939909085e-38
0.0 -0.0829751960887 0.915 1.02027392123e-38
0.00169337134875 -0.0829751960887 0.915 1.07469082475e-38
0.0033867426975 -0.0829751960887 0.915 1.21377179928e-38
0.00508011404625 -0.0829751960887 0.915 1.15852630798e-38
0.006773485395 -0.0829751960887 0.915 1.20448343254e-38
0.00849461692979 -0.0832472459119 0.918 1.05711279669e-38
0.0101935403157 -0.0832472459119 0.918 8.63253663885e-39
0.0118535994412 -0.0829751960887 0.915 8.99987862348e-39
0.01354697079 -0.0829751960887 0.915 9.55089160043e-39
0.0152903104736 -0.0832472459119 0.918 9.82639808891e-39
0.017026247441 -0.0834286124608 0.92 1.415883459e-38
0.0187288721851 -0.0834286124608 0.92 1.36132320264e-38
0.0204314969292 -0.0834286124608 0.92 9.64523822344e-39
0.0221341216733 -0.0834286124608 0.92 1.15838379592e-38
0.0239662939522 -0.0838820288328 0.925 9.27538511196e-39
0.0256781720917 -0.0838820288328 0.925 2.34749736652e-38
-0.0326311733564 -0.0824366484794 0.928 2.20105565142e-38
-0.03081380651 -0.0821701506934 0.925 2.34903683301e-38
-0.0291019283706 -0.0821701506934 0.925 9.56954568559e-39
-0.0273900502311 -0.0821701506934 0.925 1.36132138096e-38
-0.0256781720917 -0.0821701506934 0.925 1.27964067438e-38
-0.0239144749383 -0.0819924855027 0.923 1.39960611617e-38
-0.022206298157 -0.0819924855027 0.923 5.23462328101e-39
-0.0204981213757 -0.0819924855027 0.923 7.25500419648e-39
-0.0187288721851 -0.0817259877167 0.92 7.62234618111e-39
-0.0169892338596 -0.081548322526 0.918 1.30543367456e-38
-0.0152903104736 -0.081548322526 0.918 1.04829008142e-38
-0.0135913870877 -0.081548322526 0.918 1.02041433133e-38
-0.0118924637017 -0.081548322526 0.918 8.54070114269e-39
-0.0101935403157 -0.081548322526 0.918 8.26519465422e-39
-0.00846685674374 -0.08128182474 0.915 8.26519465422e-39
-0.006773485395 -0.08128182474 0.915 8.26519465422e-39
-0.00508011404625 -0.08128182474 0.915 8.81620763117e-39
-0.0033867426975 -0.08128182474 0.915 9.36722060812e-39
-0.00169337134875 -0.08128182474 0.915 8.54070114269e-39
0.0 -0.08128182474 0.915 9.55089160043e-39
0.00169337134875 -0.08128182474 0.915 8.81620763117e-39
0.0033867426975 -0.08128182474 0.915 8.90804312733e-39
0.00508011404625 -0.08128182474 0.915 9.55089160043e-39
0.00679569354383 -0.081548322526 0.918 9.27538511196e-39
0.00849461692979 -0.081548322526 0.918 9.45905610427e-39
0.0101935403157 -0.081548322526 0.918 8.81620763117e-39
0.0118924637017 -0.081548322526 0.918 1.32408383608e-38
0.0135913870877 -0.081548322526 0.918 1.35238922428e-38
0.0152903104736 -0.081548322526 0.918 1.34328064414e-38
0.017026247441 -0.0817259877167 0.92 1.09345224937e-38
0.0187288721851 -0.0817259877167 0.92 1.07512102338e-38
0.0204314969292 -0.0817259877167 0.92 1.60020409329e-38
0.0221341216733 -0.0817259877167 0.92 8.63648269533e-39
0.0238367464174 -0.0817259877167 0.92 1.01019045774e-38
-0.0326311733564 -0.0807192183028 0.928 2.34860509296e-38
-0.03081380651 -0.0804582725539 0.925 2.34892753173e-38
-0.0291019283706 -0.0804582725539 0.925 1.09524689232e-38
-0.0273900502311 -0.0804582725539 0.925 1.26866136078e-38
-0.0256781720917 -0.0804582725539 0.925 1.25198114464e-38
-0.0239144749383 -0.0802843087214 0.923 1.38109440294e-38
-0.022206298157 -0.0802843087214 0.923 5.32645877716e-39
-0.0204981213757 -0.0802843087214 0.923 7.80601717343e-39
-0.0187288721851 -0.0800233629726 0.92 8.17335915806e-39
-0.017026247441 -0.0800233629726 0.92 9.82999382076e-39
-0.0152903104736 -0.07984939914 0.918 7.80601717343e-39
-0.0135913870877 -0.07984939914 0.918 8.17335915806e-39
-0.0118924637017 -0.07984939914 0.918 9.9200272471e-39
-0.0101935403157 -0.07984939914 0.918 1.14041032143e-38
-0.00849461692979 -0.07984939914 0.918 1.11297177646e-38
-0.006773485395 -0.0795884533912 0.915 9.74066664886e-39
-0.00508011404625 -0.0795884533912 0.915 1.26909296071e-38
-0.00339784677192 -0.07984939914 0.918 1.35239440909e-38
-0.00169892338596 -0.07984939914 0.918 1.1123954224e-38
0.0 -0.07984939914 0.918 1.2231375177e-38
0.00169892338596 -0.07984939914 0.918 1.07558737551e-38
0.00339784677192 -0.07984939914 0.918 1.37958128085e-38
0.00509677015787 -0.07984939914 0.918 1.28789137961e-38
0.00679569354383 -0.07984939914 0.918 1.12136317205e-38
0.00849461692979 -0.07984939914 0.918 1.29638941401e-38
0.0101935403157 -0.07984939914 0.918 8.99987862348e-39
0.0118924637017 -0.07984939914 0.918 9.64272709659e-39
0.0135913870877 -0.07984939914 0.918 1.08380234763e-38
0.0152903104736 -0.07984939914 0.918 1.01937400735e-38
0.017026247441 -0.0800233629726 0.92 1.69247357158e-38
0.0187899445944 -0.0802843087214 0.923 1.06643969913e-38
0.0204981213757 -0.0802843087214 0.923 1.11120950351e-38
0.022206298157 -0.0802843087214 0.923 1.07447530505e-38
0.0239144749383 -0.0802843087214 0.923 1.02855755697e-38
-0.0327014991611 -0.0791720506005 0.93 2.23782600338e-38
-0.0309137431798 -0.0790017881261 0.928 2.34889235914e-38
-0.0291019283706 -0.0787463944145 0.925 1.14123750791e-38
-0.0273900502311 -0.0787463944145 0.925 1.15791870496e-38
-0.0256781720917 -0.0787463944145 0.925 1.27042083113e-38
-0.0239144749383 -0.0785761319401 0.923 1.4180455224e-38
-0.022206298157 -0.0785761319401 0.923 5.23462328101e-39
-0.0205425376733 -0.0787463944145 0.925 7.53051068496e-39
-0.0187899445944 -0.0785761319401 0.923 8.26519465422e-39
-0.017026247441 -0.0783207382285 0.92 7.80601717343e-39
-0.0153236226969 -0.0783207382285 0.92 1.20455349747e-38
-0.0135913870877 -0.0781504757541 0.918 1.12176142108e-38
-0.0118924637017 -0.0781504757541 0.918 1.09452844659e-38
-0.0101935403157 -0.0781504757541 0.918 9.65313033639e-39
-0.00849461692979 -0.0781504757541 0.918 8.35703015038e-39
-0.00679569354383 -0.0781504757541 0.918 8.99987862348e-39
-0.00509677015787 -0.0781504757541 0.918 9.45905610427e-39
-0.00339784677192 -0.0781504757541 0.918 8.54070114269e-39
-0.00169892338596 -0.0781504757541 0.918 8.90804312733e-39
0.0 -0.0781504757541 0.918 8.35703015038e-39
0.00169892338596 -0.0781504757541 0.918 9.1835496158e-39
0.00339784677192 -0.0781504757541 0.918 9.55089160043e-39
0.00509677015787 -0.0781504757541 0.918 9.91823358506e-39
0.00679569354383 -0.0781504757541 0.918 9.73456259275e-39
0.00849461692979 -0.0781504757541 0.918 1.36078314222e-38
0.0101935403157 -0.0781504757541 0.918 1.14019802471e-38
0.0118924637017 -0.0781504757541 0.918 1.01029807746e-38
0.0135913870877 -0.0781504757541 0.918 1.35221294094e-38
0.0152903104736 -0.0781504757541 0.918 8.99987862348e-39
0.017026247441 -0.0783207382285 0.92 1.03774110659e-38
0.0187899445944 -0.0785761319401 0.923 1.25829091137e-38
0.0204981213757 -0.0785761319401 0.923 1.23095438092e-38
0.0222544158128 -0.0787463944145 0.925 1.16631080121e-38
0.0239662939522 -0.0787463944145 0.925 1.17549435082e-38
-0.0327014991611 -0.0774509190657 0.93 2.26555573817e-38
-0.0309137431798 -0.0772843579495 0.928 2.3489649464e-38
-0.0291963130031 -0.0772843579495 0.928 1.03975000806e-38
-0.0273900502311 -0.0770345162751 0.925 1.33369800472e-38
-0.0256781720917 -0.0770345162751 0.925 1.25187632752e-38
-0.0239144749383 -0.0768679551588 0.923 1.34439593758e-38
-0.022206298157 -0.0768679551588 0.923 5.41829427332e-39
-0.0205425376733 -0.0770345162751 0.925 7.62234618111e-39
-0.0187899445944 -0.0768679551588 0.923 7.98968816575e-39
-0.017026247441 -0.0766181134844 0.92 9.9203915847e-39
-0.0153236226969 -0.0766181134844 0.92 8.26519465422e-39
-0.0135913870877 -0.0764515523681 0.918 7.80601717343e-39
-0.0118924637017 -0.0764515523681 0.918 7.53051068496e-39
-0.0101935403157 -0.0764515523681 0.918 8.17335915806e-39
-0.00849461692979 -0.0764515523681 0.918 9.64272709659e-39
-0.00679569354383 -0.0764515523681 0.918 1.1205389283e-38
-0.00509677015787 -0.0764515523681 0.918 1.22324163418e-38
-0.00339784677192 -0.0764515523681 0.918 1.17696571421e-38
-0.00169892338596 -0.0764515523681 0.918 1.29696801015e-38
0.0 -0.0764515523681 0.918 1.21366586112e-38
0.00169892338596 -0.0764515523681 0.918 1.26016178495e-38
0.00339784677192 -0.0764515523681 0.918 1.23238931055e-38
0.00509677015787 -0.0764515523681 0.918 9.46623075241e-39
0.00679569354383 -0.0764515523681 0.918 1.1856852939e-38
0.00851312372049 -0.0766181134844 0.92 9.36722060812e-39
0.0102157484646 -0.0766181134844 0.92 9.55089160043e-39
0.0118924637017 -0.0764515523681 0.918 8.81620763117e-39
0.0135913870877 -0.0764515523681 0.918 1.13876085301e-38
0.0153236226969 -0.0766181134844 0.92 1.17574546351e-38
0.017026247441 -0.0766181134844 0.92 1.55428578469e-38
0.0188917319432 -0.0772843579495 0.928 9.92289710635e-39
0.0205425376733 -0.0770345162751 0.925 1.21222854929e-38
0.0222544158128 -0.0770345162751 0.925 1.14794594405e-38
0.0239662939522 -0.0770345162751 0.925 1.33294340549e-38
-0.0327014991611 -0.0757297875309 0.93 2.25633631531e-38
-0.0309137431798 -0.0755669277728 0.928 2.3487146745e-38
-0.0291963130031 -0.0755669277728 0.928 1.03053058521e-38
-0.0273900502311 -0.0753226381356 0.925 1.41703154283e-38
-0.0256781720917 -0.0753226381356 0.925 1.28889849281e-38
-0.0239662939522 -0.0753226381356 0.925 1.33499728865e-38
-0.0222544158128 -0.0753226381356 0.925 5.60196526564e-39
-0.0205425376733 -0.0753226381356 0.925 7.4386751888e-39
-0.0188306595339 -0.0753226381356 0.925 7.98968816575e-39
-0.0170817678131 -0.0751597783775 0.923 8.17335915806e-39
-0.0153735910318 -0.0751597783775 0.923 1.03842269816e-38
-0.0136209979528 -0.0749154887403 0.92 9.92615932918e-39
-0.0118924637017 -0.0747526289822 0.918 1.0016884997e-38
-0.0101935403157 -0.0747526289822 0.918 1.13969313688e-38
-0.00849461692979 -0.0747526289822 0.918 7.80601717343e-39
-0.00679569354383 -0.0747526289822 0.918 9.45905610427e-39
-0.00509677015787 -0.0747526289822 0.918 8.81620763117e-39
-0.00339784677192 -0.0747526289822 0.918 8.72437213501e-39
-0.00169892338596 -0.0747526289822 0.918 9.1835496158e-39
0.0 -0.0747526289822 0.918 9.45905610427e-39
0.0017026247441 -0.0749154887403 0.92 9.09171411964e-39
0.00339784677192 -0.0747526289822 0.918 9.45905610427e-39
0.00509677015787 -0.0747526289822 0.918 1.03774110659e-38
0.00681049897639 -0.0749154887403 0.92 1.0469246562e-38
0.00851312372049 -0.0749154887403 0.92 1.20419294337e-38
0.0102157484646 -0.0749154887403 0.92 1.17686173786e-38
0.0118924637017 -0.0747526289822 0.918 1.14887640623e-38
0.0135913870877 -0.0747526289822 0.918 1.28727943257e-38
0.015406903255 -0.0753226381356 0.925 9.82926794816e-39
0.0171187813945 -0.0753226381356 0.925 1.09284240428e-38
0.0188917319432 -0.0755669277728 0.928 1.12039305313e-38
0.0206091621199 -0.0755669277728 0.928 1.36009916843e-38
0.0223265922965 -0.0755669277728 0.928 1.53588519442e-38
0.0240440224732 -0.0755669277728 0.928 1.31525649654e-38
-0.0345336714401 -0.0742473935961 0.933 2.26537763314e-38
-0.0328069878681 -0.0742473935961 0.933 2.22871462063e-38
-0.0309803676263 -0.0740086559961 0.93 2.34918004572e-38
-0.0291963130031 -0.0738494975962 0.928 9.93796386744e-39
-0.0273900502311 -0.0736107599962 0.925 1.40734730928e-38
-0.0256781720917 -0.0736107599962 0.925 1.28882842789e-38
-0.0239662939522 -0.0736107599962 0.925 1.28879157374e-38
-0.0222544158128 -0.0736107599962 0.925 6.15297824259e-39
-0.0205425376733 -0.0736107599962 0.925 7.98968816575e-39
-0.0188306595339 -0.0736107599962 0.925 7.62234618111e-39
-0.0171187813945 -0.0736107599962 0.925 8.72437213501e-39
-0.015406903255 -0.0736107599962 0.925 8.44886564654e-39
-0.0136654142505 -0.0734516015962 0.923 8.17335915806e-39
-0.0119572374691 -0.0734516015962 0.923 8.72437213501e-39
-0.0102157484646 -0.0732128639962 0.92 8.63253663885e-39
-0.00849461692979 -0.0730537055962 0.918 1.01019087813e-38
-0.00679569354383 -0.0730537055962 0.918 1.1397646031e-38
-0.00510787423229 -0.0732128639962 0.92 1.12164973759e-38
-0.00339784677192 -0.0730537055962 0.918 8.44887265303e-39
-0.00169892338596 -0.0730537055962 0.918 1.22259661649e-38
0.0 -0.0730537055962 0.918 1.20437777464e-38
0.0017026247441 -0.0732128639962 0.92 1.11203458805e-38
0.00340524948819 -0.0732128639962 0.92 1.1855754321e-38
0.00510787423229 -0.0732128639962 0.92 1.10260132705e-38
0.00681049897639 -0.0732128639962 0.92 1.05610820582e-38
0.00851312372049 -0.0732128639962 0.92 9.64272709659e-39
0.0102712688367 -0.0736107599962 0.925 8.54070114269e-39
0.0119831469761 -0.0736107599962 0.925 9.09171411964e-39
0.0136950251156 -0.0736107599962 0.925 9.82639808891e-39
0.0154568715899 -0.0738494975962 0.928 1.08365885466e-38
0.0171743017665 -0.0738494975962 0.928 1.13876015236e-38
0.0188917319432 -0.0738494975962 0.928 1.19483002755e-38
0.0206535784175 -0.0740086559961 0.93 1.50808077042e-38
0.0223747099523 -0.0740086559961 0.93 1.30618056664e-38
0.024225389022 -0.0744065519961 0.935 1.1020259539e-38
0.0259557739521 -0.0744065519961 0.935 2.34857314335e-38
-0.0328069878681 -0.0725207100241 0.933 2.29317841376e-38
-0.0310803042961 -0.0725207100241 0.933 2.34910871962e-38
-0.0292592360915 -0.0722875244614 0.93 8.73908016369e-39
-0.0274788828265 -0.0721320674195 0.928 1.22241907198e-38
-0.0257614526498 -0.0721320674195 0.928 1.36225898976e-38
-0.0239662939522 -0.0718988818567 0.925 1.39031438631e-38
-0.0222544158128 -0.0718988818567 0.925 6.88766221185e-39
-0.0205425376733 -0.0718988818567 0.925 7.98968816575e-39
-0.0188306595339 -0.0718988818567 0.925 8.35703015038e-39
-0.0171187813945 -0.0718988818567 0.925 8.44886564654e-39
-0.015406903255 -0.0718988818567 0.925 9.55232653006e-39
-0.0136654142505 -0.0717434248149 0.923 1.01984035948e-38
-0.0119572374691 -0.0717434248149 0.923 9.09171411964e-39
-0.0102490606878 -0.0717434248149 0.923 9.09171411964e-39
-0.00854088390653 -0.0717434248149 0.923 8.99987862348e-39
-0.00681049897639 -0.0715102392521 0.92 9.55089160043e-39
-0.00510787423229 -0.0715102392521 0.92 9.64272709659e-39
-0.00340524948819 -0.0715102392521 0.92 9.09171411964e-39
-0.00169892338596 -0.0713547822102 0.918 9.36722060812e-39
0.0 -0.0713547822102 0.918 9.36722060812e-39
0.0017026247441 -0.0715102392521 0.92 9.36722060812e-39
0.00340524948819 -0.0715102392521 0.92 9.82639808891e-39
0.00510787423229 -0.0715102392521 0.92 1.00100690812e-38
0.00684751255778 -0.0718988818567 0.925 9.91823358506e-39
0.00855939069723 -0.0718988818567 0.925 1.01019045774e-38
0.0102712688367 -0.0718988818567 0.925 1.1021344144e-38
0.0120220112366 -0.0721320674195 0.928 1.17596182399e-38
0.0137394414132 -0.0721320674195 0.928 9.55196779765e-39
0.0154568715899 -0.0721320674195 0.928 1.09284240428e-38
0.0171743017665 -0.0721320674195 0.928 1.12957660274e-38
0.0189324468827 -0.0722875244614 0.93 1.28759822797e-38
0.020720202864 -0.0725207100241 0.933 1.45351322731e-38
0.022446886436 -0.0725207100241 0.933 1.08455568568e-38
0.024225389022 -0.072676167066 0.935 1.2214120989e-38
0.0259557739521 -0.072676167066 0.935 2.34896858978e-38
-0.0328069878681 -0.0707940264521 0.933 2.28406731127e-38
-0.0310803042961 -0.0707940264521 0.933 2.34918270818e-38
-0.0293536207241 -0.0707940264521 0.933 7.17177827809e-39
-0.0275381045567 -0.0705663929266 0.93 1.27823839501e-38
-0.0258169730219 -0.0705663929266 0.93 1.16849962941e-38
-0.0240440224732 -0.0704146372428 0.928 1.38109440294e-38
-0.0223265922965 -0.0704146372428 0.928 6.70399121953e-39
-0.0206091621199 -0.0704146372428 0.928 7.98968816575e-39
-0.0188306595339 -0.0701870037173 0.925 7.98968816575e-39
-0.0171187813945 -0.0701870037173 0.925 8.72437213501e-39
-0.015406903255 -0.0701870037173 0.925 9.73850864922e-39
-0.0136950251156 -0.0701870037173 0.925 9.46479582278e-39
-0.0119572374691 -0.0700352480336 0.923 8.45388790023e-39
-0.0102490606878 -0.0700352480336 0.923 1.00190373914e-38
-0.00854088390653 -0.0700352480336 0.923 9.18606074265e-39
-0.00683270712523 -0.0700352480336 0.923 1.0469246562e-38
-0.00512453034392 -0.0700352480336 0.923 1.10242154045e-38
-0.00340524948819 -0.069807614508 0.92 1.02859343021e-38
-0.0017026247441 -0.069807614508 0.92 1.05696916359e-38
0.0 -0.069807614508 0.92 1.12150540385e-38
0.0017026247441 -0.069807614508 0.92 1.01080030283e-38
0.00341635356261 -0.0700352480336 0.923 1.00100690812e-38
0.00512453034392 -0.0700352480336 0.923 1.06529175543e-38
0.00684751255778 -0.0701870037173 0.925 1.20412119689e-38
0.00855939069723 -0.0701870037173 0.925 1.1305121096e-38
0.0102712688367 -0.0701870037173 0.925 1.13962111014e-38
0.0120220112366 -0.0704146372428 0.928 9.55089160043e-39
0.0137394414132 -0.0704146372428 0.928 1.07469054449e-38
0.0154568715899 -0.0704146372428 0.928 1.12957660274e-38
0.0171743017665 -0.0704146372428 0.928 1.1755660973e-38
0.018993519292 -0.0707940264521 0.933 1.1297205161e-38
0.020720202864 -0.0707940264521 0.933 1.32393894182e-38
0.022446886436 -0.0707940264521 0.933 1.2039090403e-38
0.024225389022 -0.0709457821358 0.935 1.60038135754e-38
0.0259557739521 -0.0709457821358 0.935 2.34860453244e-38
-0.0328773136727 -0.0692153972057 0.935 2.23782600338e-38
-0.0310803042961 -0.0690673428801 0.933 2.34896536679e-38
-0.0292592360915 -0.0688452613918 0.93 7.44800223138e-39
-0.0275381045567 -0.0688452613918 0.93 1.49032491758e-38
-0.0258169730219 -0.0688452613918 0.93 1.3072620888e-38
-0.0240440224732 -0.0686972070662 0.928 1.38112971566e-38
-0.0223265922965 -0.0686972070662 0.928 6.70399121953e-39
-0.0206091621199 -0.0686972070662 0.928 8.54070114269e-39
-0.0188917319432 -0.0686972070662 0.928 8.44886564654e-39
-0.0171743017665 -0.0686972070662 0.928 9.1835496158e-39
-0.0154568715899 -0.0686972070662 0.928 8.90804312733e-39
-0.0136950251156 -0.0684751255778 0.925 9.1835496158e-39
-0.0119831469761 -0.0684751255778 0.925 8.90983678936e-39
-0.0102712688367 -0.0684751255778 0.925 8.44886564654e-39
-0.00855939069723 -0.0684751255778 0.925 1.03817158547e-38
-0.00683270712523 -0.0683270712523 0.923 1.14873417444e-38
-0.00512453034392 -0.0683270712523 0.923 1.10292768946e-38
-0.00340524948819 -0.0681049897639 0.92 1.05639519174e-38
-0.0017026247441 -0.0681049897639 0.92 1.18579039129e-38
0.0 -0.0681049897639 0.92 9.83252736839e-39
0.00170817678131 -0.0683270712523 0.923 1.13022302172e-38
0.00341635356261 -0.0683270712523 0.923 1.10299789451e-38
0.00512453034392 -0.0683270712523 0.923 1.07508515014e-38
0.00683270712523 -0.0683270712523 0.923 1.04703227592e-38
0.00854088390653 -0.0683270712523 0.923 1.05610820582e-38
0.0102490606878 -0.0683270712523 0.923 1.13908301153e-38
0.0119831469761 -0.0684751255778 0.925 1.19418613091e-38
0.0137394414132 -0.0686972070662 0.928 9.27538511196e-39
0.0154901838131 -0.0688452613918 0.93 1.16631080121e-38
0.0172113153479 -0.0688452613918 0.93 1.12039305313e-38
0.018993519292 -0.0690673428801 0.933 1.2318153387e-38
0.0207646191617 -0.0692153972057 0.935 1.33276768267e-38
0.0224950040919 -0.0692153972057 0.935 1.46276964445e-38
0.0243031175429 -0.0694374786941 0.938 1.21316125354e-38
0.0260390545103 -0.0694374786941 0.938 2.34903515146e-38
-0.0345336714401 -0.0673406593081 0.933 2.2471180135e-38
-0.0328069878681 -0.0673406593081 0.933 2.2010574731e-38
-0.0310803042961 -0.0673406593081 0.933 2.34900124003e-38
-0.0292592360915 -0.067124129857 0.93 9.7532166779e-39
-0.0275381045567 -0.067124129857 0.93 1.40820826705e-38
-0.0258169730219 -0.067124129857 0.93 1.31641172699e-38
-0.0240440224732 -0.0669797768895 0.928 1.36265555722e-38
-0.0223265922965 -0.0669797768895 0.928 7.16316870032e-39
-0.0206535784175 -0.067124129857 0.93 8.63253663885e-39
-0.0188917319432 -0.0669797768895 0.928 8.81620763117e-39
-0.0171743017665 -0.0669797768895 0.928 8.72437213501e-39
-0.0154568715899 -0.0669797768895 0.928 1.00154500673e-38
-0.0137394414132 -0.0669797768895 0.928 9.73854368168e-39
-0.0119831469761 -0.0667632474384 0.925 8.72508959982e-39
-0.0102712688367 -0.0667632474384 0.925 9.45977356909e-39
-0.00855939069723 -0.0667632474384 0.925 9.92361457117e-39
-0.00684751255778 -0.0667632474384 0.925 9.09171411964e-39
-0.00513563441834 -0.0667632474384 0.925 9.45905610427e-39
-0.00341635356261 -0.0666188944709 0.923 1.06529175543e-38
-0.00170817678131 -0.0666188944709 0.923 9.73456259275e-39
0.0 -0.0666188944709 0.923 1.00100690812e-38
0.00170817678131 -0.0666188944709 0.923 1.00100690812e-38
0.00341635356261 -0.0666188944709 0.923 1.01019045774e-38
0.00512453034392 -0.0666188944709 0.923 9.73456259275e-39
0.00683270712523 -0.0666188944709 0.923 1.13004295487e-38
0.00854088390653 -0.0666188944709 0.923 1.01937400735e-38
0.0102490606878 -0.0666188944709 0.923 1.16652604065e-38
0.0119831469761 -0.0667632474384 0.925 1.03774110659e-38
0.0137394414132 -0.0669797768895 0.928 1.04692577724e-38
0.0154901838131 -0.067124129857 0.93 1.13876015236e-38
0.01726683572 -0.0673406593081 0.933 1.23081088796e-38
0.0190342342316 -0.0674850122756 0.935 1.13901126504e-38
0.0208312436082 -0.0677015417267 0.938 1.54574613172e-38
0.0225671805756 -0.0677015417267 0.938 9.36901427015e-39
0.0243031175429 -0.0677015417267 0.938 1.54409512186e-38
0.0260390545103 -0.0677015417267 0.938 2.34921549857e-38
-0.0345336714401 -0.0656139757361 0.933 2.18268939296e-38
-0.0328069878681 -0.0656139757361 0.933 2.19176546299e-38
-0.0310803042961 -0.0656139757361 0.933 2.3491095604e-38
-0.0293536207241 -0.0656139757361 0.933 9.38372229883e-39
-0.027626937152 -0.0656139757361 0.933 1.39895325121e-38
-0.02590025358 -0.0656139757361 0.933 1.28879031257e-38
-0.0240958414871 -0.0654029983222 0.93 1.31655746203e-38
-0.0223747099523 -0.0654029983222 0.93 7.25500419648e-39
-0.0206535784175 -0.0654029983222 0.93 8.54070114269e-39
-0.0189324468827 -0.0654029983222 0.93 8.63253663885e-39
-0.0171743017665 -0.0652623467129 0.928 9.18641947505e-39
-0.0154568715899 -0.0652623467129 0.928 9.73886738163e-39
-0.0137394414132 -0.0652623467129 0.928 8.54070114269e-39
-0.0120220112366 -0.0652623467129 0.928 8.72437213501e-39
-0.0103045810599 -0.0652623467129 0.928 1.08437631948e-38
-0.00858715088327 -0.0652623467129 0.928 9.83106301149e-39
-0.00684751255778 -0.0650513692989 0.925 8.72437213501e-39
-0.00513563441834 -0.0650513692989 0.925 9.36722060812e-39
-0.00341635356261 -0.0649107176896 0.923 1.21305433447e-38
-0.00170817678131 -0.0649107176896 0.923 9.82890921575e-39
0.0 -0.0649107176896 0.923 1.2500404864e-38
0.00170817678131 -0.0649107176896 0.923 1.05671805091e-38
0.00341635356261 -0.0649107176896 0.923 9.64272709659e-39
0.00513563441834 -0.0650513692989 0.925 1.16702826602e-38
0.00684751255778 -0.0650513692989 0.925 1.13936999745e-38
0.00855939069723 -0.0650513692989 0.925 1.07461879801e-38
0.0102712688367 -0.0650513692989 0.925 1.09284240428e-38
0.0120220112366 -0.0652623467129 0.928 1.12957660274e-38
0.0137394414132 -0.0652623467129 0.928 1.05610820582e-38
0.015540152148 -0.0656139757361 0.933 1.12957660274e-38
0.0173038493014 -0.0657546273454 0.935 1.13876015236e-38
0.0190342342316 -0.0657546273454 0.935 1.2399226911e-38
0.0208312436082 -0.0659656047594 0.938 1.12993533515e-38
0.0225671805756 -0.0659656047594 0.938 1.19386145005e-38
0.0243031175429 -0.0659656047594 0.938 1.71919479186e-38
0.0261778554405 -0.0663172337826 0.943 2.3488203324e-38
-0.0383941879794 -0.0645720434199 0.943 2.25640778154e-38
-0.0365324048353 -0.0643666180432 0.94 2.20116509283e-38
-0.0347927665098 -0.0643666180432 0.94 2.18265379998e-38
-0.0330531281843 -0.0643666180432 0.94 2.24708242051e-38
-0.0313134898588 -0.0643666180432 0.94 2.34892921329e-38
-0.0294165438124 -0.0640242424153 0.935 8.36779212258e-39
-0.027626937152 -0.0638872921641 0.933 1.41721259059e-38
-0.02590025358 -0.0638872921641 0.933 1.32563283141e-38
-0.024173570008 -0.0638872921641 0.933 1.33510392747e-38
-0.022446886436 -0.0638872921641 0.933 7.25500419648e-39
-0.0206535784175 -0.0636818667874 0.93 8.90804312733e-39
-0.0189324468827 -0.0636818667874 0.93 8.35703015038e-39
-0.0172113153479 -0.0636818667874 0.93 7.89785266959e-39
