# .PCD v0.7 - Point Cloud Data file format
VERSION 0.7
FIELDS x y z rgb
SIZE 4 4 4 4
TYPE F F F F
COUNT 1 1 1 1
WIDTH 851
HEIGHT 1
VIEWPOINT 0 0 0 1 0 0 0
POINTS 851
DATA ascii
-0.00492465700439 -0.137890396123 0.887 8.35703015038e-39
-0.0032831046696 -0.137890396123 0.887 8.35703015038e-39
-0.0016415523348 -0.137890396123 0.887 8.81620763117e-39
0.0 -0.137890396123 0.887 8.99987862348e-39
0.0016415523348 -0.137890396123 0.887 9.55089160043e-39
0.0032831046696 -0.137890396123 0.887 9.36722060812e-39
0.00492465700439 -0.137890396123 0.887 9.64272709659e-39
0.00656620933919 -0.137890396123 0.887 9.55089160043e-39
0.00820776167399 -0.137890396123 0.887 9.45905610427e-39
0.00984931400879 -0.137890396123 0.887 8.81620763117e-39
0.0114908663436 -0.137890396123 0.887 9.55089160043e-39
0.0131620295435 -0.138201310207 0.889 9.55089160043e-39
0.0148072832364 -0.138201310207 0.889 1.01937400735e-38
0.0164525369294 -0.138201310207 0.889 9.45905610427e-39
0.0181385055618 -0.13851222429 0.891 1.01019045774e-38
0.0198540850594 -0.138978595416 0.894 1.01019045774e-38
0.0215567098035 -0.1392895095 0.896 1.03774110659e-38
0.02321491825 -0.1392895095 0.896 1.11120950351e-38
0.0248731266964 -0.1392895095 0.896 9.82639808891e-39
0.0265313351428 -0.1392895095 0.896 2.08783479926e-38
-0.0302474987147 -0.139474577407 0.908 2.22791279765e-38
-0.0285041590311 -0.139167364681 0.906 6.42956092828e-39
-0.0266793894684 -0.138399332867 0.901 5.14278778485e-39
-0.0249286470685 -0.137938513779 0.898 6.79582671569e-39
-0.023163099236 -0.137324088328 0.894 7.07133320417e-39
-0.021436415664 -0.136863269239 0.891 6.79582671569e-39
-0.0197874606129 -0.136863269239 0.891 7.07133320417e-39
-0.0180977906223 -0.136556056514 0.889 7.4386751888e-39
-0.0164525369294 -0.136556056514 0.889 7.34683969264e-39
-0.0148072832364 -0.136556056514 0.889 7.25500419648e-39
-0.0131324186784 -0.136248843788 0.887 8.26519465422e-39
-0.0114908663436 -0.136248843788 0.887 7.71418167727e-39
-0.00984931400879 -0.136248843788 0.887 7.80601717343e-39
-0.00820776167399 -0.136248843788 0.887 8.0815236619e-39
-0.00656620933919 -0.136248843788 0.887 8.0815236619e-39
-0.00492465700439 -0.136248843788 0.887 8.44886564654e-39
-0.0032831046696 -0.136248843788 0.887 8.17335915806e-39
-0.0016415523348 -0.136248843788 0.887 8.63253663885e-39
0.0 -0.136248843788 0.887 8.63253663885e-39
0.0016415523348 -0.136248843788 0.887 9.1835496158e-39
0.0032831046696 -0.136248843788 0.887 8.90804312733e-39
0.00492465700439 -0.136248843788 0.887 9.55089160043e-39
0.00656620933919 -0.136248843788 0.887 9.45905610427e-39
0.00820776167399 -0.136248843788 0.887 9.55089160043e-39
0.00984931400879 -0.136248843788 0.887 8.72437213501e-39
0.0114908663436 -0.136248843788 0.887 8.99987862348e-39
0.0131620295435 -0.136556056514 0.889 9.55089160043e-39
0.0148072832364 -0.136556056514 0.889 1.01937400735e-38
0.0164525369294 -0.136556056514 0.889 9.82639808891e-39
0.0181385055618 -0.136863269239 0.891 1.02855755697e-38
0.0198540850594 -0.137324088328 0.894 1.05610820582e-38
0.0215085921477 -0.137324088328 0.894 1.05610820582e-38
0.023163099236 -0.137324088328 0.894 1.09284240428e-38
0.0248176063243 -0.137324088328 0.894 9.82639808891e-39
0.0265313351428 -0.137631301053 0.896 2.33644056112e-38
-0.0301808742682 -0.137490649444 0.906 2.18170610183e-38
-0.0285041590311 -0.137490649444 0.906 6.79869657495e-39
-0.0267386111986 -0.137035382393 0.903 6.06114274643e-39
-0.0250119276266 -0.136731871025 0.901 6.61215572338e-39
-0.02321491825 -0.135973092607 0.896 6.97949770801e-39
-0.0215567098035 -0.135973092607 0.896 6.79582671569e-39
-0.0197874606129 -0.135214314188 0.891 7.16316870032e-39
-0.0180977906223 -0.134910802821 0.889 7.53051068496e-39
-0.0164525369294 -0.134910802821 0.889 6.88766221185e-39
-0.0148072832364 -0.134910802821 0.889 7.34683969264e-39
-0.0131324186784 -0.134607291453 0.887 7.89785266959e-39
-0.0114908663436 -0.134607291453 0.887 7.89785266959e-39
-0.00984931400879 -0.134607291453 0.887 7.71418167727e-39
-0.00820776167399 -0.134607291453 0.887 7.89785266959e-39
-0.00656620933919 -0.134607291453 0.887 8.26519465422e-39
-0.00492465700439 -0.134607291453 0.887 8.54070114269e-39
-0.0032831046696 -0.134607291453 0.887 8.63253663885e-39
-0.0016415523348 -0.134607291453 0.887 8.81620763117e-39
0.0 -0.134607291453 0.887 8.81620763117e-39
0.0016415523348 -0.134607291453 0.887 9.09171411964e-39
0.0032831046696 -0.134607291453 0.887 9.36722060812e-39
0.00492465700439 -0.134607291453 0.887 9.45905610427e-39
0.00656620933919 -0.134607291453 0.887 9.36722060812e-39
0.00820776167399 -0.134607291453 0.887 9.45905610427e-39
0.00984931400879 -0.134607291453 0.887 8.72437213501e-39
0.0114908663436 -0.134607291453 0.887 9.09171411964e-39
0.0131620295435 -0.134910802821 0.889 9.55089160043e-39
0.0148072832364 -0.134910802821 0.889 9.91823358506e-39
0.0164895505108 -0.135214314188 0.891 9.73456259275e-39
0.0181995779711 -0.135669581239 0.894 1.01019045774e-38
0.0198540850594 -0.135669581239 0.894 1.06529175543e-38
0.0215085921477 -0.135669581239 0.894 1.0469246562e-38
0.023163099236 -0.135669581239 0.894 1.11120950351e-38
0.0248176063243 -0.135669581239 0.894 9.64272709659e-39
-0.0301808742682 -0.135813934207 0.906 2.17274087452e-38
-0.0285041590311 -0.135813934207 0.906 5.96930725027e-39
-0.0267386111986 -0.135364219193 0.903 4.77544580022e-39
-0.0250119276266 -0.135064409184 0.901 7.07133320417e-39
-0.0232667372639 -0.13461469417 0.898 6.97949770801e-39
-0.0216048274593 -0.13461469417 0.898 6.70399121953e-39
-0.0197874606129 -0.133565359137 0.891 7.25500419648e-39
-0.0180977906223 -0.133265549128 0.889 7.53051068496e-39
-0.0164525369294 -0.133265549128 0.889 7.16316870032e-39
-0.0148072832364 -0.133265549128 0.889 7.62234618111e-39
-0.0131324186784 -0.132965739119 0.887 7.71418167727e-39
-0.0114908663436 -0.132965739119 0.887 7.62234618111e-39
-0.00984931400879 -0.132965739119 0.887 7.71418167727e-39
-0.00820776167399 -0.132965739119 0.887 7.80601717343e-39
-0.00656620933919 -0.132965739119 0.887 8.26519465422e-39
-0.00492465700439 -0.132965739119 0.887 8.63253663885e-39
-0.0032831046696 -0.132965739119 0.887 8.63253663885e-39
-0.0016415523348 -0.132965739119 0.887 8.63253663885e-39
0.0 -0.132965739119 0.887 9.09171411964e-39
0.0016415523348 -0.132965739119 0.887 9.36722060812e-39
0.0032831046696 -0.132965739119 0.887 8.99987862348e-39
0.00492465700439 -0.132965739119 0.887 9.09171411964e-39
0.00656620933919 -0.132965739119 0.887 9.45905610427e-39
0.00820776167399 -0.132965739119 0.887 9.55089160043e-39
0.00987152215763 -0.133265549128 0.889 9.36722060812e-39
0.0115167758506 -0.133265549128 0.889 9.45905610427e-39
0.0131620295435 -0.133265549128 0.889 9.55089160043e-39
0.0148072832364 -0.133265549128 0.889 1.01019045774e-38
0.0164895505108 -0.133565359137 0.891 9.73456259275e-39
0.0181995779711 -0.134015074151 0.894 1.01019045774e-38
0.0198540850594 -0.134015074151 0.894 1.03774110659e-38
0.0215085921477 -0.134015074151 0.894 1.02855755697e-38
0.023163099236 -0.134015074151 0.894 1.0469246562e-38
0.0248176063243 -0.134015074151 0.894 9.64272709659e-39
-0.0301808742682 -0.13413721897 0.906 2.17270528153e-38
-0.0285041590311 -0.13413721897 0.906 5.78563625795e-39
-0.0267386111986 -0.133693055993 0.903 6.70399121953e-39
-0.0250119276266 -0.133396947342 0.901 6.70399121953e-39
-0.0232667372639 -0.132952784365 0.898 6.97949770801e-39
-0.0216048274593 -0.132952784365 0.898 7.16316870032e-39
-0.0197874606129 -0.131916404086 0.891 7.62234618111e-39
-0.0181385055618 -0.131916404086 0.891 7.16316870032e-39
-0.0164525369294 -0.131620295435 0.889 7.16316870032e-39
-0.0148072832364 -0.131620295435 0.889 7.62234618111e-39
-0.0131620295435 -0.131620295435 0.889 7.62234618111e-39
-0.0115167758506 -0.131620295435 0.889 7.80601717343e-39
-0.00984931400879 -0.131324186784 0.887 7.62234618111e-39
-0.00820776167399 -0.131324186784 0.887 7.98968816575e-39
-0.00656620933919 -0.131324186784 0.887 8.26519465422e-39
-0.00492465700439 -0.131324186784 0.887 8.63253663885e-39
-0.0032831046696 -0.131324186784 0.887 8.81620763117e-39
-0.0016415523348 -0.131324186784 0.887 8.72437213501e-39
0.0 -0.131324186784 0.887 9.1835496158e-39
0.0016415523348 -0.131324186784 0.887 9.55089160043e-39
0.0032831046696 -0.131324186784 0.887 8.90804312733e-39
0.00492465700439 -0.131324186784 0.887 9.1835496158e-39
0.00656620933919 -0.131324186784 0.887 9.55089160043e-39
0.00822626846469 -0.131620295435 0.889 9.55089160043e-39
0.00987152215763 -0.131620295435 0.889 8.99987862348e-39
0.0115167758506 -0.131620295435 0.889 8.99987862348e-39
0.0131620295435 -0.131620295435 0.889 9.64272709659e-39
0.0148405954597 -0.131916404086 0.891 1.01019045774e-38
0.0165450708829 -0.132360567063 0.894 9.73456259275e-39
0.0182402929107 -0.132656675714 0.896 9.82639808891e-39
0.0198985013571 -0.132656675714 0.896 1.01019045774e-38
0.0215567098035 -0.132656675714 0.896 1.05610820582e-38
0.02321491825 -0.132656675714 0.896 1.09284240428e-38
0.0248731266964 -0.132656675714 0.896 9.82639808891e-39
-0.0301808742682 -0.132460503733 0.906 2.16345096635e-38
-0.0284097743985 -0.132021892793 0.903 6.15297824259e-39
-0.0267386111986 -0.132021892793 0.903 4.95911679253e-39
-0.0250674479987 -0.132021892793 0.903 6.97949770801e-39
-0.0233444657848 -0.1317294855 0.901 7.07133320417e-39
-0.0216770039431 -0.1317294855 0.901 7.07133320417e-39
-0.0199429176548 -0.131290874561 0.898 7.34683969264e-39
-0.0181385055618 -0.130267449035 0.891 7.34683969264e-39
-0.0164895505108 -0.130267449035 0.891 7.62234618111e-39
-0.0148072832364 -0.129975041742 0.889 7.80601717343e-39
-0.0131620295435 -0.129975041742 0.889 7.71418167727e-39
-0.0115167758506 -0.129975041742 0.889 7.71418167727e-39
-0.00987152215763 -0.129975041742 0.889 7.71418167727e-39
-0.00820776167399 -0.129682634449 0.887 7.98968816575e-39
-0.00656620933919 -0.129682634449 0.887 8.35703015038e-39
-0.00492465700439 -0.129682634449 0.887 8.54070114269e-39
-0.0032831046696 -0.129682634449 0.887 8.35703015038e-39
-0.0016415523348 -0.129682634449 0.887 8.81620763117e-39
0.0 -0.129682634449 0.887 8.72437213501e-39
0.0016415523348 -0.129682634449 0.887 9.09171411964e-39
0.0032831046696 -0.129682634449 0.887 9.45905610427e-39
0.00492465700439 -0.129682634449 0.887 9.55089160043e-39
0.00656620933919 -0.129682634449 0.887 9.55089160043e-39
0.00822626846469 -0.129975041742 0.889 9.45905610427e-39
0.00987152215763 -0.129975041742 0.889 8.81620763117e-39
0.0115167758506 -0.129975041742 0.889 8.90804312733e-39
0.0131620295435 -0.129975041742 0.889 9.36722060812e-39
0.0148405954597 -0.130267449035 0.891 9.73456259275e-39
0.0165450708829 -0.130706059975 0.894 9.73456259275e-39
0.0182402929107 -0.130998467268 0.896 1.02855755697e-38
0.0198985013571 -0.130998467268 0.896 1.03774110659e-38
0.0215085921477 -0.130706059975 0.894 1.07447530505e-38
0.023163099236 -0.130706059975 0.894 1.07447530505e-38
0.0248731266964 -0.130998467268 0.896 9.64272709659e-39
-0.0318575895053 -0.130783788496 0.906 1.96976517417e-38
-0.0301808742682 -0.130783788496 0.906 2.16337907973e-38
-0.0284097743985 -0.130350729593 0.903 6.3366492349e-39
-0.0267386111986 -0.130350729593 0.903 5.05095228869e-39
-0.0250674479987 -0.130350729593 0.903 6.42848473106e-39
-0.0233962847988 -0.130350729593 0.903 7.07133320417e-39
-0.0217251215989 -0.130350729593 0.903 7.07133320417e-39
-0.0199429176548 -0.129628964756 0.898 7.4386751888e-39
-0.0181995779711 -0.129051552886 0.894 7.25500419648e-39
-0.0164895505108 -0.128618493984 0.891 7.16316870032e-39
-0.0148405954597 -0.128618493984 0.891 7.71418167727e-39
-0.0131620295435 -0.128329788049 0.889 7.98968816575e-39
-0.0115167758506 -0.128329788049 0.889 7.80601717343e-39
-0.00987152215763 -0.128329788049 0.889 7.71418167727e-39
-0.00822626846469 -0.128329788049 0.889 8.0815236619e-39
-0.00658101477175 -0.128329788049 0.889 8.26519465422e-39
-0.00492465700439 -0.128041082114 0.887 8.81620763117e-39
-0.0032831046696 -0.128041082114 0.887 8.54070114269e-39
-0.00164525369294 -0.128329788049 0.889 9.1835496158e-39
0.0 -0.128329788049 0.889 8.90804312733e-39
0.00164525369294 -0.128329788049 0.889 8.99987862348e-39
0.00329050738588 -0.128329788049 0.889 9.55089160043e-39
0.00493576107881 -0.128329788049 0.889 9.55089160043e-39
0.00658101477175 -0.128329788049 0.889 9.36722060812e-39
0.00822626846469 -0.128329788049 0.889 9.45905610427e-39
0.00987152215763 -0.128329788049 0.889 9.45905610427e-39
0.0115167758506 -0.128329788049 0.889 8.81620763117e-39
0.0131916404086 -0.128618493984 0.891 9.64272709659e-39
0.0148405954597 -0.128618493984 0.891 1.01019045774e-38
0.0165450708829 -0.129051552886 0.894 1.01937400735e-38
0.0182402929107 -0.129340258821 0.896 1.01019045774e-38
0.0199429176548 -0.129628964756 0.898 1.0469246562e-38
0.0215085921477 -0.129051552886 0.894 1.2399949981e-38
0.023163099236 -0.129051552886 0.894 1.1020259539e-38
0.0249286470685 -0.129628964756 0.898 9.55089160043e-39
-0.0317521007983 -0.128679566393 0.903 2.04348972845e-38
-0.0300809375984 -0.128679566393 0.903 2.24639144024e-38
-0.0285041590311 -0.129107073258 0.906 6.06114274643e-39
-0.026827443794 -0.129107073258 0.906 5.23462328101e-39
-0.0251507285568 -0.129107073258 0.906 6.79582671569e-39
-0.0233962847988 -0.128679566393 0.903 7.07133320417e-39
-0.0217251215989 -0.128679566393 0.903 6.88766221185e-39
-0.0200095421013 -0.128394561817 0.901 7.16316870032e-39
-0.0182402929107 -0.127682050375 0.896 7.07133320417e-39
-0.0165450708829 -0.127397045798 0.894 7.62234618111e-39
-0.0148905637946 -0.127397045798 0.894 7.80601717343e-39
-0.0131916404086 -0.126969538933 0.891 7.98968816575e-39
-0.0115167758506 -0.126684534356 0.889 7.71418167727e-39
-0.00987152215763 -0.126684534356 0.889 7.71418167727e-39
-0.00822626846469 -0.126684534356 0.889 7.98968816575e-39
-0.00658101477175 -0.126684534356 0.889 8.35703015038e-39
-0.00493576107881 -0.126684534356 0.889 8.54070114269e-39
-0.00329050738588 -0.126684534356 0.889 8.35703015038e-39
-0.00164525369294 -0.126684534356 0.889 8.72437213501e-39
0.0 -0.126684534356 0.889 8.90804312733e-39
0.00164525369294 -0.126684534356 0.889 8.72437213501e-39
0.00329050738588 -0.126684534356 0.889 9.09171411964e-39
0.00494686515323 -0.126969538933 0.891 9.64272709659e-39
0.00659582020431 -0.126969538933 0.891 9.91823358506e-39
0.00824477525538 -0.126969538933 0.891 9.91823358506e-39
0.00989373030646 -0.126969538933 0.891 9.55089160043e-39
0.0115426853575 -0.126969538933 0.891 8.81620763117e-39
0.0132360567063 -0.127397045798 0.894 9.55089160043e-39
0.0148905637946 -0.127397045798 0.894 1.01019045774e-38
0.0165820844643 -0.127682050375 0.896 1.0469246562e-38
0.0182810078502 -0.127967054951 0.898 1.01937400735e-38
0.0200095421013 -0.128394561817 0.901 1.11120950351e-38
0.0216048274593 -0.127967054951 0.898 1.1020259539e-38
0.0232667372639 -0.127967054951 0.898 1.08365885466e-38
-0.0317521007983 -0.127008403193 0.903 1.92345296057e-38
-0.0300809375984 -0.127008403193 0.903 2.25557400895e-38
-0.0284097743985 -0.127008403193 0.903 6.24481373874e-39
-0.026827443794 -0.127430358021 0.906 5.78563625795e-39
-0.0250674479987 -0.127008403193 0.903 6.52032022722e-39
-0.0233962847988 -0.127008403193 0.903 6.97949770801e-39
-0.0217251215989 -0.127008403193 0.903 7.07133320417e-39
-0.020053958399 -0.127008403193 0.903 7.07133320417e-39
-0.0182402929107 -0.126023841928 0.896 6.97949770801e-39
-0.0165820844643 -0.126023841928 0.896 7.34683969264e-39
-0.0148905637946 -0.12574253871 0.894 7.71418167727e-39
-0.0131916404086 -0.125320583882 0.891 7.71418167727e-39
-0.0115426853575 -0.125320583882 0.891 7.80601717343e-39
-0.00987152215763 -0.125039280663 0.889 8.26519465422e-39
-0.00822626846469 -0.125039280663 0.889 8.26519465422e-39
-0.00658101477175 -0.125039280663 0.889 8.44886564654e-39
-0.00493576107881 -0.125039280663 0.889 8.81620763117e-39
-0.00329050738588 -0.125039280663 0.889 8.54070114269e-39
-0.00164525369294 -0.125039280663 0.889 8.54070114269e-39
0.0 -0.125039280663 0.889 8.99987862348e-39
0.00164525369294 -0.125039280663 0.889 9.1835496158e-39
0.00329050738588 -0.125039280663 0.889 8.99987862348e-39
0.00494686515323 -0.125320583882 0.891 9.55089160043e-39
0.00659582020431 -0.125320583882 0.891 9.91823358506e-39
0.00824477525538 -0.125320583882 0.891 9.73456259275e-39
0.00992704252972 -0.12574253871 0.894 9.36722060812e-39
0.011581549618 -0.12574253871 0.894 8.72437213501e-39
0.0132360567063 -0.12574253871 0.894 8.99987862348e-39
0.0149238760178 -0.126023841928 0.896 9.91823358506e-39
0.0165820844643 -0.126023841928 0.896 1.01019045774e-38
0.0182810078502 -0.126305145147 0.898 1.01019045774e-38
0.0200095421013 -0.126727099975 0.901 1.08365885466e-38
0.0217251215989 -0.127008403193 0.903 1.08365885466e-38
0.0233962847988 -0.127008403193 0.903 1.05610820582e-38
-0.0317521007983 -0.125337239993 0.903 2.12632230237e-38
-0.0300809375984 -0.125337239993 0.903 2.30159937675e-38
-0.0284097743985 -0.125337239993 0.903 5.96930725027e-39
-0.026827443794 -0.125753642784 0.906 5.51012976948e-39
-0.0250674479987 -0.125337239993 0.903 6.52032022722e-39
-0.0233962847988 -0.125337239993 0.903 6.97949770801e-39
-0.0217251215989 -0.125337239993 0.903 7.07133320417e-39
-0.020053958399 -0.125337239993 0.903 7.07133320417e-39
-0.0182810078502 -0.124643235342 0.898 7.34683969264e-39
-0.0165820844643 -0.124365633482 0.896 7.25500419648e-39
-0.0149238760178 -0.124365633482 0.896 7.34683969264e-39
-0.0132360567063 -0.124088031621 0.894 7.4386751888e-39
-0.0115426853575 -0.123671628831 0.891 7.71418167727e-39
-0.00989373030646 -0.123671628831 0.891 7.98968816575e-39
-0.00824477525538 -0.123671628831 0.891 8.26519465422e-39
-0.00659582020431 -0.123671628831 0.891 8.44886564654e-39
-0.00494686515323 -0.123671628831 0.891 8.54070114269e-39
-0.00329791010215 -0.123671628831 0.891 8.81620763117e-39
-0.00164895505108 -0.123671628831 0.891 8.44886564654e-39
0.0 -0.123671628831 0.891 8.72437213501e-39
0.00164895505108 -0.123671628831 0.891 8.90804312733e-39
0.00329791010215 -0.123671628831 0.891 8.99987862348e-39
0.00496352126486 -0.124088031621 0.894 9.55089160043e-39
0.00661802835314 -0.124088031621 0.894 9.91823358506e-39
0.00827253544143 -0.124088031621 0.894 9.73456259275e-39
0.00992704252972 -0.124088031621 0.894 9.55089160043e-39
0.011581549618 -0.124088031621 0.894 8.81620763117e-39
0.0132656675714 -0.124365633482 0.896 8.99987862348e-39
0.0149238760178 -0.124365633482 0.896 9.55089160043e-39
0.0166190980456 -0.124643235342 0.898 9.91823358506e-39
0.0183420802595 -0.125059638133 0.901 9.73456259275e-39
0.020053958399 -0.125337239993 0.903 1.01019045774e-38
0.0217251215989 -0.125337239993 0.903 1.01019045774e-38
0.0233962847988 -0.125337239993 0.903 1.02855755697e-38
-0.0335343047424 -0.124076927547 0.906 1.92356072042e-38
-0.0318575895053 -0.124076927547 0.906 2.08940523445e-38
-0.0301808742682 -0.124076927547 0.906 2.27408390049e-38
-0.0285041590311 -0.124076927547 0.906 6.15297824259e-39
-0.026827443794 -0.124076927547 0.906 5.6938007618e-39
-0.0251507285568 -0.124076927547 0.906 6.61215572338e-39
-0.0233962847988 -0.123666076794 0.903 7.07133320417e-39
-0.0217251215989 -0.123666076794 0.903 7.07133320417e-39
-0.020053958399 -0.123666076794 0.903 6.97949770801e-39
-0.0182810078502 -0.122981325538 0.898 7.25500419648e-39
-0.0165820844643 -0.122707425035 0.896 7.34683969264e-39
-0.0149238760178 -0.122707425035 0.896 7.62234618111e-39
-0.0132360567063 -0.122433524533 0.894 7.71418167727e-39
-0.011581549618 -0.122433524533 0.894 7.89785266959e-39
-0.00992704252972 -0.122433524533 0.894 8.26519465422e-39
-0.00827253544143 -0.122433524533 0.894 8.26519465422e-39
-0.00661802835314 -0.122433524533 0.894 8.35703015038e-39
-0.00494686515323 -0.12202267378 0.891 8.44886564654e-39
-0.00329791010215 -0.12202267378 0.891 8.72437213501e-39
-0.00165450708829 -0.122433524533 0.894 8.72437213501e-39
0.0 -0.122433524533 0.894 8.72437213501e-39
0.00165450708829 -0.122433524533 0.894 8.81620763117e-39
0.00330901417657 -0.122433524533 0.894 9.09171411964e-39
0.00496352126486 -0.122433524533 0.894 8.99987862348e-39
0.00661802835314 -0.122433524533 0.894 9.55089160043e-39
0.00827253544143 -0.122433524533 0.894 9.45905610427e-39
0.00992704252972 -0.122433524533 0.894 9.45905610427e-39
0.011581549618 -0.122433524533 0.894 9.36722060812e-39
0.0132656675714 -0.122707425035 0.896 9.27538511196e-39
0.0149238760178 -0.122707425035 0.896 9.45905610427e-39
0.0166190980456 -0.122981325538 0.898 9.73456259275e-39
0.0183420802595 -0.123392176291 0.901 9.91823358506e-39
0.020053958399 -0.123666076794 0.903 1.01937400735e-38
0.0217251215989 -0.123666076794 0.903 1.01019045774e-38
0.0233962847988 -0.123666076794 0.903 1.02855755697e-38
-0.0335343047424 -0.12240021231 0.906 1.90530292247e-38
-0.0318575895053 -0.12240021231 0.906 2.06196164481e-38
-0.0301808742682 -0.12240021231 0.906 2.23724376387e-38
-0.0285041590311 -0.12240021231 0.906 6.613590653e-39
-0.026827443794 -0.12240021231 0.906 5.41829427332e-39
-0.0251507285568 -0.12240021231 0.906 6.61215572338e-39
-0.0234740133197 -0.12240021231 0.906 7.16316870032e-39
-0.0217972980826 -0.12240021231 0.906 7.34683969264e-39
-0.020053958399 -0.121994913594 0.903 7.07133320417e-39
-0.0182810078502 -0.121319415733 0.898 7.07133320417e-39
-0.0166190980456 -0.121319415733 0.898 7.53051068496e-39
-0.0149571882411 -0.121319415733 0.898 7.34683969264e-39
-0.0132656675714 -0.121049216589 0.896 7.71418167727e-39
-0.011607459125 -0.121049216589 0.896 7.80601717343e-39
-0.00994925067855 -0.121049216589 0.896 8.17335915806e-39
-0.00829104223213 -0.121049216589 0.896 8.26519465422e-39
-0.0066328337857 -0.121049216589 0.896 8.35703015038e-39
-0.00496352126486 -0.120779017445 0.894 8.35703015038e-39
-0.00330901417657 -0.120779017445 0.894 8.99987862348e-39
-0.00165450708829 -0.120779017445 0.894 8.81620763117e-39
0.0 -0.120779017445 0.894 8.63253663885e-39
0.00165450708829 -0.120779017445 0.894 8.54070114269e-39
0.00330901417657 -0.120779017445 0.894 8.54070114269e-39
0.00496352126486 -0.120779017445 0.894 8.90804312733e-39
0.00661802835314 -0.120779017445 0.894 8.81620763117e-39
0.00829104223213 -0.121049216589 0.896 8.81620763117e-39
0.00994925067855 -0.121049216589 0.896 9.1835496158e-39
0.011607459125 -0.121049216589 0.896 9.27538511196e-39
0.0132952784365 -0.121319415733 0.898 9.27538511196e-39
0.0149571882411 -0.121319415733 0.898 9.45905610427e-39
0.0166746184177 -0.121724714449 0.901 9.82639808891e-39
0.018382795199 -0.121994913594 0.903 9.45905610427e-39
0.020053958399 -0.121994913594 0.903 9.82639808891e-39
0.0217251215989 -0.121994913594 0.903 1.00100690812e-38
0.0233962847988 -0.121994913594 0.903 9.91823358506e-39
-0.0336083319052 -0.120989994859 0.908 1.96050889716e-38
-0.03192791531 -0.120989994859 0.908 1.98834611154e-38
-0.0302474987147 -0.120989994859 0.908 2.1543743358e-38
-0.0285670821194 -0.120989994859 0.908 6.52139642444e-39
-0.026827443794 -0.120723497073 0.906 7.89821140199e-39
-0.0251507285568 -0.120723497073 0.906 6.42848473106e-39
-0.0234740133197 -0.120723497073 0.906 7.16316870032e-39
-0.0217972980826 -0.120723497073 0.906 7.16316870032e-39
-0.020053958399 -0.120323750394 0.903 7.34683969264e-39
-0.0183420802595 -0.120057252608 0.901 7.53051068496e-39
-0.0166190980456 -0.119657505929 0.898 7.53051068496e-39
-0.0149571882411 -0.119657505929 0.898 7.71418167727e-39
-0.0132656675714 -0.119391008143 0.896 7.71418167727e-39
-0.011607459125 -0.119391008143 0.896 7.71418167727e-39
-0.00994925067855 -0.119391008143 0.896 8.26519465422e-39
-0.00829104223213 -0.119391008143 0.896 8.17335915806e-39
-0.0066328337857 -0.119391008143 0.896 8.26519465422e-39
-0.00497462533928 -0.119391008143 0.896 8.35703015038e-39
-0.00331641689285 -0.119391008143 0.896 8.81620763117e-39
-0.00165450708829 -0.119124510357 0.894 8.99987862348e-39
0.0 -0.119124510357 0.894 8.90804312733e-39
0.00165450708829 -0.119124510357 0.894 8.72437213501e-39
0.00331641689285 -0.119391008143 0.896 8.90804312733e-39
0.00497462533928 -0.119391008143 0.896 8.99987862348e-39
0.0066328337857 -0.119391008143 0.896 8.81620763117e-39
0.00829104223213 -0.119391008143 0.896 8.90804312733e-39
0.00994925067855 -0.119391008143 0.896 8.81620763117e-39
0.011607459125 -0.119391008143 0.896 9.36722060812e-39
0.0132952784365 -0.119657505929 0.898 9.1835496158e-39
0.015007156576 -0.120057252608 0.901 9.73456259275e-39
0.0166746184177 -0.120057252608 0.901 1.01019045774e-38
0.018382795199 -0.120323750394 0.903 9.55089160043e-39
0.020053958399 -0.120323750394 0.903 9.91823358506e-39
0.0217251215989 -0.120323750394 0.903 1.01019045774e-38
0.0233962847988 -0.120323750394 0.903 9.73456259275e-39
-0.033682359068 -0.119572374691 0.91 1.8128542181e-38
-0.0319982411146 -0.119572374691 0.91 1.82218126068e-38
-0.0303141231612 -0.119572374691 0.91 2.08965340441e-38
-0.0285670821194 -0.119309578264 0.908 5.87747175411e-39
-0.0268866655242 -0.119309578264 0.908 8.26591211903e-39
-0.0251507285568 -0.119046781836 0.906 6.70399121953e-39
-0.0234740133197 -0.119046781836 0.906 6.70399121953e-39
-0.0217972980826 -0.119046781836 0.906 6.79582671569e-39
-0.020053958399 -0.118652587194 0.903 7.25500419648e-39
-0.0183420802595 -0.118389790766 0.901 7.25500419648e-39
-0.0166190980456 -0.117995596124 0.898 7.34683969264e-39
-0.0149571882411 -0.117995596124 0.898 7.71418167727e-39
-0.0132952784365 -0.117995596124 0.898 7.71418167727e-39
-0.011607459125 -0.117732799696 0.896 7.80601717343e-39
-0.00994925067855 -0.117732799696 0.896 8.17335915806e-39
-0.00829104223213 -0.117732799696 0.896 8.54070114269e-39
-0.0066328337857 -0.117732799696 0.896 8.26519465422e-39
-0.00497462533928 -0.117732799696 0.896 8.35703015038e-39
-0.00331641689285 -0.117732799696 0.896 8.63253663885e-39
-0.00165820844643 -0.117732799696 0.896 8.99987862348e-39
0.0 -0.117732799696 0.896 8.81620763117e-39
0.00165820844643 -0.117732799696 0.896 8.81620763117e-39
0.00331641689285 -0.117732799696 0.896 8.90804312733e-39
0.00497462533928 -0.117732799696 0.896 9.36722060812e-39
0.0066328337857 -0.117732799696 0.896 8.90804312733e-39
0.00829104223213 -0.117732799696 0.896 8.81620763117e-39
0.00994925067855 -0.117732799696 0.896 8.72437213501e-39
0.011607459125 -0.117732799696 0.896 9.27538511196e-39
0.0132952784365 -0.117995596124 0.898 9.36722060812e-39
0.015007156576 -0.118389790766 0.901 9.55089160043e-39
0.0167116319991 -0.118652587194 0.903 1.00100690812e-38
0.018382795199 -0.118652587194 0.903 1.00100690812e-38
0.0201205828455 -0.119046781836 0.906 1.01019045774e-38
0.0217972980826 -0.119046781836 0.906 1.01019045774e-38
0.0234740133197 -0.119046781836 0.906 9.73456259275e-39
-0.033682359068 -0.117888256738 0.91 1.68364062684e-38
-0.0319982411146 -0.117888256738 0.91 1.75735831476e-38
-0.0303141231612 -0.117888256738 0.91 2.17241465223e-38
-0.0286300052078 -0.117888256738 0.91 6.24481373874e-39
-0.0269458872544 -0.117888256738 0.91 6.61215572338e-39
-0.0252062489289 -0.117629161668 0.908 9.00350798651e-39
-0.0234740133197 -0.117370066599 0.906 7.71742288062e-39
-0.0217972980826 -0.117370066599 0.906 8.17335915806e-39
-0.020053958399 -0.116981423994 0.903 7.16316870032e-39
-0.0183420802595 -0.116722328924 0.901 6.97949770801e-39
-0.0166746184177 -0.116722328924 0.901 7.34683969264e-39
-0.0149571882411 -0.11633368632 0.898 7.71418167727e-39
-0.0132952784365 -0.11633368632 0.898 7.71418167727e-39
-0.011633368632 -0.11633368632 0.898 7.98968816575e-39
-0.00994925067855 -0.11607459125 0.896 8.26519465422e-39
-0.00829104223213 -0.11607459125 0.896 8.26519465422e-39
-0.0066328337857 -0.11607459125 0.896 8.26519465422e-39
-0.00497462533928 -0.11607459125 0.896 8.35703015038e-39
-0.00331641689285 -0.11607459125 0.896 8.99987862348e-39
-0.00165820844643 -0.11607459125 0.896 8.81620763117e-39
0.0 -0.11607459125 0.896 8.90804312733e-39
0.00165820844643 -0.11607459125 0.896 8.90804312733e-39
0.00331641689285 -0.11607459125 0.896 8.81620763117e-39
0.00497462533928 -0.11607459125 0.896 8.99987862348e-39
0.0066328337857 -0.11607459125 0.896 9.45905610427e-39
0.00829104223213 -0.11607459125 0.896 8.90804312733e-39
0.00994925067855 -0.11607459125 0.896 8.72437213501e-39
0.011633368632 -0.11633368632 0.898 8.81620763117e-39
0.0132952784365 -0.11633368632 0.898 9.36722060812e-39
0.0150404687992 -0.116981423994 0.903 9.55089160043e-39
0.0167116319991 -0.116981423994 0.903 1.00100690812e-38
0.0184438676083 -0.117370066599 0.906 1.00100690812e-38
0.0201205828455 -0.117370066599 0.906 1.01937400735e-38
0.0217972980826 -0.117370066599 0.906 1.01937400735e-38
0.0234740133197 -0.117370066599 0.906 9.64272709659e-39
-0.033682359068 -0.116204138785 0.91 1.89590077029e-38
-0.0319982411146 -0.116204138785 0.91 1.87771303726e-38
-0.0303141231612 -0.116204138785 0.91 2.14511371477e-38
-0.0286300052078 -0.116204138785 0.91 5.96930725027e-39
-0.0269458872544 -0.116204138785 0.91 7.80601717343e-39
-0.0252062489289 -0.115948745073 0.908 6.3366492349e-39
-0.0235258323337 -0.115948745073 0.908 1.01101680344e-38
-0.0218454157384 -0.115948745073 0.908 1.01108728876e-38
-0.020053958399 -0.115310260794 0.903 9.65817501086e-39
-0.018382795199 -0.115310260794 0.903 6.70399121953e-39
-0.0166746184177 -0.115054867082 0.901 7.25500419648e-39
-0.015007156576 -0.115054867082 0.901 7.53051068496e-39
-0.0132952784365 -0.114671776515 0.898 7.80601717343e-39
-0.011633368632 -0.114671776515 0.898 7.80601717343e-39
-0.00997145882739 -0.114671776515 0.898 8.26519465422e-39
-0.00829104223213 -0.114416382803 0.896 8.35703015038e-39
-0.0066328337857 -0.114416382803 0.896 8.35703015038e-39
-0.00497462533928 -0.114416382803 0.896 8.54070114269e-39
-0.00331641689285 -0.114416382803 0.896 8.99987862348e-39
-0.00165820844643 -0.114416382803 0.896 8.81620763117e-39
0.0 -0.114416382803 0.896 8.90804312733e-39
0.00165820844643 -0.114416382803 0.896 8.99987862348e-39
0.00331641689285 -0.114416382803 0.896 8.90804312733e-39
0.00497462533928 -0.114416382803 0.896 9.27538511196e-39
0.00664763921826 -0.114671776515 0.898 9.55089160043e-39
0.00830954902282 -0.114671776515 0.898 9.27538511196e-39
0.00997145882739 -0.114671776515 0.898 8.99987862348e-39
0.011633368632 -0.114671776515 0.898 9.09171411964e-39
0.0133396947342 -0.115054867082 0.901 9.36722060812e-39
0.0150404687992 -0.115310260794 0.903 9.73456259275e-39
0.0167671523712 -0.115693351361 0.906 9.55089160043e-39
0.0184438676083 -0.115693351361 0.906 9.73456259275e-39
0.0201205828455 -0.115693351361 0.906 1.01937400735e-38
0.0217972980826 -0.115693351361 0.906 1.01937400735e-38
0.0234740133197 -0.115693351361 0.906 9.55089160043e-39
-0.0337933998122 -0.114897559361 0.913 1.84973190953e-38
-0.0321037298216 -0.114897559361 0.913 1.78530356926e-38
-0.030414059831 -0.114897559361 0.913 2.07118274922e-38
-0.0287243898404 -0.114897559361 0.913 6.15297824259e-39
-0.0270347198498 -0.114897559361 0.913 7.07133320417e-39
-0.025261769301 -0.114520020831 0.91 7.16316870032e-39
-0.0235258323337 -0.114268328478 0.908 7.62235318761e-39
-0.0218454157384 -0.114268328478 0.908 7.16316870032e-39
-0.0201649991431 -0.114268328478 0.908 9.19287665838e-39
-0.018382795199 -0.113639097594 0.903 1.15917342761e-38
-0.0167116319991 -0.113639097594 0.903 9.8389929595e-39
-0.015007156576 -0.113387405241 0.901 9.74640216347e-39
-0.0133396947342 -0.113387405241 0.901 9.371525397e-39
-0.011633368632 -0.11300986671 0.898 7.89785266959e-39
-0.00997145882739 -0.11300986671 0.898 9.36901987534e-39
-0.00830954902282 -0.11300986671 0.898 7.98968816575e-39
-0.00664763921826 -0.11300986671 0.898 7.98968816575e-39
-0.00498572941369 -0.11300986671 0.898 7.89785266959e-39
-0.00332381960913 -0.11300986671 0.898 8.26519465422e-39
-0.00166190980456 -0.11300986671 0.898 8.54070114269e-39
0.0 -0.11300986671 0.898 8.81620763117e-39
0.00166190980456 -0.11300986671 0.898 8.72437213501e-39
0.00332381960913 -0.11300986671 0.898 8.81620763117e-39
0.00498572941369 -0.11300986671 0.898 8.90804312733e-39
0.00664763921826 -0.11300986671 0.898 9.36722060812e-39
0.00830954902282 -0.11300986671 0.898 9.73456259275e-39
0.00997145882739 -0.11300986671 0.898 8.44886564654e-39
0.0116722328924 -0.113387405241 0.901 1.28630861299e-38
0.0133693055993 -0.113639097594 0.903 9.45905610427e-39
0.0150904371341 -0.114016636124 0.906 1.00100690812e-38
0.0167671523712 -0.114016636124 0.906 9.73456259275e-39
0.0184438676083 -0.114016636124 0.906 9.91823358506e-39
0.0201205828455 -0.114016636124 0.906 1.01937400735e-38
0.0218454157384 -0.114268328478 0.908 1.01937400735e-38
0.0235258323337 -0.114268328478 0.908 9.45905610427e-39
-0.0321740556262 -0.113455880366 0.915 1.86838711572e-38
-0.030414059831 -0.113207889371 0.913 2.10820757699e-38
-0.0287243898404 -0.113207889371 0.913 6.15297824259e-39
-0.0270347198498 -0.113207889371 0.913 6.97949770801e-39
-0.025261769301 -0.112835902878 0.91 7.4386751888e-39
-0.0235776513476 -0.112835902878 0.91 7.16316870032e-39
-0.0218935333942 -0.112835902878 0.91 8.26519465422e-39
-0.0201649991431 -0.112587911883 0.908 6.9795089184e-39
-0.0184438676083 -0.112339920887 0.906 6.97949770801e-39
-0.0167116319991 -0.111967934394 0.903 7.34683969264e-39
-0.0150404687992 -0.111967934394 0.903 9.46300356205e-39
-0.0133396947342 -0.111719943399 0.901 1.36153690066e-38
-0.0116722328924 -0.111719943399 0.901 7.62234618111e-39
-0.00997145882739 -0.111347956906 0.898 1.12225916229e-38
-0.00830954902282 -0.111347956906 0.898 1.16857726134e-38
-0.00664763921826 -0.111347956906 0.898 1.13137180621e-38
-0.00498572941369 -0.111347956906 0.898 1.0852032257e-38
-0.00332381960913 -0.111347956906 0.898 1.1318797769e-38
-0.00166190980456 -0.111347956906 0.898 8.08331732394e-39
0.0 -0.111347956906 0.898 1.26933930898e-38
0.00166190980456 -0.111347956906 0.898 6.70399121953e-39
0.00332381960913 -0.111347956906 0.898 1.32437684759e-38
0.00498572941369 -0.111347956906 0.898 1.18690204136e-38
0.00664763921826 -0.111347956906 0.898 1.37072297261e-38
0.00833730920887 -0.111719943399 0.901 1.37115457254e-38
0.0100047710506 -0.111719943399 0.901 1.15870749587e-38
0.0116722328924 -0.111719943399 0.901 1.11290493452e-38
0.0133693055993 -0.111967934394 0.903 9.45905610427e-39
0.0150904371341 -0.112339920887 0.906 9.82639808891e-39
0.0167671523712 -0.112339920887 0.906 9.82639808891e-39
0.0184438676083 -0.112339920887 0.906 1.17578133675e-38
0.0201649991431 -0.112587911883 0.908 1.05610820582e-38
0.0218454157384 -0.112587911883 0.908 1.03774110659e-38
0.0235258323337 -0.112587911883 0.908 9.36722060812e-39
-0.0321740556262 -0.111762509017 0.915 2.04359202324e-38
-0.0304806842775 -0.111762509017 0.915 2.01604711972e-38
-0.0287243898404 -0.11151821938 0.913 6.42848473106e-39
-0.0270347198498 -0.11151821938 0.913 7.25500419648e-39
-0.0253450498591 -0.11151821938 0.913 7.16316870032e-39
-0.0235776513476 -0.111151784924 0.91 7.53051068496e-39
-0.0218935333942 -0.111151784924 0.91 7.62234618111e-39
-0.0201649991431 -0.110907495287 0.908 7.80601717343e-39
-0.0184845825479 -0.110907495287 0.908 8.72437213501e-39
-0.0167671523712 -0.11066320565 0.906 8.99991645854e-39
-0.0150904371341 -0.11066320565 0.906 7.53051348755e-39
-0.0133693055993 -0.110296771194 0.903 7.80601717343e-39
-0.0116722328924 -0.110052481557 0.901 7.98968816575e-39
-0.0100047710506 -0.110052481557 0.901 7.80601717343e-39
-0.00833730920887 -0.110052481557 0.901 8.54072496477e-39
-0.00666984736709 -0.110052481557 0.901 1.10274650157e-38
-0.00500238552532 -0.110052481557 0.901 9.2832814288e-39
-0.00333492368355 -0.110052481557 0.901 1.09445782115e-38
-0.00166746184177 -0.110052481557 0.901 1.16828382944e-38
0.0 -0.110052481557 0.901 1.26062267201e-38
0.00166746184177 -0.110052481557 0.901 6.88766221185e-39
0.00333492368355 -0.110052481557 0.901 1.26884310919e-38
0.00500238552532 -0.110052481557 0.901 1.05736376924e-38
0.00666984736709 -0.110052481557 0.901 9.82639808891e-39
0.00833730920887 -0.110052481557 0.901 8.99988703127e-39
0.0100047710506 -0.110052481557 0.901 8.44886564654e-39
0.0116981423994 -0.110296771194 0.903 7.71418167727e-39
0.0133693055993 -0.110296771194 0.903 1.09338050289e-38
0.0150904371341 -0.11066320565 0.906 1.25011083158e-38
0.0167671523712 -0.11066320565 0.906 1.04713989565e-38
0.0184845825479 -0.110907495287 0.908 1.00100690812e-38
0.0201649991431 -0.110907495287 0.908 1.08365885466e-38
0.0218454157384 -0.110907495287 0.908 1.03774110659e-38
-0.0304806842775 -0.110069137669 0.915 1.99764246568e-38
-0.0287873129287 -0.110069137669 0.915 6.61215572338e-39
-0.02709394158 -0.110069137669 0.915 6.88766221185e-39
-0.0253450498591 -0.10982854939 0.913 7.53051068496e-39
-0.0236553798685 -0.10982854939 0.913 7.62234618111e-39
-0.0219657098779 -0.10982854939 0.913 7.34683969264e-39
-0.0202094154408 -0.109467666971 0.91 8.26519465422e-39
-0.0184845825479 -0.109227078692 0.908 8.5410598751e-39
-0.0168041659526 -0.109227078692 0.908 7.71418167727e-39
-0.0150904371341 -0.108986490413 0.906 8.0815236619e-39
-0.013413721897 -0.108986490413 0.906 8.90804312733e-39
-0.0116981423994 -0.108625607994 0.903 8.63289537126e-39
-0.0100269791995 -0.108625607994 0.903 1.17635951249e-38
-0.00835581599956 -0.108625607994 0.903 9.27717877399e-39
-0.00668465279965 -0.108625607994 0.903 9.45905750557e-39
-0.00501348959974 -0.108625607994 0.903 9.64559695584e-39
-0.00334232639983 -0.108625607994 0.903 9.55268526247e-39
-0.00167116319991 -0.108625607994 0.903 9.82639808891e-39
0.0 -0.108625607994 0.903 1.11135397738e-38
0.00167116319991 -0.108625607994 0.903 9.92074471191e-39
0.00334232639983 -0.108625607994 0.903 1.02941851475e-38
0.00501348959974 -0.108625607994 0.903 1.08451981244e-38
0.00668465279965 -0.108625607994 0.903 1.06643969913e-38
0.00835581599956 -0.108625607994 0.903 1.13054518024e-38
0.0100269791995 -0.108625607994 0.903 8.99987862348e-39
0.0116981423994 -0.108625607994 0.903 1.19508212115e-38
0.013413721897 -0.108986490413 0.906 9.18390834821e-39
0.0150904371341 -0.108986490413 0.906 9.91823358506e-39
0.0167671523712 -0.108986490413 0.906 1.07447530505e-38
0.0184845825479 -0.109227078692 0.908 1.15756291528e-38
0.0202094154408 -0.109467666971 0.91 1.06529175543e-38
0.0218935333942 -0.109467666971 0.91 1.0469246562e-38
-0.0305806209472 -0.108731096701 0.918 2.12685984046e-38
-0.0287873129287 -0.10837576632 0.915 6.3366492349e-39
-0.02709394158 -0.10837576632 0.915 6.42848473106e-39
-0.0253450498591 -0.108138879399 0.913 7.89785266959e-39
-0.0236553798685 -0.108138879399 0.913 7.34683969264e-39
-0.0219657098779 -0.108138879399 0.913 7.62234618111e-39
-0.0202760398873 -0.108138879399 0.913 7.89785266959e-39
-0.0185252974874 -0.107783549018 0.91 7.89785266959e-39
-0.0168041659526 -0.107546662097 0.908 8.54070114269e-39
-0.0151237493574 -0.107546662097 0.908 9.92220906881e-39
-0.013413721897 -0.107309775176 0.906 7.98968816575e-39
-0.0117370066599 -0.107309775176 0.906 9.09171411964e-39
-0.0100602914227 -0.107309775176 0.906 8.17335915806e-39
-0.00838357618561 -0.107309775176 0.906 8.90804312733e-39
-0.00670686094849 -0.107309775176 0.906 9.09171411964e-39
-0.00503014571137 -0.107309775176 0.906 9.36722060812e-39
-0.00335343047424 -0.107309775176 0.906 9.74173724088e-39
-0.00167671523712 -0.107309775176 0.906 9.82855048335e-39
0.0 -0.106954444794 0.903 9.82639808891e-39
0.00167116319991 -0.106954444794 0.903 9.1835496158e-39
0.00334232639983 -0.106954444794 0.903 9.45905610427e-39
0.00501348959974 -0.106954444794 0.903 9.09171411964e-39
0.00668465279965 -0.106954444794 0.903 9.64272709659e-39
0.00835581599956 -0.106954444794 0.903 9.91930978228e-39
0.0100269791995 -0.106954444794 0.903 9.09171411964e-39
0.0117370066599 -0.107309775176 0.906 1.37879361099e-38
0.013413721897 -0.107309775176 0.906 1.17679139268e-38
0.0150904371341 -0.107309775176 0.906 1.00100732851e-38
0.0168041659526 -0.107546662097 0.908 1.11121020416e-38
0.0185252974874 -0.107783549018 0.91 1.05610820582e-38
0.0202094154408 -0.107783549018 0.91 1.03774110659e-38
0.0218935333942 -0.107783549018 0.91 1.06529175543e-38
-0.0326311733564 -0.108198101129 0.928 1.85920244507e-38
-0.03081380651 -0.107848322785 0.925 2.19121503295e-38
-0.0288816975613 -0.107032173315 0.918 6.70506741675e-39
-0.02709394158 -0.106682394971 0.915 7.53051068496e-39
-0.0254005702312 -0.106682394971 0.915 7.4386751888e-39
-0.0236553798685 -0.106449209408 0.913 7.80601717343e-39
-0.0219657098779 -0.106449209408 0.913 7.62234618111e-39
-0.0202760398873 -0.106449209408 0.913 7.62234618111e-39
-0.0185863698967 -0.106449209408 0.913 8.72437213501e-39
-0.016841179534 -0.106099431064 0.91 8.17335915806e-39
-0.0151237493574 -0.105866245501 0.908 8.17335915806e-39
-0.0134433327621 -0.105866245501 0.908 8.0815236619e-39
-0.0117370066599 -0.105633059939 0.906 8.54070114269e-39
-0.0100602914227 -0.105633059939 0.906 9.09171411964e-39
-0.00838357618561 -0.105633059939 0.906 9.83252456579e-39
-0.00670686094849 -0.105633059939 0.906 1.07547975579e-38
-0.00503014571137 -0.105633059939 0.906 8.72437213501e-39
-0.00335343047424 -0.105633059939 0.906 1.02938264151e-38
-0.00167671523712 -0.105633059939 0.906 1.04764562426e-38
0.0 -0.105633059939 0.906 1.10310327216e-38
0.00167671523712 -0.105633059939 0.906 9.92652226548e-39
0.00335343047424 -0.105633059939 0.906 1.14012445654e-38
0.00501348959974 -0.105283281595 0.903 8.54070114269e-39
0.00668465279965 -0.105283281595 0.903 1.27756016655e-38
0.00835581599956 -0.105283281595 0.903 1.04746275481e-38
0.0100602914227 -0.105633059939 0.906 9.27538511196e-39
0.0117370066599 -0.105633059939 0.906 9.64272709659e-39
0.013413721897 -0.105633059939 0.906 1.03774180723e-38
0.0150904371341 -0.105633059939 0.906 1.30525192615e-38
0.0168041659526 -0.105866245501 0.908 1.13944174393e-38
0.0185252974874 -0.106099431064 0.91 9.27538511196e-39
0.0202760398873 -0.106449209408 0.913 1.0469246562e-38
0.0219657098779 -0.106449209408 0.913 1.09284240428e-38
0.0237071988825 -0.106682394971 0.915 8.90804312733e-39
-0.0383941879794 -0.108201802487 0.943 1.90519193963e-38
-0.0365324048353 -0.10785757618 0.94 1.84076359936e-38
-0.0347927665098 -0.10785757618 0.94 1.93277846172e-38
-0.0326311733564 -0.106480670953 0.928 1.90515816834e-38
-0.03081380651 -0.106136444646 0.925 2.09894877764e-38
-0.0289446206497 -0.105562734134 0.92 6.88766221185e-39
-0.0271827741753 -0.105333249929 0.918 6.24481373874e-39
-0.0254005702312 -0.104989023622 0.915 7.71418167727e-39
-0.0237071988825 -0.104989023622 0.915 7.43870041217e-39
-0.0220138275337 -0.104989023622 0.915 7.89785266959e-39
-0.0202760398873 -0.104759539418 0.913 8.26519465422e-39
-0.0185863698967 -0.104759539418 0.913 8.54072776736e-39
-0.016841179534 -0.104415313111 0.91 8.0815236619e-39
-0.0151237493574 -0.104185828906 0.908 8.54070114269e-39
-0.0134433327621 -0.104185828906 0.908 9.09171411964e-39
-0.0117370066599 -0.103956344702 0.906 9.099964965e-39
-0.0100602914227 -0.103956344702 0.906 1.09420614795e-38
-0.00838357618561 -0.103956344702 0.906 8.63254224405e-39
-0.00670686094849 -0.103956344702 0.906 1.0012584412e-38
-0.00503014571137 -0.103956344702 0.906 8.72437213501e-39
-0.00336083319052 -0.104185828906 0.908 9.82639808891e-39
-0.00168041659526 -0.104185828906 0.908 1.0012584412e-38
0.0 -0.103956344702 0.906 1.01054919014e-38
0.00167671523712 -0.103956344702 0.906 9.27717877399e-39
0.00335343047424 -0.103956344702 0.906 1.01054919014e-38
0.00503014571137 -0.103956344702 0.906 1.18571836455e-38
0.00670686094849 -0.103956344702 0.906 1.07555430487e-38
0.00838357618561 -0.103956344702 0.906 7.89785266959e-39
0.0100602914227 -0.103956344702 0.906 1.17581931194e-38
0.0117370066599 -0.103956344702 0.906 9.45905610427e-39
0.013413721897 -0.103956344702 0.906 9.82639808891e-39
0.0151237493574 -0.104185828906 0.908 1.06529175543e-38
0.016841179534 -0.104415313111 0.91 1.24989545201e-38
0.0185863698967 -0.104759539418 0.913 1.05657609937e-38
0.0202760398873 -0.104759539418 0.913 1.01937400735e-38
0.0219657098779 -0.104759539418 0.913 1.09284240428e-38
0.0237071988825 -0.104989023622 0.915 8.99987862348e-39
-0.0382720431608 -0.106117937855 0.94 1.84069185288e-38
-0.0364546763144 -0.105892155008 0.938 1.90533543259e-38
-0.034718739347 -0.105892155008 0.938 1.90497670019e-38
-0.0328069878681 -0.105327697892 0.933 1.94203375782e-38
-0.03081380651 -0.104424566506 0.925 2.13589387153e-38
-0.0290390052822 -0.10419878366 0.923 6.52032022722e-39
-0.0272419959056 -0.10386010939 0.92 6.70399121953e-39
-0.0254005702312 -0.103295652274 0.915 7.4386751888e-39
-0.0237071988825 -0.103295652274 0.915 7.16316870032e-39
-0.0220138275337 -0.103295652274 0.915 9.37331905903e-39
-0.020320456185 -0.103295652274 0.915 7.71418167727e-39
-0.0185863698967 -0.103069869427 0.913 8.0815236619e-39
-0.0168966999061 -0.103069869427 0.913 7.98968816575e-39
-0.0151570615806 -0.102731195157 0.91 1.04728450965e-38
-0.0134433327621 -0.102505412311 0.908 9.8314203426e-39
-0.0117629161668 -0.102505412311 0.908 9.19075228991e-39
-0.0100824995716 -0.102505412311 0.908 8.44886564654e-39
-0.00840208297631 -0.102505412311 0.908 9.09171411964e-39
-0.00672166638105 -0.102505412311 0.908 8.35703015038e-39
-0.00504124978578 -0.102505412311 0.908 1.02855839775e-38
-0.00336083319052 -0.102505412311 0.908 9.27538511196e-39
-0.00168041659526 -0.102505412311 0.908 1.01019045774e-38
0.0 -0.102505412311 0.908 9.82675682131e-39
0.00168041659526 -0.102505412311 0.908 8.72437213501e-39
0.00335343047424 -0.102279629464 0.906 1.01937400735e-38
0.00503014571137 -0.102279629464 0.906 1.00100690812e-38
0.00670686094849 -0.102279629464 0.906 8.99987862348e-39
0.00838357618561 -0.102279629464 0.906 9.82639808891e-39
0.0100602914227 -0.102279629464 0.906 1.17606832267e-38
0.0117370066599 -0.102279629464 0.906 1.0755554259e-38
0.0134433327621 -0.102505412311 0.908 1.19479415431e-38
0.0151237493574 -0.102505412311 0.908 1.06561545538e-38
0.0168966999061 -0.103069869427 0.913 9.64272709659e-39
0.0185863698967 -0.103069869427 0.913 9.91823358506e-39
0.0202760398873 -0.103069869427 0.913 1.07447530505e-38
0.0220138275337 -0.103295652274 0.915 1.1020259539e-38
-0.0382720431608 -0.104378299529 0.94 1.84069185288e-38
-0.0364546763144 -0.104156218041 0.938 1.83140068354e-38
-0.034718739347 -0.104156218041 0.938 1.84062094717e-38
-0.0327014991611 -0.103267892088 0.93 1.86824250172e-38
-0.0309803676263 -0.103267892088 0.93 2.13596575814e-38
-0.0291019283706 -0.102712688367 0.925 6.3366492349e-39
-0.0272419959056 -0.102157484646 0.92 6.97949770801e-39
-0.0254838507894 -0.101935403157 0.918 7.25500419648e-39
-0.0237071988825 -0.101602280925 0.915 8.54392973435e-39
-0.0220138275337 -0.101602280925 0.915 7.53052609924e-39
-0.020320456185 -0.101602280925 0.915 7.89785266959e-39
-0.0185863698967 -0.101380199437 0.913 8.99987862348e-39
-0.0168966999061 -0.101380199437 0.913 9.92146217672e-39
-0.0151570615806 -0.101047077204 0.91 9.00310721514e-39
-0.0134433327621 -0.100824995716 0.908 7.98968816575e-39
-0.0117629161668 -0.100824995716 0.908 8.35703015038e-39
-0.0100824995716 -0.100824995716 0.908 8.26519465422e-39
-0.00840208297631 -0.100824995716 0.908 1.05700503683e-38
-0.00672166638105 -0.100824995716 0.908 1.04796498018e-38
-0.00504124978578 -0.100824995716 0.908 1.05718720563e-38
-0.00336083319052 -0.100824995716 0.908 8.63253663885e-39
-0.00168041659526 -0.100824995716 0.908 1.3049648001e-38
0.0 -0.100824995716 0.908 1.07541207307e-38
0.00168041659526 -0.100824995716 0.908 1.06572223432e-38
0.00336083319052 -0.100824995716 0.908 1.23160079991e-38
0.00504124978578 -0.100824995716 0.908 1.14920136735e-38
0.00672166638105 -0.100824995716 0.908 8.63253663885e-39
0.00840208297631 -0.100824995716 0.908 1.08365913492e-38
0.0100824995716 -0.100824995716 0.908 9.1835496158e-39
0.0117629161668 -0.100824995716 0.908 8.72437213501e-39
0.0134433327621 -0.100824995716 0.908 9.27538511196e-39
0.0151570615806 -0.101047077204 0.91 9.55089160043e-39
0.0168966999061 -0.101380199437 0.913 9.64272709659e-39
0.0185863698967 -0.101380199437 0.913 9.91823358506e-39
0.020320456185 -0.101602280925 0.915 1.06529175543e-38
0.0220138275337 -0.101602280925 0.915 1.12039305313e-38
-0.0345336714401 -0.101874330748 0.933 1.83147453197e-38
-0.0327014991611 -0.101546760553 0.93 1.84983952925e-38
-0.0309137431798 -0.101328380423 0.928 2.1544053045e-38
-0.0291019283706 -0.101000810227 0.925 6.06114274643e-39
