# .PCD v0.7 - Point Cloud Data file format
VERSION 0.7
FIELDS x y z rgb
SIZE 4 4 4 4
TYPE F F F F
COUNT 1 1 1 1
WIDTH 854
HEIGHT 1
VIEWPOINT 0 0 0 1 0 0 0
POINTS 854
DATA ascii
0.0225671805756 -0.0274030049846 0.871 1.46201630639e-38
0.0241791220453 -0.0274030049846 0.871 1.46201434458e-38
0.0257318417847 -0.0273400818963 0.869 1.37857276635e-38
0.0273400818963 -0.0273400818963 0.869 1.36895873785e-38
0.0289483220078 -0.0273400818963 0.869 1.53498009574e-38
0.0304862363147 -0.0272771588079 0.867 1.35077100482e-38
0.0319797343239 -0.0271827741753 0.864 1.460794234e-38
0.0335787210401 -0.0271827741753 0.864 1.47962852614e-38
0.0351777077563 -0.0271827741753 0.864 1.49810296484e-38
0.0367766944725 -0.0271827741753 0.864 1.48888788601e-38
0.0385089300817 -0.0272771588079 0.867 1.24914211395e-38
0.0401134688351 -0.0272771588079 0.867 2.24395402169e-38
0.0418142429001 -0.0273400818963 0.869 2.08138139945e-38
0.0435224196815 -0.0274030049846 0.871 1.99811764599e-38
0.0451343611511 -0.0274030049846 0.871 2.10871736937e-38
0.0468536420069 -0.027465928073 0.873 2.05336467873e-38
0.0485803255789 -0.0275288511614 0.875 2.29274933617e-38
0.0504865250206 -0.0276861588823 0.88 2.17300389824e-38
0.0521151226019 -0.0276861588823 0.88 2.24686606003e-38
0.0537437201832 -0.0276861588823 0.88 1.44447695417e-38
0.0553723177646 -0.0276861588823 0.88 1.63779280355e-38
0.0570009153459 -0.0276861588823 0.88 1.67489063897e-38
0.00994925067855 -0.0265313351428 0.896 1.75732706581e-38
0.011607459125 -0.0265313351428 0.896 1.58258921107e-38
0.0131620295435 -0.026324059087 0.889 1.49958007355e-38
0.0147739710132 -0.0262648373568 0.887 1.47188425018e-38
0.0163229893945 -0.0261167830312 0.882 1.37954568787e-38
0.0178738584549 -0.0259983395707 0.878 1.36070859314e-38
0.0194987546781 -0.0259983395707 0.878 1.46201574588e-38
0.0210514744175 -0.0259095069754 0.875 1.42507093225e-38
0.0226708186035 -0.0259095069754 0.875 1.46197931212e-38
0.0242901627894 -0.0259095069754 0.875 1.42488512008e-38
0.0258502852452 -0.0258502852452 0.873 1.37853689311e-38
0.027465928073 -0.0258502852452 0.873 1.4336381908e-38
0.0291481953473 -0.0259095069754 0.875 1.43381755701e-38
0.0307675395333 -0.0259095069754 0.875 1.37853787402e-38
0.0323868837192 -0.0259095069754 0.875 1.43381811753e-38
0.0340062279052 -0.0259095069754 0.875 1.4798433452e-38
0.0356255720912 -0.0259095069754 0.875 1.44300110662e-38
0.0372449162771 -0.0259095069754 0.875 1.41523605911e-38
0.0388642604631 -0.0259095069754 0.875 1.31339108802e-38
0.0404836046491 -0.0259095069754 0.875 2.16126508087e-38
0.042102948835 -0.0259095069754 0.875 2.24708270077e-38
0.0438721980256 -0.0259983395707 0.878 2.01637726563e-38
0.0454970942488 -0.0259983395707 0.878 2.1453429672e-38
0.047121990472 -0.0259983395707 0.878 2.0900261498e-38
0.0488579274393 -0.026057561301 0.88 2.22824546591e-38
0.0504865250206 -0.026057561301 0.88 2.11768259668e-38
0.0525296747135 -0.0262648373568 0.887 1.76715815544e-38
0.0542933718669 -0.026324059087 0.889 2.00658513209e-38
0.0559386255599 -0.026324059087 0.889 1.99786359058e-38
0.05790774809 -0.0264721134126 0.894 1.91495576694e-38
0.0100269791995 -0.0250674479987 0.903 1.76651117594e-38
0.011607459125 -0.0248731266964 0.896 1.50886591795e-38
0.0132360567063 -0.0248176063243 0.894 1.45358959808e-38
0.0148905637946 -0.0248176063243 0.894 1.47170432346e-38
0.0164895505108 -0.0247343257662 0.891 1.52705673384e-38
0.0180163607432 -0.0245677646499 0.885 1.38854622791e-38
0.0194987546781 -0.0243734433476 0.878 1.22191684661e-38
0.0211236509012 -0.0243734433476 0.878 1.43360231756e-38
0.0226708186035 -0.0242901627894 0.875 1.44314459959e-38
0.0242901627894 -0.0242901627894 0.875 1.45229255622e-38
0.0259095069754 -0.0242901627894 0.875 1.41552220426e-38
0.0275288511614 -0.0242901627894 0.875 1.43371119845e-38
0.0291481953473 -0.0242901627894 0.875 1.39701161206e-38
0.0307675395333 -0.0242901627894 0.875 1.44303697986e-38
0.0323868837192 -0.0242901627894 0.875 1.41552220426e-38
0.0341228206866 -0.0243734433476 0.878 1.4155580775e-38
0.0357477169098 -0.0243734433476 0.878 1.4430728531e-38
0.0373726131329 -0.0243734433476 0.878 1.38790387269e-38
0.0389975093561 -0.0243734433476 0.878 1.39669001407e-38
0.0406224055793 -0.0243734433476 0.878 2.03233441177e-38
0.0422473018025 -0.0243734433476 0.878 2.17335996818e-38
0.0439721346954 -0.0244289637197 0.88 2.03489024004e-38
0.0456007322767 -0.0244289637197 0.88 2.13608234617e-38
0.047336669244 -0.0244844840917 0.882 2.09006146252e-38
0.0491355292998 -0.0245677646499 0.885 2.1362313042e-38
0.0508881223787 -0.024623285022 0.887 2.26537735288e-38
0.0527665616345 -0.0247343257662 0.891 2.28392409857e-38
0.0545987339134 -0.0248176063243 0.894 1.84995765871e-38
0.0562532410017 -0.0248176063243 0.894 2.1173939292e-38
0.05790774809 -0.0248176063243 0.894 2.12668131503e-38
0.0100269791995 -0.0233962847988 0.903 1.77576759308e-38
0.011633368632 -0.0232667372639 0.898 1.69308145485e-38
0.0132656675714 -0.02321491825 0.896 1.44426045355e-38
0.0149238760178 -0.02321491825 0.896 1.44393815491e-38
0.0165450708829 -0.023163099236 0.894 1.49907406467e-38
0.0181385055618 -0.0230853707151 0.891 1.52662457339e-38
0.0196542117199 -0.0229299136732 0.885 1.37918835677e-38
0.0212198862128 -0.0228521851523 0.882 1.48034585083e-38
0.0228003661383 -0.0228003661383 0.88 1.42499512201e-38
0.0244289637197 -0.0228003661383 0.88 1.42477806087e-38
0.0259983395707 -0.0227485471244 0.878 1.41505655278e-38
0.0276232357939 -0.0227485471244 0.878 1.45204116328e-38
0.0293147564636 -0.0228003661383 0.88 1.41534283805e-38
0.0309433540449 -0.0228003661383 0.88 1.45211290976e-38
0.0325719516262 -0.0228003661383 0.88 1.41548843296e-38
0.0341228206866 -0.0227485471244 0.878 1.46147582558e-38
0.0357477169098 -0.0227485471244 0.878 1.40637452788e-38
0.0374577443701 -0.0228003661383 0.88 1.47987893818e-38
0.0390863419515 -0.0228003661383 0.88 1.19386145005e-38
0.0407149395328 -0.0228003661383 0.88 2.14268204155e-38
0.0423435371141 -0.0228003661383 0.88 2.19180049545e-38
0.0439721346954 -0.0228003661383 0.88 2.07183687535e-38
0.0456007322767 -0.0228003661383 0.88 2.11782594952e-38
0.0474976783231 -0.0229299136732 0.885 2.17310955614e-38
0.0492465700439 -0.0229817326872 0.887 2.16406851858e-38
0.0510028644811 -0.0230335517011 0.889 2.19169091391e-38
0.0527665616345 -0.0230853707151 0.891 1.98871829641e-38
0.0545987339134 -0.023163099236 0.894 2.16298601552e-38
0.0562532410017 -0.023163099236 0.894 1.99692640217e-38
0.05790774809 -0.023163099236 0.894 2.32025584411e-38
0.00838357618561 -0.0217972980826 0.906 1.66610393708e-38
0.0100269791995 -0.0217251215989 0.903 1.84966380642e-38
0.011633368632 -0.0216048274593 0.898 1.62846940435e-38
0.0132952784365 -0.0216048274593 0.898 1.45337407838e-38
0.0149571882411 -0.0216048274593 0.898 1.40702669219e-38
0.0165820844643 -0.0215567098035 0.896 1.48052731898e-38
0.0182402929107 -0.0215567098035 0.896 1.3054282095e-38
0.0197874606129 -0.021436415664 0.891 1.4162759627e-38
0.0213882980082 -0.0213882980082 0.889 1.48942108007e-38
0.0229817326872 -0.0213401803524 0.887 1.43475950984e-38
0.0244844840917 -0.0212198862128 0.882 1.57268833677e-38
0.0261167830312 -0.0212198862128 0.882 1.33226041262e-38
0.0277490819706 -0.0212198862128 0.882 1.47040826251e-38
0.0293813809101 -0.0212198862128 0.882 1.38779695362e-38
0.0310136798495 -0.0212198862128 0.882 1.44296607416e-38
0.032645978789 -0.0212198862128 0.882 1.46133233261e-38
0.0342005492075 -0.021171768557 0.88 1.47058762871e-38
0.0358291467888 -0.021171768557 0.88 1.47065937519e-38
0.0374577443701 -0.021171768557 0.88 1.4705171434e-38
0.0390863419515 -0.021171768557 0.88 1.25829091137e-38
0.0408074734862 -0.0212198862128 0.882 2.13339031169e-38
0.0424397724257 -0.0212198862128 0.882 2.12715691573e-38
0.0440720713651 -0.0212198862128 0.882 2.08080630656e-38
0.0459634653743 -0.0213401803524 0.887 2.14530695383e-38
0.0476050177091 -0.0213401803524 0.887 2.20076880562e-38
0.0492465700439 -0.0213401803524 0.887 2.17310815484e-38
0.0510028644811 -0.0213882980082 0.889 2.27448747445e-38
0.0527665616345 -0.021436415664 0.891 2.13601508384e-38
0.0545987339134 -0.0215085921477 0.894 2.0239365702e-38
0.0562532410017 -0.0215085921477 0.894 2.1073484409e-38
0.05790774809 -0.0215085921477 0.894 2.32951618489e-38
0.00838357618561 -0.0201205828455 0.906 1.69419226414e-38
0.0100602914227 -0.0201205828455 0.906 1.86786008737e-38
0.0116722328924 -0.0200095421013 0.901 1.56393722786e-38
0.0133396947342 -0.0200095421013 0.901 1.53627601656e-38
0.015007156576 -0.0200095421013 0.901 1.27812825295e-38
0.0166190980456 -0.0199429176548 0.898 1.41573870487e-38
0.0182810078502 -0.0199429176548 0.898 1.47137810117e-38
0.0198540850594 -0.0198540850594 0.894 1.3887607667e-38
0.021436415664 -0.0197874606129 0.891 1.46197931212e-38
0.0230335517011 -0.0197430443153 0.889 1.50836523401e-38
0.0245677646499 -0.0196542117199 0.885 1.48963772081e-38
0.0261167830312 -0.0195875872734 0.882 1.37824990718e-38
0.0277490819706 -0.0195875872734 0.882 1.42456226091e-38
0.0294813175799 -0.0196542117199 0.885 1.37842927339e-38
0.0311191685565 -0.0196542117199 0.885 1.4520055703e-38
0.0327570195332 -0.0196542117199 0.885 1.46122471289e-38
0.0342782777284 -0.0195875872734 0.882 1.49810240432e-38
0.0359105766679 -0.0195875872734 0.882 1.43374595066e-38
0.0375428756073 -0.0195875872734 0.882 1.47977145859e-38
0.0391751745468 -0.0195875872734 0.882 1.20315261939e-38
0.0409462744165 -0.0196542117199 0.885 2.2074342219e-38
0.0425841253931 -0.0196542117199 0.885 2.21956694426e-38
0.0444218497093 -0.0197430443153 0.889 2.14555680535e-38
0.0460671034023 -0.0197430443153 0.889 2.20065936421e-38
0.0477123570952 -0.0197430443153 0.889 2.08084442187e-38
0.0494686515323 -0.0197874606129 0.891 2.1361923481e-38
0.0511176065834 -0.0197874606129 0.891 2.28378018522e-38
0.0529442268251 -0.0198540850594 0.894 1.70193527894e-38
0.054720878732 -0.0198985013571 0.896 2.33707324737e-38
0.0563790871785 -0.0198985013571 0.896 1.69307725096e-38
0.0100824995716 -0.0184845825479 0.908 1.85824227536e-38
0.0117370066599 -0.0184438676083 0.906 1.67503665427e-38
0.013413721897 -0.0184438676083 0.906 1.25054243151e-38
0.0150404687992 -0.018382795199 0.903 1.59170157472e-38
0.0166746184177 -0.0183420802595 0.901 1.27766190082e-38
0.0183420802595 -0.0183420802595 0.901 1.35116645124e-38
0.0199429176548 -0.0182810078502 0.898 1.32390236793e-38
0.0215567098035 -0.0182402929107 0.896 1.4619088268e-38
0.023163099236 -0.0181995779711 0.894 1.45275974913e-38
0.0247343257662 -0.0181385055618 0.891 1.62793060509e-38
0.026324059087 -0.0180977906223 0.889 1.35080687806e-38
0.0279693127799 -0.0180977906223 0.889 1.45186179707e-38
0.0295479420264 -0.0180570756828 0.887 1.4336381908e-38
0.0311894943612 -0.0180570756828 0.887 1.42441876795e-38
0.032831046696 -0.0180570756828 0.887 1.47969943185e-38
0.0344725990308 -0.0180570756828 0.887 1.47037238927e-38
0.0361141513656 -0.0180570756828 0.887 1.47959349368e-38
0.0377557037004 -0.0180570756828 0.887 1.51646950355e-38
0.0393972560352 -0.0180570756828 0.887 1.46108121993e-38
0.04103880837 -0.0180570756828 0.887 1.98688399672e-38
0.0427765960164 -0.0180977906223 0.889 2.16428305737e-38
0.0445217863791 -0.0181385055618 0.891 2.11768652032e-38
0.0460671034023 -0.0180977906223 0.889 2.13608711058e-38
0.0477123570952 -0.0180977906223 0.889 2.19147735602e-38
0.0496352126486 -0.0181995779711 0.894 2.21931330924e-38
0.0514044618392 -0.0182402929107 0.896 2.22838993978e-38
0.0530626702856 -0.0182402929107 0.896 2.06128187492e-38
0.0548430235506 -0.0182810078502 0.898 2.12571063559e-38
0.0565049333552 -0.0182810078502 0.898 1.89594561184e-38
0.0100824995716 -0.0168041659526 0.908 1.66480717548e-38
0.0117629161668 -0.0168041659526 0.908 1.72999221692e-38
0.0134433327621 -0.0168041659526 0.908 1.52713282434e-38
0.0151237493574 -0.0168041659526 0.908 1.45293799429e-38
0.0167671523712 -0.0167671523712 0.906 1.55464101385e-38
0.018382795199 -0.0167116319991 0.903 1.38844113053e-38
0.020053958399 -0.0167116319991 0.903 1.32365083486e-38
0.0216770039431 -0.0166746184177 0.901 1.30456627081e-38
0.02321491825 -0.0165820844643 0.896 1.50714246097e-38
0.0248731266964 -0.0165820844643 0.896 1.3872902441e-38
0.0265313351428 -0.0165820844643 0.896 1.41509438784e-38
0.0280322358683 -0.0164895505108 0.891 1.36910573405e-38
0.0296811909194 -0.0164895505108 0.891 1.4702650498e-38
0.0313301459705 -0.0164895505108 0.891 1.41523605911e-38
0.0329791010215 -0.0164895505108 0.891 1.52543781372e-38
0.0346280560726 -0.0164895505108 0.891 1.47033679629e-38
0.0362770111237 -0.0164895505108 0.891 1.47959181212e-38
0.0379259661748 -0.0164895505108 0.891 1.54387834099e-38
0.0395749212258 -0.0164895505108 0.891 1.23059564852e-38
0.0412238762769 -0.0164895505108 0.891 2.20782784663e-38
0.042872831328 -0.0164895505108 0.891 2.15495783648e-38
0.0446716913837 -0.0165450708829 0.894 2.06247480031e-38
0.046326198472 -0.0165450708829 0.894 2.1823275777e-38
0.0479807055603 -0.0165450708829 0.894 2.15463315563e-38
0.0497462533928 -0.0165820844643 0.896 2.28374080873e-38
0.0515192039415 -0.0166190980456 0.898 1.98835507985e-38
0.0531811137461 -0.0166190980456 0.898 2.15336568117e-38
0.0551483855971 -0.0167116319991 0.903 2.19982713305e-38
0.0574487796807 -0.0168966999061 0.913 1.48156848374e-38
0.0594623185085 -0.0169892338596 0.918 2.34863592152e-38
0.0117629161668 -0.0151237493574 0.908 1.71123121269e-38
0.0134433327621 -0.0151237493574 0.908 1.61010440707e-38
0.0151237493574 -0.0151237493574 0.908 1.45301282363e-38
0.0167671523712 -0.0150904371341 0.906 1.2956357957e-38
0.0184438676083 -0.0150904371341 0.906 1.39687148222e-38
0.020053958399 -0.0150404687992 0.903 1.68292456332e-38
0.0216770039431 -0.015007156576 0.901 1.36956858294e-38
0.0232667372639 -0.0149571882411 0.898 1.42463400739e-38
0.0249286470685 -0.0149571882411 0.898 1.44314459959e-38
0.026590556873 -0.0149571882411 0.898 1.33240390559e-38
0.0281895435892 -0.0149238760178 0.896 1.39669127523e-38
0.0297811275891 -0.0148905637946 0.894 1.44260650098e-38
0.0314356346774 -0.0148905637946 0.894 1.45179033085e-38
0.0330901417657 -0.0148905637946 0.894 1.52540194048e-38
0.034744648854 -0.0148905637946 0.894 1.47055245612e-38
0.0364805858214 -0.0149238760178 0.896 1.47048155042e-38
0.0381387942678 -0.0149238760178 0.896 1.49803289991e-38
0.0397970027142 -0.0149238760178 0.896 1.24003157199e-38
0.0414552111606 -0.0149238760178 0.896 2.18895908255e-38
0.0431134196071 -0.0149238760178 0.896 2.20098530623e-38
0.0447716280535 -0.0149238760178 0.896 2.09009621473e-38
0.0464298364999 -0.0149238760178 0.896 2.1362313042e-38
0.0481953843324 -0.0149571882411 0.898 2.20980984318e-38
0.0498572941369 -0.0149571882411 0.898 2.19140406811e-38
0.051691317095 -0.015007156576 0.901 1.98809920275e-38
0.0534772223972 -0.0150404687992 0.903 2.06153522969e-38
0.0554537476436 -0.0151237493574 0.908 2.34758957196e-38
0.0574487796807 -0.0152070299155 0.913 1.46316691256e-38
0.0594623185085 -0.0152903104736 0.918 2.34856403491e-38
0.0117888256738 -0.0134729436272 0.91 1.46248293878e-38
0.0134729436272 -0.0134729436272 0.91 1.50861984994e-38
0.0151237493574 -0.0134433327621 0.908 1.58230222514e-38
0.0168041659526 -0.0134433327621 0.908 1.34241408117e-38
0.0184438676083 -0.013413721897 0.906 1.42488554047e-38
0.0201205828455 -0.013413721897 0.906 1.36006217416e-38
0.0217251215989 -0.0133693055993 0.903 1.41527165209e-38
0.0233444657848 -0.0133396947342 0.901 1.42438723873e-38
0.0250119276266 -0.0133396947342 0.901 1.43381811753e-38
0.026590556873 -0.0132952784365 0.898 1.36946096322e-38
0.0282524666776 -0.0132952784365 0.898 1.3968681191e-38
0.0299143764822 -0.0132952784365 0.898 1.39693986558e-38
0.0315762862867 -0.0132952784365 0.898 1.53526708167e-38
0.0332381960913 -0.0132952784365 0.898 1.46129645937e-38
0.0349001058959 -0.0132952784365 0.898 1.45211290976e-38
0.0365620157004 -0.0132952784365 0.898 1.47977145859e-38
0.038223925505 -0.0132952784365 0.898 1.47066203766e-38
0.0398858353096 -0.0132952784365 0.898 1.20326023911e-38
0.0415477451141 -0.0132952784365 0.898 2.1526906757e-38
0.0432096549187 -0.0132952784365 0.898 2.16414264727e-38
0.0448715647232 -0.0132952784365 0.898 2.23757264862e-38
0.0465334745278 -0.0132952784365 0.898 2.13630164938e-38
0.0481953843324 -0.0132952784365 0.898 2.25593974785e-38
0.0500238552532 -0.0133396947342 0.901 2.00672428103e-38
0.0518060591973 -0.0133693055993 0.903 2.03361814129e-38
0.0537733310484 -0.0134433327621 0.908 2.34780789426e-38
0.0555758924622 -0.0134729436272 0.91 2.34780607257e-38
0.0577633951226 -0.0135913870877 0.918 1.6384085341e-38
0.0594623185085 -0.0135913870877 0.918 2.34845641519e-38
0.0612944907875 -0.0136209979528 0.92 2.34902842522e-38
0.0118276899343 -0.0118276899343 0.913 1.52687498543e-38
0.0135173599249 -0.0118276899343 0.913 1.49897219027e-38
0.0151570615806 -0.0117888256738 0.91 1.44415297396e-38
0.016841179534 -0.0117888256738 0.91 1.35192063008e-38
0.0184845825479 -0.0117629161668 0.908 1.36027825438e-38
0.0201205828455 -0.0117370066599 0.906 1.39701161206e-38
0.0217972980826 -0.0117370066599 0.906 1.3602774136e-38
0.0233962847988 -0.0116981423994 0.903 1.38782806245e-38
0.0250674479987 -0.0116981423994 0.903 1.3970474853e-38
0.0266793894684 -0.0116722328924 0.901 1.51693935892e-38
0.0282524666776 -0.011633368632 0.898 1.42463400739e-38
0.0299143764822 -0.011633368632 0.898 1.33251152531e-38
0.0315762862867 -0.011633368632 0.898 1.45211290976e-38
0.0332381960913 -0.011633368632 0.898 1.48895472794e-38
0.0349001058959 -0.011633368632 0.898 1.43388930349e-38
0.036684160519 -0.0116722328924 0.901 1.49835379726e-38
0.0383516223608 -0.0116722328924 0.901 1.5258339608e-38
0.0400190842026 -0.0116722328924 0.901 1.17560197054e-38
0.0416865460443 -0.0116722328924 0.901 2.22612432042e-38
0.0433540078861 -0.0116722328924 0.901 2.26548721468e-38
0.0450214697279 -0.0116722328924 0.901 2.16385117719e-38
0.0466889315697 -0.0116722328924 0.901 2.22838839835e-38
0.0484637327975 -0.0116981423994 0.903 1.94226104843e-38
0.0503014571137 -0.0117370066599 0.906 1.98763257036e-38
0.0519781723508 -0.0117370066599 0.906 2.3472329415e-38
0.0538917745088 -0.0117888256738 0.91 1.99731876574e-38
0.0557591096901 -0.0118276899343 0.913 2.14478931418e-38
0.0578892412993 -0.0119183732087 0.92 1.9608058323e-38
0.0595918660434 -0.0119183732087 0.92 2.21930896521e-38
0.0612944907875 -0.0119183732087 0.92 2.34942583347e-38
0.0118535994412 -0.0101602280925 0.915 1.45391007504e-38
0.01354697079 -0.0101602280925 0.915 1.38807959552e-38
0.0152403421387 -0.0101602280925 0.915 1.51798136446e-38
0.0169337134875 -0.0101602280925 0.915 1.42589363458e-38
0.0185252974874 -0.0101047077204 0.91 1.35102604114e-38
0.0201649991431 -0.0100824995716 0.908 1.37857276635e-38
0.0218454157384 -0.0100824995716 0.908 1.42470575387e-38
0.0235258323337 -0.0100824995716 0.908 1.39726272475e-38
0.0251507285568 -0.0100602914227 0.906 1.38775631597e-38
0.026827443794 -0.0100602914227 0.906 1.38768527013e-38
0.0284097743985 -0.0100269791995 0.903 1.41512759861e-38
0.0300809375984 -0.0100269791995 0.903 1.42449163547e-38
0.0317521007983 -0.0100269791995 0.903 1.4613341543e-38
0.0333492368355 -0.0100047710506 0.901 1.44300138688e-38
0.0350166986772 -0.0100047710506 0.901 1.46136820585e-38
0.0367655903981 -0.0100269791995 0.903 1.4889188547e-38
0.038436753598 -0.0100269791995 0.903 1.40583642927e-38
0.0401079167979 -0.0100269791995 0.903 1.27694387548e-38
0.0417790799978 -0.0100269791995 0.903 2.2719711628e-38
0.0434502431977 -0.0100269791995 0.903 2.24719228231e-38
0.0452713114023 -0.0100602914227 0.906 2.10857541783e-38
0.0469480266394 -0.0100602914227 0.906 2.08062876204e-38
0.0486247418765 -0.0100602914227 0.906 1.97884853094e-38
0.0503014571137 -0.0100602914227 0.906 2.31996717663e-38
0.0523797697089 -0.0101380199437 0.913 2.2463959244e-38
0.05418788316 -0.0101602280925 0.915 2.29264017502e-38
0.0560644717366 -0.0101935403157 0.918 2.32951590463e-38
0.0580780105644 -0.0102490606878 0.923 2.11756993229e-38
0.0595918660434 -0.0102157484646 0.92 1.94279676483e-38
0.0612944907875 -0.0102157484646 0.92 2.34954045968e-38
0.0136209979528 -0.00851312372049 0.92 1.42633154035e-38
0.0153236226969 -0.00851312372049 0.92 1.26901588929e-38
0.017026247441 -0.00851312372049 0.92 1.54553145279e-38
0.0186270848362 -0.00846685674374 0.915 1.36078622507e-38
0.0202760398873 -0.00844834995305 0.913 1.24053253619e-38
0.0218935333942 -0.008420589767 0.91 1.40619824454e-38
0.0235776513476 -0.008420589767 0.91 1.36964088994e-38
0.025261769301 -0.008420589767 0.91 1.3970474853e-38
0.0269458872544 -0.008420589767 0.91 1.43385343025e-38
0.0286300052078 -0.008420589767 0.91 1.42456226091e-38
0.0302474987147 -0.00840208297631 0.908 1.4796635586e-38
0.03192791531 -0.00840208297631 0.908 1.48885257328e-38
0.0335343047424 -0.00838357618561 0.906 1.41527165209e-38
0.0352110199796 -0.00838357618561 0.906 1.50732252782e-38
0.0368877352167 -0.00838357618561 0.906 1.50735784054e-38
0.0385644504538 -0.00838357618561 0.906 1.516507759e-38
0.0402411656909 -0.00838357618561 0.906 1.24914211395e-38
0.041917880928 -0.00838357618561 0.906 2.13349723076e-38
0.0436908314768 -0.00840208297631 0.908 2.25630100259e-38
0.0453712480721 -0.00840208297631 0.908 2.163780832e-38
0.0470516646673 -0.00840208297631 0.908 2.20065936421e-38
0.0488394206486 -0.008420589767 0.91 2.34810272746e-38
0.050523538602 -0.008420589767 0.91 2.29267674891e-38
0.0524945118112 -0.00846685674374 0.915 2.34784390763e-38
0.05418788316 -0.00846685674374 0.915 2.10820547504e-38
0.0560644717366 -0.00849461692979 0.918 2.27405391271e-38
0.0580780105644 -0.00854088390653 0.923 2.26458295678e-38
0.0597861873457 -0.00854088390653 0.923 1.61103837249e-38
0.061494364127 -0.00854088390653 0.923 2.3488536833e-38
0.0104711421762 -0.0069807614508 0.943 1.93246737346e-38
0.0122163325389 -0.0069807614508 0.943 1.79546928897e-38
0.0136950251156 -0.00684751255778 0.925 1.53728649289e-38
0.015406903255 -0.00684751255778 0.925 1.46273335082e-38
0.0171187813945 -0.00684751255778 0.925 1.23178212793e-38
0.0187288721851 -0.00681049897639 0.92 1.46176575423e-38
0.0203870806315 -0.00679569354383 0.918 1.60963595299e-38
0.0220138275337 -0.006773485395 0.915 1.27820013956e-38
0.0237071988825 -0.006773485395 0.915 1.40641152216e-38
0.0254005702312 -0.006773485395 0.915 1.37853759376e-38
0.02709394158 -0.006773485395 0.915 1.42463400739e-38
0.0287243898404 -0.00675867996244 0.913 1.43367406404e-38
0.030414059831 -0.00675867996244 0.913 1.54416364536e-38
0.0321037298216 -0.00675867996244 0.913 1.41527165209e-38
0.0337933998122 -0.00675867996244 0.913 1.47966383886e-38
0.0352887485005 -0.00672166638105 0.908 1.47959195225e-38
0.0369691650957 -0.00672166638105 0.908 1.49813827756e-38
0.038649581691 -0.00672166638105 0.908 1.53480227097e-38
0.0404188308816 -0.0067364718136 0.91 1.33161469429e-38
0.042102948835 -0.0067364718136 0.91 2.19850262574e-38
0.0437870667884 -0.0067364718136 0.91 2.29307205521e-38
0.0454711847418 -0.0067364718136 0.91 2.11761071007e-38
0.0473107597371 -0.00675867996244 0.913 2.27438027512e-38
0.0491077691137 -0.006773485395 0.915 2.1360501163e-38
0.0509677015787 -0.00679569354383 0.918 2.19093407261e-38
0.0526666249647 -0.00679569354383 0.918 2.25550366377e-38
0.0544839918111 -0.00681049897639 0.92 2.11706224185e-38
0.0563698337831 -0.00683270712523 0.923 2.27423538086e-38
0.0582038567412 -0.00684751255778 0.925 1.88701401569e-38
0.0599157348806 -0.00684751255778 0.925 1.68453787824e-38
0.06162761302 -0.00684751255778 0.925 2.34881766993e-38
0.00875371199954 -0.00525222719973 0.946 2.25601107394e-38
0.0104711421762 -0.0052355710881 0.943 1.91435068626e-38
0.0122163325389 -0.0052355710881 0.943 1.76791569739e-38
0.0139171066039 -0.00521891497647 0.94 1.7126374157e-38
0.0154568715899 -0.00515229052996 0.928 1.43548089828e-38
0.0171743017665 -0.00515229052996 0.928 1.49957727095e-38
0.0188306595339 -0.00513563441834 0.925 1.33283858837e-38
0.0204314969292 -0.00510787423229 0.92 1.32279253955e-38
0.0220860040175 -0.00509677015787 0.918 1.3968361695e-38
0.0237849274034 -0.00509677015787 0.918 1.78437829188e-38
0.0254005702312 -0.00508011404625 0.915 1.33298124055e-38
0.02709394158 -0.00508011404625 0.915 1.44285817418e-38
0.0287873129287 -0.00508011404625 0.915 1.44278614744e-38
0.0304806842775 -0.00508011404625 0.915 1.41512759861e-38
0.0321740556262 -0.00508011404625 0.915 1.48867264656e-38
0.0337933998122 -0.00506900997183 0.913 1.49799604576e-38
0.0353664770214 -0.0050523538602 0.91 1.49813827756e-38
0.0370505949748 -0.0050523538602 0.91 1.55338503003e-38
0.038862409784 -0.00506900997183 0.913 1.54402197408e-38
0.0405520797746 -0.00506900997183 0.913 1.34080006559e-38
0.0422417497652 -0.00506900997183 0.913 2.15225851525e-38
0.0439314197559 -0.00506900997183 0.913 2.25612093574e-38
0.0457210264162 -0.00508011404625 0.915 2.21906345772e-38
0.047414397765 -0.00508011404625 0.915 2.15463315563e-38
0.0492687781928 -0.00509677015787 0.918 2.15441693528e-38
0.0510787423229 -0.00510787423229 0.92 2.08033070586e-38
0.052781367067 -0.00510787423229 0.92 1.97895432897e-38
0.0544839918111 -0.00510787423229 0.92 2.31118622006e-38
0.0564919786017 -0.00513563441834 0.925 1.68483046936e-38
0.0583926260063 -0.00515229052996 0.928 1.87819102017e-38
0.0602396037178 -0.00516339460438 0.93 1.81304045067e-38
0.00521891497647 -0.00347927665098 0.94 2.32054647342e-38
0.00695855330196 -0.00347927665098 0.94 2.32026158944e-38
0.00875371199954 -0.00350148479982 0.946 2.11778797433e-38
0.0104711421762 -0.0034903807254 0.943 1.83184181229e-38
0.0122163325389 -0.0034903807254 0.943 1.73111199452e-38
0.0139171066039 -0.00347927665098 0.94 1.59314056812e-38
0.015540152148 -0.00345336714401 0.933 1.69437653489e-38
0.0172113153479 -0.00344226306959 0.93 1.48171744176e-38
0.0188917319432 -0.00343486035331 0.928 1.28734711528e-38
0.0204981213757 -0.00341635356261 0.923 1.41562982398e-38
0.0221341216733 -0.00340524948819 0.92 1.28652203075e-38
0.0238367464174 -0.00340524948819 0.92 1.44257062773e-38
0.0254838507894 -0.00339784677192 0.918 1.41516445276e-38
0.0271827741753 -0.00339784677192 0.918 1.45193522511e-38
0.0288816975613 -0.00339784677192 0.918 1.41512759861e-38
0.0305806209472 -0.00339784677192 0.918 1.42449107495e-38
0.0322795443332 -0.00339784677192 0.918 1.45200585055e-38
0.033867426975 -0.0033867426975 0.915 1.46108121993e-38
0.0355607983237 -0.0033867426975 0.915 1.50721420745e-38
0.0372541696725 -0.0033867426975 0.915 1.47987893818e-38
0.0389475410212 -0.0033867426975 0.915 1.53512442949e-38
0.04064091237 -0.0033867426975 0.915 1.23978017904e-38
0.0423342837187 -0.0033867426975 0.915 2.23505661722e-38
0.0440276550675 -0.0033867426975 0.915 2.30229161819e-38
0.0457210264162 -0.0033867426975 0.915 2.12690636357e-38
0.0475698548068 -0.00339784677192 0.918 2.21935030352e-38
0.0493761175788 -0.00340524948819 0.92 2.22842497224e-38
0.0510787423229 -0.00340524948819 0.92 2.32055095757e-38
0.0529534802205 -0.00341635356261 0.923 2.18261582479e-38
0.0547801004623 -0.00342375627889 0.925 1.70340804362e-38
0.0566751958296 -0.00343486035331 0.928 1.44536874051e-38
0.0587072414481 -0.00345336714401 0.933 2.08991320515e-38
0.060563472555 -0.00346076986028 0.935 1.82175078179e-38
0.00521891497647 -0.00173963832549 0.94 2.29278212655e-38
0.00695855330196 -0.00173963832549 0.94 2.19133344267e-38
0.00869819162745 -0.00173963832549 0.94 2.06257597405e-38
0.0104711421762 -0.0017451903627 0.943 1.80425304813e-38
0.0122163325389 -0.0017451903627 0.943 1.59299581398e-38
0.0139615229016 -0.0017451903627 0.943 1.59314210954e-38
0.0156567449294 -0.00173963832549 0.94 1.53803997107e-38
0.0172113153479 -0.00172113153479 0.93 1.67615390953e-38
0.0188917319432 -0.00171743017665 0.928 1.61154662345e-38
0.0205425376733 -0.00171187813945 0.925 9.92720189523e-39
0.022206298157 -0.00170817678131 0.923 1.65498393311e-38
0.0238367464174 -0.0017026247441 0.92 1.35156021611e-38
0.0255393711615 -0.0017026247441 0.92 1.36946096322e-38
0.0272419959056 -0.0017026247441 0.92 1.46147680649e-38
0.0289446206497 -0.0017026247441 0.92 1.42427611576e-38
0.0305806209472 -0.00169892338596 0.918 1.47969943185e-38
0.0322795443332 -0.00169892338596 0.918 1.42431114823e-38
0.0339784677192 -0.00169892338596 0.918 1.50710770877e-38
0.0355607983237 -0.00169337134875 0.915 1.44275251628e-38
0.0372541696725 -0.00169337134875 0.915 1.47952006564e-38
0.0389475410212 -0.00169337134875 0.915 1.52572479965e-38
0.04064091237 -0.00169337134875 0.915 1.47019302306e-38
0.042473084649 -0.00169892338596 0.918 2.27251542712e-38
0.0441720080349 -0.00169892338596 0.918 2.21949477739e-38
0.0458709314209 -0.00169892338596 0.918 2.08102168613e-38
0.0476734928347 -0.0017026247441 0.92 2.19169091391e-38
0.0495371266579 -0.00170817678131 0.923 2.22853455378e-38
0.0513563441834 -0.00171187813945 0.925 2.25619548482e-38
0.0532403354763 -0.00171743017665 0.928 2.23782628364e-38
0.0550762091134 -0.00172113153479 0.93 2.03510099532e-38
0.0569805578761 -0.001726683572 0.933 1.87819102017e-38
0.0588330876248 -0.00173038493014 0.935 2.26469393961e-38
0.0607577938573 -0.00173593696735 0.938 2.26483406946e-38
0.00521891497647 0.0 0.94 2.19154714069e-38
0.00695855330196 0.0 0.94 2.10871288521e-38
0.00869819162745 0.0 0.94 1.92464672673e-38
0.0105044543995 0.0 0.946 1.72128062463e-38
0.0122163325389 0.0 0.943 1.65742737724e-38
0.0139615229016 0.0 0.943 1.46414123539e-38
0.0157067132643 0.0 0.943 1.57502766443e-38
0.017451903627 0.0 0.943 1.51974531897e-38
0.018993519292 0.0 0.933 1.59325071018e-38
0.0206535784175 0.0 0.93 1.76824191967e-38
0.0222544158128 0.0 0.925 1.50948108798e-38
0.0239144749383 0.0 0.923 1.37950617126e-38
0.0255393711615 0.0 0.92 1.18467790044e-38
0.0272419959056 0.0 0.92 1.79291472186e-38
0.0289446206497 0.0 0.92 1.36006217416e-38
0.0306472453938 0.0 0.92 1.50714246097e-38
0.0323498701378 0.0 0.92 1.47040826251e-38
0.0340524948819 0.0 0.92 1.48881123498e-38
0.035755119626 0.0 0.92 1.47959223251e-38
0.0374577443701 0.0 0.92 1.47030064279e-38
0.0391603691142 0.0 0.92 1.54405826772e-38
0.0408629938583 0.0 0.92 1.26732984698e-38
0.0427044195327 0.0 0.923 2.18910425707e-38
0.044412596314 0.0 0.923 2.24708298103e-38
0.0461207730953 0.0 0.923 2.10871736937e-38
0.0479325879045 0.0 0.925 2.26548146935e-38
0.0496444660439 0.0 0.925 2.16388803134e-38
0.0515229052996 0.0 0.928 2.24693668547e-38
0.0535271907321 0.0 0.933 2.34834907573e-38
0.0553723177646 0.0 0.935 2.34824411847e-38
0.0572859199226 0.0 0.938 2.34838901273e-38
0.0590218568899 0.0 0.938 2.2281735793e-38
0.0607577938573 0.0 0.938 1.96977372209e-38
0.0628268530572 0.0 0.943 2.34875278981e-38
0.00521891497647 0.00173963832549 0.94 2.22845902379e-38
0.00695855330196 0.00173963832549 0.94 2.0440693055e-38
0.00869819162745 0.00173963832549 0.94 1.83234501857e-38
0.0105044543995 0.00175074239991 0.946 1.60164140512e-38
0.0122551967994 0.00175074239991 0.946 1.55601246465e-38
0.0140059391993 0.00175074239991 0.946 1.48247456332e-38
0.0157566815992 0.00175074239991 0.946 1.51038352419e-38
0.0175074239991 0.00175074239991 0.946 1.61158137565e-38
0.0191970939897 0.0017451903627 0.943 1.73129332255e-38
0.020720202864 0.001726683572 0.933 1.54700828124e-38
0.0223265922965 0.00171743017665 0.928 1.66668603646e-38
0.0239662939522 0.00171187813945 0.925 1.9340492993e-38
0.0256226517196 0.00170817678131 0.923 1.97052930222e-38
0.0273308285009 0.00170817678131 0.923 1.37071652664e-38
0.0290390052822 0.00170817678131 0.923 1.56149042061e-38
0.0307471820635 0.00170817678131 0.923 1.48881123498e-38
0.0324553588448 0.00170817678131 0.923 1.46122513328e-38
0.0341635356261 0.00170817678131 0.923 1.51643363031e-38
0.0358717124074 0.00170817678131 0.923 1.47037238927e-38
0.0375798891887 0.00170817678131 0.923 1.49831820428e-38
0.0393731972073 0.00171187813945 0.925 1.54413043459e-38
0.0412183242397 0.00171743017665 0.928 1.17549449095e-38
0.0430282883699 0.00172113153479 0.93 2.31853490947e-38
0.0447494199046 0.00172113153479 0.93 2.18243912106e-38
0.0466204564441 0.001726683572 0.933 2.16385327914e-38
0.0483471400161 0.001726683572 0.933 2.21002312081e-38
0.0501811629741 0.00173038493014 0.935 2.23775201482e-38
0.0519115479043 0.00173038493014 0.935 2.24690165301e-38
0.0539287880902 0.00173963832549 0.94 2.2561559682e-38
0.0558460916064 0.0017451903627 0.943 2.34802691721e-38
0.0575912819691 0.0017451903627 0.943 2.34828251405e-38
0.0593364723318 0.0017451903627 0.943 2.34835117768e-38
0.0610816626945 0.0017451903627 0.943 2.34824131588e-38
0.0628268530572 0.0017451903627 0.943 2.34860467257e-38
0.00527998738577 0.00351999159051 0.951 2.21005871379e-38
0.00703998318103 0.00351999159051 0.951 1.98881975042e-38
0.00877221879024 0.0035088875161 0.948 1.87822633289e-38
0.0105266625483 0.0035088875161 0.948 1.40788610854e-38
0.0122551967994 0.00350148479982 0.946 1.8044740329e-38
0.0140059391993 0.00350148479982 0.946 1.48222246973e-38
0.0157899938224 0.0035088875161 0.948 1.4181877542e-38
0.0175444375805 0.0035088875161 0.948 1.44562756033e-38
0.0192988813385 0.0035088875161 0.948 1.61165326226e-38
0.0210089087989 0.00350148479982 0.946 1.59342951586e-38
0.0224950040919 0.00346076986028 0.935 1.63030818819e-38
0.0240958414871 0.00344226306959 0.93 1.73147114732e-38
0.0257614526498 0.00343486035331 0.928 2.07223372307e-38
0.0274788828265 0.00343486035331 0.928 1.62918869085e-38
0.0291963130031 0.00343486035331 0.928 1.32243114468e-38
0.0309137431798 0.00343486035331 0.928 1.47941244592e-38
0.0326311733564 0.00343486035331 0.928 1.45204214419e-38
0.0343486035331 0.00343486035331 0.928 1.51646950355e-38
0.0360660337097 0.00343486035331 0.928 1.47040826251e-38
0.0377834638864 0.00343486035331 0.928 1.52576067289e-38
0.0395860253003 0.00344226306959 0.93 1.54416546705e-38
0.0413071568351 0.00344226306959 0.93 1.30424341165e-38
0.0431670893001 0.00345336714401 0.933 2.24481764194e-38
0.0448937728721 0.00345336714401 0.933 2.32076759831e-38
0.0467203931138 0.00346076986028 0.935 2.22806623983e-38
0.048450778044 0.00346076986028 0.935 2.2558357715e-38
0.0503421720532 0.0034718739347 0.938 2.24690165301e-38
0.0521891497647 0.00347927665098 0.94 2.2468297664e-38
0.0541009012437 0.0034903807254 0.943 2.3388471511e-38
0.0560237567971 0.00350148479982 0.946 2.3294458397e-38
0.057774499197 0.00350148479982 0.946 2.34842474584e-38
0.0593364723318 0.0034903807254 0.943 2.34867487762e-38
0.0610816626945 0.0034903807254 0.943 2.34824187639e-38
0.00877221879024 0.00526333127414 0.948 1.82305384924e-38
0.0105266625483 0.00526333127414 0.948 1.30611162276e-38
0.0122811063063 0.00526333127414 0.948 1.82212380744e-38
0.0140355500644 0.00526333127414 0.948 1.58352667974e-38
0.0158399621573 0.00527998738577 0.951 1.41811754914e-38
0.0176554783247 0.0052966434974 0.954 1.39985764924e-38
0.0193599537478 0.00527998738577 0.951 1.39078284039e-38
0.0210533250966 0.00526333127414 0.948 1.40028826826e-38
0.0226874747151 0.0052355710881 0.943 1.65800401156e-38
0.0244326650778 0.0052355710881 0.943 1.63916803786e-38
0.0260390545103 0.00520781090205 0.938 2.01691648528e-38
0.027626937152 0.00518005071601 0.933 1.62944274626e-38
0.0293536207241 0.00518005071601 0.933 1.32243114468e-38
0.0310803042961 0.00518005071601 0.933 1.4613341543e-38
0.0328069878681 0.00518005071601 0.933 1.47051840457e-38
0.0345336714401 0.00518005071601 0.933 1.45208180093e-38
0.0362603550121 0.00518005071601 0.933 1.49803107823e-38
0.0379870385841 0.00518005071601 0.933 1.5438417671e-38
0.0397137221561 0.00518005071601 0.933 1.50753832779e-38
0.0415292383234 0.00519115479043 0.935 1.24910624071e-38
0.0432596232536 0.00519115479043 0.935 2.27236871117e-38
0.0449900081837 0.00519115479043 0.935 2.23775467729e-38
0.0468702981185 0.00520781090205 0.938 2.24646949257e-38
0.0487098731137 0.00521891497647 0.94 2.22810449528e-38
0.0506105205183 0.0052355710881 0.943 2.30203924434e-38
0.052355710881 0.0052355710881 0.943 2.34820866562e-38
0.0542730143972 0.00525222719973 0.946 2.32037271241e-38
0.0560237567971 0.00525222719973 0.946 2.34828069236e-38
0.057774499197 0.00525222719973 0.946 2.3480662937e-38
0.0595252415969 0.00525222719973 0.946 2.34878515981e-38
0.0612759839968 0.00525222719973 0.946 1.71141492292e-38
0.0123199705668 0.00703998318103 0.951 1.37010668155e-38
0.0140799663621 0.00703998318103 0.951 1.97017056981e-38
0.0158399621573 0.00703998318103 0.951 1.46385621128e-38
0.0176554783247 0.00706219132986 0.954 1.47361443339e-38
0.0193599537478 0.00703998318103 0.951 1.48311972114e-38
0.0210533250966 0.00701777503219 0.948 1.26163735223e-38
0.0227596511988 0.00700296959964 0.946 1.48287057027e-38
0.0245103935987 0.00700296959964 0.946 1.69477450366e-38
0.0261778554405 0.0069807614508 0.943 1.95248870553e-38
0.0279230458032 0.0069807614508 0.943 1.70327169728e-38
0.0295738515333 0.00695855330196 0.94 1.31324759506e-38
0.0311469287426 0.00692153972057 0.935 1.50721420745e-38
0.0328773136727 0.00692153972057 0.935 1.46136820585e-38
0.0346076986028 0.00692153972057 0.935 1.46126072626e-38
0.036338083533 0.00692153972057 0.935 1.45175417735e-38
0.0380684684631 0.00692153972057 0.935 1.54391393397e-38
0.0397988533933 0.00692153972057 0.935 1.51604182726e-38
0.0416624872164 0.00694374786941 0.938 1.38707794738e-38
0.0433984241838 0.00694374786941 0.938 2.24484875076e-38
0.0451343611511 0.00694374786941 0.938 2.29310806858e-38
0.0471201397929 0.0069807614508 0.943 2.25604666692e-38
0.0488653301556 0.0069807614508 0.943 2.26519574459e-38
0.0507715295974 0.00700296959964 0.946 2.26519602485e-38
0.0525222719973 0.00700296959964 0.946 2.29285527433e-38
0.0542730143972 0.00700296959964 0.946 2.30218343795e-38
0.0561422002575 0.00701777503219 0.948 2.34817237199e-38
0.057774499197 0.00700296959964 0.946 2.34882089292e-38
0.0595252415969 0.00700296959964 0.946 2.3109032979e-38
0.0612759839968 0.00700296959964 0.946 1.2765133966e-38
0.0125272466226 0.00894803330186 0.967 1.40712828633e-38
0.014316853283 0.00894803330186 0.967 1.51740332885e-38
0.0160564916085 0.00892027311581 0.964 1.82277415006e-38
0.0177480122781 0.00887400613907 0.959 1.52856859475e-38
0.0194210261571 0.00882773916233 0.954 1.34461215794e-38
0.0211199495431 0.00879997897629 0.951 1.41840425481e-38
0.0228799453383 0.00879997897629 0.951 1.40000240338e-38
0.0245622126127 0.00877221879024 0.948 1.55648260029e-38
0.0263166563707 0.00877221879024 0.948 1.94315928074e-38
0.0280118783985 0.00875371199954 0.946 1.69394213237e-38
0.0296682361659 0.0087259518135 0.943 1.30406404544e-38
0.0313134898588 0.00869819162745 0.94 1.49788786552e-38
0.0329828023797 0.00867968483676 0.938 1.51646950355e-38
0.034718739347 0.00867968483676 0.938 1.48866774202e-38
0.0364546763144 0.00867968483676 0.938 1.52561900161e-38
0.0381906132817 0.00867968483676 0.938 1.46119192251e-38
0.0399265502491 0.00867968483676 0.938 1.56260249107e-38
0.0416624872164 0.00867968483676 0.938 1.36842063924e-38
0.0434909581373 0.00869819162745 0.94 2.27247436908e-38
0.0452305964628 0.00869819162745 0.94 2.34857048088e-38
0.0471201397929 0.0087259518135 0.943 2.21012905897e-38
0.0490207871974 0.00875371199954 0.946 2.27441558784e-38
0.0508788689834 0.00877221879024 0.948 2.26516043187e-38
0.0526333127414 0.00877221879024 0.948 2.33909700262e-38
0.0543877564995 0.00877221879024 0.948 2.25626597013e-38
0.0561422002575 0.00877221879024 0.948 2.34838873247e-38
0.057774499197 0.00875371199954 0.946 2.34889348018e-38
0.0595252415969 0.00875371199954 0.946 1.13936999745e-38
0.0125661108831 0.0107709521855 0.97 1.45311848154e-38
0.014316853283 0.0107376399622 0.967 1.23185121194e-38
0.0160564916085 0.010704327739 0.964 1.70186521402e-38
0.0178035326502 0.0106821195901 0.962 1.86926236675e-38
0.0194617410967 0.0106154951436 0.956 1.40875127021e-38
0.0211865739896 0.0105932869948 0.954 1.39078256013e-38
0.0228799453383 0.0105599747715 0.951 1.33575441021e-38
0.0245622126127 0.0105266625483 0.948 1.67647985156e-38
0.0263166563707 0.0105266625483 0.948 1.93387259556e-38
0.0280711001288 0.0105266625483 0.948 1.80461416274e-38
0.0297626207984 0.0105044543995 0.946 1.31324759506e-38
0.0314134265286 0.0104711421762 0.943 1.48888340185e-38
0.0331586168913 0.0104711421762 0.943 1.48852424905e-38
0.0347927665098 0.0104378299529 0.94 1.59858335148e-38
0.0365324048353 0.0104378299529 0.94 1.5345854901e-38
0.0383941879794 0.0104711421762 0.943 1.48881305667e-38
0.0400116814863 0.0104378299529 0.94 1.5713222109e-38
0.0417513198118 0.0104378299529 0.94 1.29488049583e-38
0.0436297590675 0.0104711421762 0.943 2.34605332845e-38
0.0453749494302 0.0104711421762 0.943 2.28406829218e-38
0.0472700447975 0.0105044543995 0.946 2.20069369602e-38
0.0491244252253 0.0105266625483 0.948 2.24671962434e-38
0.0510398780625 0.0105599747715 0.951 2.22838839835e-38
0.0527998738577 0.0105599747715 0.951 2.24690137275e-38
0.054559869653 0.0105599747715 0.951 2.34856767829e-38
0.0563198654482 0.0105599747715 0.951 2.34874746488e-38
0.0578966440156 0.0105266625483 0.948 1.36085138545e-38
0.0596510877736 0.0105266625483 0.948 1.5703869843e-38
0.0125661108831 0.0125661108831 0.97 1.29642318531e-38
0.014316853283 0.0125272466226 0.967 1.37925926247e-38
0.0161064599433 0.0125272466226 0.967 1.1118193486e-38
0.0178405462316 0.0124883823621 0.964 1.74724626478e-38
0.019522813506 0.0124236085947 0.959 1.92440093898e-38
0.0212309902873 0.0123847443342 0.956 1.50087459307e-38
0.0230002394779 0.0123847443342 0.956 1.35379696872e-38
0.0246399411336 0.0123199705668 0.951 1.676405863e-38
0.0263999369289 0.0123199705668 0.951 1.92468540257e-38
0.0281599327241 0.0123199705668 0.951 1.81390561234e-38
0.0298255438868 0.0122811063063 0.948 1.26732984698e-38
0.0315799876449 0.0122811063063 0.948 1.4796635586e-38
0.0332641055983 0.0122551967994 0.946 1.53480072954e-38
0.0350148479982 0.0122551967994 0.946 1.52565305317e-38
0.0367655903981 0.0122551967994 0.946 1.59901425076e-38
0.038516332798 0.0122551967994 0.946 1.51639943863e-38
0.0402670751979 0.0122551967994 0.946 1.6358591518e-38
0.0420178175978 0.0122551967994 0.946 1.23977919813e-38
0.0437685599977 0.0122551967994 0.946 2.34551228712e-38
0.0455193023976 0.0122551967994 0.946 2.33002233389e-38
0.0473699814673 0.0122811063063 0.948 2.21913324238e-38
0.0494353393091 0.0123588348273 0.954 2.28360011837e-38
0.0512008871415 0.0123588348273 0.954 2.33895224849e-38
0.052966434974 0.0123588348273 0.954 2.34857118153e-38
0.0548467249088 0.0123847443342 0.956 2.34813832044e-38
0.0566159740994 0.0123847443342 0.956 1.37936197764e-38
0.05838522329 0.0123847443342 0.956 1.49706208034e-38
0.0601544724806 0.0123847443342 0.956 1.56120343469e-38
0.0125661108831 0.0143612695806 0.97 1.02952613447e-38
0.0143612695806 0.0143612695806 0.97 1.40677053483e-38
0.0161064599433 0.014316853283 0.967 1.36974808927e-38
0.0178405462316 0.0142724369853 0.964 1.13893951856e-38
0.019522813506 0.0141984098225 0.959 1.4515755118e-38
0.0212976147338 0.0141984098225 0.959 1.88734444187e-38
0.0230002394779 0.0141539935248 0.956 1.84188856176e-38
0.0246399411336 0.0140799663621 0.951 1.64842109188e-38
0.0263999369289 0.0140799663621 0.951 1.85096617322e-38
0.0281599327241 0.0140799663621 0.951 1.88762708377e-38
0.0299199285194 0.0140799663621 0.951 1.20304499967e-38
0.0316799243146 0.0140799663621 0.951 1.4428225812e-38
0.0333344314029 0.0140355500644 0.948 1.50707071449e-38
0.035088875161 0.0140355500644 0.948 1.54405602564e-38
0.036843318919 0.0140355500644 0.948 1.55309608229e-38
0.0387199074957 0.0140799663621 0.951 1.47988314207e-38
0.0403522064351 0.0140355500644 0.948 1.56235291982e-38
0.0421066501932 0.0140355500644 0.948 1.33179406049e-38
0.0438610939512 0.0140355500644 0.948 2.34565830242e-38
0.0456155377093 0.0140355500644 0.948 2.29317841376e-38
0.0473699814673 0.0140355500644 0.948 2.31107663852e-38
0.049538977337 0.0141539935248 0.956 2.34799300579e-38
0.0513082265276 0.0141539935248 0.956 2.34831810703e-38
0.0532440368344 0.0141984098225 0.959 2.15437755879e-38
0.0550188380623 0.0141984098225 0.959 1.35130910343e-38
0.0567936392901 0.0141984098225 0.959 1.48773503776e-38
0.0585684405179 0.0141984098225 0.959 1.70921810732e-38
0.0615387804247 0.0144797130411 0.978 1.52446923622e-38
0.0125661108831 0.0161564282782 0.97 1.5188102325e-38
0.0143612695806 0.0161564282782 0.97 1.07512102338e-38
0.0161064599433 0.0161064599433 0.967 1.3421982812e-38
0.0178960666037 0.0161064599433 0.967 1.33272676475e-38
0.0196246008548 0.0160564916085 0.964 1.16663366037e-38
0.0213642391803 0.0160231793852 0.962 1.24896274775e-38
0.0231445924453 0.0160231793852 0.962 1.66495809532e-38
0.0247694886685 0.0159232427154 0.956 1.91518081547e-38
0.0265387378591 0.0159232427154 0.956 2.06290850218e-38
0.0283079870497 0.0159232427154 0.956 1.95220199986e-38
0.0300143131519 0.0158899304922 0.954 1.26732984698e-38
0.0317798609844 0.0158899304922 0.954 1.46090507671e-38
0.0334399201099 0.0158399621573 0.951 1.46086598049e-38
0.0351999159051 0.0158399621573 0.951 1.53462220412e-38
0.0370765044818 0.0158899304922 0.954 1.53469310982e-38
0.0388420523143 0.0158899304922 0.954 1.5163978972e-38
0.0404799032909 0.0158399621573 0.951 1.52576067289e-38
0.0422398990862 0.0158399621573 0.951 1.26732984698e-38
0.0441386958117 0.0158899304922 0.954 2.31828505795e-38
0.0459042436441 0.0158899304922 0.954 2.34871411398e-38
0.0477697281463 0.0159232427154 0.956 2.34820908601e-38
0.0496944343788 0.0159732110503 0.959 2.23728720412e-38
0.0514692356066 0.0159732110503 0.959 1.41616792259e-38
0.0534105979507 0.0160231793852 0.962 1.48773503776e-38
0.055305693318 0.0160564916085 0.964 1.69956652401e-38
0.0570897479412 0.0160564916085 0.964 1.68188101636e-38
0.0588738025644 0.0160564916085 0.964 1.41426664083e-38
0.0615387804247 0.0162896771712 0.978 2.18773715029e-38
0.0143612695806 0.0179515869758 0.97 1.24171943599e-38
0.0161564282782 0.0179515869758 0.97 1.19422018246e-38
0.0178960666037 0.0178960666037 0.967 1.34180269465e-38
0.0196856732641 0.0178960666037 0.967 1.3140726796e-38
0.021408655478 0.0178405462316 0.964 1.26779619911e-38
0.0231927101011 0.0178405462316 0.964 1.29531097472e-38
0.0249767647243 0.0178405462316 0.964 1.21222854929e-38
0.0266220184172 0.0177480122781 0.959 1.60791305653e-38
0.028396819645 0.0177480122781 0.959 1.96033891966e-38
0.0300772362403 0.0176924919061 0.956 1.24006618406e-38
0.0318464854309 0.0176924919061 0.956 1.49810296484e-38
0.0336157346215 0.0176924919061 0.956 1.51636188383e-38
0.0353849838121 0.0176924919061 0.956 1.47019610592e-38
0.0371542330027 0.0176924919061 0.956 1.6174184844e-38
0.0389234821933 0.0176924919061 0.956 1.54387707982e-38
0.0406927313839 0.0176924919061 0.956 1.56242368539e-38
0.0424619805745 0.0176924919061 0.956 1.40587230251e-38
0.0442312297651 0.0176924919061 0.956 2.28165665753e-38
0.0461448319232 0.0177480122781 0.959 1.97885315523e-38
0.0480695381556 0.0178035326502 0.962 1.34152089352e-38
0.0498498914207 0.0178035326502 0.962 1.43263374006e-38
0.0517375840717 0.0178405462316 0.964 1.49691858738e-38
0.0536881998112 0.0178960666037 0.967 1.73637359e-38
0.0554778064715 0.0178960666037 0.967 1.71861521482e-38
0.0572674131319 0.0178960666037 0.967 1.42370130313e-38
0.0592402370202 0.0179515869758 0.97 1.46018438891e-38
0.0617275496898 0.0181551616735 0.981 2.34896578718e-38
0.0162063966131 0.0198078180827 0.973 1.02945691032e-38
0.0179515869758 0.0197467456734 0.97 1.24950084636e-38
0.0197467456734 0.0197467456734 0.97 1.36928159701e-38
0.0214752799245 0.0196856732641 0.967 1.2863067913e-38
0.0232648865848 0.0196856732641 0.967 1.29498811555e-38
0.0250544932452 0.0196856732641 0.967 1.26732984698e-38
0.0267608193474 0.0196246008548 0.964 1.24896274775e-38
0.0285448739706 0.0196246008548 0.964 1.38671599199e-38
0.0301716208728 0.019522813506 0.959 1.43281310627e-38
0.0319464221007 0.019522813506 0.959 1.52543781372e-38
0.0337212233285 0.019522813506 0.959 1.46994191038e-38
0.0354960245563 0.019522813506 0.959 1.54369729323e-38
0.0372708257841 0.019522813506 0.959 1.59000992722e-38
0.0390456270119 0.019522813506 0.959 1.56242368539e-38
0.0408204282397 0.019522813506 0.959 1.64547149875e-38
0.0425952294675 0.019522813506 0.959 1.53498009574e-38
0.0443700306954 0.019522813506 0.959 1.44231951505e-38
0.0462891848906 0.0195838859153 0.962 1.4510008393e-38
