# .PCD v0.7 - Point Cloud Data file format
VERSION 0.7
FIELDS x y z rgb
SIZE 4 4 4 4
TYPE F F F F
COUNT 1 1 1 1
WIDTH 838
HEIGHT 1
VIEWPOINT 0 0 0 1 0 0 0
POINTS 838
DATA ascii
-0.0258169730219 -0.0843354452049 0.93 8.0815236619e-39
-0.0240958414871 -0.0843354452049 0.93 7.98968816575e-39
-0.0223747099523 -0.0843354452049 0.93 9.74747695939e-39
-0.0206091621199 -0.0841540786561 0.928 9.56380596708e-39
-0.0188306595339 -0.0838820288328 0.925 8.44886564654e-39
-0.0171187813945 -0.0838820288328 0.925 8.26519465422e-39
-0.0153735910318 -0.083700662284 0.923 1.07497795081e-38
-0.0136654142505 -0.083700662284 0.923 1.16782042004e-38
-0.0119572374691 -0.083700662284 0.923 1.17761087202e-38
-0.0102490606878 -0.083700662284 0.923 8.17516403048e-39
-0.00851312372049 -0.0834286124608 0.92 9.9200272471e-39
-0.00681049897639 -0.0834286124608 0.92 9.45905610427e-39
-0.00510787423229 -0.0834286124608 0.92 9.27538511196e-39
-0.00340524948819 -0.0834286124608 0.92 1.00100690812e-38
-0.00169892338596 -0.0832472459119 0.918 8.99987862348e-39
0.0 -0.0832472459119 0.918 8.99987862348e-39
0.0017026247441 -0.0834286124608 0.92 9.45905610427e-39
0.00340524948819 -0.0834286124608 0.92 9.82639808891e-39
0.00512453034392 -0.083700662284 0.923 9.73456259275e-39
0.00683270712523 -0.083700662284 0.923 9.64272709659e-39
0.00854088390653 -0.083700662284 0.923 9.55089160043e-39
0.0102490606878 -0.083700662284 0.923 9.27538511196e-39
0.0119572374691 -0.083700662284 0.923 9.82639808891e-39
0.0136950251156 -0.0838820288328 0.925 1.03774110659e-38
0.015406903255 -0.0838820288328 0.925 1.0469246562e-38
0.0171743017665 -0.0841540786561 0.928 1.05610820582e-38
0.0188917319432 -0.0841540786561 0.928 1.13876015236e-38
0.0206091621199 -0.0841540786561 0.928 1.0469246562e-38
0.022446886436 -0.0846074950282 0.933 1.94078842387e-38
0.024225389022 -0.084788861577 0.935 1.39902780029e-38
0.0259557739521 -0.084788861577 0.935 2.34921437753e-38
0.0276861588823 -0.084788861577 0.935 2.34849649233e-38
-0.0328773136727 -0.0830584766468 0.935 2.21945974493e-38
-0.0311469287426 -0.0830584766468 0.935 2.34918130689e-38
-0.0293536207241 -0.0828808114561 0.933 1.12294131438e-38
-0.027626937152 -0.0828808114561 0.933 7.34683969264e-39
-0.0258169730219 -0.0826143136701 0.93 8.63253663885e-39
-0.0240958414871 -0.0826143136701 0.93 8.26555338663e-39
-0.0223747099523 -0.0826143136701 0.93 8.44886564654e-39
-0.0206091621199 -0.0824366484794 0.928 7.89785266959e-39
-0.0188306595339 -0.0821701506934 0.925 1.13940741212e-38
-0.0171187813945 -0.0821701506934 0.925 9.09530144371e-39
-0.015406903255 -0.0821701506934 0.925 1.204518465e-38
-0.0136950251156 -0.0821701506934 0.925 8.17909887657e-39
-0.0119831469761 -0.0821701506934 0.925 7.62234618111e-39
-0.0102490606878 -0.0819924855027 0.923 9.73456259275e-39
-0.00854088390653 -0.0819924855027 0.923 1.01940988059e-38
-0.00681049897639 -0.0817259877167 0.92 1.05654625172e-38
-0.00510787423229 -0.0817259877167 0.92 1.02977864845e-38
-0.00340524948819 -0.0817259877167 0.92 8.54070114269e-39
-0.0017026247441 -0.0817259877167 0.92 8.81620763117e-39
0.0 -0.0817259877167 0.92 8.90804312733e-39
0.00170817678131 -0.0819924855027 0.923 9.27538511196e-39
0.00341635356261 -0.0819924855027 0.923 9.36722060812e-39
0.00513563441834 -0.0821701506934 0.925 9.45905610427e-39
0.00684751255778 -0.0821701506934 0.925 9.91823358506e-39
0.00855939069723 -0.0821701506934 0.925 9.64272709659e-39
0.0102712688367 -0.0821701506934 0.925 9.45905610427e-39
0.0119831469761 -0.0821701506934 0.925 9.91823358506e-39
0.0136950251156 -0.0821701506934 0.925 1.02855755697e-38
0.0154568715899 -0.0824366484794 0.928 1.07447530505e-38
0.0171743017665 -0.0824366484794 0.928 1.09284240428e-38
0.0188917319432 -0.0824366484794 0.928 1.13876015236e-38
0.0206091621199 -0.0824366484794 0.928 1.05610820582e-38
0.022446886436 -0.0828808114561 0.933 1.99661209092e-38
0.024225389022 -0.0830584766468 0.935 1.62036961897e-38
0.0259557739521 -0.0830584766468 0.935 2.34928920687e-38
-0.0328773136727 -0.0813280917167 0.935 2.25640806179e-38
-0.0311469287426 -0.0813280917167 0.935 2.3490358521e-38
-0.0293536207241 -0.0811541278841 0.933 1.06744429e-38
-0.027626937152 -0.0811541278841 0.933 8.35703015038e-39
-0.0258169730219 -0.0808931821353 0.93 8.26521707499e-39
-0.0240958414871 -0.0808931821353 0.93 8.44886564654e-39
-0.0223747099523 -0.0808931821353 0.93 8.90947805695e-39
-0.0206091621199 -0.0807192183028 0.928 8.72437213501e-39
-0.0188917319432 -0.0807192183028 0.928 8.72437213501e-39
-0.0171187813945 -0.0804582725539 0.925 7.89785266959e-39
-0.015406903255 -0.0804582725539 0.925 7.4386751888e-39
-0.0136950251156 -0.0804582725539 0.925 1.01959275004e-38
-0.0119831469761 -0.0804582725539 0.925 9.55664813452e-39
-0.0102490606878 -0.0802843087214 0.923 1.13926279812e-38
-0.00854088390653 -0.0802843087214 0.923 1.30597121265e-38
-0.00683270712523 -0.0802843087214 0.923 1.03917771777e-38
-0.00512453034392 -0.0802843087214 0.923 1.04850490048e-38
-0.00341635356261 -0.0802843087214 0.923 1.05758153102e-38
-0.0017026247441 -0.0800233629726 0.92 1.23217407111e-38
0.0 -0.0800233629726 0.92 1.1678892238e-38
0.00170817678131 -0.0802843087214 0.923 1.14015920875e-38
0.00342375627889 -0.0804582725539 0.925 1.31550816974e-38
0.00513563441834 -0.0804582725539 0.925 1.22339115272e-38
0.00684751255778 -0.0804582725539 0.925 9.55089160043e-39
0.00855939069723 -0.0804582725539 0.925 9.73456259275e-39
0.0102712688367 -0.0804582725539 0.925 9.45905610427e-39
0.0119831469761 -0.0804582725539 0.925 9.91823358506e-39
0.0136950251156 -0.0804582725539 0.925 1.06529175543e-38
0.0154568715899 -0.0807192183028 0.928 1.08365885466e-38
0.0171743017665 -0.0807192183028 0.928 1.13876015236e-38
0.0188917319432 -0.0807192183028 0.928 1.16656191389e-38
0.020720202864 -0.0811541278841 0.933 9.73456259275e-39
0.022446886436 -0.0811541278841 0.933 2.12550240263e-38
0.024225389022 -0.0813280917167 0.935 1.53746347688e-38
0.0259557739521 -0.0813280917167 0.935 2.34921465779e-38
-0.0328773136727 -0.0795977067866 0.935 2.21953037037e-38
-0.0311469287426 -0.0795977067866 0.935 2.34896550692e-38
-0.0293536207241 -0.0794274443121 0.933 9.93724640263e-39
-0.027626937152 -0.0794274443121 0.933 7.71418167727e-39
-0.02590025358 -0.0794274443121 0.933 9.55413280378e-39
-0.024173570008 -0.0794274443121 0.933 9.55806624857e-39
-0.0223747099523 -0.0791720506005 0.93 7.62234618111e-39
-0.0206535784175 -0.0791720506005 0.93 8.17335915806e-39
-0.0188917319432 -0.0790017881261 0.928 9.36829680534e-39
-0.0171187813945 -0.0787463944145 0.925 1.00169032138e-38
-0.015406903255 -0.0787463944145 0.925 1.02963375419e-38
-0.0136950251156 -0.0787463944145 0.925 9.92253837395e-39
-0.0119831469761 -0.0787463944145 0.925 8.26519465422e-39
-0.0102712688367 -0.0787463944145 0.925 7.71418167727e-39
-0.00854088390653 -0.0785761319401 0.923 8.17335915806e-39
-0.00683270712523 -0.0785761319401 0.923 7.80601717343e-39
-0.00513563441834 -0.0787463944145 0.925 8.35703015038e-39
-0.00341635356261 -0.0785761319401 0.923 8.99988002478e-39
-0.00170817678131 -0.0785761319401 0.923 1.03774110659e-38
0.0 -0.0785761319401 0.923 8.63253663885e-39
0.00170817678131 -0.0785761319401 0.923 9.73456259275e-39
0.00342375627889 -0.0787463944145 0.925 9.36722060812e-39
0.00513563441834 -0.0787463944145 0.925 9.64272709659e-39
0.00684751255778 -0.0787463944145 0.925 9.91823358506e-39
0.00855939069723 -0.0787463944145 0.925 9.91823358506e-39
0.0102712688367 -0.0787463944145 0.925 9.36722060812e-39
0.0119831469761 -0.0787463944145 0.925 9.91823358506e-39
0.0136950251156 -0.0787463944145 0.925 1.07447530505e-38
0.015406903255 -0.0787463944145 0.925 1.09284240428e-38
0.0171743017665 -0.0790017881261 0.928 1.11120950351e-38
0.018993519292 -0.0794274443121 0.933 1.16641842093e-38
0.020720202864 -0.0794274443121 0.933 1.01937400735e-38
0.022446886436 -0.0794274443121 0.933 2.10749908048e-38
0.024225389022 -0.0795977067866 0.935 1.82345013644e-38
0.0260390545103 -0.0798531004982 0.938 2.34892795212e-38
-0.0311469287426 -0.0778673218564 0.935 2.34918130689e-38
-0.0294165438124 -0.0778673218564 0.935 9.7528579455e-39
-0.027626937152 -0.0777007607401 0.933 8.17335915806e-39
-0.02590025358 -0.0777007607401 0.933 9.27610257677e-39
-0.024173570008 -0.0777007607401 0.933 9.65026047713e-39
-0.022446886436 -0.0777007607401 0.933 8.91270664861e-39
-0.0206535784175 -0.0774509190657 0.93 8.72544833223e-39
-0.0188917319432 -0.0772843579495 0.928 8.26519465422e-39
-0.0171743017665 -0.0772843579495 0.928 8.26519465422e-39
-0.0154568715899 -0.0772843579495 0.928 7.89785266959e-39
-0.0137394414132 -0.0772843579495 0.928 1.0378129932e-38
-0.0119831469761 -0.0770345162751 0.925 1.03817158547e-38
-0.0102712688367 -0.0770345162751 0.925 9.83286227872e-39
-0.00855939069723 -0.0770345162751 0.925 8.90804312733e-39
-0.00684751255778 -0.0770345162751 0.925 8.63253663885e-39
-0.00513563441834 -0.0770345162751 0.925 8.99987862348e-39
-0.00341635356261 -0.0768679551588 0.923 9.64272709659e-39
-0.00170817678131 -0.0768679551588 0.923 9.55089160043e-39
0.0 -0.0768679551588 0.923 9.1835496158e-39
0.00171187813945 -0.0770345162751 0.925 9.73456259275e-39
0.00342375627889 -0.0770345162751 0.925 9.73456259275e-39
0.00513563441834 -0.0770345162751 0.925 1.01019045774e-38
0.00684751255778 -0.0770345162751 0.925 1.01019045774e-38
0.00855939069723 -0.0770345162751 0.925 9.82639808891e-39
0.0102712688367 -0.0770345162751 0.925 9.45905610427e-39
0.0119831469761 -0.0770345162751 0.925 1.01019045774e-38
0.0136950251156 -0.0770345162751 0.925 1.05610820582e-38
0.015406903255 -0.0770345162751 0.925 1.11120950351e-38
0.0171743017665 -0.0772843579495 0.928 1.14794370197e-38
0.018993519292 -0.0777007607401 0.933 1.13876015236e-38
0.0207646191617 -0.0778673218564 0.935 1.0469246562e-38
0.0224950040919 -0.0778673218564 0.935 2.09831483022e-38
0.024225389022 -0.0778673218564 0.935 1.93411992474e-38
0.0260390545103 -0.0781171635308 0.938 2.33956419552e-38
0.0277749914776 -0.0781171635308 0.938 2.34853194518e-38
-0.0311469287426 -0.0761369369263 0.935 2.34874816553e-38
-0.0294165438124 -0.0761369369263 0.935 9.1993338417e-39
-0.027626937152 -0.0759740771681 0.933 8.63253663885e-39
-0.02590025358 -0.0759740771681 0.933 8.90948226085e-39
-0.024173570008 -0.0759740771681 0.933 8.82194734968e-39
-0.022446886436 -0.0759740771681 0.933 9.00454214477e-39
-0.020720202864 -0.0759740771681 0.933 8.44886564654e-39
-0.0189324468827 -0.0757297875309 0.93 8.63253663885e-39
-0.0172113153479 -0.0757297875309 0.93 8.26519465422e-39
-0.0154568715899 -0.0755669277728 0.928 8.17335915806e-39
-0.0137394414132 -0.0755669277728 0.928 8.54070114269e-39
-0.0119831469761 -0.0753226381356 0.925 8.17335915806e-39
-0.0102712688367 -0.0753226381356 0.925 8.35703015038e-39
-0.00855939069723 -0.0753226381356 0.925 9.09171411964e-39
-0.00684751255778 -0.0753226381356 0.925 8.99987862348e-39
-0.00513563441834 -0.0753226381356 0.925 9.09171411964e-39
-0.00342375627889 -0.0753226381356 0.925 8.99987862348e-39
-0.00170817678131 -0.0751597783775 0.923 9.64272709659e-39
0.0 -0.0751597783775 0.923 9.09171411964e-39
0.00171187813945 -0.0753226381356 0.925 9.64272709659e-39
0.00342375627889 -0.0753226381356 0.925 9.73456259275e-39
0.00513563441834 -0.0753226381356 0.925 1.01019045774e-38
0.00684751255778 -0.0753226381356 0.925 1.01019045774e-38
0.00855939069723 -0.0753226381356 0.925 9.55089160043e-39
0.0102712688367 -0.0753226381356 0.925 9.55089160043e-39
0.0119831469761 -0.0753226381356 0.925 1.02855755697e-38
0.0136950251156 -0.0753226381356 0.925 1.07447530505e-38
0.0154568715899 -0.0755669277728 0.928 1.1020259539e-38
0.0171743017665 -0.0755669277728 0.928 1.13876015236e-38
0.018993519292 -0.0759740771681 0.933 1.17553022406e-38
0.0207646191617 -0.0761369369263 0.935 1.0469246562e-38
0.0224950040919 -0.0761369369263 0.935 2.08920414812e-38
0.024225389022 -0.0761369369263 0.935 1.98929535112e-38
0.0260390545103 -0.0763812265635 0.938 2.34900025912e-38
-0.0311469287426 -0.0744065519961 0.935 2.34892921329e-38
-0.0294165438124 -0.0744065519961 0.935 1.07680972816e-38
-0.027626937152 -0.0742473935961 0.933 7.80601717343e-39
-0.02590025358 -0.0742473935961 0.933 9.37010167776e-39
-0.024173570008 -0.0742473935961 0.933 9.28040736565e-39
-0.022446886436 -0.0742473935961 0.933 8.08259985912e-39
-0.020720202864 -0.0742473935961 0.933 9.37080793218e-39
-0.0189324468827 -0.0740086559961 0.93 8.44886564654e-39
-0.0172113153479 -0.0740086559961 0.93 8.35703015038e-39
-0.0154568715899 -0.0738494975962 0.928 8.35703015038e-39
-0.0137394414132 -0.0738494975962 0.928 8.99987862348e-39
-0.0120220112366 -0.0738494975962 0.928 1.11268058664e-38
-0.0102712688367 -0.0736107599962 0.925 9.09171411964e-39
-0.00855939069723 -0.0736107599962 0.925 8.81620763117e-39
-0.00684751255778 -0.0736107599962 0.925 8.99987862348e-39
-0.00513563441834 -0.0736107599962 0.925 9.36722060812e-39
-0.00342375627889 -0.0736107599962 0.925 9.36722060812e-39
-0.00170817678131 -0.0734516015962 0.923 9.55089160043e-39
0.0 -0.0734516015962 0.923 9.45905610427e-39
0.00171187813945 -0.0736107599962 0.925 9.55089160043e-39
0.00342375627889 -0.0736107599962 0.925 9.73456259275e-39
0.00513563441834 -0.0736107599962 0.925 1.00100690812e-38
0.00686972070662 -0.0738494975962 0.928 1.00100690812e-38
0.00858715088327 -0.0738494975962 0.928 9.55089160043e-39
0.0103045810599 -0.0738494975962 0.928 9.55089160043e-39
0.0120220112366 -0.0738494975962 0.928 1.01937400735e-38
0.0137394414132 -0.0738494975962 0.928 1.0469246562e-38
0.0154901838131 -0.0740086559961 0.93 1.08365885466e-38
0.01726683572 -0.0742473935961 0.933 1.13876015236e-38
0.0190342342316 -0.0744065519961 0.935 1.14794370197e-38
0.0207646191617 -0.0744065519961 0.935 1.06529175543e-38
0.0224950040919 -0.0744065519961 0.935 2.05282938272e-38
0.024225389022 -0.0744065519961 0.935 1.95231102088e-38
0.0259557739521 -0.0744065519961 0.935 2.34892865277e-38
-0.0312468654123 -0.0729093526288 0.938 2.33031058099e-38
-0.029510928445 -0.0729093526288 0.938 9.5702631504e-39
-0.0276861588823 -0.072676167066 0.935 9.1835496158e-39
-0.0259557739521 -0.072676167066 0.935 8.81620763117e-39
-0.024225389022 -0.072676167066 0.935 9.36865553774e-39
-0.0224950040919 -0.072676167066 0.935 9.46336089316e-39
-0.0207646191617 -0.072676167066 0.935 8.26698831625e-39
-0.0190342342316 -0.072676167066 0.935 8.81620763117e-39
-0.0172113153479 -0.0722875244614 0.93 8.63253663885e-39
-0.0154901838131 -0.0722875244614 0.93 8.54070114269e-39
-0.0137394414132 -0.0721320674195 0.928 8.72437213501e-39
-0.0120220112366 -0.0721320674195 0.928 7.71418167727e-39
-0.0103045810599 -0.0721320674195 0.928 1.29592516383e-38
-0.00855939069723 -0.0718988818567 0.925 1.09431320715e-38
-0.00684751255778 -0.0718988818567 0.925 1.23260679207e-38
-0.00513563441834 -0.0718988818567 0.925 1.23246105703e-38
-0.00342375627889 -0.0718988818567 0.925 1.15874715262e-38
-0.00171187813945 -0.0718988818567 0.925 1.19536896694e-38
0.0 -0.0718988818567 0.925 8.44886564654e-39
0.00171187813945 -0.0718988818567 0.925 9.1835496158e-39
0.00343486035331 -0.0721320674195 0.928 9.73456259275e-39
0.00515229052996 -0.0721320674195 0.928 1.01019045774e-38
0.00686972070662 -0.0721320674195 0.928 1.01019045774e-38
0.00858715088327 -0.0721320674195 0.928 9.82639808891e-39
0.0103045810599 -0.0721320674195 0.928 1.01019045774e-38
0.0120220112366 -0.0721320674195 0.928 1.05610820582e-38
0.0137394414132 -0.0721320674195 0.928 1.07447530505e-38
0.015540152148 -0.0725207100241 0.933 1.11120950351e-38
0.0173038493014 -0.072676167066 0.935 1.16631080121e-38
0.0190342342316 -0.072676167066 0.935 1.14801544846e-38
0.0208312436082 -0.0729093526288 0.938 1.0469246562e-38
0.0225671805756 -0.0729093526288 0.938 2.00694694736e-38
0.0243031175429 -0.0729093526288 0.938 2.10900449542e-38
0.0260390545103 -0.0729093526288 0.938 2.34907256612e-38
-0.0313134898588 -0.0713251713451 0.94 2.34899997886e-38
-0.0295738515333 -0.0713251713451 0.94 8.64903832957e-39
-0.0277749914776 -0.0711734156614 0.938 8.17335915806e-39
-0.0259557739521 -0.0709457821358 0.935 9.5544831284e-39
-0.024225389022 -0.0709457821358 0.935 9.18570201024e-39
-0.0225671805756 -0.0711734156614 0.938 9.37080793218e-39
-0.0207646191617 -0.0709457821358 0.935 8.26519465422e-39
-0.0190342342316 -0.0709457821358 0.935 8.81620763117e-39
-0.0173038493014 -0.0709457821358 0.935 8.63253663885e-39
-0.015540152148 -0.0707940264521 0.933 8.17335915806e-39
-0.0137690522784 -0.0705663929266 0.93 1.32372818653e-38
-0.0120220112366 -0.0704146372428 0.928 7.25502941985e-39
-0.0103045810599 -0.0704146372428 0.928 1.14844732864e-38
-0.00858715088327 -0.0704146372428 0.928 9.55412019209e-39
-0.00686972070662 -0.0704146372428 0.928 9.55340272728e-39
-0.00513563441834 -0.0701870037173 0.925 9.36722060812e-39
-0.00342375627889 -0.0701870037173 0.925 8.99987862348e-39
-0.00171187813945 -0.0701870037173 0.925 9.36722060812e-39
0.0 -0.0701870037173 0.925 1.00100690812e-38
0.00171743017665 -0.0704146372428 0.928 9.64272709659e-39
0.00343486035331 -0.0704146372428 0.928 9.64272709659e-39
0.00515229052996 -0.0704146372428 0.928 1.01019045774e-38
0.00688452613918 -0.0705663929266 0.93 9.91823358506e-39
0.00860565767397 -0.0705663929266 0.93 9.91823358506e-39
0.010360101432 -0.0707940264521 0.933 1.01937400735e-38
0.012086785004 -0.0707940264521 0.933 1.07447530505e-38
0.013813468576 -0.0707940264521 0.933 1.09284240428e-38
0.0155734643713 -0.0709457821358 0.935 1.11120950351e-38
0.0173038493014 -0.0709457821358 0.935 1.13876015236e-38
0.0190953066409 -0.0711734156614 0.938 1.16645429417e-38
0.0208312436082 -0.0711734156614 0.938 1.05610820582e-38
0.0226152982314 -0.0713251713451 0.94 2.04371799997e-38
0.0243549365569 -0.0713251713451 0.94 2.09035209182e-38
0.0260945748824 -0.0713251713451 0.94 2.34881977188e-38
-0.0313134898588 -0.0695855330196 0.94 2.34882047253e-38
-0.0295738515333 -0.0695855330196 0.94 9.10821581036e-39
-0.0278342132079 -0.0695855330196 0.94 9.1835496158e-39
-0.0260390545103 -0.0694374786941 0.938 8.54142000881e-39
-0.0243031175429 -0.0694374786941 0.938 8.99987862348e-39
-0.0225671805756 -0.0694374786941 0.938 8.99987862348e-39
-0.0207646191617 -0.0692153972057 0.935 8.63254364534e-39
-0.0190342342316 -0.0692153972057 0.935 8.99987862348e-39
-0.0173038493014 -0.0692153972057 0.935 8.72437213501e-39
-0.015540152148 -0.0690673428801 0.933 8.17335915806e-39
-0.013813468576 -0.0690673428801 0.933 9.09171411964e-39
-0.0120479207436 -0.0688452613918 0.93 1.02001972569e-38
-0.0103267892088 -0.0688452613918 0.93 9.09171411964e-39
-0.00858715088327 -0.0686972070662 0.928 9.36722060812e-39
-0.00686972070662 -0.0686972070662 0.928 1.02895440469e-38
-0.00515229052996 -0.0686972070662 0.928 1.12150540385e-38
-0.00343486035331 -0.0686972070662 0.928 1.22295941267e-38
-0.00171743017665 -0.0686972070662 0.928 1.13083216617e-38
0.0 -0.0686972070662 0.928 1.20448539436e-38
0.00171743017665 -0.0686972070662 0.928 9.91823358506e-39
0.00343486035331 -0.0686972070662 0.928 1.01019045774e-38
0.00516339460438 -0.0688452613918 0.93 1.01019045774e-38
0.00688452613918 -0.0688452613918 0.93 9.91823358506e-39
0.00863341786002 -0.0690673428801 0.933 9.91823358506e-39
0.010360101432 -0.0690673428801 0.933 1.01019045774e-38
0.012112694511 -0.0692153972057 0.935 1.03774110659e-38
0.0138430794411 -0.0692153972057 0.935 1.07447530505e-38
0.0155734643713 -0.0692153972057 0.935 1.11120950351e-38
0.0173593696735 -0.0694374786941 0.938 1.12957660274e-38
0.0191360215804 -0.0695855330196 0.94 1.15712725159e-38
0.0208756599059 -0.0695855330196 0.94 1.05610820582e-38
0.0226874747151 -0.069807614508 0.943 2.07184079898e-38
0.0244326650778 -0.069807614508 0.943 2.09982220698e-38
0.0262611359986 -0.0700296959964 0.946 2.3487855802e-38
-0.0313134898588 -0.0678458946941 0.94 2.34892907316e-38
-0.0295738515333 -0.0678458946941 0.94 9.65994625212e-39
-0.0278342132079 -0.0678458946941 0.94 8.72437213501e-39
-0.0260390545103 -0.0677015417267 0.938 9.00097163629e-39
-0.0243031175429 -0.0677015417267 0.938 9.09350778168e-39
-0.0225671805756 -0.0677015417267 0.938 8.26519465422e-39
-0.0208312436082 -0.0677015417267 0.938 8.44886564654e-39
-0.0190953066409 -0.0677015417267 0.938 8.90804312733e-39
-0.0173038493014 -0.0674850122756 0.935 8.72437213501e-39
-0.0155734643713 -0.0674850122756 0.935 8.72437213501e-39
-0.013813468576 -0.0673406593081 0.933 9.91823358506e-39
-0.012086785004 -0.0673406593081 0.933 8.35703015038e-39
-0.0103267892088 -0.067124129857 0.93 1.31443673694e-38
-0.00860565767397 -0.067124129857 0.93 1.17696571421e-38
-0.00686972070662 -0.0669797768895 0.928 1.19566015676e-38
-0.00515229052996 -0.0669797768895 0.928 8.0815236619e-39
-0.00343486035331 -0.0669797768895 0.928 9.27538511196e-39
-0.00171743017665 -0.0669797768895 0.928 9.27538511196e-39
0.0 -0.0669797768895 0.928 9.45905610427e-39
0.00172113153479 -0.067124129857 0.93 9.64272709659e-39
0.00344226306959 -0.067124129857 0.93 1.01937400735e-38
0.00518005071601 -0.0673406593081 0.933 9.91823358506e-39
0.00690673428801 -0.0673406593081 0.933 9.91823358506e-39
0.00863341786002 -0.0673406593081 0.933 1.01019045774e-38
0.0103823095809 -0.0674850122756 0.935 1.01937400735e-38
0.012112694511 -0.0674850122756 0.935 1.03774110659e-38
0.0138430794411 -0.0674850122756 0.935 1.1020259539e-38
0.0156234327062 -0.0677015417267 0.938 1.12957660274e-38
0.0173593696735 -0.0677015417267 0.938 1.14794370197e-38
0.0191360215804 -0.0678458946941 0.94 1.19386145005e-38
0.0209422843524 -0.0680624241453 0.943 1.17549435082e-38
0.0226874747151 -0.0680624241453 0.943 1.9797530691e-38
0.0245103935987 -0.0682789535964 0.946 2.26555882103e-38
0.0262611359986 -0.0682789535964 0.946 2.34871299294e-38
-0.0314134265286 -0.0663172337826 0.943 2.349144733e-38
-0.0296682361659 -0.0663172337826 0.943 8.64652720272e-39
-0.0278342132079 -0.0661062563686 0.94 8.99987862348e-39
-0.0260390545103 -0.0659656047594 0.938 8.99988002478e-39
-0.0243031175429 -0.0659656047594 0.938 9.18570201024e-39
-0.0225671805756 -0.0659656047594 0.938 9.27610257677e-39
-0.0208312436082 -0.0659656047594 0.938 8.63253663885e-39
-0.0190953066409 -0.0659656047594 0.938 8.63253663885e-39
-0.0173038493014 -0.0657546273454 0.935 8.17335915806e-39
-0.0155734643713 -0.0657546273454 0.935 8.54070114269e-39
-0.0138430794411 -0.0657546273454 0.935 8.72437213501e-39
-0.012112694511 -0.0657546273454 0.935 8.54070114269e-39
-0.010360101432 -0.0656139757361 0.933 1.28735005801e-38
-0.00860565767397 -0.0654029983222 0.93 8.26519465422e-39
-0.00688452613918 -0.0654029983222 0.93 8.90804312733e-39
-0.00516339460438 -0.0654029983222 0.93 9.36722060812e-39
-0.00344226306959 -0.0654029983222 0.93 8.81620763117e-39
-0.00172113153479 -0.0654029983222 0.93 8.99987862348e-39
0.0 -0.0654029983222 0.93 8.99987862348e-39
0.00172113153479 -0.0654029983222 0.93 8.99987862348e-39
0.00344226306959 -0.0654029983222 0.93 9.73456259275e-39
0.00518005071601 -0.0656139757361 0.933 1.0469246562e-38
0.00690673428801 -0.0656139757361 0.933 1.06529175543e-38
0.00863341786002 -0.0656139757361 0.933 1.41652763591e-38
0.0103823095809 -0.0657546273454 0.935 7.99219929259e-39
0.0121515587715 -0.0659656047594 0.938 1.03774110659e-38
0.0138874957388 -0.0659656047594 0.938 1.09284240428e-38
0.0156234327062 -0.0659656047594 0.938 1.11120950351e-38
0.0173963832549 -0.0661062563686 0.94 1.15712725159e-38
0.0191970939897 -0.0663172337826 0.943 1.17549435082e-38
0.0209422843524 -0.0663172337826 0.943 1.12957660274e-38
0.0226874747151 -0.0663172337826 0.943 1.8875201647e-38
0.0245103935987 -0.0665282111965 0.946 2.32995353014e-38
0.0262611359986 -0.0665282111965 0.946 2.34853180505e-38
-0.0296682361659 -0.0645720434199 0.943 8.27667409124e-39
-0.0279230458032 -0.0645720434199 0.943 9.1835496158e-39
-0.0260945748824 -0.0643666180432 0.94 9.36938561424e-39
-0.0243549365569 -0.0643666180432 0.94 9.55376145969e-39
-0.0226152982314 -0.0643666180432 0.94 9.09279031686e-39
-0.0208312436082 -0.064229667792 0.938 8.54177733991e-39
-0.0190953066409 -0.064229667792 0.938 8.63253663885e-39
-0.0173593696735 -0.064229667792 0.938 8.63253663885e-39
-0.0155734643713 -0.0640242424153 0.935 8.72437213501e-39
-0.0138430794411 -0.0640242424153 0.935 8.72437213501e-39
-0.012112694511 -0.0640242424153 0.935 8.81620763117e-39
-0.0103823095809 -0.0640242424153 0.935 9.91823358506e-39
-0.00863341786002 -0.0638872921641 0.933 1.14844592734e-38
-0.00690673428801 -0.0638872921641 0.933 1.17692928045e-38
-0.00516339460438 -0.0636818667874 0.93 1.13126642856e-38
-0.00344226306959 -0.0636818667874 0.93 1.23242532392e-38
-0.00172113153479 -0.0636818667874 0.93 1.24189571933e-38
0.0 -0.0636818667874 0.93 1.1773238861e-38
0.001726683572 -0.0638872921641 0.933 1.26937588287e-38
0.00345336714401 -0.0638872921641 0.933 1.24186166778e-38
0.00518005071601 -0.0638872921641 0.933 1.30611694769e-38
0.00690673428801 -0.0638872921641 0.933 1.15841868826e-38
0.00863341786002 -0.0638872921641 0.933 9.73456259275e-39
0.0103823095809 -0.0640242424153 0.935 9.91823358506e-39
0.012112694511 -0.0640242424153 0.935 1.08365885466e-38
0.0138874957388 -0.064229667792 0.938 1.12957660274e-38
0.0156234327062 -0.064229667792 0.938 1.12039305313e-38
0.0173963832549 -0.0643666180432 0.94 1.21230057603e-38
0.0191970939897 -0.0645720434199 0.943 1.09284240428e-38
0.0210089087989 -0.0647774687966 0.946 1.1020259539e-38
0.0227596511988 -0.0647774687966 0.946 1.95230793803e-38
0.0245103935987 -0.0647774687966 0.946 2.34871523502e-38
0.0262611359986 -0.0647774687966 0.946 2.34907312664e-38
-0.0297626207984 -0.0630267263967 0.946 7.35580800281e-39
-0.0279230458032 -0.0628268530572 0.943 9.64272709659e-39
-0.0261778554405 -0.0628268530572 0.943 9.55269507155e-39
-0.0244326650778 -0.0628268530572 0.943 9.55304399487e-39
-0.0226152982314 -0.0626269797177 0.94 9.09350778168e-39
-0.0208312436082 -0.0624937308247 0.938 8.63361563867e-39
-0.0190953066409 -0.0624937308247 0.938 8.63253663885e-39
-0.0173593696735 -0.0624937308247 0.938 8.81620763117e-39
-0.0155734643713 -0.0622938574851 0.935 8.72437213501e-39
-0.0138430794411 -0.0622938574851 0.935 8.72437213501e-39
-0.012112694511 -0.0622938574851 0.935 8.81620763117e-39
-0.0103823095809 -0.0622938574851 0.935 8.72437213501e-39
-0.00865192465071 -0.0622938574851 0.935 9.09171411964e-39
-0.00690673428801 -0.0621606085921 0.933 8.81620763117e-39
-0.00518005071601 -0.0621606085921 0.933 8.90804312733e-39
-0.00345336714401 -0.0621606085921 0.933 9.36722060812e-39
-0.001726683572 -0.0621606085921 0.933 9.55089160043e-39
0.0 -0.0621606085921 0.933 9.36722060812e-39
0.001726683572 -0.0621606085921 0.933 9.27538511196e-39
0.00345336714401 -0.0621606085921 0.933 9.55089160043e-39
0.00519115479043 -0.0622938574851 0.935 9.55089160043e-39
0.00692153972057 -0.0622938574851 0.935 9.82639808891e-39
0.00865192465071 -0.0622938574851 0.935 1.01937400735e-38
0.0103823095809 -0.0622938574851 0.935 1.01937400735e-38
0.012112694511 -0.0622938574851 0.935 1.08365885466e-38
0.0138874957388 -0.0624937308247 0.938 1.09284240428e-38
0.0156234327062 -0.0624937308247 0.938 1.09284240428e-38
0.0173963832549 -0.0626269797177 0.94 1.23977947839e-38
0.0191970939897 -0.0628268530572 0.943 1.13901126504e-38
0.0210089087989 -0.0630267263967 0.946 1.25832622409e-38
0.0227596511988 -0.0630267263967 0.946 1.92468386114e-38
0.0245103935987 -0.0630267263967 0.946 2.34867824074e-38
0.0262611359986 -0.0630267263967 0.946 2.32087437726e-38
-0.0297626207984 -0.0612759839968 0.946 7.72566111429e-39
-0.0280118783985 -0.0612759839968 0.946 8.90804312733e-39
-0.0261778554405 -0.0610816626945 0.943 9.73529126795e-39
-0.0244326650778 -0.0610816626945 0.943 9.82890921575e-39
-0.0226874747151 -0.0610816626945 0.943 9.09279031686e-39
-0.0208756599059 -0.0608873413922 0.94 8.44886564654e-39
-0.0191360215804 -0.0608873413922 0.94 8.81620763117e-39
-0.0173593696735 -0.0607577938573 0.938 8.54070114269e-39
-0.0156234327062 -0.0607577938573 0.938 8.72437213501e-39
-0.0138874957388 -0.0607577938573 0.938 8.72437213501e-39
-0.0121515587715 -0.0607577938573 0.938 8.63253663885e-39
-0.0103823095809 -0.060563472555 0.935 8.72437213501e-39
-0.00865192465071 -0.060563472555 0.935 9.1835496158e-39
-0.00692153972057 -0.060563472555 0.935 9.09171411964e-39
-0.00519115479043 -0.060563472555 0.935 9.09171411964e-39
-0.00345336714401 -0.0604339250201 0.933 9.09171411964e-39
-0.001726683572 -0.0604339250201 0.933 9.64272709659e-39
0.0 -0.060563472555 0.935 9.45905610427e-39
0.00173038493014 -0.060563472555 0.935 9.64272709659e-39
0.00346076986028 -0.060563472555 0.935 1.01019045774e-38
0.00519115479043 -0.060563472555 0.935 1.01937400735e-38
0.00692153972057 -0.060563472555 0.935 1.02855755697e-38
0.00865192465071 -0.060563472555 0.935 1.03774110659e-38
0.0104156218041 -0.0607577938573 0.938 1.01937400735e-38
0.0121515587715 -0.0607577938573 0.938 1.05610820582e-38
0.0138874957388 -0.0607577938573 0.938 1.08365885466e-38
0.0156234327062 -0.0607577938573 0.938 1.14794370197e-38
0.017451903627 -0.0610816626945 0.943 1.19386145005e-38
0.019258166399 -0.0612759839968 0.946 1.1020259539e-38
0.0210089087989 -0.0612759839968 0.946 1.19386145005e-38
0.0227596511988 -0.0612759839968 0.946 1.93368832481e-38
0.0245103935987 -0.0612759839968 0.946 2.34900208081e-38
0.0262611359986 -0.0612759839968 0.946 2.34874970696e-38
-0.0336157346215 -0.0601544724806 0.956 2.21020486922e-38
-0.0317798609844 -0.0600286263038 0.954 2.34910829924e-38
-0.0297626207984 -0.0595252415969 0.946 8.27775028846e-39
-0.0280118783985 -0.0595252415969 0.946 9.36722060812e-39
-0.0262611359986 -0.0595252415969 0.946 9.09279031686e-39
-0.0245103935987 -0.0595252415969 0.946 9.55412019209e-39
-0.0227596511988 -0.0595252415969 0.946 9.00274848274e-39
-0.0210089087989 -0.0595252415969 0.946 8.72437213501e-39
-0.0191970939897 -0.0593364723318 0.943 8.54070114269e-39
-0.017451903627 -0.0593364723318 0.943 8.54070114269e-39
-0.0156567449294 -0.0591477030667 0.94 8.44886564654e-39
-0.0139171066039 -0.0591477030667 0.94 8.81620763117e-39
-0.0121774682784 -0.0591477030667 0.94 8.99987862348e-39
-0.0104156218041 -0.0590218568899 0.938 8.99987862348e-39
-0.00867968483676 -0.0590218568899 0.938 9.45905610427e-39
-0.00694374786941 -0.0590218568899 0.938 9.55089160043e-39
-0.00519115479043 -0.0588330876248 0.935 9.45905610427e-39
-0.00346076986028 -0.0588330876248 0.935 9.91823358506e-39
-0.00173038493014 -0.0588330876248 0.935 1.01019045774e-38
0.0 -0.0588330876248 0.935 1.01019045774e-38
0.00173038493014 -0.0588330876248 0.935 1.01019045774e-38
0.00346076986028 -0.0588330876248 0.935 1.01937400735e-38
0.00519115479043 -0.0588330876248 0.935 1.01937400735e-38
0.00692153972057 -0.0588330876248 0.935 1.05610820582e-38
0.00865192465071 -0.0588330876248 0.935 1.07447530505e-38
0.0104156218041 -0.0590218568899 0.938 1.07447530505e-38
0.0121515587715 -0.0590218568899 0.938 1.07447530505e-38
0.0138874957388 -0.0590218568899 0.938 1.12039305313e-38
0.0156567449294 -0.0591477030667 0.94 1.15712725159e-38
0.0175074239991 -0.0595252415969 0.946 1.21233616901e-38
0.019258166399 -0.0595252415969 0.946 1.1020259539e-38
0.0210533250966 -0.0596510877736 0.948 1.37828844289e-38
0.0228077688546 -0.0596510877736 0.948 1.97993061362e-38
0.0245622126127 -0.0596510877736 0.948 2.34914543364e-38
-0.0336157346215 -0.05838522329 0.956 2.16424928608e-38
-0.0317798609844 -0.0582630784714 0.954 2.34925235272e-38
-0.0299199285194 -0.0580798612435 0.951 7.355090538e-39
-0.0280711001288 -0.0578966440156 0.948 9.92325583876e-39
-0.0262611359986 -0.057774499197 0.946 8.54142000881e-39
-0.0245103935987 -0.057774499197 0.946 9.46084976631e-39
-0.0227596511988 -0.057774499197 0.946 9.55340272728e-39
-0.0210089087989 -0.057774499197 0.946 9.09207285205e-39
-0.019258166399 -0.057774499197 0.946 8.35703015038e-39
-0.017451903627 -0.0575912819691 0.943 8.54070114269e-39
-0.0157067132643 -0.0575912819691 0.943 8.63253663885e-39
-0.0139171066039 -0.0574080647412 0.94 1.37915360456e-38
-0.0121774682784 -0.0574080647412 0.94 1.09403042512e-38
-0.0104156218041 -0.0572859199226 0.938 1.06529175543e-38
-0.00867968483676 -0.0572859199226 0.938 1.03839074855e-38
-0.00694374786941 -0.0572859199226 0.938 1.29596173772e-38
-0.00520781090205 -0.0572859199226 0.938 1.15842065007e-38
-0.0034718739347 -0.0572859199226 0.938 9.45905610427e-39
-0.00173593696735 -0.0572859199226 0.938 9.55089160043e-39
0.0 -0.0572859199226 0.938 1.25875936544e-38
0.00173593696735 -0.0572859199226 0.938 1.07447530505e-38
0.0034718739347 -0.0572859199226 0.938 1.01937400735e-38
0.00520781090205 -0.0572859199226 0.938 1.16674618464e-38
0.00694374786941 -0.0572859199226 0.938 1.06551021786e-38
0.00867968483676 -0.0572859199226 0.938 1.12965045117e-38
0.0104156218041 -0.0572859199226 0.938 1.37832501678e-38
0.0121515587715 -0.0572859199226 0.938 9.73456259275e-39
0.0139171066039 -0.0574080647412 0.94 1.13876015236e-38
0.0157566815992 -0.057774499197 0.946 1.12957660274e-38
0.0175074239991 -0.057774499197 0.946 1.23059564852e-38
0.0192988813385 -0.0578966440156 0.948 1.09284240428e-38
0.0210533250966 -0.0578966440156 0.948 1.43349792083e-38
0.0228077688546 -0.0578966440156 0.948 1.92461295544e-38
-0.0335454088169 -0.0564975306389 0.954 2.27513263226e-38
-0.0317798609844 -0.0564975306389 0.954 2.34900166042e-38
-0.0299199285194 -0.0563198654482 0.951 8.00045013795e-39
-0.0280711001288 -0.0561422002575 0.948 9.46084976631e-39
-0.0262611359986 -0.0560237567971 0.946 9.28255976009e-39
-0.0245103935987 -0.0560237567971 0.946 9.73886738163e-39
-0.0228077688546 -0.0561422002575 0.948 9.55555512172e-39
-0.0210089087989 -0.0560237567971 0.946 8.8180012932e-39
-0.019258166399 -0.0560237567971 0.946 8.26519465422e-39
-0.017451903627 -0.0558460916064 0.943 8.63253663885e-39
-0.0157067132643 -0.0558460916064 0.943 8.81620763117e-39
-0.0139171066039 -0.0556684264157 0.94 8.54070114269e-39
-0.0121774682784 -0.0556684264157 0.94 9.1835496158e-39
-0.0104156218041 -0.0555499829552 0.938 9.1835496158e-39
-0.00867968483676 -0.0555499829552 0.938 1.19497618298e-38
-0.00694374786941 -0.0555499829552 0.938 1.12143477841e-38
-0.00520781090205 -0.0555499829552 0.938 1.15852630798e-38
-0.0034718739347 -0.0555499829552 0.938 1.27787812117e-38
-0.00173593696735 -0.0555499829552 0.938 9.92791936005e-39
0.0 -0.0555499829552 0.938 1.2229243802e-38
0.00173593696735 -0.0555499829552 0.938 1.18543123849e-38
0.0034718739347 -0.0555499829552 0.938 1.23170926041e-38
0.00520781090205 -0.0555499829552 0.938 1.10364109051e-38
0.00694374786941 -0.0555499829552 0.938 1.06662130742e-38
0.00867968483676 -0.0555499829552 0.938 1.00100788903e-38
0.0104156218041 -0.0555499829552 0.938 1.35044898643e-38
0.0121774682784 -0.0556684264157 0.94 9.91823358506e-39
0.0140059391993 -0.0560237567971 0.946 1.11120950351e-38
0.0157566815992 -0.0560237567971 0.946 1.12039305313e-38
0.0175074239991 -0.0560237567971 0.946 1.18471377368e-38
0.0192988813385 -0.0561422002575 0.948 1.08365885466e-38
0.0210533250966 -0.0561422002575 0.948 1.60859703031e-38
0.0228077688546 -0.0561422002575 0.948 1.92461141401e-38
-0.0335454088169 -0.0547319828065 0.954 2.21960043529e-38
-0.0317798609844 -0.0547319828065 0.954 2.34892823238e-38
-0.0299199285194 -0.054559869653 0.951 8.27523916161e-39
-0.0281599327241 -0.054559869653 0.951 8.90804312733e-39
-0.0263166563707 -0.0543877564995 0.948 9.18572302972e-39
-0.0245622126127 -0.0543877564995 0.948 9.09350778168e-39
-0.0228077688546 -0.0543877564995 0.948 9.09243158445e-39
-0.0210533250966 -0.0543877564995 0.948 9.0009548207e-39
-0.019258166399 -0.0542730143972 0.946 9.09171411964e-39
-0.0175074239991 -0.0542730143972 0.946 8.54070114269e-39
-0.0157566815992 -0.0542730143972 0.946 8.0815236619e-39
-0.0139615229016 -0.0541009012437 0.943 1.70162152821e-38
-0.0121774682784 -0.0539287880902 0.94 1.11343588651e-38
-0.0104378299529 -0.0539287880902 0.94 8.72437213501e-39
-0.00869819162745 -0.0539287880902 0.94 8.35703015038e-39
-0.00695855330196 -0.0539287880902 0.94 8.44886564654e-39
-0.00520781090205 -0.0538140459879 0.938 8.35703015038e-39
-0.0034718739347 -0.0538140459879 0.938 8.17335915806e-39
-0.00173593696735 -0.0538140459879 0.938 8.35703015038e-39
0.0 -0.0538140459879 0.938 8.54070114269e-39
0.00173593696735 -0.0538140459879 0.938 8.54070114269e-39
0.0034718739347 -0.0538140459879 0.938 8.54070114269e-39
0.00520781090205 -0.0538140459879 0.938 8.54070114269e-39
0.00694374786941 -0.0538140459879 0.938 1.01019045774e-38
0.00869819162745 -0.0539287880902 0.94 1.43378883039e-38
0.0104378299529 -0.0539287880902 0.94 1.61050545869e-38
0.0122163325389 -0.0541009012437 0.943 1.00100690812e-38
0.0140059391993 -0.0542730143972 0.946 1.11120950351e-38
0.0157566815992 -0.0542730143972 0.946 1.16631080121e-38
0.0175074239991 -0.0542730143972 0.946 1.17549435082e-38
0.0192988813385 -0.0543877564995 0.948 1.09284352532e-38
0.0210533250966 -0.0543877564995 0.948 1.6730620846e-38
0.0228077688546 -0.0543877564995 0.948 2.00755174778e-38
-0.0317798609844 -0.052966434974 0.954 2.34881963175e-38
-0.0300143131519 -0.052966434974 0.954 9.19682271485e-39
-0.0281599327241 -0.0527998738577 0.951 1.01065680987e-38
-0.0263999369289 -0.0527998738577 0.951 8.90948226085e-39
-0.0245622126127 -0.0526333127414 0.948 9.0005960883e-39
-0.0228077688546 -0.0526333127414 0.948 8.72437213501e-39
-0.0210533250966 -0.0526333127414 0.948 9.55089160043e-39
-0.019258166399 -0.0525222719973 0.946 8.81621603896e-39
-0.0175074239991 -0.0525222719973 0.946 8.99987862348e-39
-0.0157566815992 -0.0525222719973 0.946 8.26519465422e-39
-0.0140059391993 -0.0525222719973 0.946 1.85842598559e-38
-0.0122163325389 -0.052355710881 0.943 1.55626581942e-38
-0.0104378299529 -0.0521891497647 0.94 1.55640903212e-38
-0.00869819162745 -0.0521891497647 0.94 1.57488697406e-38
-0.00695855330196 -0.0521891497647 0.94 1.57495605807e-38
-0.00521891497647 -0.0521891497647 0.94 1.72221627161e-38
-0.00347927665098 -0.0521891497647 0.94 1.74051064345e-38
-0.00173593696735 -0.0520781090205 0.938 1.63906083853e-38
0.0 -0.0520781090205 0.938 1.68515851333e-38
0.00173593696735 -0.0520781090205 0.938 1.71281762268e-38
0.00347927665098 -0.0521891497647 0.94 1.71285237488e-38
0.00521891497647 -0.0521891497647 0.94 1.70381315901e-38
0.00695855330196 -0.0521891497647 0.94 1.7314358346e-38
0.00869819162745 -0.0521891497647 0.94 1.78661070046e-38
0.0104711421762 -0.052355710881 0.943 1.6297706501e-38
0.0122163325389 -0.052355710881 0.943 9.82639808891e-39
0.0140059391993 -0.0525222719973 0.946 1.11120950351e-38
0.0157566815992 -0.0525222719973 0.946 1.15712725159e-38
0.0175444375805 -0.0526333127414 0.948 1.21258728169e-38
0.0193599537478 -0.0527998738577 0.951 1.01937400735e-38
0.0211199495431 -0.0527998738577 0.951 1.75603843174e-38
0.0228799453383 -0.0527998738577 0.951 2.00751671531e-38
-0.0318464854309 -0.0513082265276 0.956 2.34867627892e-38
-0.0300772362403 -0.0513082265276 0.956 9.37870004513e-39
-0.0282487653195 -0.0512008871415 0.954 9.27861370362e-39
-0.0263999369289 -0.0510398780625 0.951 9.18498454543e-39
-0.0245622126127 -0.0508788689834 0.948 8.44886564654e-39
-0.0228077688546 -0.0508788689834 0.948 8.54070114269e-39
-0.0210533250966 -0.0508788689834 0.948 8.54070114269e-39
-0.0192988813385 -0.0508788689834 0.948 8.63253663885e-39
-0.0175074239991 -0.0507715295974 0.946 8.99987862348e-39
-0.0157566815992 -0.0507715295974 0.946 8.17335915806e-39
-0.0140059391993 -0.0507715295974 0.946 1.86775344856e-38
-0.0122163325389 -0.0506105205183 0.943 1.4917278976e-38
-0.0104711421762 -0.0506105205183 0.943 1.13199089987e-38
-0.0087259518135 -0.0506105205183 0.943 1.22451050994e-38
-0.00695855330196 -0.0504495114392 0.94 1.26145854654e-38
-0.00521891497647 -0.0504495114392 0.94 1.27989697187e-38
-0.00347927665098 -0.0504495114392 0.94 1.35354529552e-38
-0.00173963832549 -0.0504495114392 0.94 1.3720563081e-38
0.0 -0.0504495114392 0.94 1.4181877542e-38
0.00173963832549 -0.0504495114392 0.94 1.42712187269e-38
0.00347927665098 -0.0504495114392 0.94 1.33517875681e-38
0.00521891497647 -0.0504495114392 0.94 1.28915493043e-38
0.00695855330196 -0.0504495114392 0.94 1.2984795908e-38
0.0087259518135 -0.0506105205183 0.943 1.5842490491e-38
0.0104711421762 -0.0506105205183 0.943 1.54700940228e-38
0.0122551967994 -0.0507715295974 0.946 9.64272709659e-39
0.0140059391993 -0.0507715295974 0.946 1.08365885466e-38
0.0157899938224 -0.0508788689834 0.948 1.15712725159e-38
0.0175444375805 -0.0508788689834 0.948 1.24910638084e-38
0.0193599537478 -0.0510398780625 0.951 1.0469246562e-38
0.0211199495431 -0.0510398780625 0.951 1.85738131759e-38
0.0228799453383 -0.0510398780625 0.951 1.90613907726e-38
-0.0318464854309 -0.049538977337 0.956 2.34892893303e-38
-0.0300772362403 -0.049538977337 0.956 7.25859152055e-39
-0.0283079870497 -0.049538977337 0.956 1.11192696833e-38
-0.026483217487 -0.0494353393091 0.954 9.09243859095e-39
-0.0246399411336 -0.0492798822672 0.951 9.46371962556e-39
-0.0228799453383 -0.0492798822672 0.951 9.74101977607e-39
-0.0210533250966 -0.0491244252253 0.948 8.0815236619e-39
-0.0192988813385 -0.0491244252253 0.948 8.81620763117e-39
-0.0175074239991 -0.0490207871974 0.946 8.99987862348e-39
-0.0157566815992 -0.0490207871974 0.946 7.89785266959e-39
-0.0140059391993 -0.0490207871974 0.946 1.89548374387e-38
-0.0122551967994 -0.0490207871974 0.946 1.42733683187e-38
-0.0104711421762 -0.0488653301556 0.943 1.03993946362e-38
-0.0087259518135 -0.0488653301556 0.943 1.02218206935e-38
-0.0069807614508 -0.0488653301556 0.943 1.16040264662e-38
-0.0052355710881 -0.0488653301556 0.943 1.00392272997e-38
-0.0034903807254 -0.0488653301556 0.943 9.9474002113e-39
-0.00173963832549 -0.0487098731137 0.94 9.94669675947e-39
0.0 -0.0487098731137 0.94 1.02239885022e-38
0.00173963832549 -0.0487098731137 0.94 1.10526729737e-38
0.0034903807254 -0.0488653301556 0.943 1.07742910208e-38
0.0052355710881 -0.0488653301556 0.943 1.10505023624e-38
0.0069807614508 -0.0488653301556 0.943 1.32671309239e-38
0.0087259518135 -0.0488653301556 0.943 1.49244788475e-38
0.0104711421762 -0.0488653301556 0.943 1.48254434799e-38
0.0122551967994 -0.0490207871974 0.946 9.27538511196e-39
0.0140059391993 -0.0490207871974 0.946 1.11120950351e-38
0.0157899938224 -0.0491244252253 0.948 1.13876015236e-38
0.0175444375805 -0.0491244252253 0.948 1.24914211395e-38
0.0193599537478 -0.0492798822672 0.951 1.01019045774e-38
0.0211199495431 -0.0492798822672 0.951 1.98652694588e-38
0.0228799453383 -0.0492798822672 0.951 1.95234423166e-38
-0.0318464854309 -0.0477697281463 0.956 2.34896564705e-38
-0.0300772362403 -0.0477697281463 0.956 7.53481547384e-39
-0.0282487653195 -0.0476697914766 0.954 9.73599752237e-39
-0.026483217487 -0.0476697914766 0.954 9.8325119541e-39
-0.0247176696545 -0.0476697914766 0.954 1.01119490848e-38
-0.0228799453383 -0.0475198864719 0.951 9.65136049643e-39
-0.0211199495431 -0.0475198864719 0.951 1.18647394468e-38
-0.0192988813385 -0.0473699814673 0.948 8.17730521454e-39
-0.0175444375805 -0.0473699814673 0.948 9.1835496158e-39
-0.0157566815992 -0.0472700447975 0.946 7.89785266959e-39
-0.0140059391993 -0.0472700447975 0.946 1.88637166048e-38
-0.0122551967994 -0.0472700447975 0.946 1.43662730056e-38
-0.0105044543995 -0.0472700447975 0.946 1.27067712862e-38
-0.00875371199954 -0.0472700447975 0.946 1.21597071683e-38
-0.0069807614508 -0.0471201397929 0.943 1.16983800957e-38
-0.0052355710881 -0.0471201397929 0.943 1.22508308049e-38
-0.0034903807254 -0.0471201397929 0.943 1.28976225319e-38
-0.0017451903627 -0.0471201397929 0.943 1.27121592788e-38
0.0 -0.0471201397929 0.943 1.30805816646e-38
0.0017451903627 -0.0471201397929 0.943 1.28040017815e-38
0.0034903807254 -0.0471201397929 0.943 1.30802285374e-38
0.0052355710881 -0.0471201397929 0.943 1.28979896721e-38
0.0069807614508 -0.0471201397929 0.943 1.31742164279e-38
0.00875371199954 -0.0472700447975 0.946 1.6580037313e-38
0.0105044543995 -0.0472700447975 0.946 1.48250805436e-38
0.0122551967994 -0.0472700447975 0.946 9.55089160043e-39
0.0140059391993 -0.0472700447975 0.946 1.1020259539e-38
0.0157899938224 -0.0473699814673 0.948 1.14794370197e-38
0.0175444375805 -0.0473699814673 0.948 1.2215914651e-38
0.0193599537478 -0.0475198864719 0.951 1.12039305313e-38
0.0211199495431 -0.0475198864719 0.951 1.95004554166e-38
0.0228799453383 -0.0475198864719 0.951 1.9892947906e-38
0.0247694886685 -0.0477697281463 0.956 2.34921605909e-38
-0.0318464854309 -0.0460004789557 0.956 2.34899983873e-38
-0.0300772362403 -0.0460004789557 0.956 7.90502731772e-39
-0.0282487653195 -0.0459042436441 0.954 9.55089160043e-39
-0.026483217487 -0.0459042436441 0.954 1.00179611942e-38
-0.0247176696545 -0.0459042436441 0.954 9.65169540676e-39
-0.0229521218221 -0.0459042436441 0.954 8.45030057616e-39
-0.0211199495431 -0.0457598906767 0.951 9.45941483668e-39
-0.0192988813385 -0.0456155377093 0.948 1.10349675676e-38
-0.0175444375805 -0.0456155377093 0.948 9.09171411964e-39
-0.0157566815992 -0.0455193023976 0.946 8.0815236619e-39
-0.0140059391993 -0.0455193023976 0.946 1.90466631258e-38
-0.0122551967994 -0.0455193023976 0.946 1.41804524214e-38
-0.0105044543995 -0.0455193023976 0.946 1.34436062486e-38
-0.00875371199954 -0.0455193023976 0.946 1.24359451346e-38
-0.00700296959964 -0.0455193023976 0.946 1.17916449163e-38
-0.00525222719973 -0.0455193023976 0.946 1.32624617974e-38
-0.00350148479982 -0.0455193023976 0.946 1.34454055159e-38
-0.0017451903627 -0.0453749494302 0.943 1.39056633978e-38
0.0 -0.0453749494302 0.943 1.37209162082e-38
0.0017451903627 -0.0453749494302 0.943 1.38134831822e-38
0.00350148479982 -0.0455193023976 0.946 1.35379696872e-38
0.00525222719973 -0.0455193023976 0.946 1.33575286879e-38
0.00700296959964 -0.0455193023976 0.946 1.36305156417e-38
0.00875371199954 -0.0455193023976 0.946 1.59311128098e-38
0.0105044543995 -0.0455193023976 0.946 1.42722725033e-38
0.0122811063063 -0.0456155377093 0.948 9.27538511196e-39
0.0140355500644 -0.0456155377093 0.948 1.08365885466e-38
0.0158399621573 -0.0457598906767 0.951 1.1755660973e-38
0.0176554783247 -0.0459042436441 0.954 1.23081088796e-38
0.0194210261571 -0.0459042436441 0.954 1.06529175543e-38
0.0211865739896 -0.0459042436441 0.954 2.06078945864e-38
0.0230002394779 -0.0460004789557 0.956 1.98003977477e-38
0.0247694886685 -0.0460004789557 0.956 2.34928780557e-38
-0.0337212233285 -0.0443700306954 0.959 2.20098404506e-38
-0.0319464221007 -0.0443700306954 0.959 2.34903697314e-38
-0.0300772362403 -0.0442312297651 0.956 6.42848473106e-39
-0.0283079870497 -0.0442312297651 0.956 9.4604910339e-39
-0.0265387378591 -0.0442312297651 0.956 9.00167789071e-39
-0.0247694886685 -0.0442312297651 0.956 1.00158214114e-38
-0.0229521218221 -0.0441386958117 0.954 1.19573330454e-38
-0.0211199495431 -0.0439998948814 0.951 1.00183227292e-38
-0.0192988813385 -0.0438610939512 0.948 9.00131355311e-39
-0.0175444375805 -0.0438610939512 0.948 1.00132976729e-38
-0.0157899938224 -0.0438610939512 0.948 8.17335915806e-39
-0.0140355500644 -0.0438610939512 0.948 1.92310529842e-38
-0.0122551967994 -0.0437685599977 0.946 1.49183677849e-38
-0.0105044543995 -0.0437685599977 0.946 1.2706418159e-38
-0.00875371199954 -0.0437685599977 0.946 1.19713516353e-38
-0.00700296959964 -0.0437685599977 0.946 1.40021792308e-38
-0.00525222719973 -0.0437685599977 0.946 1.36330211633e-38
-0.00350148479982 -0.0437685599977 0.946 1.39088821803e-38
-0.00175074239991 -0.0437685599977 0.946 1.42765913052e-38
0.0 -0.0437685599977 0.946 1.41861949425e-38
0.00175074239991 -0.0437685599977 0.946 1.40929287206e-38
0.00350148479982 -0.0437685599977 0.946 1.41851383635e-38
0.00526333127414 -0.0438610939512 0.948 1.37248692712e-38
0.00700296959964 -0.0437685599977 0.946 1.33524938225e-38
0.00875371199954 -0.0437685599977 0.946 1.64824719075e-38
0.0105044543995 -0.0437685599977 0.946 1.37183826606e-38
0.0122811063063 -0.0438610939512 0.948 9.45905610427e-39
0.0140355500644 -0.0438610939512 0.948 1.15712725159e-38
0.0158399621573 -0.0439998948814 0.951 1.15712725159e-38
0.0176554783247 -0.0441386958117 0.954 1.26751047435e-38
0.0194210261571 -0.0441386958117 0.954 1.02855755697e-38
0.0211865739896 -0.0441386958117 0.954 2.14358629945e-38
0.0230002394779 -0.0442312297651 0.956 1.98936555618e-38
0.0247694886685 -0.0442312297651 0.956 2.34910731833e-38
