# .PCD v0.7 - Point Cloud Data file format
VERSION 0.7
FIELDS x y z rgb
SIZE 4 4 4 4
TYPE F F F F
COUNT 1 1 1 1
WIDTH 841
HEIGHT 1
VIEWPOINT 0 0 0 1 0 0 0
POINTS 841
DATA ascii
-0.0111410879994 -0.0795791999959 0.86 1.05711728084e-38
-0.00952729585067 -0.0793941320889 0.858 1.16753483542e-38
-0.0079023996275 -0.079023996275 0.854 8.54572339639e-39
-0.006321919702 -0.079023996275 0.854 1.29585117527e-38
-0.0047414397765 -0.079023996275 0.854 1.15824058322e-38
-0.00314985577658 -0.0787463944145 0.851 1.13029406756e-38
-0.00157492788829 -0.0787463944145 0.851 1.19497884545e-38
0.0 -0.0785613265075 0.849 1.30550401975e-38
0.00157122653015 -0.0785613265075 0.849 1.13029406756e-38
0.00313505034402 -0.0783762586006 0.847 1.10270754547e-38
0.00470257551603 -0.0783762586006 0.847 1.14859194264e-38
0.00627010068805 -0.0783762586006 0.847 1.12046830286e-38
0.00783762586006 -0.0783762586006 0.847 1.30493144919e-38
0.00940515103207 -0.0783762586006 0.847 1.39802236865e-38
0.0109726762041 -0.0783762586006 0.847 1.30571491516e-38
0.0125402013761 -0.0783762586006 0.847 1.14841173566e-38
0.0141077265481 -0.0783762586006 0.847 1.19433046465e-38
0.0156752517201 -0.0783762586006 0.847 1.31457868847e-38
0.0172427768921 -0.0783762586006 0.847 1.34248849011e-38
0.0187658857665 -0.0781911906936 0.845 1.52698610839e-38
0.0203297095803 -0.0781911906936 0.845 1.44430347342e-38
0.0219453524082 -0.0783762586006 0.847 1.14877172924e-38
0.0235683979523 -0.0785613265075 0.849 1.56304095736e-38
0.0251988462126 -0.0787463944145 0.851 1.61017769498e-38
0.0267737741009 -0.0787463944145 0.851 1.30565003505e-38
0.0283487019892 -0.0787463944145 0.851 1.23063152176e-38
0.0300994443891 -0.0792090641819 0.856 1.40562441281e-38
0.0317576528356 -0.0793941320889 0.858 1.4886723663e-38
0.0333455354773 -0.0793941320889 0.858 1.52612543088e-38
0.0349334181191 -0.0793941320889 0.858 1.46187379434e-38
0.0365213007609 -0.0793941320889 0.858 1.95026232253e-38
0.0381091834027 -0.0793941320889 0.858 2.34961556928e-38
-0.015989867162 -0.0783503490936 0.864 1.1958396631e-38
-0.0143908804458 -0.0783503490936 0.864 1.29739932982e-38
-0.0127622828645 -0.0781689825448 0.862 1.04840148465e-38
-0.0111410879994 -0.0779876159959 0.86 1.03874990135e-38
-0.0095495039995 -0.0779876159959 0.86 1.10324564408e-38
-0.00793941320889 -0.0778062494471 0.858 1.25990814992e-38
-0.00633672513455 -0.0776248828983 0.856 1.08426982079e-38
-0.00475254385092 -0.0776248828983 0.856 1.15838561761e-38
-0.003160959851 -0.0774435163495 0.854 1.28746104085e-38
-0.0015804799255 -0.0774435163495 0.854 1.22285417515e-38
0.0 -0.0771714665262 0.851 1.09341679652e-38
0.00157492788829 -0.0771714665262 0.851 1.1113559392e-38
0.00314985577658 -0.0771714665262 0.851 1.29563985947e-38
0.00471367959045 -0.0769900999774 0.849 1.30579072541e-38
0.0062849061206 -0.0769900999774 0.849 9.91827001882e-39
0.00787463944145 -0.0771714665262 0.851 1.54456651867e-38
0.00944956732974 -0.0771714665262 0.851 1.14905885529e-38
0.011024495218 -0.0771714665262 0.851 1.499152117e-38
0.0125994231063 -0.0771714665262 0.851 1.28717433518e-38
0.0141410387714 -0.0769900999774 0.849 1.3148680566e-38
0.0157122653015 -0.0769900999774 0.849 1.26884465062e-38
0.0172834918317 -0.0769900999774 0.849 1.19468807602e-38
0.0188103020641 -0.0768087334286 0.847 1.26855318054e-38
0.0203778272361 -0.0768087334286 0.847 1.58223566347e-38
0.0220489904361 -0.0771714665262 0.851 1.14852187772e-38
0.0236239183244 -0.0771714665262 0.851 1.35952869983e-38
0.025287678808 -0.0774435163495 0.854 1.1571296338e-38
0.0268681587335 -0.0774435163495 0.854 1.34079824391e-38
0.028448638659 -0.0774435163495 0.854 1.36888895318e-38
0.0301697701938 -0.0778062494471 0.858 1.36906831939e-38
0.0318316799983 -0.0779876159959 0.86 1.4890676726e-38
0.0334232639983 -0.0779876159959 0.86 1.5353099614e-38
0.0350148479982 -0.0779876159959 0.86 1.51704809969e-38
0.0366064319981 -0.0779876159959 0.86 2.01483457615e-38
0.038198015998 -0.0779876159959 0.86 2.34979535587e-38
-0.0176499262875 -0.0770178601634 0.867 2.34889600252e-38
-0.016045387534 -0.0770178601634 0.867 1.13119580312e-38
-0.0143908804458 -0.0767513623774 0.864 1.1586005768e-38
-0.0127918937296 -0.0767513623774 0.864 1.24222488434e-38
-0.0111669975064 -0.0765736971867 0.862 8.08798084523e-39
-0.0095495039995 -0.076396031996 0.86 1.49065310168e-38
-0.00795791999959 -0.076396031996 0.86 8.26808973685e-39
-0.00635153056711 -0.0762183668053 0.858 1.19432780218e-38
-0.00475254385092 -0.0760407016146 0.856 1.21373830825e-38
-0.00316836256728 -0.0760407016146 0.856 1.18640345937e-38
-0.0015804799255 -0.075863036424 0.854 1.06611782088e-38
0.0 -0.075863036424 0.854 1.13962433312e-38
0.00157492788829 -0.0755965386379 0.851 1.26913149642e-38
0.00314985577658 -0.0755965386379 0.851 1.36107573333e-38
0.00472478366487 -0.0755965386379 0.851 1.26952652245e-38
0.00629971155316 -0.0755965386379 0.851 1.34306204158e-38
0.00787463944145 -0.0755965386379 0.851 1.02866727864e-38
0.00944956732974 -0.0755965386379 0.851 1.49918770998e-38
0.011024495218 -0.0755965386379 0.851 1.30579072541e-38
0.0125994231063 -0.0755965386379 0.851 1.30586373306e-38
0.0141743509946 -0.0755965386379 0.851 1.42578825694e-38
0.0157492788829 -0.0755965386379 0.851 1.31504560112e-38
0.0173242067712 -0.0755965386379 0.851 1.42546175439e-38
0.0188991346595 -0.0755965386379 0.851 1.20419294337e-38
0.0204740625478 -0.0755965386379 0.851 1.05610932686e-38
0.022126718957 -0.075863036424 0.854 1.25818427255e-38
0.0237071988825 -0.075863036424 0.854 1.23059718995e-38
0.025287678808 -0.075863036424 0.854 1.2673304075e-38
0.0269940049102 -0.0762183668053 0.858 1.3593088361e-38
0.028581887552 -0.0762183668053 0.858 1.24896442931e-38
0.0302400959984 -0.076396031996 0.86 1.45186642136e-38
0.0318316799983 -0.076396031996 0.86 1.40601649612e-38
0.0335009925192 -0.0765736971867 0.862 1.53516646844e-38
0.0350962778772 -0.0765736971867 0.862 1.40634117698e-38
0.0366915632353 -0.0765736971867 0.862 2.08902043789e-38
0.0382868485934 -0.0765736971867 0.862 2.34993982974e-38
-0.0178127860456 -0.0761091767402 0.875 2.34914921715e-38
-0.016045387534 -0.07541332141 0.867 1.15874855391e-38
-0.0144408487806 -0.07541332141 0.867 1.15888784298e-38
-0.0128363100272 -0.07541332141 0.867 1.07548536098e-38
-0.0111669975064 -0.0749784118287 0.862 1.06662382975e-38
-0.00957171214834 -0.0749784118287 0.862 1.15845722396e-38
-0.00795791999959 -0.0748044479961 0.86 1.10335690718e-38
-0.00636633599967 -0.0748044479961 0.86 1.34259933282e-38
-0.00476364792533 -0.0746304841636 0.858 8.45173550579e-39
-0.00316836256728 -0.074456520331 0.856 1.00100802916e-38
-0.0015804799255 -0.0742825564985 0.854 1.12042892637e-38
0.0 -0.0742825564985 0.854 1.30589666358e-38
0.0015804799255 -0.0742825564985 0.854 1.26909324097e-38
0.003160959851 -0.0742825564985 0.854 1.21388320251e-38
0.00472478366487 -0.0740216107496 0.851 9.64276913554e-39
0.00629971155316 -0.0740216107496 0.851 1.0928443661e-38
0.0079023996275 -0.0742825564985 0.854 1.09284240428e-38
0.00948287955299 -0.0742825564985 0.854 1.13876015236e-38
0.011024495218 -0.0740216107496 0.851 1.17549477121e-38
0.0125994231063 -0.0740216107496 0.851 1.11121034429e-38
0.0141743509946 -0.0740216107496 0.851 1.1020259539e-38
0.0157492788829 -0.0740216107496 0.851 1.19386145005e-38
0.0173242067712 -0.0740216107496 0.851 1.14794370197e-38
0.0188991346595 -0.0740216107496 0.851 1.13876029249e-38
0.0204740625478 -0.0740216107496 0.851 1.16631080121e-38
0.0221785379709 -0.074456520331 0.856 1.25814671775e-38
0.0237627192546 -0.074456520331 0.856 1.20333534871e-38
0.0253469005382 -0.074456520331 0.856 1.28569750673e-38
0.0269940049102 -0.0746304841636 0.858 1.26732984698e-38
0.028581887552 -0.0746304841636 0.858 1.87696306233e-38
0.0302400959984 -0.0748044479961 0.86 1.56440988583e-38
0.0319057071611 -0.0749784118287 0.862 1.34180647815e-38
0.0335009925192 -0.0749784118287 0.862 1.38768975429e-38
0.0351777077563 -0.0751523756612 0.864 1.64608484708e-38
0.0367766944725 -0.0751523756612 0.864 1.9325379989e-38
0.0383756811887 -0.0751523756612 0.864 2.34997542273e-38
-0.0178127860456 -0.0744898325543 0.875 2.34940131074e-38
-0.0161934418596 -0.0744898325543 0.875 9.37659109095e-39
-0.0145074732272 -0.0741493076054 0.871 1.12186834015e-38
-0.0128659208924 -0.073979045131 0.869 1.14009096551e-38
-0.0111929070134 -0.073553388945 0.864 1.04721374407e-38
-0.00957171214834 -0.0733831264706 0.862 1.13958523689e-38
-0.00795791999959 -0.0732128639962 0.86 1.45344918797e-38
-0.00636633599967 -0.0732128639962 0.86 8.72831819148e-39
-0.00477475199975 -0.0732128639962 0.86 1.42614418675e-38
-0.00317576528356 -0.0730426015218 0.858 1.43511515939e-38
-0.00158788264178 -0.0730426015218 0.858 1.38930853427e-38
0.0 -0.0728723390474 0.856 8.63433030089e-39
0.0015804799255 -0.072702076573 0.854 1.12039417417e-38
0.003160959851 -0.072702076573 0.854 1.03774110659e-38
0.0047414397765 -0.072702076573 0.854 1.11120950351e-38
0.006321919702 -0.072702076573 0.854 1.11120950351e-38
0.0079023996275 -0.072702076573 0.854 1.1020259539e-38
0.00948287955299 -0.072702076573 0.854 1.12957660274e-38
0.0110633594785 -0.072702076573 0.854 1.15712725159e-38
0.012643839404 -0.072702076573 0.854 1.11120950351e-38
0.0142243193295 -0.072702076573 0.854 1.1020259539e-38
0.015804799255 -0.072702076573 0.854 1.16631080121e-38
0.0173852791805 -0.072702076573 0.854 1.35027200243e-38
0.018965759106 -0.072702076573 0.854 1.29592572435e-38
0.0205462390315 -0.072702076573 0.854 1.67503693453e-38
0.0222303569849 -0.0730426015218 0.858 1.59217016893e-38
0.0238182396267 -0.0730426015218 0.858 1.00133088833e-38
0.0254061222684 -0.0730426015218 0.858 1.53484276849e-38
0.0270569279986 -0.0732128639962 0.86 1.91432167939e-38
0.0286485119985 -0.0732128639962 0.86 1.25962732971e-38
0.0303104218031 -0.0733831264706 0.862 1.30406404544e-38
0.0319057071611 -0.0733831264706 0.862 1.43350044316e-38
0.0335009925192 -0.0733831264706 0.862 1.50761567946e-38
0.0351777077563 -0.073553388945 0.864 1.54474196124e-38
0.0367766944725 -0.073553388945 0.864 2.02433832247e-38
-0.0195431709757 -0.073286891159 0.88 2.34925599609e-38
-0.0178127860456 -0.0728704883683 0.875 2.3496522833e-38
-0.0161934418596 -0.0728704883683 0.875 8.91594785196e-39
-0.0145740976737 -0.0728704883683 0.875 1.25079606653e-38
-0.0128955317575 -0.0725373661358 0.871 1.05715413499e-38
-0.0112835902878 -0.0725373661358 0.871 1.13984083373e-38
-0.00959392029717 -0.0719544022288 0.864 1.22288570437e-38
-0.00797642679028 -0.0717878411125 0.862 9.18606074265e-39
-0.00638114143223 -0.0717878411125 0.862 1.29639389817e-38
-0.00477475199975 -0.0716212799963 0.86 1.379878216e-38
-0.00318316799983 -0.0716212799963 0.86 1.23217771448e-38
-0.00159158399992 -0.0716212799963 0.86 9.64595568825e-39
0.0 -0.07145471888 0.858 1.1954039994e-38
0.00158418128364 -0.0712881577637 0.856 1.45262480409e-38
0.00316836256728 -0.0712881577637 0.856 1.27878265933e-38
0.00475254385092 -0.0712881577637 0.856 1.60135175673e-38
0.006321919702 -0.0711215966475 0.854 1.32473431883e-38
0.0079023996275 -0.0711215966475 0.854 1.43537103648e-38
0.00948287955299 -0.0711215966475 0.854 1.39845522974e-38
0.0110633594785 -0.0711215966475 0.854 1.59210164543e-38
0.012643839404 -0.0711215966475 0.854 1.50001209387e-38
0.0142243193295 -0.0711215966475 0.854 1.51845458295e-38
0.015804799255 -0.0711215966475 0.854 1.62915618073e-38
0.0173852791805 -0.0711215966475 0.854 1.3057188388e-38
0.0190101754037 -0.0712881577637 0.856 1.38873049866e-38
0.0205943566873 -0.0712881577637 0.856 9.55196779765e-39
0.0222303569849 -0.07145471888 0.858 1.60031521625e-38
0.0238182396267 -0.07145471888 0.858 1.64731336545e-38
0.0254653439987 -0.0716212799963 0.86 1.34288253524e-38
0.0270569279986 -0.0716212799963 0.86 1.15712725159e-38
0.0286485119985 -0.0716212799963 0.86 1.34079824391e-38
0.0303104218031 -0.0717878411125 0.862 1.41462873636e-38
0.0319057071611 -0.0717878411125 0.862 1.41498872993e-38
0.0335787210401 -0.0719544022288 0.864 1.47974273197e-38
0.0351777077563 -0.0719544022288 0.864 1.57290217492e-38
0.0367766944725 -0.0719544022288 0.864 1.95051021223e-38
-0.0195431709757 -0.0716582935777 0.88 2.31212733211e-38
-0.0179145733944 -0.0716582935777 0.88 2.34950836995e-38
-0.0162489622317 -0.0714954338195 0.878 1.06698312268e-38
-0.0145740976737 -0.0712511441823 0.875 1.25086459002e-38
-0.0129251426226 -0.0710882844242 0.873 1.19591225036e-38
-0.0112835902878 -0.0709254246661 0.871 1.02027392123e-38
-0.00962723252043 -0.0705997051498 0.867 8.63468903329e-39
-0.00799493358098 -0.0703554155126 0.864 1.15820863362e-38
-0.00638114143223 -0.0701925557545 0.862 1.05639589239e-38
-0.00478585607417 -0.0701925557545 0.862 1.01937400735e-38
-0.00318316799983 -0.0700296959964 0.86 1.1572742478e-38
-0.00159158399992 -0.0700296959964 0.86 1.09302597438e-38
0.0 -0.0698668362382 0.858 1.48089459931e-38
0.00158788264178 -0.0698668362382 0.858 1.30661903293e-38
0.00317576528356 -0.0698668362382 0.858 1.2696319001e-38
0.00476364792533 -0.0698668362382 0.858 1.01062093663e-38
0.00633672513455 -0.0697039764801 0.856 1.10202889662e-38
0.00792090641819 -0.0697039764801 0.856 1.04732094341e-38
0.00950508770183 -0.0697039764801 0.856 1.02855755697e-38
0.0110892689855 -0.0697039764801 0.856 1.13876071288e-38
0.0126734502691 -0.0697039764801 0.856 1.24035807453e-38
0.0142576315527 -0.0697039764801 0.856 1.2961771173e-38
0.0158418128364 -0.0697039764801 0.856 1.07476691526e-38
0.01742599412 -0.0697039764801 0.856 1.6097561844e-38
0.0190545917013 -0.0698668362382 0.858 1.64749133035e-38
0.0206424743431 -0.0698668362382 0.858 1.4720697821e-38
0.0222821759988 -0.0700296959964 0.86 1.12078765878e-38
0.0238737599988 -0.0700296959964 0.86 1.16631080121e-38
0.0254653439987 -0.0700296959964 0.86 1.2489634484e-38
0.027119851087 -0.0701925557545 0.862 1.37774768181e-38
0.028715136445 -0.0701925557545 0.862 1.36863671946e-38
0.0303807476077 -0.0703554155126 0.864 1.47945126189e-38
0.0320907750681 -0.0705997051498 0.867 1.43367770742e-38
0.0336953138215 -0.0705997051498 0.867 1.55339077536e-38
0.035381282454 -0.0707625649079 0.869 1.47112628784e-38
0.0369895225655 -0.0707625649079 0.869 2.03363117336e-38
-0.0195431709757 -0.0700296959964 0.88 2.34900292159e-38
-0.0179145733944 -0.0700296959964 0.88 2.3495799763e-38
-0.0162489622317 -0.0698705375964 0.878 9.93546815488e-39
-0.0145740976737 -0.0696317999964 0.875 1.29711108272e-38
-0.0129547534877 -0.0696317999964 0.875 1.13123111584e-38
-0.0112835902878 -0.0693134831964 0.871 1.1683244671e-38
-0.00964944066926 -0.0691543247964 0.869 1.0483970005e-38
-0.00802269376702 -0.0689951663964 0.867 9.45977356909e-39
-0.00641815501362 -0.0689951663964 0.867 1.07447530505e-38
-0.00479696014859 -0.0687564287964 0.864 1.30621714053e-38
-0.00319057071611 -0.0685972703964 0.862 1.05647044147e-38
-0.00159528535806 -0.0685972703964 0.862 1.23174737572e-38
0.0 -0.0684381119964 0.86 9.36722060812e-39
0.00159158399992 -0.0684381119964 0.86 1.05610820582e-38
0.00318316799983 -0.0684381119964 0.86 1.06529511855e-38
0.00477475199975 -0.0684381119964 0.86 1.21266379259e-38
0.00635153056711 -0.0682789535964 0.858 1.34162893364e-38
0.00793941320889 -0.0682789535964 0.858 1.3059747159e-38
0.00952729585067 -0.0682789535964 0.858 1.26866108052e-38
0.0111151784924 -0.0682789535964 0.858 1.5726561069e-38
0.0127030611342 -0.0682789535964 0.858 1.2783848307e-38
0.0143242559993 -0.0684381119964 0.86 1.20358898373e-38
0.0158788264178 -0.0682789535964 0.858 1.09284506675e-38
0.0174667090596 -0.0682789535964 0.858 1.12039347352e-38
0.0190545917013 -0.0682789535964 0.858 1.09284240428e-38
0.0206905919989 -0.0684381119964 0.86 1.14794370197e-38
0.0222821759988 -0.0684381119964 0.86 1.28569806725e-38
0.0238737599988 -0.0684381119964 0.86 1.28569694621e-38
0.0254653439987 -0.0684381119964 0.86 1.28577009399e-38
0.027119851087 -0.0685972703964 0.862 1.34087069104e-38
0.028715136445 -0.0685972703964 0.862 1.38707766712e-38
0.0305565621193 -0.0691543247964 0.869 1.45183012773e-38
0.0321648022309 -0.0691543247964 0.869 1.44307481492e-38
0.0337730423424 -0.0691543247964 0.869 1.44293356404e-38
0.035462712333 -0.0693134831964 0.871 1.71065527902e-38
-0.0195431709757 -0.068401098415 0.88 2.34892865277e-38
-0.0179145733944 -0.068401098415 0.88 2.34972416991e-38
-0.0162489622317 -0.0682456413732 0.878 1.0950693478e-38
-0.0146240660085 -0.0682456413732 0.878 1.20462664525e-38
-0.0129547534877 -0.0680124558104 0.875 1.16803692065e-38
-0.0113094997948 -0.0678569987686 0.873 1.13137362789e-38
-0.00964944066926 -0.0675460846849 0.869 1.25108263207e-38
-0.00804120055772 -0.0675460846849 0.869 1.08463331762e-38
-0.00641815501362 -0.067390627643 0.867 1.15810045337e-38
-0.00481361626021 -0.067390627643 0.867 9.55090421212e-39
-0.00319797343239 -0.0671574420802 0.864 1.05610820582e-38
-0.0015989867162 -0.0671574420802 0.864 1.11121174559e-38
0.0 -0.0670019850384 0.862 1.07454985413e-38
0.00159528535806 -0.0670019850384 0.862 1.52634375318e-38
0.00319057071611 -0.0670019850384 0.862 1.33391730793e-38
0.00478585607417 -0.0670019850384 0.862 1.17678746905e-38
0.00636633599967 -0.0668465279965 0.86 1.11121258637e-38
0.00795791999959 -0.0668465279965 0.86 1.12043327039e-38
0.0095495039995 -0.0668465279965 0.86 1.30442782252e-38
0.0111410879994 -0.0668465279965 0.86 1.34162865338e-38
0.0127326719993 -0.0668465279965 0.86 1.30611162276e-38
0.0143242559993 -0.0668465279965 0.86 1.33362709902e-38
0.0159158399992 -0.0668465279965 0.86 1.59148647541e-38
0.0175074239991 -0.0668465279965 0.86 1.10242728578e-38
0.019099007999 -0.0668465279965 0.86 1.21244547029e-38
0.0206905919989 -0.0668465279965 0.86 1.2214120989e-38
0.0223339950128 -0.0670019850384 0.862 1.30406502635e-38
0.0239292803708 -0.0670019850384 0.862 1.24896400892e-38
0.0255245657289 -0.0670019850384 0.862 1.33161469429e-38
0.027119851087 -0.0670019850384 0.862 1.29502468944e-38
0.0287817608915 -0.0671574420802 0.864 1.43335526864e-38
0.0305565621193 -0.0675460846849 0.869 1.35070108002e-38
0.0321648022309 -0.0675460846849 0.869 1.51640392278e-38
0.0338507708634 -0.0677015417267 0.871 1.38768975429e-38
0.035462712333 -0.0677015417267 0.871 1.60934938745e-38
-0.0195431709757 -0.0667725008337 0.88 2.34867978216e-38
-0.0179145733944 -0.0667725008337 0.88 2.34961626993e-38
-0.0162489622317 -0.06662074515 0.878 1.21495869908e-38
-0.0146240660085 -0.06662074515 0.878 1.25068858694e-38
-0.0129547534877 -0.0663931116244 0.875 1.14023333743e-38
-0.0113094997948 -0.0662413559407 0.873 1.07580457677e-38
-0.0096716488181 -0.066089600257 0.871 9.92110344432e-39
-0.00804120055772 -0.0659378445733 0.869 1.1397336344e-38
-0.00643296044618 -0.0659378445733 0.869 1.20462818667e-38
-0.00481361626021 -0.0657860888896 0.867 1.11211011803e-38
-0.00320907750681 -0.0657860888896 0.867 1.17657489207e-38
-0.0015989867162 -0.065558455364 0.864 1.13937265992e-38
0.0 -0.0654066996803 0.862 1.01040569718e-38
0.00159528535806 -0.0654066996803 0.862 1.09284240428e-38
0.00319057071611 -0.0654066996803 0.862 1.07447530505e-38
0.00478585607417 -0.0654066996803 0.862 1.09284240428e-38
0.00638114143223 -0.0654066996803 0.862 1.14794594405e-38
0.00795791999959 -0.0652549439966 0.86 1.29563607596e-38
0.0095495039995 -0.0652549439966 0.86 1.23059592878e-38
0.0111410879994 -0.0652549439966 0.86 1.21223093149e-38
0.0127326719993 -0.0652549439966 0.86 1.14794594405e-38
0.0143242559993 -0.0652549439966 0.86 1.15712921341e-38
0.0159158399992 -0.0652549439966 0.86 1.18467888135e-38
0.0175481389386 -0.0654066996803 0.862 1.1571282325e-38
0.0191434242967 -0.0654066996803 0.862 1.15712725159e-38
0.0207387096547 -0.0654066996803 0.862 1.26747418072e-38
0.0223339950128 -0.0654066996803 0.862 1.19386649473e-38
0.0239292803708 -0.0654066996803 0.862 1.70179907273e-38
0.0255837874591 -0.065558455364 0.864 1.50869776214e-38
0.0271827741753 -0.065558455364 0.864 1.16674128009e-38
0.0287817608915 -0.065558455364 0.864 1.35963351696e-38
0.0305565621193 -0.0659378445733 0.869 1.37807306332e-38
0.0321648022309 -0.0659378445733 0.869 1.44279189276e-38
0.0338507708634 -0.066089600257 0.871 1.57250812979e-38
0.0355441422121 -0.0662413559407 0.873 1.50761147557e-38
-0.0195431709757 -0.0651439032524 0.88 2.34903921522e-38
-0.0179145733944 -0.0651439032524 0.88 2.34943634321e-38
-0.0162859758131 -0.0651439032524 0.88 1.16889675739e-38
-0.0146240660085 -0.0649958489268 0.878 1.23192730245e-38
-0.0129991697854 -0.0649958489268 0.878 1.04764324205e-38
-0.0113354093017 -0.0647737674385 0.875 1.03853326061e-38
-0.0096716488181 -0.0644776587873 0.871 1.01019129852e-38
-0.00805970734842 -0.0644776587873 0.871 1.20434120075e-38
-0.00644776587873 -0.0644776587873 0.871 1.12147009113e-38
-0.00482472033463 -0.0643296044618 0.869 1.14877172924e-38
-0.00321648022309 -0.0643296044618 0.869 1.27841593952e-38
-0.0016045387534 -0.0641815501362 0.867 1.31537056223e-38
0.0 -0.0639594686478 0.864 1.13047707714e-38
0.0015989867162 -0.0639594686478 0.864 1.12089780083e-38
0.00319797343239 -0.0639594686478 0.864 1.31465197638e-38
0.00478585607417 -0.0638114143223 0.862 1.22267116557e-38
0.00638114143223 -0.0638114143223 0.862 1.26851786782e-38
0.00797642679028 -0.0638114143223 0.862 9.82639808891e-39
0.00957171214834 -0.0638114143223 0.862 1.19386145005e-38
0.0111669975064 -0.0638114143223 0.862 1.19386145005e-38
0.0127622828645 -0.0638114143223 0.862 1.12957660274e-38
0.0143575682225 -0.0638114143223 0.862 1.2214120989e-38
0.0159528535806 -0.0638114143223 0.862 1.24082092341e-38
0.0175481389386 -0.0638114143223 0.862 1.59134186141e-38
0.0191434242967 -0.0638114143223 0.862 1.46256029046e-38
0.0207387096547 -0.0638114143223 0.862 1.67479198755e-38
0.0223858140267 -0.0639594686478 0.864 1.29686109108e-38
0.0239848007429 -0.0639594686478 0.864 1.06601244323e-38
0.0255837874591 -0.0639594686478 0.864 1.66553038561e-38
0.0272771588079 -0.0641815501362 0.867 1.25055238073e-38
0.0289483220078 -0.0643296044618 0.869 1.35959582203e-38
0.030626887924 -0.0644776587873 0.871 1.30446131356e-38
0.0322388293937 -0.0644776587873 0.871 1.71069619694e-38
0.0339284993843 -0.0646257131129 0.873 1.59145746853e-38
0.0355441422121 -0.0646257131129 0.873 1.60913681048e-38
0.0371597850399 -0.0646257131129 0.873 2.07036859481e-38
-0.0195431709757 -0.0635153056711 0.88 2.34875110826e-38
-0.0179145733944 -0.0635153056711 0.88 2.34929186933e-38
-0.0162859758131 -0.0635153056711 0.88 1.26091386183e-38
-0.0146573782318 -0.0635153056711 0.88 1.43504453394e-38
-0.0129991697854 -0.0633709527037 0.878 1.13090671525e-38
-0.0113742735622 -0.0633709527037 0.878 1.13076448345e-38
-0.00971606511577 -0.0631544232525 0.875 9.91859231747e-39
-0.00805970734842 -0.0628657173177 0.871 1.01019045774e-38
-0.00644776587873 -0.0628657173177 0.871 1.32415600295e-38
-0.00483582440905 -0.0628657173177 0.871 1.18582584414e-38
-0.00321648022309 -0.0627213643502 0.869 9.37044919978e-39
-0.00160824011154 -0.0627213643502 0.869 1.23164045665e-38
0.0 -0.0625770113828 0.867 1.16721015456e-38
0.0016045387534 -0.0625770113828 0.867 1.25036670868e-38
0.00320907750681 -0.0625770113828 0.867 1.29639207648e-38
0.00479696014859 -0.0623604819316 0.864 1.12147611671e-38
0.00639594686478 -0.0623604819316 0.864 1.12039305313e-38
0.00797642679028 -0.0622161289642 0.862 1.06583041456e-38
0.00957171214834 -0.0622161289642 0.862 1.16631136173e-38
0.0111669975064 -0.0622161289642 0.862 1.20304499967e-38
0.0127918937296 -0.0623604819316 0.864 1.05610932686e-38
0.0143908804458 -0.0623604819316 0.864 1.84009672142e-38
0.015989867162 -0.0623604819316 0.864 8.17766394694e-39
0.0175888538782 -0.0623604819316 0.864 1.35073639275e-38
0.0191878405943 -0.0623604819316 0.864 1.24971804762e-38
0.0207868273105 -0.0623604819316 0.864 1.53620469047e-38
0.0224635425477 -0.0625770113828 0.867 1.61972123817e-38
0.0240680813011 -0.0625770113828 0.867 1.39827796548e-38
0.0256726200545 -0.0625770113828 0.867 1.06529245608e-38
0.0273400818963 -0.0627213643502 0.869 1.28569806725e-38
0.0289483220078 -0.0627213643502 0.869 1.34998179352e-38
0.030626887924 -0.0628657173177 0.871 1.65602341631e-38
0.0324979244634 -0.0633709527037 0.878 1.57286714245e-38
0.0342005492075 -0.0635153056711 0.88 1.34166130363e-38
0.0359105766679 -0.0636596586385 0.882 1.5535670587e-38
0.0375428756073 -0.0636596586385 0.882 2.10724474481e-38
-0.0179552883339 -0.0620273596991 0.882 2.34925739739e-38
-0.0162859758131 -0.0618867080898 0.88 1.35339759866e-38
-0.0146573782318 -0.0618867080898 0.88 1.27802189439e-38
-0.0130287806505 -0.0618867080898 0.88 1.12200931078e-38
-0.0113742735622 -0.0617460564805 0.878 1.19537275045e-38
-0.00974937733903 -0.0617460564805 0.878 1.21374195163e-38
-0.00809672092981 -0.0615350790666 0.875 9.37044919978e-39
-0.00644776587873 -0.061253775848 0.871 1.03774110659e-38
-0.00483582440905 -0.061253775848 0.871 1.07469082475e-38
-0.00322388293937 -0.061253775848 0.871 1.12086094668e-38
-0.00160824011154 -0.0611131242387 0.869 1.1670666616e-38
0.0 -0.0611131242387 0.869 1.23189016804e-38
0.00160824011154 -0.0611131242387 0.869 1.10267349392e-38
0.00320907750681 -0.0609724726294 0.867 1.13933566564e-38
0.00479696014859 -0.0607614952154 0.864 1.20362219451e-38
0.00639594686478 -0.0607614952154 0.864 1.37901025173e-38
0.00799493358098 -0.0607614952154 0.864 1.09381756788e-38
0.00959392029717 -0.0607614952154 0.864 1.1754965929e-38
0.0111929070134 -0.0607614952154 0.864 1.17549435082e-38
0.0127918937296 -0.0607614952154 0.864 1.11120964364e-38
0.0143908804458 -0.0607614952154 0.864 1.64591066569e-38
0.015989867162 -0.0607614952154 0.864 9.64489630661e-39
0.0176499262875 -0.0609724726294 0.867 1.64594864087e-38
0.0192544650409 -0.0609724726294 0.867 1.37029235359e-38
0.0208590037943 -0.0609724726294 0.867 1.09359826467e-38
0.0225153615616 -0.0611131242387 0.869 1.01019087813e-38
0.0241236016732 -0.0611131242387 0.869 1.14794370197e-38
0.0257318417847 -0.0611131242387 0.869 1.29488161687e-38
0.0274030049846 -0.061253775848 0.871 1.47981251663e-38
0.0290149464543 -0.061253775848 0.871 1.87740461147e-38
0.0309433540449 -0.0618867080898 0.88 1.24136238514e-38
0.0325719516262 -0.0618867080898 0.88 1.4793461645e-38
0.0343948705098 -0.062238337113 0.885 1.5073651273e-38
0.0360327214865 -0.062238337113 0.885 1.55399865863e-38
-0.0179552883339 -0.0603950607596 0.882 2.34936431646e-38
-0.0163229893945 -0.0603950607596 0.882 1.35335962347e-38
-0.014690690455 -0.0603950607596 0.882 1.39809425526e-38
-0.0130583915156 -0.0603950607596 0.882 1.22385386148e-38
-0.0114001830692 -0.0602581105085 0.88 1.06673074883e-38
-0.00974937733903 -0.0601211602573 0.878 1.10267587612e-38
-0.00812448111586 -0.0601211602573 0.878 1.29674940759e-38
-0.00646257131129 -0.0597787846294 0.873 1.00201402133e-38
-0.00484692848347 -0.0597787846294 0.873 1.07476229097e-38
-0.00322388293937 -0.0596418343783 0.871 1.0469246562e-38
-0.00161194146968 -0.0596418343783 0.871 1.0469246562e-38
0.0 -0.0595048841271 0.869 1.12039361365e-38
0.00160824011154 -0.0595048841271 0.869 1.10202819597e-38
0.00320907750681 -0.059367933876 0.867 1.3512793959e-38
0.00481361626021 -0.059367933876 0.867 1.47163846243e-38
0.00639594686478 -0.0591625084992 0.864 9.82641350319e-39
0.00799493358098 -0.0591625084992 0.864 1.29599705044e-38
0.00959392029717 -0.0591625084992 0.864 1.12957660274e-38
0.0111929070134 -0.0591625084992 0.864 1.20304570032e-38
0.0128363100272 -0.059367933876 0.867 1.12957660274e-38
0.0144408487806 -0.059367933876 0.867 1.40616167065e-38
0.016045387534 -0.059367933876 0.867 1.22145119513e-38
0.0176499262875 -0.059367933876 0.867 1.71052061424e-38
0.0192988813385 -0.0595048841271 0.869 1.44469751854e-38
0.0209071214501 -0.0595048841271 0.869 1.30636876103e-38
0.0225671805756 -0.0596418343783 0.871 1.03820745871e-38
0.0241791220453 -0.0596418343783 0.871 1.68264346285e-38
0.0257910635149 -0.0596418343783 0.871 1.46209772184e-38
0.0274030049846 -0.0596418343783 0.871 1.48935605982e-38
0.0290815709008 -0.0597787846294 0.873 1.25850769224e-38
0.0308730282403 -0.0601211602573 0.878 1.44214491326e-38
0.032645978789 -0.0603950607596 0.882 1.50714750565e-38
0.0343948705098 -0.0606004861364 0.885 1.66423908908e-38
0.0361141513656 -0.0607374363875 0.887 1.43436714627e-38
-0.0163785097666 -0.0589626351597 0.885 1.40871455619e-38
-0.0147406587899 -0.0589626351597 0.885 1.28756669875e-38
-0.0131028078133 -0.0589626351597 0.885 1.03910583116e-38
-0.0114260925761 -0.0587627618202 0.882 1.18640528106e-38
-0.00977158548786 -0.0586295129272 0.88 1.10317585942e-38
-0.00812448111586 -0.0584962640342 0.878 1.02855923853e-38
-0.00649958489268 -0.0584962640342 0.878 1.07483515849e-38
-0.00485803255789 -0.0582963906946 0.875 1.10213357362e-38
-0.00323128565565 -0.0581631418016 0.873 1.08365885466e-38
-0.00161564282782 -0.0581631418016 0.873 1.11135299647e-38
0.0 -0.0580298929086 0.871 1.07447530505e-38
0.00161194146968 -0.0580298929086 0.871 1.4429362265e-38
0.00321648022309 -0.0578966440156 0.869 1.21334061975e-38
0.00482472033463 -0.0578966440156 0.869 1.37879333073e-38
0.00641815501362 -0.0577633951226 0.867 1.06572223432e-38
0.00802269376702 -0.0577633951226 0.867 1.2684478029e-38
0.00962723252043 -0.0577633951226 0.867 1.12039333339e-38
0.0112317712738 -0.0577633951226 0.867 1.20304527993e-38
0.0128659208924 -0.0578966440156 0.869 1.14794370197e-38
0.0144741610039 -0.0578966440156 0.869 1.4893503145e-38
0.0160824011154 -0.0578966440156 0.869 1.06529175543e-38
0.017690641227 -0.0578966440156 0.869 1.52601430791e-38
0.0193432976362 -0.0580298929086 0.871 1.39744783627e-38
0.0209552391059 -0.0580298929086 0.871 1.62847963383e-38
0.0225671805756 -0.0580298929086 0.871 1.58277614428e-38
0.0241791220453 -0.0580298929086 0.871 1.01948162708e-38
0.0258502852452 -0.0581631418016 0.873 1.33161679624e-38
0.027465928073 -0.0581631418016 0.873 1.24896414905e-38
0.0291481953473 -0.0582963906946 0.875 1.432888356e-38
0.0308730282403 -0.0584962640342 0.878 1.30456725172e-38
0.0327570195332 -0.0589626351597 0.885 1.62711126588e-38
0.0344725990308 -0.0590958840527 0.887 1.64645212741e-38
0.0361141513656 -0.0590958840527 0.887 1.28713930272e-38
0.0377557037004 -0.0590958840527 0.887 2.18063579006e-38
-0.0164525369294 -0.0575838792528 0.889 1.52856859475e-38
-0.0147739710132 -0.0574543317179 0.887 1.26894792632e-38
-0.0131324186784 -0.0574543317179 0.887 1.18647562624e-38
-0.0114649568366 -0.0573247841831 0.885 1.11250654537e-38
-0.0097937936367 -0.0571304628807 0.882 1.0758408704e-38
-0.00814298790655 -0.0570009153459 0.88 1.07476537383e-38
-0.00649958489268 -0.056871367811 0.878 1.02855755697e-38
-0.00487468866951 -0.056871367811 0.878 1.08390996735e-38
-0.00323868837192 -0.0566770465087 0.875 1.01937400735e-38
-0.00161934418596 -0.0566770465087 0.875 1.08365885466e-38
0.0 -0.0566770465087 0.875 1.07447530505e-38
0.00161564282782 -0.0565474989738 0.873 1.09284240428e-38
0.00322388293937 -0.0564179514389 0.871 1.1020259539e-38
0.00483582440905 -0.0564179514389 0.871 1.1938621507e-38
0.00643296044618 -0.056288403904 0.869 1.14794370197e-38
0.00804120055772 -0.056288403904 0.869 1.24039156556e-38
0.00964944066926 -0.056288403904 0.869 1.13876071288e-38
0.0112576807808 -0.056288403904 0.869 1.19386145005e-38
0.0128659208924 -0.056288403904 0.869 1.18467790044e-38
0.0144741610039 -0.056288403904 0.869 1.21222854929e-38
0.0161194146968 -0.0564179514389 0.871 1.12957674287e-38
0.0177313561665 -0.0564179514389 0.871 1.53541253645e-38
0.0193432976362 -0.0564179514389 0.871 1.09284310493e-38
0.0209552391059 -0.0564179514389 0.871 1.13876015236e-38
0.0226189995895 -0.0565474989738 0.873 1.23059564852e-38
0.0242346424173 -0.0565474989738 0.873 1.30406502635e-38
0.0258502852452 -0.0565474989738 0.873 1.32268323827e-38
0.0275288511614 -0.0566770465087 0.875 1.3318311949e-38
0.0292481320171 -0.056871367811 0.878 1.28569932842e-38
0.0311191685565 -0.0573247841831 0.885 1.80274763319e-38
0.0327570195332 -0.0573247841831 0.885 1.555184017e-38
0.0343948705098 -0.0573247841831 0.885 1.84902635575e-38
0.0361141513656 -0.0574543317179 0.887 1.08394934384e-38
-0.0164525369294 -0.0559386255599 0.889 1.60236069162e-38
-0.0148072832364 -0.0559386255599 0.889 1.24125378451e-38
-0.0131620295435 -0.0559386255599 0.889 1.06636795265e-38
-0.0114908663436 -0.0558127793831 0.887 1.12122276195e-38
-0.00984931400879 -0.0558127793831 0.887 1.2601249308e-38
-0.00816149469725 -0.0554981639413 0.882 9.74281343811e-39
-0.00651439032524 -0.0553723177646 0.88 1.0654352484e-38
-0.00488579274393 -0.0553723177646 0.88 1.11128124999e-38
-0.00324979244634 -0.0552464715878 0.878 1.11135299647e-38
-0.00161934418596 -0.0550577023227 0.875 1.08380234763e-38
0.0 -0.0550577023227 0.875 1.35099100868e-38
0.00161564282782 -0.054931856146 0.873 1.25929536211e-38
0.00323128565565 -0.054931856146 0.873 1.07454705153e-38
0.00483582440905 -0.0548060099692 0.871 1.19386243096e-38
0.00644776587873 -0.0548060099692 0.871 1.10202777558e-38
0.00805970734842 -0.0548060099692 0.871 1.38779667336e-38
0.0096716488181 -0.0548060099692 0.871 1.13876043262e-38
0.0112835902878 -0.0548060099692 0.871 1.17549435082e-38
0.0128955317575 -0.0548060099692 0.871 1.23985178539e-38
0.0145074732272 -0.0548060099692 0.871 1.21222854929e-38
0.0161194146968 -0.0548060099692 0.871 1.23988709811e-38
0.0177313561665 -0.0548060099692 0.871 1.19386145005e-38
0.0193877139339 -0.054931856146 0.873 1.21222953019e-38
0.0210033567617 -0.054931856146 0.873 1.26740159346e-38
0.0226189995895 -0.054931856146 0.873 1.26733012724e-38
0.0242901627894 -0.0550577023227 0.875 1.30413635244e-38
0.0259983395707 -0.0552464715878 0.878 1.30410131998e-38
0.0276861588823 -0.0553723177646 0.88 1.44303697986e-38
0.0293813809101 -0.0554981639413 0.882 1.52583844495e-38
0.0311191685565 -0.0556869332064 0.885 1.66481684444e-38
0.0327570195332 -0.0556869332064 0.885 1.1389753918e-38
0.0343948705098 -0.0556869332064 0.885 2.34922012285e-38
0.0360327214865 -0.0556869332064 0.885 7.16388616514e-39
-0.0164525369294 -0.0542933718669 0.889 1.74065553772e-38
-0.0148072832364 -0.0542933718669 0.889 1.1308698611e-38
-0.0131620295435 -0.0542933718669 0.889 1.0661531336e-38
-0.0114908663436 -0.0541712270483 0.887 1.12097052822e-38
-0.00984931400879 -0.0541712270483 0.887 1.10238678825e-38
-0.00818925488329 -0.0540490822297 0.885 1.08419751379e-38
-0.0065291957578 -0.0538658650018 0.882 1.08373060115e-38
-0.00489689681835 -0.0538658650018 0.882 1.11124537675e-38
-0.00325719516262 -0.0537437201832 0.88 1.07461879801e-38
-0.00162489622317 -0.0536215753646 0.878 1.08365885466e-38
0.0 -0.0536215753646 0.878 1.12957660274e-38
0.00162489622317 -0.0536215753646 0.878 1.15734459298e-38
0.00323868837192 -0.0534383581368 0.875 1.26758264122e-38
0.00485803255789 -0.0534383581368 0.875 1.4892859949e-38
0.00647737674385 -0.0534383581368 0.875 9.55095185627e-39
0.00807821413911 -0.0533162133182 0.873 1.44307901882e-38
0.00969385696694 -0.0533162133182 0.873 1.15712725159e-38
0.0113094997948 -0.0533162133182 0.873 1.17549435082e-38
0.0129251426226 -0.0533162133182 0.873 1.19396906978e-38
0.0145407854504 -0.0533162133182 0.873 1.22148524668e-38
0.0161564282782 -0.0533162133182 0.873 1.23081088796e-38
0.0178127860456 -0.0534383581368 0.875 1.25814629736e-38
0.0194321302315 -0.0534383581368 0.875 1.23059606891e-38
0.0210514744175 -0.0534383581368 0.875 1.21222854929e-38
0.0227485471244 -0.0536215753646 0.878 1.36842176027e-38
0.0243734433476 -0.0536215753646 0.878 1.32264638412e-38
0.026057561301 -0.0537437201832 0.88 1.53602868738e-38
0.0277490819706 -0.0538658650018 0.882 1.56411701445e-38
0.0294813175799 -0.0540490822297 0.885 1.04692479633e-38
0.0311191685565 -0.0540490822297 0.885 1.57200744585e-38
0.0327570195332 -0.0540490822297 0.885 2.34868524723e-38
0.0343948705098 -0.0540490822297 0.885 2.24791703388e-38
0.0360327214865 -0.0540490822297 0.885 6.79618965199e-39
-0.0164525369294 -0.052648118174 0.889 1.74991069368e-38
-0.0148072832364 -0.052648118174 0.889 1.10331739056e-38
-0.0131620295435 -0.052648118174 0.889 1.22295787124e-38
-0.0115167758506 -0.052648118174 0.889 1.06622754255e-38
-0.00984931400879 -0.0525296747135 0.887 1.07483515849e-38
-0.00818925488329 -0.0524112312531 0.885 1.07458334516e-38
-0.00655140390664 -0.0524112312531 0.885 1.10213357362e-38
-0.00491355292998 -0.0524112312531 0.885 1.07447530505e-38
-0.00325719516262 -0.0521151226019 0.88 1.09291415076e-38
-0.00162859758131 -0.0521151226019 0.88 1.08365885466e-38
0.0 -0.0519966791415 0.878 1.18478636094e-38
0.00162489622317 -0.0519966791415 0.878 1.16724350546e-38
0.00324979244634 -0.0519966791415 0.878 1.27730863347e-38
0.00487468866951 -0.0519966791415 0.878 1.30564849362e-38
0.00647737674385 -0.0518190139508 0.875 9.27718718178e-39
0.00809672092981 -0.0518190139508 0.875 1.39716113061e-38
0.00971606511577 -0.0518190139508 0.875 1.12957660274e-38
0.0113354093017 -0.0518190139508 0.875 1.18467790044e-38
0.0129547534877 -0.0518190139508 0.875 1.15712725159e-38
0.0145740976737 -0.0518190139508 0.875 1.20304499967e-38
0.0161934418596 -0.0518190139508 0.875 1.26732984698e-38
0.0178127860456 -0.0518190139508 0.875 1.12039305313e-38
0.0194987546781 -0.0519966791415 0.878 1.39716085035e-38
0.0211236509012 -0.0519966791415 0.878 1.70248248599e-38
0.0228003661383 -0.0521151226019 0.88 1.28770738912e-38
0.0244289637197 -0.0521151226019 0.88 1.49915421895e-38
0.0261167830312 -0.0522335660624 0.882 1.06626033293e-38
0.0278434666032 -0.0524112312531 0.885 1.06529175543e-38
0.0295479420264 -0.0525296747135 0.887 2.15488202624e-38
0.0311894943612 -0.0525296747135 0.887 2.13753283021e-38
0.0329050738588 -0.052648118174 0.889 1.82417670969e-38
0.0345503275517 -0.052648118174 0.889 2.07303274345e-38
0.0361955812446 -0.052648118174 0.889 6.88802094426e-39
-0.0164895505108 -0.0511176065834 0.891 1.88798889903e-38
-0.0148405954597 -0.0511176065834 0.891 1.21406046677e-38
-0.0131916404086 -0.0511176065834 0.891 1.06629620617e-38
-0.0115426853575 -0.0511176065834 0.891 1.13083580954e-38
-0.00987152215763 -0.0510028644811 0.889 1.02902503014e-38
-0.00820776167399 -0.0508881223787 0.887 1.07465523177e-38
-0.00656620933919 -0.0508881223787 0.887 1.0654352484e-38
-0.00491355292998 -0.0507733802764 0.885 1.09298589724e-38
-0.0032645978789 -0.0506012671229 0.882 1.07462047957e-38
-0.00162859758131 -0.0504865250206 0.88 1.08365885466e-38
0.0 -0.0504865250206 0.88 1.12039361365e-38
0.00162859758131 -0.0504865250206 0.88 1.35152798625e-38
0.00325719516262 -0.0504865250206 0.88 1.12125919571e-38
0.00488579274393 -0.0504865250206 0.88 1.15752606113e-38
0.00649958489268 -0.0503717829183 0.878 1.00147326025e-38
0.00812448111586 -0.0503717829183 0.878 1.45237046842e-38
0.00974937733903 -0.0503717829183 0.878 1.1020259539e-38
0.0113742735622 -0.0503717829183 0.878 1.20304527993e-38
0.0129991697854 -0.0503717829183 0.878 1.12039305313e-38
0.0146240660085 -0.0503717829183 0.878 1.58133140557e-38
0.0162489622317 -0.0503717829183 0.878 1.52688339322e-38
0.0178738584549 -0.0503717829183 0.878 1.34202129721e-38
0.0195431709757 -0.0504865250206 0.88 1.62880165222e-38
0.021171768557 -0.0504865250206 0.88 1.26927218678e-38
0.0228003661383 -0.0504865250206 0.88 9.36722060812e-39
0.0244844840917 -0.0506012671229 0.882 1.00100690812e-38
0.0262056156265 -0.0507733802764 0.885 2.01623307202e-38
0.0279063896916 -0.0508881223787 0.887 2.2755732005e-38
0.0295479420264 -0.0508881223787 0.887 1.99020115045e-38
0.0312598201658 -0.0510028644811 0.889 1.3915059104e-38
0.0329050738588 -0.0510028644811 0.889 1.74185098544e-38
0.0345503275517 -0.0510028644811 0.889 2.20213997617e-38
0.0361955812446 -0.0510028644811 0.889 6.88837967666e-39
0.0380536630306 -0.0512897197369 0.894 2.34587886679e-38
-0.0148405954597 -0.0494686515323 0.891 1.26905764799e-38
-0.0131916404086 -0.0494686515323 0.891 1.23257596351e-38
-0.0115426853575 -0.0494686515323 0.891 9.92506071118e-39
-0.00987152215763 -0.0493576107881 0.889 1.07483726044e-38
-0.00820776167399 -0.0492465700439 0.887 1.13015239628e-38
-0.00656620933919 -0.0492465700439 0.887 1.04713989565e-38
-0.00492465700439 -0.0492465700439 0.887 1.11120978377e-38
-0.0032645978789 -0.0489689681835 0.882 1.08365899479e-38
-0.00163229893945 -0.0489689681835 0.882 1.08365899479e-38
0.0 -0.0488579274393 0.88 1.08365885466e-38
0.00162859758131 -0.0488579274393 0.88 1.36946670854e-38
0.00325719516262 -0.0488579274393 0.88 9.73850864922e-39
0.00488579274393 -0.0488579274393 0.88 1.29596173772e-38
0.00651439032524 -0.0488579274393 0.88 9.27538511196e-39
0.00814298790655 -0.0488579274393 0.88 1.55342608808e-38
0.00974937733903 -0.0487468866951 0.878 1.09284240428e-38
0.0113742735622 -0.0487468866951 0.878 1.16631080121e-38
0.0129991697854 -0.0487468866951 0.878 1.12039347352e-38
0.0146240660085 -0.0487468866951 0.878 1.54374185452e-38
0.0162859758131 -0.0488579274393 0.88 1.12957660274e-38
0.0179145733944 -0.0488579274393 0.88 9.55089160043e-39
0.0195431709757 -0.0488579274393 0.88 1.01019045774e-38
0.021171768557 -0.0488579274393 0.88 1.72845961679e-38
0.0228521851523 -0.0489689681835 0.882 2.04472343162e-38
0.0245677646499 -0.0491355292998 0.885 2.22962112061e-38
0.0262648373568 -0.0492465700439 0.887 1.95325003098e-38
0.0279063896916 -0.0492465700439 0.887 1.58468485292e-38
0.0296145664729 -0.0493576107881 0.889 1.40040639772e-38
0.0312598201658 -0.0493576107881 0.889 1.6035925731e-38
0.0329050738588 -0.0493576107881 0.889 1.7968812373e-38
0.0345503275517 -0.0493576107881 0.889 2.14689644668e-38
0.0362770111237 -0.0494686515323 0.891 6.61251445578e-39
0.0380536630306 -0.0496352126486 0.894 2.34587396225e-38
-0.0149238760178 -0.0480880449463 0.896 1.03882262874e-38
-0.0132656675714 -0.0480880449463 0.896 1.28774662548e-38
-0.011581549618 -0.0479807055603 0.894 1.12186834015e-38
-0.00989373030646 -0.0478196964812 0.891 1.00129557561e-38
-0.00822626846469 -0.0477123570952 0.889 1.09313135202e-38
-0.00658101477175 -0.0477123570952 0.889 1.1116413837e-38
-0.00492465700439 -0.0476050177091 0.887 1.09306002593e-38
-0.00327570195332 -0.0474976783231 0.885 1.12964862948e-38
-0.00163229893945 -0.047336669244 0.882 1.12039305313e-38
0.0 -0.047336669244 0.882 1.09284240428e-38
0.00163229893945 -0.047336669244 0.882 1.29531335692e-38
0.00325719516262 -0.047229329858 0.88 1.20394267147e-38
0.00488579274393 -0.047229329858 0.88 1.16756636463e-38
0.00651439032524 -0.047229329858 0.88 1.04735625613e-38
0.00814298790655 -0.047229329858 0.88 1.4984314292e-38
0.00977158548786 -0.047229329858 0.88 1.17549435082e-38
0.0114001830692 -0.047229329858 0.88 1.16649016741e-38
0.0130287806505 -0.047229329858 0.88 1.02855755697e-38
0.014690690455 -0.047336669244 0.882 2.01411585017e-38
0.0163229893945 -0.047336669244 0.882 2.03546281059e-38
0.0179552883339 -0.047336669244 0.882 2.1186263712e-38
0.0195875872734 -0.047336669244 0.882 2.05441186907e-38
0.0212920626966 -0.0474976783231 0.885 1.9441736807e-38
0.0229817326872 -0.0476050177091 0.887 1.81517196576e-38
0.024623285022 -0.0476050177091 0.887 1.47408891305e-38
0.0262648373568 -0.0476050177091 0.887 1.36378051963e-38
0.0279063896916 -0.0476050177091 0.887 1.51146981076e-38
0.0296145664729 -0.0477123570952 0.889 1.69571589596e-38
0.0312598201658 -0.0477123570952 0.889 1.74148973069e-38
0.0329050738588 -0.0477123570952 0.889 1.90715473839e-38
0.0346280560726 -0.0478196964812 0.891 2.10076359928e-38
0.0362770111237 -0.0478196964812 0.891 7.16424489754e-39
0.038223925505 -0.0481953843324 0.898 2.32786811776e-38
-0.0149571882411 -0.0465334745278 0.898 1.0298544587e-38
-0.0132952784365 -0.0465334745278 0.898 1.232499873e-38
-0.011607459125 -0.0464298364999 0.896 1.14002104072e-38
-0.00992704252972 -0.046326198472 0.894 1.23232204823e-38
-0.00824477525538 -0.0461707414302 0.891 9.27861370362e-39
-0.00658101477175 -0.0460671034023 0.889 1.08380290815e-38
-0.00493576107881 -0.0460671034023 0.889 1.11124537675e-38
-0.0032831046696 -0.0459634653743 0.887 1.12964862948e-38
-0.00163785097666 -0.0458598273464 0.885 1.41563458839e-38
0.0 -0.0458598273464 0.885 1.07490956744e-38
0.00163229893945 -0.0457043703046 0.882 1.23170926041e-38
0.0032645978789 -0.0457043703046 0.882 1.21337929558e-38
0.00489689681835 -0.0457043703046 0.882 1.23192730245e-38
0.0065291957578 -0.0457043703046 0.882 9.09174074431e-39
0.00816149469725 -0.0457043703046 0.882 1.59963180299e-38
0.0097937936367 -0.0457043703046 0.882 1.1020259539e-38
0.0114260925761 -0.0457043703046 0.882 1.20322534678e-38
0.0130583915156 -0.0457043703046 0.882 1.01937400735e-38
0.0147406587899 -0.0458598273464 0.885 2.34641822657e-38
0.0163785097666 -0.0458598273464 0.885 2.12809648635e-38
0.0180163607432 -0.0458598273464 0.885 1.5567019035e-38
0.0196542117199 -0.0458598273464 0.885 1.52954922342e-38
0.0213401803524 -0.0459634653743 0.887 1.31807548866e-38
0.0229817326872 -0.0459634653743 0.887 1.373322101e-38
0.024623285022 -0.0459634653743 0.887 1.50199941535e-38
0.0262648373568 -0.0459634653743 0.887 1.61288458322e-38
0.0279693127799 -0.0460671034023 0.889 1.76922044639e-38
0.0296145664729 -0.0460671034023 0.889 1.90733298355e-38
0.0312598201658 -0.0460671034023 0.889 1.81528126704e-38
0.0329050738588 -0.0460671034023 0.889 1.89814845303e-38
0.034744648854 -0.046326198472 0.894 2.08210769244e-38
0.0364805858214 -0.0464298364999 0.896 7.16352743273e-39
0.038223925505 -0.0465334745278 0.898 2.34652458513e-38
0.0402411656909 -0.0469480266394 0.906 2.34986766287e-38
-0.015007156576 -0.0450214697279 0.901 1.01145036519e-38
-0.0133396947342 -0.0450214697279 0.901 1.10321089188e-38
-0.011607459125 -0.0447716280535 0.896 1.20448595488e-38
-0.00994925067855 -0.0447716280535 0.896 1.1493828355e-38
-0.00827253544143 -0.0446716913837 0.894 1.2046982516e-38
-0.00659582020431 -0.0445217863791 0.891 9.82641350319e-39
-0.00494686515323 -0.0445217863791 0.891 1.10206182714e-38
-0.00329050738588 -0.0444218497093 0.889 1.11120950351e-38
-0.0016415523348 -0.0443219130396 0.887 1.07447530505e-38
0.0 -0.0443219130396 0.887 1.12957660274e-38
0.00163785097666 -0.0442219763698 0.885 1.10202735519e-38
0.00327570195332 -0.0442219763698 0.885 1.22213194592e-38
0.00491355292998 -0.0442219763698 0.885 1.26844457991e-38
0.00655140390664 -0.0442219763698 0.885 1.23181772091e-38
0.00818925488329 -0.0442219763698 0.885 1.43435957925e-38
0.00982710585995 -0.0442219763698 0.885 1.10202679467e-38
0.0114649568366 -0.0442219763698 0.885 1.20329751365e-38
0.0131028078133 -0.0442219763698 0.885 1.02855755697e-38
0.0147739710132 -0.0443219130396 0.887 2.16220885539e-38
0.016415523348 -0.0443219130396 0.887 1.98983961545e-38
0.0180570756828 -0.0443219130396 0.887 1.3078809022e-38
0.0196986280176 -0.0443219130396 0.887 1.40984106002e-38
0.0213401803524 -0.0443219130396 0.887 1.50225122868e-38
0.0229817326872 -0.0443219130396 0.887 1.64990674852e-38
0.024623285022 -0.0443219130396 0.887 1.6954625412e-38
0.0262648373568 -0.0443219130396 0.887 1.79655501502e-38
0.0279693127799 -0.0444218497093 0.889 1.87956807617e-38
0.0296145664729 -0.0444218497093 0.889 1.84258094334e-38
0.0312598201658 -0.0444218497093 0.889 1.72319690028e-38
0.0329050738588 -0.0444218497093 0.889 1.90722452305e-38
0.0349001058959 -0.0448715647232 0.898 2.26631720376e-38
0.0365620157004 -0.0448715647232 0.898 7.34755715745e-39
0.038436753598 -0.0451214063976 0.903 2.34645045644e-38
0.0402411656909 -0.0452713114023 0.906 2.34990087365e-38
-0.015007156576 -0.0433540078861 0.901 1.03889269366e-38
-0.0133396947342 -0.0433540078861 0.901 1.22356939789e-38
-0.011607459125 -0.0431134196071 0.896 9.83612450155e-39
-0.00994925067855 -0.0431134196071 0.896 1.1766820914e-38
-0.00827253544143 -0.0430171842954 0.894 1.20466321914e-38
-0.00661802835314 -0.0430171842954 0.894 1.06572559744e-38
-0.00494686515323 -0.042872831328 0.891 1.06554525032e-38
-0.00329050738588 -0.0427765960164 0.889 1.1387960256e-38
-0.00164525369294 -0.0427765960164 0.889 1.11121188572e-38
0.0 -0.0426803607048 0.887 1.13876057275e-38
0.0016415523348 -0.0426803607048 0.887 1.1754951916e-38
0.0032831046696 -0.0426803607048 0.887 1.0469246562e-38
0.00492465700439 -0.0426803607048 0.887 1.12039305313e-38
0.00656620933919 -0.0426803607048 0.887 1.10202665455e-38
0.00820776167399 -0.0426803607048 0.887 1.13876015236e-38
0.00984931400879 -0.0426803607048 0.887 1.21222854929e-38
