# .PCD v0.7 - Point Cloud Data file format
VERSION 0.7
FIELDS x y z rgb
SIZE 4 4 4 4
TYPE F F F F
COUNT 1 1 1 1
WIDTH 847
HEIGHT 1
VIEWPOINT 0 0 0 1 0 0 0
POINTS 847
DATA ascii
0.0354571602958 -0.114079559213 0.833 1.24896330827e-38
0.0370876085562 -0.114353459715 0.835 1.33161581533e-38
0.0387254595329 -0.114627360217 0.837 1.406056293e-38
0.0403707132258 -0.11490126072 0.839 1.47970307522e-38
0.042023369635 -0.115175161222 0.841 1.54470875046e-38
0.0436834287605 -0.115449061724 0.843 2.34962033369e-38
0.0452435512162 -0.115449061724 0.843 2.34932844322e-38
-0.0171206320735 -0.113618740124 0.841 2.34867922165e-38
-0.0155642109759 -0.113618740124 0.841 2.34889502161e-38
-0.0140077898783 -0.113618740124 0.841 2.34914655468e-38
-0.0124217579156 -0.11334854098 0.839 2.34929186933e-38
-0.0108690381762 -0.11334854098 0.839 6.15297824259e-39
-0.00929411028789 -0.113078341836 0.837 8.35703015038e-39
-0.00772658511588 -0.112808142692 0.835 8.63256746742e-39
-0.0061812680927 -0.112808142692 0.835 8.72437213501e-39
-0.00462484699511 -0.112537943548 0.833 8.81620763117e-39
-0.00306842589751 -0.111997545259 0.829 8.99987862348e-39
-0.00153051159062 -0.111727346115 0.827 8.99987862348e-39
0.0 -0.111727346115 0.827 8.99987862348e-39
0.00152681023248 -0.111457146971 0.825 9.45905610427e-39
0.00305362046496 -0.111457146971 0.825 9.73456259275e-39
0.00456932662302 -0.111186947827 0.823 1.01019045774e-38
0.00609243549736 -0.111186947827 0.823 9.82639808891e-39
0.007597037581 -0.110916748683 0.821 1.00100690812e-38
0.0091164450972 -0.110916748683 0.821 1.05610820582e-38
0.0106358526134 -0.110916748683 0.821 1.07447530505e-38
0.0121552601296 -0.110916748683 0.821 1.09284268454e-38
0.0136746676458 -0.110916748683 0.821 1.11120964364e-38
0.015194075162 -0.110916748683 0.821 1.08365927505e-38
0.0167134826782 -0.110916748683 0.821 1.12957660274e-38
0.0182328901944 -0.110916748683 0.821 1.07447530505e-38
0.0197522977106 -0.110916748683 0.821 1.1020259539e-38
0.0212717052268 -0.110916748683 0.821 1.11120950351e-38
0.0228466331151 -0.111186947827 0.823 1.13876015236e-38
0.0243697419894 -0.111186947827 0.823 1.19386145005e-38
0.0258928508638 -0.111186947827 0.823 1.17549435082e-38
0.0274159597381 -0.111186947827 0.823 1.15712725159e-38
0.0290093944171 -0.111457146971 0.825 1.16631080121e-38
0.0305362046496 -0.111457146971 0.825 1.24896274775e-38
0.0322184719239 -0.111997545259 0.829 1.24896288788e-38
0.0338341147517 -0.112267744403 0.831 1.23059634917e-38
0.0354571602958 -0.112537943548 0.833 1.2674374667e-38
0.0370876085562 -0.112808142692 0.835 1.47930903009e-38
0.0387254595329 -0.113078341836 0.837 1.28634392571e-38
0.0403707132258 -0.11334854098 0.839 1.17549435082e-38
0.042023369635 -0.113618740124 0.841 2.26390907234e-38
0.0436834287605 -0.113888939268 0.843 2.34929439167e-38
0.0452435512162 -0.113888939268 0.843 2.34893313693e-38
-0.0171613470131 -0.112328816813 0.843 2.34878754202e-38
-0.0156012245573 -0.112328816813 0.843 2.33945881788e-38
-0.0140411021016 -0.112328816813 0.843 2.3493269018e-38
-0.0124513687807 -0.112062319027 0.841 2.34950780943e-38
-0.0108690381762 -0.111795821241 0.839 1.20567285468e-38
-0.00929411028789 -0.111529323455 0.837 8.35954548112e-39
-0.00774509190657 -0.111529323455 0.837 8.72544833223e-39
-0.0061812680927 -0.111262825669 0.835 8.90804312733e-39
-0.00462484699511 -0.110996327883 0.833 8.90804312733e-39
-0.00307582861379 -0.110729830097 0.831 9.1835496158e-39
-0.00153421294876 -0.110463332311 0.829 9.36722060812e-39
0.0 -0.110196834524 0.827 9.45905610427e-39
0.00153051159062 -0.110196834524 0.827 9.1835496158e-39
0.00305362046496 -0.109930336738 0.825 9.64272709659e-39
0.00458043069744 -0.109930336738 0.825 9.45905610427e-39
0.00609243549736 -0.109663838952 0.823 9.64272709659e-39
0.0076155443717 -0.109663838952 0.823 1.01019045774e-38
0.0091164450972 -0.109397341166 0.821 1.05610820582e-38
0.0106358526134 -0.109397341166 0.821 1.1020259539e-38
0.0121552601296 -0.109397341166 0.821 1.07447530505e-38
0.0136746676458 -0.109397341166 0.821 1.08365899479e-38
0.0152310887434 -0.109663838952 0.823 1.09284240428e-38
0.0167541976177 -0.109663838952 0.823 1.12957660274e-38
0.0182773064921 -0.109663838952 0.823 1.1020259539e-38
0.0198004153664 -0.109663838952 0.823 1.11120950351e-38
0.0213235242407 -0.109663838952 0.823 1.08365983557e-38
0.0228466331151 -0.109663838952 0.823 1.13876015236e-38
0.0244289637197 -0.109930336738 0.825 1.15712725159e-38
0.0259557739521 -0.109930336738 0.825 1.19386145005e-38
0.0274825841846 -0.109930336738 0.825 1.19386145005e-38
0.0290797202217 -0.110196834524 0.827 1.14794370197e-38
0.0306842589751 -0.110463332311 0.829 1.17549435082e-38
0.0322184719239 -0.110463332311 0.829 1.21222854929e-38
0.0339155446308 -0.110996327883 0.833 1.23981507137e-38
0.035542291533 -0.111262825669 0.835 1.2673304075e-38
0.0371764411516 -0.111529323455 0.837 1.3777509048e-38
0.0387254595329 -0.111529323455 0.837 1.12986569062e-38
0.0404669485374 -0.112062319027 0.841 1.55349643326e-38
0.042023369635 -0.112062319027 0.841 2.1643648932e-38
0.0437870667884 -0.112595314599 0.845 2.34950935086e-38
0.0453508906023 -0.112595314599 0.845 2.34914739546e-38
-0.0140077898783 -0.110505897929 0.841 2.34932592089e-38
-0.0124513687807 -0.110505897929 0.841 2.34961626993e-38
-0.0108690381762 -0.110243101501 0.839 1.33478176895e-38
-0.00931631843672 -0.110243101501 0.839 9.47136510998e-39
-0.00774509190657 -0.109980305073 0.837 7.98968816575e-39
-0.0061812680927 -0.109717508645 0.835 8.90805714031e-39
-0.00463595106953 -0.109717508645 0.835 9.1835496158e-39
-0.00308323133007 -0.109454712218 0.833 9.27610257677e-39
-0.00153421294876 -0.108929119362 0.829 9.55089160043e-39
0.0 -0.108929119362 0.829 9.91823358506e-39
0.00153051159062 -0.108666322934 0.827 1.00100690812e-38
0.00306102318124 -0.108666322934 0.827 9.91823358506e-39
0.00459153477185 -0.108666322934 0.827 1.00100690812e-38
0.00610724092991 -0.108403526506 0.825 1.01937400735e-38
0.00763405116239 -0.108403526506 0.825 1.01937400735e-38
0.00913865324604 -0.108140730078 0.823 1.08365885466e-38
0.0106617621204 -0.108140730078 0.823 1.06529175543e-38
0.0121848709947 -0.108140730078 0.823 1.09284240428e-38
0.0137079798691 -0.108140730078 0.823 1.12039305313e-38
0.0152310887434 -0.108140730078 0.823 1.10202707493e-38
0.0167541976177 -0.108140730078 0.823 1.12039305313e-38
0.0183217227897 -0.108403526506 0.825 1.06529273634e-38
0.0198004153664 -0.108140730078 0.823 1.12039305313e-38
0.0213235242407 -0.108140730078 0.823 1.12957660274e-38
0.0229021534872 -0.108403526506 0.825 1.14794370197e-38
0.0244289637197 -0.108403526506 0.825 1.16631080121e-38
0.0259557739521 -0.108403526506 0.825 1.18467790044e-38
0.0276158330776 -0.108929119362 0.829 1.2214120989e-38
0.0291500460264 -0.108929119362 0.829 1.15713089497e-38
0.0306842589751 -0.108929119362 0.829 1.19386145005e-38
0.0323739289658 -0.109454712218 0.833 1.19386145005e-38
0.0339969745099 -0.109717508645 0.835 1.21226526331e-38
0.035542291533 -0.109717508645 0.835 1.36863882141e-38
0.0371764411516 -0.109980305073 0.837 1.18478636094e-38
0.0389105274398 -0.110505897929 0.841 1.03774110659e-38
0.0404669485374 -0.110505897929 0.841 2.31133713991e-38
0.0421233063048 -0.110768694357 0.843 2.01713887135e-38
0.0437870667884 -0.111031490785 0.845 2.34954354254e-38
0.0453508906023 -0.111031490785 0.845 2.34907536872e-38
0.0469147144162 -0.111031490785 0.845 2.34914823624e-38
-0.0140077898783 -0.108949476832 0.841 2.34882509682e-38
-0.0124513687807 -0.108949476832 0.841 2.34911110183e-38
-0.0108949476832 -0.108949476832 0.841 1.32566968556e-38
-0.00931631843672 -0.108690381762 0.839 1.58371024984e-38
-0.00776359869727 -0.108690381762 0.839 7.16965110702e-39
-0.00619607352526 -0.108431286692 0.837 7.80601717343e-39
-0.00463595106953 -0.108172191622 0.835 9.46013230149e-39
-0.00309063404635 -0.108172191622 0.835 9.64272709659e-39
-0.00153421294876 -0.107394906413 0.829 9.36722060812e-39
0.0 -0.107394906413 0.829 9.73456259275e-39
0.00153421294876 -0.107394906413 0.829 9.27538511196e-39
0.00306842589751 -0.107394906413 0.829 9.73456259275e-39
0.00459153477185 -0.107135811343 0.827 1.01937400735e-38
0.00612204636247 -0.107135811343 0.827 1.01019045774e-38
0.00765255795309 -0.107135811343 0.827 1.05610820582e-38
0.00918306954371 -0.107135811343 0.827 1.0469246562e-38
0.0106876716274 -0.106876716274 0.825 1.07447530505e-38
0.0122144818598 -0.106876716274 0.825 1.09284240428e-38
0.0137412920923 -0.106876716274 0.825 1.06529175543e-38
0.0152681023248 -0.106876716274 0.825 1.08365885466e-38
0.0167949125573 -0.106876716274 0.825 1.1020259539e-38
0.0183661390874 -0.107135811343 0.827 1.12039305313e-38
0.019896650678 -0.107135811343 0.827 1.12957660274e-38
0.0214271622687 -0.107135811343 0.827 1.12039305313e-38
0.0229576738593 -0.107135811343 0.827 1.2214120989e-38
0.0244881854499 -0.107135811343 0.827 1.12957660274e-38
0.0260816201289 -0.107394906413 0.829 1.17549435082e-38
0.0276824575241 -0.107654001483 0.831 1.21222854929e-38
0.029220371831 -0.107654001483 0.831 1.16631080121e-38
0.0308323133007 -0.107913096553 0.833 1.23977919813e-38
0.0323739289658 -0.107913096553 0.833 1.17549435082e-38
0.0339969745099 -0.108172191622 0.835 1.23059662943e-38
0.0356274227702 -0.108431286692 0.837 1.11121048442e-38
0.0371764411516 -0.108431286692 0.837 1.01019045774e-38
0.0389105274398 -0.108949476832 0.841 2.26552378857e-38
0.040563183849 -0.109208571901 0.843 2.08182196768e-38
0.0421233063048 -0.109208571901 0.843 1.92479876761e-38
0.0437870667884 -0.109467666971 0.845 2.34950794956e-38
0.0453508906023 -0.109467666971 0.845 2.34914613429e-38
-0.0140744143248 -0.107903843157 0.845 2.34896340497e-38
-0.0124809796459 -0.107648449446 0.843 2.34921872155e-38
-0.0109208571901 -0.107648449446 0.843 1.32584807085e-38
-0.0093607347344 -0.107648449446 0.843 1.47314724049e-38
-0.00778210548797 -0.107393055734 0.841 1.54740751117e-38
-0.00619607352526 -0.106882268311 0.837 8.46147453012e-39
-0.00464705514394 -0.106882268311 0.837 7.4386751888e-39
-0.00309063404635 -0.106626874599 0.835 7.62234618111e-39
-0.0015379143069 -0.106116087176 0.831 7.98968816575e-39
0.0 -0.106116087176 0.831 7.89785266959e-39
0.00153421294876 -0.105860693464 0.829 7.89785266959e-39
0.00306842589751 -0.105860693464 0.829 8.44886564654e-39
0.00460263884627 -0.105860693464 0.829 8.17335915806e-39
0.00613685179503 -0.105860693464 0.829 8.72437213501e-39
0.00765255795309 -0.105605299753 0.827 8.81620763117e-39
0.00918306954371 -0.105605299753 0.827 9.27538511196e-39
0.0107135811343 -0.105605299753 0.827 1.01019045774e-38
0.0122440927249 -0.105605299753 0.827 1.02855755697e-38
0.0137746043156 -0.105605299753 0.827 1.07447530505e-38
0.0153051159062 -0.105605299753 0.827 1.06529175543e-38
0.0168356274968 -0.105605299753 0.827 1.12039305313e-38
0.0183661390874 -0.105605299753 0.827 1.12039305313e-38
0.019896650678 -0.105605299753 0.827 1.17549435082e-38
0.0214271622687 -0.105605299753 0.827 1.14794370197e-38
0.0229576738593 -0.105605299753 0.827 1.15712725159e-38
0.0245474071801 -0.105860693464 0.829 1.15712725159e-38
0.0260816201289 -0.105860693464 0.829 1.19386145005e-38
0.0276824575241 -0.106116087176 0.831 1.17549477121e-38
0.029220371831 -0.106116087176 0.831 1.21222896968e-38
0.0308323133007 -0.106371480887 0.833 1.21222854929e-38
0.0324516574867 -0.106626874599 0.835 1.12039305313e-38
0.0339969745099 -0.106626874599 0.835 1.07447530505e-38
0.0356274227702 -0.106882268311 0.837 1.1387960256e-38
0.0373541063422 -0.107393055734 0.841 2.16414811233e-38
0.0390030613933 -0.107648449446 0.843 2.09107558222e-38
0.040563183849 -0.107648449446 0.843 1.93412595032e-38
0.0421233063048 -0.107648449446 0.843 2.0446881189e-38
0.0437870667884 -0.107903843157 0.845 2.34950893047e-38
0.0453508906023 -0.107903843157 0.845 2.34900095977e-38
-0.0140744143248 -0.106340019343 0.845 2.34900292159e-38
-0.012510590511 -0.106340019343 0.845 2.34954396293e-38
-0.0109467666971 -0.106340019343 0.845 1.3903120041e-38
-0.0093607347344 -0.10608832699 0.843 1.3810946832e-38
-0.00780061227866 -0.10608832699 0.843 1.427481586e-38
-0.00622568439037 -0.105836634636 0.841 1.5655952442e-38
-0.00464705514394 -0.105333249929 0.837 1.4180455224e-38
-0.00309803676263 -0.105333249929 0.837 1.42715564398e-38
-0.00154161566504 -0.104829865222 0.833 1.6485343168e-38
0.0 -0.104578172869 0.831 1.63920741435e-38
0.0015379143069 -0.104578172869 0.831 1.6853043885e-38
0.00307582861379 -0.104578172869 0.831 1.66700875549e-38
0.00461374292069 -0.104578172869 0.831 1.63917027994e-38
0.00613685179503 -0.104326480515 0.829 1.57445355245e-38
0.00767106474379 -0.104326480515 0.829 1.3255581422e-38
0.00920527769254 -0.104326480515 0.829 1.14992415709e-38
0.0107394906413 -0.104326480515 0.829 1.05707986617e-38
0.0122737035901 -0.104326480515 0.829 9.36722060812e-39
0.0137746043156 -0.104074788162 0.827 9.73456259275e-39
0.0153051159062 -0.104074788162 0.827 9.27538511196e-39
0.0168356274968 -0.104074788162 0.827 9.09171411964e-39
0.0183661390874 -0.104074788162 0.827 9.45905610427e-39
0.019896650678 -0.104074788162 0.827 1.02855755697e-38
0.0214271622687 -0.104074788162 0.827 1.11120950351e-38
0.0230131942314 -0.104326480515 0.829 1.16631080121e-38
0.0245474071801 -0.104326480515 0.829 1.18467790044e-38
0.0261445432172 -0.104578172869 0.831 1.17549435082e-38
0.0276824575241 -0.104578172869 0.831 1.20304527993e-38
0.029220371831 -0.104578172869 0.831 1.13876071288e-38
0.0308323133007 -0.104829865222 0.833 1.06529175543e-38
0.0324516574867 -0.105081557576 0.835 8.90804312733e-39
0.0339969745099 -0.105081557576 0.835 1.99685787867e-38
0.0356274227702 -0.105333249929 0.837 2.13677879151e-38
0.0373541063422 -0.105836634636 0.841 1.96196638769e-38
0.0390030613933 -0.10608832699 0.843 1.99884239756e-38
0.040563183849 -0.10608832699 0.843 2.05415977548e-38
0.0422232429745 -0.106340019343 0.845 1.96185652589e-38
0.0437870667884 -0.106340019343 0.845 2.34893383758e-38
-0.0140744143248 -0.104776195529 0.845 2.34882341526e-38
-0.012510590511 -0.104776195529 0.845 2.34947235658e-38
-0.0109467666971 -0.104776195529 0.845 1.45477831957e-38
-0.00938294288323 -0.104776195529 0.845 1.47314611945e-38
-0.00781911906936 -0.104776195529 0.845 1.42726648669e-38
-0.00624048982293 -0.104528204534 0.843 1.42726648669e-38
-0.00465815921836 -0.104032222543 0.839 1.42730179941e-38
-0.00309803676263 -0.103784231548 0.837 1.45510300042e-38
-0.00154531702318 -0.103536240553 0.835 1.55648133912e-38
0.0 -0.103288249557 0.833 1.56552545954e-38
0.00154161566504 -0.103288249557 0.833 1.59303701216e-38
0.00308323133007 -0.103288249557 0.833 1.61162075213e-38
0.00462484699511 -0.103288249557 0.833 1.62069738268e-38
0.00616646266014 -0.103288249557 0.833 1.63902706724e-38
0.00768957153448 -0.103040258562 0.831 1.74065988174e-38
0.00922748584138 -0.103040258562 0.831 1.84229115481e-38
0.0107394906413 -0.102792267567 0.829 1.75938781533e-38
0.0122737035901 -0.102792267567 0.829 1.91612038609e-38
0.0138079165388 -0.102792267567 0.829 1.88831652261e-38
0.0153421294876 -0.102792267567 0.829 1.89742552315e-38
0.0168763424363 -0.102792267567 0.829 1.74984132941e-38
0.0184105553851 -0.102792267567 0.829 1.49158244282e-38
0.0199447683338 -0.102792267567 0.829 9.92903899752e-39
0.0214789812826 -0.102792267567 0.829 1.08365885466e-38
0.0230131942314 -0.102792267567 0.829 9.36722060812e-39
0.0245474071801 -0.102792267567 0.829 1.0469246562e-38
0.0261445432172 -0.103040258562 0.831 1.09284240428e-38
0.0277490819706 -0.103288249557 0.833 9.73456259275e-39
0.0292906976357 -0.103288249557 0.833 9.45905610427e-39
0.0309063404635 -0.103536240553 0.835 1.82175820868e-38
0.0324516574867 -0.103536240553 0.835 2.06316479967e-38
0.0340784043889 -0.103784231548 0.837 2.07260086327e-38
0.0357125540074 -0.104032222543 0.839 1.89728483279e-38
0.0374429389376 -0.104528204534 0.843 1.93420007901e-38
0.0390955953468 -0.104776195529 0.845 1.97125657612e-38
0.0406594191607 -0.104776195529 0.845 1.98965968872e-38
0.0423231796443 -0.105024186525 0.847 2.08181916509e-38
0.0438907048163 -0.105024186525 0.847 2.34900418276e-38
-0.0141743509946 -0.103945240627 0.851 2.33946049944e-38
-0.0125698122412 -0.10370095099 0.849 2.34939934893e-38
-0.0109985857111 -0.10370095099 0.849 1.52856985592e-38
-0.0094273591809 -0.10370095099 0.849 1.37187512021e-38
-0.00783762586006 -0.103456661353 0.847 1.36290961263e-38
-0.00627010068805 -0.103456661353 0.847 1.43630612295e-38
-0.00469147144162 -0.103212371716 0.845 1.41822671029e-38
-0.00312024491147 -0.102968082078 0.843 1.47354282704e-38
-0.00154531702318 -0.10199092353 0.835 1.27017644468e-38
0.0 -0.10199092353 0.835 1.50955717848e-38
0.00154531702318 -0.10199092353 0.835 1.361900958e-38
0.00309063404635 -0.10199092353 0.835 1.61990648982e-38
0.00462484699511 -0.101746633892 0.833 1.41736351044e-38
0.00616646266014 -0.101746633892 0.833 1.37141241146e-38
0.00770807832518 -0.101746633892 0.833 1.49137617169e-38
0.00924969399022 -0.101746633892 0.833 1.38095567439e-38
0.0107654001483 -0.101502344255 0.831 1.39006803804e-38
0.0123033144552 -0.101502344255 0.831 1.16872243586e-38
0.0138412287621 -0.101502344255 0.831 1.40764200234e-38
0.0153421294876 -0.101258054618 0.829 1.76738250333e-38
0.0168763424363 -0.101258054618 0.829 1.95234577309e-38
0.0184549716828 -0.101502344255 0.831 1.99880862627e-38
0.0199928859897 -0.101502344255 0.831 2.04519230609e-38
0.0215308002966 -0.101502344255 0.831 1.95288751507e-38
0.0230687146034 -0.101502344255 0.831 1.61161696863e-38
0.0246658506406 -0.101746633892 0.833 1.18651472247e-38
0.0262074663056 -0.101746633892 0.833 1.47188971524e-38
0.0277490819706 -0.101746633892 0.833 1.86926530947e-38
0.0292906976357 -0.101746633892 0.833 2.10032989741e-38
0.0309063404635 -0.10199092353 0.835 1.96203673287e-38
0.0324516574867 -0.10199092353 0.835 1.89742916653e-38
0.0340784043889 -0.102235213167 0.837 1.92523050767e-38
0.0358828164819 -0.102968082078 0.843 1.91608311156e-38
0.0375317715329 -0.103212371716 0.845 1.95278311834e-38
0.0391881293003 -0.103456661353 0.847 1.95274654445e-38
0.0408518897839 -0.10370095099 0.849 2.0080636421e-38
0.0425230529838 -0.103945240627 0.851 2.06334458626e-38
0.0440979808721 -0.103945240627 0.851 2.3495076693e-38
-0.0141743509946 -0.102370312739 0.851 2.34889586239e-38
-0.0125994231063 -0.102370312739 0.851 2.34943592282e-38
-0.0109985857111 -0.10212972446 0.849 1.56544880851e-38
-0.0094273591809 -0.10212972446 0.849 1.18740945153e-38
-0.00785613265075 -0.10212972446 0.849 1.50113047017e-38
-0.00627010068805 -0.101889136181 0.847 1.41808223642e-38
-0.00469147144162 -0.101648547902 0.845 1.42748312743e-38
-0.00312024491147 -0.101407959623 0.843 1.40914909884e-38
-0.00154901838131 -0.100686194785 0.837 1.45442126872e-38
0.0 -0.100445606506 0.835 1.17722327287e-38
0.00154531702318 -0.100445606506 0.835 1.49082742321e-38
0.00309803676263 -0.100686194785 0.837 1.44458611532e-38
0.00463595106953 -0.100445606506 0.835 1.81362297044e-38
0.0061812680927 -0.100445606506 0.835 1.75002335808e-38
0.00772658511588 -0.100445606506 0.835 1.60254636367e-38
0.00927190213905 -0.100445606506 0.835 1.62102234379e-38
0.0107913096553 -0.100205018227 0.833 1.6211289826e-38
0.0123329253203 -0.100205018227 0.833 1.75938641403e-38
0.0138745409853 -0.100205018227 0.833 1.51920862166e-38
0.0154161566504 -0.100205018227 0.833 1.00151207622e-38
0.0169577723154 -0.100205018227 0.833 1.28569694621e-38
0.0184993879804 -0.100205018227 0.833 1.31324759506e-38
0.0200410036455 -0.100205018227 0.833 1.88521741093e-38
0.0215826193105 -0.100205018227 0.833 2.00763456451e-38
0.0231242349755 -0.100205018227 0.833 1.90679152183e-38
0.0247250723708 -0.100445606506 0.835 1.94374208077e-38
0.026270389394 -0.100445606506 0.835 1.90675648937e-38
0.0278157064172 -0.100445606506 0.835 1.88838939013e-38
0.0293610234403 -0.100445606506 0.835 1.79615816729e-38
0.0310543947891 -0.100926783065 0.839 1.8329278186e-38
0.0326071145285 -0.100926783065 0.839 1.94356229418e-38
0.0342412641471 -0.101167371344 0.841 1.83296411223e-38
0.0358828164819 -0.101407959623 0.843 1.89753664612e-38
0.0376206041283 -0.101889136181 0.847 1.89750105314e-38
0.0391881293003 -0.101889136181 0.847 1.95278213743e-38
0.0408518897839 -0.10212972446 0.849 1.98025837733e-38
0.0425230529838 -0.102370312739 0.851 2.08171056445e-38
0.0440979808721 -0.102370312739 0.851 2.34921914194e-38
-0.0142243193295 -0.101150715232 0.854 2.33020394217e-38
-0.0125994231063 -0.100795384851 0.851 2.34936361582e-38
-0.011024495218 -0.100795384851 0.851 1.56541125371e-38
-0.00944956732974 -0.100795384851 0.851 1.3622587095e-38
-0.00787463944145 -0.100795384851 0.851 1.29830260681e-38
-0.0062849061206 -0.10055849793 0.849 1.41851383635e-38
-0.00470257551603 -0.100321611009 0.847 1.43680876871e-38
-0.00312764762774 -0.100084724088 0.845 1.51038380445e-38
-0.00155642109759 -0.099610950246 0.841 1.17690139461e-38
0.0 -0.0991371764041 0.837 1.70219564019e-38
0.00154901838131 -0.0991371764041 0.837 1.27874005986e-38
0.00309803676263 -0.0991371764041 0.837 1.63833790865e-38
0.00464705514394 -0.0991371764041 0.837 1.46270378342e-38
0.00619607352526 -0.0991371764041 0.837 1.27928642613e-38
0.00772658511588 -0.0989002894832 0.835 1.90567622838e-38
0.00927190213905 -0.0989002894832 0.835 1.76821207202e-38
0.0108172191622 -0.0989002894832 0.835 1.64878809195e-38
0.0123625361854 -0.0989002894832 0.835 1.7131088125e-38
0.0139078532086 -0.0989002894832 0.835 1.74988084603e-38
0.0154531702318 -0.0989002894832 0.835 1.68498237012e-38
0.0169984872549 -0.0989002894832 0.835 9.7370737196e-39
0.0185438042781 -0.0989002894832 0.835 1.46018438891e-38
0.0200891213013 -0.0989002894832 0.835 1.34079908469e-38
0.0216344383245 -0.0989002894832 0.835 1.33161469429e-38
0.0231797553476 -0.0989002894832 0.835 2.07122801116e-38
0.0247250723708 -0.0989002894832 0.835 1.82385244923e-38
0.0263333124823 -0.0991371764041 0.837 1.81456029898e-38
0.0278823308637 -0.0991371764041 0.837 1.92519575547e-38
0.029431349245 -0.0991371764041 0.837 1.75938753507e-38
0.0310543947891 -0.0993740633251 0.839 1.87906220743e-38
0.0326848430495 -0.099610950246 0.841 1.84214738159e-38
0.0343226940261 -0.0998478371669 0.843 1.86995026416e-38
0.0359679477191 -0.100084724088 0.845 1.88831680287e-38
0.0377094367236 -0.10055849793 0.849 1.92508771536e-38
0.0392806632538 -0.10055849793 0.849 1.99880862627e-38
0.0409481250955 -0.100795384851 0.851 2.03572036925e-38
0.0426729579885 -0.101150715232 0.854 2.01717362355e-38
0.044253437914 -0.101150715232 0.854 2.34903851457e-38
-0.0142243193295 -0.0995702353064 0.854 2.34860817581e-38
-0.0125994231063 -0.0992204569623 0.851 2.34922054324e-38
-0.011024495218 -0.0992204569623 0.851 1.59314210954e-38
-0.00944956732974 -0.0992204569623 0.851 1.24211165943e-38
-0.00787463944145 -0.0992204569623 0.851 8.18921344889e-39
-0.0062849061206 -0.0989872713995 0.849 1.16018180198e-38
-0.00470257551603 -0.0987540858367 0.847 9.84577244147e-39
-0.00312764762774 -0.0985209002739 0.845 1.66676212696e-38
-0.00156012245573 -0.0982877147112 0.843 8.64080289849e-39
0.0 -0.0982877147112 0.843 1.18467790044e-38
0.00155642109759 -0.0980545291484 0.841 1.23059564852e-38
0.00310543947891 -0.0978213435856 0.839 1.76719641089e-38
0.00465815921836 -0.0978213435856 0.839 9.83071268688e-39
0.00619607352526 -0.0975881580228 0.837 1.03874555732e-38
0.00774509190657 -0.0975881580228 0.837 1.83105820619e-38
0.00929411028789 -0.0975881580228 0.837 1.15874687236e-38
0.0108431286692 -0.0975881580228 0.837 1.50891272132e-38
0.0123921470505 -0.0975881580228 0.837 2.04310563254e-38
0.0139078532086 -0.09735497246 0.835 1.51002353061e-38
0.0154531702318 -0.09735497246 0.835 1.94305460375e-38
0.0169984872549 -0.09735497246 0.835 1.4636408317e-38
0.0185438042781 -0.09735497246 0.835 1.28569694621e-38
0.0200891213013 -0.09735497246 0.835 1.43263374006e-38
0.0216862573384 -0.0975881580228 0.837 1.69946072598e-38
0.0232352757197 -0.0975881580228 0.837 1.62736307921e-38
0.024784294101 -0.0975881580228 0.837 1.92497869434e-38
0.0263333124823 -0.0975881580228 0.837 1.79615690612e-38
0.0279489553102 -0.0978213435856 0.839 1.81448841237e-38
0.0295016750496 -0.0978213435856 0.839 1.88828177041e-38
0.0311284219519 -0.0980545291484 0.841 1.90679152183e-38
0.0327625715704 -0.0982877147112 0.843 1.86977047757e-38
0.0344041239052 -0.0985209002739 0.845 1.92516016249e-38
0.0361382101935 -0.0989872713995 0.849 1.91601080455e-38
0.0377094367236 -0.0989872713995 0.849 1.92508771536e-38
0.0393731972073 -0.0992204569623 0.851 2.00802860964e-38
0.0409481250955 -0.0992204569623 0.851 2.01731851781e-38
0.0426729579885 -0.0995702353064 0.854 1.99884267782e-38
0.044253437914 -0.0995702353064 0.854 2.34918242792e-38
-0.0142243193295 -0.0979897553809 0.854 2.33024065619e-38
-0.0125994231063 -0.097645529074 0.851 2.34914809611e-38
-0.011024495218 -0.097645529074 0.851 1.74065581797e-38
-0.00944956732974 -0.097645529074 0.851 1.04832371259e-38
-0.00787463944145 -0.097645529074 0.851 1.41825753886e-38
-0.0062849061206 -0.0974160448693 0.849 1.06762996205e-38
-0.00471367959045 -0.0974160448693 0.849 8.73553768117e-39
-0.00313505034402 -0.0971865606647 0.847 1.34438809031e-38
-0.00156382381387 -0.0969570764601 0.845 1.18816727374e-38
0.0 -0.0969570764601 0.845 8.45967105899e-39
0.00156382381387 -0.0969570764601 0.845 1.2214120989e-38
0.00311284219519 -0.0964981080508 0.841 1.94060947806e-38
0.00466926329278 -0.0964981080508 0.841 1.38001834585e-38
0.00621087895782 -0.0962686238461 0.839 1.36215571406e-38
0.00776359869727 -0.0962686238461 0.839 1.12957660274e-38
0.00929411028789 -0.0960391396415 0.837 1.59001343046e-38
0.0108431286692 -0.0960391396415 0.837 1.44368760274e-38
0.0123921470505 -0.0960391396415 0.837 2.07937151706e-38
0.0139411654318 -0.0960391396415 0.837 1.16786119783e-38
0.0154901838131 -0.0960391396415 0.837 1.55302629763e-38
0.0170392021945 -0.0960391396415 0.837 1.82316889584e-38
0.0185882205758 -0.0960391396415 0.837 1.72106986934e-38
0.0201372389571 -0.0960391396415 0.837 1.79453518341e-38
0.0216862573384 -0.0960391396415 0.837 1.71163198405e-38
0.0232907960918 -0.0962686238461 0.839 1.80411249789e-38
0.0248435158313 -0.0962686238461 0.839 1.84221772677e-38
0.0263962355707 -0.0962686238461 0.839 1.8422540204e-38
0.0280155797567 -0.0964981080508 0.841 1.88824519652e-38
0.0295720008543 -0.0964981080508 0.841 1.90668558366e-38
0.0312024491147 -0.0967275922554 0.843 1.94374208077e-38
0.0327625715704 -0.0967275922554 0.843 1.84239891467e-38
0.0344855537843 -0.0971865606647 0.847 1.52853748592e-38
0.0361382101935 -0.0974160448693 0.849 1.9801925163e-38
0.037798269319 -0.097645529074 0.851 1.94352726172e-38
0.0393731972073 -0.097645529074 0.851 1.94345537511e-38
0.0409481250955 -0.097645529074 0.851 2.06338087989e-38
0.0425230529838 -0.097645529074 0.851 1.97107622901e-38
0.0440979808721 -0.097645529074 0.851 2.34900320185e-38
-0.0142243193295 -0.0964092754554 0.854 2.31194572383e-38
-0.0125994231063 -0.0960706011857 0.851 2.34957815461e-38
-0.011024495218 -0.0960706011857 0.851 1.91582947653e-38
-0.00948287955299 -0.0964092754554 0.854 8.54970168273e-39
-0.0079023996275 -0.0964092754554 0.854 1.33470161468e-38
-0.00629971155316 -0.0960706011857 0.851 9.74607706223e-39
-0.00471367959045 -0.0958448183392 0.849 8.54967926195e-39
-0.0031424530603 -0.0958448183392 0.849 3.85888450067e-39
-0.00156752517201 -0.0956190354927 0.847 1.37310027546e-38
0.0 -0.0956190354927 0.847 1.4184380261e-38
0.00156382381387 -0.0953932526462 0.845 9.92217964154e-39
0.00312764762774 -0.0953932526462 0.845 1.16631080121e-38
0.0046803673672 -0.0951674697997 0.843 1.95191851718e-38
0.00622568439037 -0.0949416869532 0.841 1.67619468732e-38
0.00776359869727 -0.0947159041067 0.839 1.73136562955e-38
0.00931631843672 -0.0947159041067 0.839 1.58352822117e-38
0.0108690381762 -0.0947159041067 0.839 1.69441338904e-38
0.0124217579156 -0.0947159041067 0.839 1.39892088122e-38
0.0139411654318 -0.0944901212602 0.837 1.43519377223e-38
0.0154901838131 -0.0944901212602 0.837 1.53685853634e-38
0.0170392021945 -0.0944901212602 0.837 1.66639540716e-38
0.0186326368734 -0.0947159041067 0.839 1.18629962315e-38
0.0201853566129 -0.0947159041067 0.839 1.70208171463e-38
0.0217380763524 -0.0947159041067 0.839 1.80433334253e-38
0.0232907960918 -0.0947159041067 0.839 2.02607298984e-38
0.0248435158313 -0.0947159041067 0.839 1.95303170868e-38
0.0264591586591 -0.0949416869532 0.841 1.82399468102e-38
0.0280155797567 -0.0949416869532 0.841 1.13259584041e-38
0.0296423266589 -0.0951674697997 0.843 1.80516179018e-38
0.0312024491147 -0.0951674697997 0.843 2.05437655635e-38
0.0328403000913 -0.0953932526462 0.845 6.34599449436e-39
0.0344855537843 -0.0956190354927 0.847 1.64597946944e-38
0.0361382101935 -0.0958448183392 0.849 2.03564848263e-38
0.037798269319 -0.0960706011857 0.851 1.93430727834e-38
0.0393731972073 -0.0960706011857 0.851 1.99880764536e-38
0.0409481250955 -0.0960706011857 0.851 2.02643018082e-38
0.0425230529838 -0.0960706011857 0.851 1.95263724317e-38
0.0440979808721 -0.0960706011857 0.851 2.34968661511e-38
-0.0142243193295 -0.0948287955299 0.854 2.34878726176e-38
-0.012643839404 -0.0948287955299 0.854 2.34911054131e-38
-0.0110892689855 -0.0950508770183 0.856 1.96174680422e-38
-0.00950508770183 -0.0950508770183 0.856 8.45897040976e-39
-0.00792090641819 -0.0950508770183 0.856 1.07641372121e-38
-0.006321919702 -0.0948287955299 0.854 1.29746841383e-38
-0.00472478366487 -0.0944956732974 0.851 3.12240686937e-39
-0.0031424530603 -0.094273591809 0.849 1.37288041173e-38
-0.00157122653015 -0.094273591809 0.849 1.40910089417e-38
0.0 -0.0940515103207 0.847 1.50057765793e-38
0.00156382381387 -0.0938294288323 0.845 1.67578256544e-38
0.00312764762774 -0.0938294288323 0.845 1.05754313544e-38
0.0046803673672 -0.093607347344 0.843 1.65541455213e-38
0.00624048982293 -0.093607347344 0.843 1.69448947955e-38
0.00778210548797 -0.0933852658556 0.841 1.68551962795e-38
0.00933852658556 -0.0933852658556 0.841 1.7224002621e-38
0.0108690381762 -0.0931631843672 0.839 1.64878865247e-38
0.0124217579156 -0.0931631843672 0.839 1.69485087442e-38
0.0139744776551 -0.0931631843672 0.839 1.80526814874e-38
0.0155271973945 -0.0931631843672 0.839 1.59289478037e-38
0.017079917134 -0.0931631843672 0.839 1.57380545191e-38
0.0186326368734 -0.0931631843672 0.839 1.78571218789e-38
0.0201853566129 -0.0931631843672 0.839 1.7674908237e-38
0.0217380763524 -0.0931631843672 0.839 1.74037261556e-38
0.0233463164639 -0.0933852658556 0.841 1.20628045769e-38
0.0249027375615 -0.0933852658556 0.841 1.03165526735e-38
0.0265220817475 -0.093607347344 0.843 1.09506682546e-38
0.0280822042032 -0.093607347344 0.843 9.66209864656e-39
0.0296423266589 -0.093607347344 0.843 2.00828028285e-38
0.0312764762774 -0.0938294288323 0.845 1.66718994339e-38
0.0328403000913 -0.0938294288323 0.845 1.25276909477e-38
0.0345669836633 -0.094273591809 0.849 1.83271426072e-38
0.0361382101935 -0.094273591809 0.849 2.0082044726e-38
0.037798269319 -0.0944956732974 0.851 1.97129132832e-38
0.0393731972073 -0.0944956732974 0.851 1.98058305818e-38
0.0409481250955 -0.0944956732974 0.851 2.08185545872e-38
0.0425230529838 -0.0944956732974 0.851 1.94338180694e-38
0.0440979808721 -0.0944956732974 0.851 2.34911012092e-38
-0.0143575682225 -0.0941218361253 0.862 2.34885886811e-38
-0.0127622828645 -0.0941218361253 0.862 2.34914627442e-38
-0.0111410879994 -0.0939034559951 0.86 2.03553862083e-38
-0.00952729585067 -0.0936850758649 0.858 8.82560754127e-39
-0.00793941320889 -0.0936850758649 0.858 1.0209165567e-38
-0.006321919702 -0.0932483156044 0.854 8.18196873583e-39
-0.00472478366487 -0.0929207454091 0.851 1.03093121644e-38
-0.00314985577658 -0.0929207454091 0.851 1.53825507038e-38
-0.00157122653015 -0.0927023652789 0.849 1.46391520594e-38
0.0 -0.0927023652789 0.849 1.52863053214e-38
0.00156752517201 -0.0924839851487 0.847 1.53770646204e-38
0.00312764762774 -0.0922656050184 0.845 1.66677838203e-38
0.00469147144162 -0.0922656050184 0.845 1.38976521744e-38
0.00624048982293 -0.0920472248882 0.843 1.35281900252e-38
0.00780061227866 -0.0920472248882 0.843 1.65710942262e-38
0.0093607347344 -0.0920472248882 0.843 1.68519746943e-38
0.0108949476832 -0.091828844758 0.841 1.63016931952e-38
0.0124513687807 -0.091828844758 0.841 1.71296531954e-38
0.0140077898783 -0.091828844758 0.841 1.47296787428e-38
0.0155642109759 -0.091828844758 0.841 1.73082795133e-38
0.0171206320735 -0.091828844758 0.841 1.56473176409e-38
0.0186770531711 -0.091828844758 0.841 1.78603686874e-38
0.0202334742687 -0.091828844758 0.841 1.73104164934e-38
0.0218417143803 -0.0920472248882 0.843 1.90651966993e-38
0.023401836836 -0.0920472248882 0.843 1.31691493327e-38
0.0249619592917 -0.0920472248882 0.843 1.37753244237e-39
0.0265220817475 -0.0920472248882 0.843 8.66097879378e-39
0.0280822042032 -0.0920472248882 0.843 8.27846775327e-39
0.0297126524636 -0.0922656050184 0.845 1.71299068304e-38
0.0312764762774 -0.0922656050184 0.845 4.77544580022e-39
0.0329180286122 -0.0924839851487 0.847 9.74609387781e-39
0.0346484135424 -0.0929207454091 0.851 1.63877371248e-38
0.0362233414307 -0.0929207454091 0.851 2.03597204245e-38
0.037798269319 -0.0929207454091 0.851 1.84232590702e-38
0.0393731972073 -0.0929207454091 0.851 1.92548246113e-38
0.0409481250955 -0.0929207454091 0.851 1.99891456443e-38
0.0425230529838 -0.0929207454091 0.851 2.02642905978e-38
-0.0143908804458 -0.0927412295394 0.864 2.34900166042e-38
-0.0127918937296 -0.0927412295394 0.864 2.34907634963e-38
-0.0111669975064 -0.0925265507673 0.862 2.03553918135e-38
-0.0095495039995 -0.0923118719952 0.86 1.50044649639e-38
-0.00795791999959 -0.0923118719952 0.86 6.98738982096e-39
-0.00635153056711 -0.0920971932231 0.858 5.69774681827e-39
-0.00475254385092 -0.091882514451 0.856 1.59350238338e-38
-0.003160959851 -0.0916678356789 0.854 1.47349336121e-38
-0.00157492788829 -0.0913458175208 0.851 5.60304146286e-39
0.0 -0.0913458175208 0.851 9.57354218881e-39
0.00157122653015 -0.0911311387487 0.849 1.21581993712e-38
0.00313505034402 -0.0909164599767 0.847 1.50136686922e-38
0.00469147144162 -0.0907017812046 0.845 1.55614530775e-38
0.00625529525549 -0.0907017812046 0.845 1.61142597165e-38
0.00781911906936 -0.0907017812046 0.845 1.64820206893e-38
0.00938294288323 -0.0907017812046 0.845 1.61147501709e-38
0.0109208571901 -0.0904871024325 0.843 1.60214909555e-38
0.0124809796459 -0.0904871024325 0.843 1.52796071148e-38
0.0140411021016 -0.0904871024325 0.843 1.74912316395e-38
0.0156012245573 -0.0904871024325 0.843 1.78643091387e-38
0.0171613470131 -0.0904871024325 0.843 1.61150682657e-38
0.0187214694688 -0.0904871024325 0.843 1.66674250879e-38
0.0202815919245 -0.0904871024325 0.843 1.66677838203e-38
0.0218417143803 -0.0904871024325 0.843 1.74031852543e-38
0.023401836836 -0.0904871024325 0.843 1.99828510116e-38
0.0249619592917 -0.0904871024325 0.843 1.52892578573e-38
0.0265850048358 -0.0907017812046 0.845 2.76295699769e-39
0.0281488286497 -0.0907017812046 0.845 1.27204381501e-38
0.0297126524636 -0.0907017812046 0.845 7.08532376803e-39
0.0312764762774 -0.0907017812046 0.845 1.31620223287e-38
0.0330734856541 -0.0913458175208 0.851 1.5193487515e-38
0.0346484135424 -0.0913458175208 0.851 2.11851973239e-38
0.0362233414307 -0.0913458175208 0.851 2.02682520685e-38
0.037931518212 -0.0916678356789 0.854 3.58161237613e-39
0.0395119981375 -0.0916678356789 0.854 2.10912108346e-38
0.041092478063 -0.0916678356789 0.854 2.01739096494e-38
-0.0143908804458 -0.0911422428232 0.864 2.3488592885e-38
-0.0127918937296 -0.0911422428232 0.864 2.34907522859e-38
-0.0111929070134 -0.0911422428232 0.864 2.18298156369e-38
-0.00957171214834 -0.0909312654092 0.862 1.26984727967e-38
-0.00795791999959 -0.0907202879953 0.86 7.54163138957e-39
-0.00635153056711 -0.0905093105813 0.858 6.25342331651e-39
-0.00475254385092 -0.0902983331674 0.856 1.53846960918e-38
-0.003160959851 -0.0900873557534 0.854 1.10482406667e-38
-0.0015804799255 -0.0900873557534 0.854 6.71690558618e-39
0.0 -0.0897708896325 0.851 1.44662598549e-38
0.00157122653015 -0.0895599122186 0.849 3.03415869728e-39
0.0031424530603 -0.0895599122186 0.849 1.59349411572e-38
0.00470257551603 -0.0893489348046 0.847 1.5285946589e-38
0.00627010068805 -0.0893489348046 0.847 1.58373182984e-38
0.00783762586006 -0.0893489348046 0.847 1.56525711088e-38
0.00938294288323 -0.0891379573907 0.845 1.58351659039e-38
0.0109208571901 -0.0889269799768 0.843 1.64805255039e-38
0.0124809796459 -0.0889269799768 0.843 1.63897662049e-38
0.0140744143248 -0.0891379573907 0.845 1.62053777478e-38
0.0156012245573 -0.0889269799768 0.843 1.71276787659e-38
0.0171613470131 -0.0889269799768 0.843 1.66677838203e-38
0.0187214694688 -0.0889269799768 0.843 1.6944366506e-38
0.0202815919245 -0.0889269799768 0.843 1.74056963812e-38
0.0218417143803 -0.0889269799768 0.843 1.77719621686e-38
0.023401836836 -0.0889269799768 0.843 1.74031852543e-38
0.025021181022 -0.0891379573907 0.845 2.15530353681e-38
0.0265850048358 -0.0891379573907 0.845 1.077354553e-38
0.0281488286497 -0.0891379573907 0.845 5.52125047409e-39
0.0297126524636 -0.0891379573907 0.845 1.37255979464e-38
0.0313505034402 -0.0893489348046 0.847 1.132384945e-38
0.0330734856541 -0.0897708896325 0.851 9.56955969857e-39
0.0346484135424 -0.0897708896325 0.851 1.9157917816e-38
0.0363510382865 -0.0900873557534 0.854 4.95911679253e-39
0.037931518212 -0.0900873557534 0.854 1.91589407639e-38
0.0395119981375 -0.0900873557534 0.854 2.07271184611e-38
0.041092478063 -0.0900873557534 0.854 2.01731879807e-38
-0.0145407854504 -0.0904759983581 0.873 2.34867978216e-38
-0.0128659208924 -0.0900614462465 0.869 2.34896872991e-38
-0.0112317712738 -0.0898541701907 0.867 2.2660286764e-38
-0.00959392029717 -0.089543256107 0.864 1.24204537801e-38
-0.00799493358098 -0.089543256107 0.864 8.45856263191e-39
-0.00636633599967 -0.0891287039954 0.86 9.29878959891e-39
-0.00477475199975 -0.0891287039954 0.86 1.51991557673e-38
-0.00316836256728 -0.0887141518838 0.856 1.29828845369e-38
-0.0015804799255 -0.0885068758279 0.854 8.28241380975e-39
0.0 -0.0885068758279 0.854 1.55682816049e-38
0.00157492788829 -0.0881959617442 0.851 1.43658049719e-38
0.00314985577658 -0.0881959617442 0.851 1.4552338817e-38
0.00471367959045 -0.0879886856884 0.849 1.04975864222e-38
0.0062849061206 -0.0879886856884 0.849 1.61221518294e-38
0.00783762586006 -0.0877814096326 0.847 1.55625292747e-38
0.00938294288323 -0.0875741335768 0.845 1.648590649e-38
0.0109467666971 -0.0875741335768 0.845 1.70365607345e-38
0.012510590511 -0.0875741335768 0.845 1.65763070565e-38
0.0140744143248 -0.0875741335768 0.845 1.72213079241e-38
0.0156382381387 -0.0875741335768 0.845 1.7404620184e-38
0.0172020619526 -0.0875741335768 0.845 1.75911610355e-38
0.0187658857665 -0.0875741335768 0.845 1.77766256899e-38
0.0203297095803 -0.0875741335768 0.845 1.65788181834e-38
0.0218935333942 -0.0875741335768 0.845 1.94354085431e-38
0.0234573572081 -0.0875741335768 0.845 1.28960712945e-38
0.025021181022 -0.0875741335768 0.845 1.72281378528e-38
0.0265850048358 -0.0875741335768 0.845 2.11882339376e-38
0.0281488286497 -0.0875741335768 0.845 4.41563859743e-39
0.0297126524636 -0.0875741335768 0.845 2.39848487231e-39
0.0314985577658 -0.0881959617442 0.851 1.17908868138e-38
0.0330734856541 -0.0881959617442 0.851 1.04915356154e-38
0.034770558361 -0.0885068758279 0.854 1.38976535757e-38
0.0363510382865 -0.0885068758279 0.854 1.25165800521e-38
0.037931518212 -0.0885068758279 0.854 2.10973148907e-38
0.0395119981375 -0.0885068758279 0.854 2.06330899328e-38
0.041092478063 -0.0885068758279 0.854 1.98962283457e-38
-0.0145407854504 -0.0888603555303 0.873 2.33946021918e-38
-0.0128955317575 -0.0886567808326 0.871 2.34875180891e-38
-0.0112576807808 -0.0884532061349 0.869 2.34918368909e-38
-0.00962723252043 -0.0882496314373 0.867 1.08534811996e-38
-0.00799493358098 -0.0879442693908 0.864 1.15042021675e-38
-0.00638114143223 -0.0877406946931 0.862 1.20646374753e-38
-0.00477475199975 -0.0875371199954 0.86 1.41842793675e-38
-0.00317576528356 -0.0873335452978 0.858 1.63926360642e-38
-0.0015804799255 -0.0869263959024 0.854 2.57139389242e-39
0.0 -0.0869263959024 0.854 1.4370852449e-38
0.0015804799255 -0.0869263959024 0.854 1.75897331124e-38
0.00314985577658 -0.086621033856 0.851 1.34438556798e-38
0.00472478366487 -0.086621033856 0.851 4.87517340932e-39
0.0062849061206 -0.0864174591583 0.849 1.64009037251e-38
0.00785613265075 -0.0864174591583 0.849 4.77652199744e-39
0.0094273591809 -0.0864174591583 0.849 9.39914779233e-39
0.0109467666971 -0.086010309763 0.845 1.15131634712e-38
0.012510590511 -0.086010309763 0.845 7.36441758058e-39
0.0140744143248 -0.086010309763 0.845 1.45498627226e-38
0.0156752517201 -0.0862138844606 0.847 1.07691468542e-38
0.0172427768921 -0.0862138844606 0.847 9.29260426749e-39
0.0188103020641 -0.0862138844606 0.847 1.39920226195e-38
0.0203778272361 -0.0862138844606 0.847 3.6773659028e-39
0.0218935333942 -0.086010309763 0.845 2.00876246965e-38
0.0234573572081 -0.086010309763 0.845 3.4061642032e-39
0.0250804027522 -0.0862138844606 0.847 1.6958095027e-38
0.0266479279242 -0.0862138844606 0.847 1.98949741836e-38
0.0282154530962 -0.0862138844606 0.847 1.57520184583e-38
0.0297829782682 -0.0862138844606 0.847 3.21854715441e-39
0.0314985577658 -0.086621033856 0.851 1.31767303574e-38
0.0331900784355 -0.0869263959024 0.854 8.27668810422e-39
0.034770558361 -0.0869263959024 0.854 9.47525511452e-39
0.0363510382865 -0.0869263959024 0.854 1.34382210586e-38
0.0380203508073 -0.0871299706001 0.856 1.94356201392e-38
0.0396970660444 -0.0873335452978 0.858 2.01731851781e-38
0.0412849486862 -0.0873335452978 0.858 2.08181888483e-38
0.042872831328 -0.0873335452978 0.858 2.04465154501e-38
-0.0145740976737 -0.087444586042 0.875 2.27510306487e-38
-0.0129251426226 -0.0872447127024 0.873 2.34918354896e-38
-0.0112835902878 -0.0870448393629 0.871 2.3490039025e-38
-0.0096716488181 -0.0870448393629 0.871 1.25111794479e-38
-0.00802269376702 -0.0866450926839 0.867 7.72171505782e-39
-0.00638114143223 -0.086145409335 0.862 1.51009667839e-38
-0.00478585607417 -0.086145409335 0.862 1.45494829707e-38
-0.00318316799983 -0.0859455359955 0.86 1.40910089417e-38
-0.00158418128364 -0.0855457893165 0.856 1.16046346297e-38
0.0 -0.0855457893165 0.856 6.81304587122e-39
0.0015804799255 -0.0853459159769 0.854 9.9465804517e-39
0.003160959851 -0.0853459159769 0.854 1.39062659561e-38
0.00472478366487 -0.0850461059677 0.851 7.54665364326e-39
0.00629971155316 -0.0850461059677 0.851 1.79675161719e-38
0.00787463944145 -0.0850461059677 0.851 3.76991886377e-39
0.00944956732974 -0.0850461059677 0.851 7.19545461694e-39
0.0109985857111 -0.0848462326281 0.849 8.29498345697e-39
0.0125698122412 -0.0848462326281 0.849 1.45584372679e-38
0.0141410387714 -0.0848462326281 0.849 1.26202060736e-38
0.0157122653015 -0.0848462326281 0.849 5.42582765387e-39
0.0172834918317 -0.0848462326281 0.849 1.60317624733e-38
0.0188103020641 -0.0846463592886 0.847 1.72252539805e-38
0.0203778272361 -0.0846463592886 0.847 4.60146058288e-39
0.0219453524082 -0.0846463592886 0.847 1.47471585399e-38
0.0235128775802 -0.0846463592886 0.847 2.76403319491e-39
0.0251988462126 -0.0850461059677 0.851 1.82451792587e-38
0.0267737741009 -0.0850461059677 0.851 1.78663087916e-38
0.0283487019892 -0.0850461059677 0.851 2.19239688807e-38
0.0299236298775 -0.0850461059677 0.851 3.58517167423e-39
0.03160959851 -0.0853459159769 0.854 6.63152727335e-39
0.0331900784355 -0.0853459159769 0.854 1.11448111504e-38
0.034770558361 -0.0853459159769 0.854 6.99639596619e-39
0.0364361695237 -0.0855457893165 0.856 8.55540917137e-39
0.0381091834027 -0.085745662656 0.858 1.91601108481e-38
0.0396970660444 -0.085745662656 0.858 2.1189841227e-38
0.0412849486862 -0.085745662656 0.858 2.04472469279e-38
0.042872831328 -0.085745662656 0.858 2.07231247604e-38
-0.0146240660085 -0.0861194998281 0.878 2.34875138852e-38
-0.0129251426226 -0.0856290698746 0.873 2.34914837637e-38
-0.0112835902878 -0.0854328978932 0.871 2.34914753559e-38
-0.0096716488181 -0.0854328978932 0.871 1.2788134879e-38
-0.00804120055772 -0.0852367259118 0.869 6.61681924466e-39
-0.00638114143223 -0.084550123977 0.862 1.58392520903e-38
-0.00478585607417 -0.084550123977 0.862 1.44561985319e-38
-0.00318316799983 -0.0843539519956 0.86 5.60770498415e-39
-0.00158788264178 -0.0841577800142 0.858 1.03149916271e-38
0.0 -0.0839616080328 0.856 1.37229691105e-38
0.00158418128364 -0.0839616080328 0.856 9.21117201113e-39
0.00316836256728 -0.0839616080328 0.856 1.64884456428e-38
0.0047414397765 -0.0837654360515 0.854 2.75506488474e-39
0.006321919702 -0.0837654360515 0.854 1.49311980737e-38
0.0079023996275 -0.0837654360515 0.854 2.11831486255e-39
0.00944956732974 -0.0834711780794 0.851 8.7602453757e-39
0.011024495218 -0.0834711780794 0.851 1.12391297474e-38
0.0125994231063 -0.0834711780794 0.851 1.79628162168e-38
0.0141743509946 -0.0834711780794 0.851 1.39048268226e-38
0.0157492788829 -0.0834711780794 0.851 5.97971049007e-39
0.0173242067712 -0.0834711780794 0.851 1.82433617746e-38
0.0188547183618 -0.083275006098 0.849 1.85105921943e-38
0.020425944892 -0.083275006098 0.849 1.40963899278e-38
0.0219453524082 -0.0830788341166 0.847 2.1523944412e-42
0.0235128775802 -0.0830788341166 0.847 1.55730123885e-38
0.0251988462126 -0.0834711780794 0.851 1.79620903442e-38
0.0268681587335 -0.0837654360515 0.854 1.80496210515e-38
0.028448638659 -0.0837654360515 0.854 2.05385162995e-38
0.0300291185845 -0.0837654360515 0.854 1.27113563348e-38
0.0316836256728 -0.0839616080328 0.856 3.31827476352e-39
0.0332678069564 -0.0839616080328 0.856 1.16089520303e-38
0.03485198824 -0.0839616080328 0.856 1.88859790335e-38
0.0366064319981 -0.0843539519956 0.86 1.53836843543e-38
0.038198015998 -0.0843539519956 0.86 1.26137488903e-38
0.0397895999979 -0.0843539519956 0.86 1.60111437677e-38
0.0413811839978 -0.0843539519956 0.86 2.24690739834e-38
0.0429727679978 -0.0843539519956 0.86 2.02614305476e-38
-0.0146240660085 -0.0844946036049 0.878 2.34867978216e-38
-0.0129547534877 -0.08420589767 0.875 2.34900334198e-38
-0.0113094997948 -0.0840134270468 0.873 2.34939962919e-38
-0.00969385696694 -0.0840134270468 0.873 1.37122673941e-38
-0.00804120055772 -0.0836284858003 0.869 7.07886658471e-39
-0.00641815501362 -0.083436015177 0.867 1.54718918887e-38
-0.00478585607417 -0.0829548386189 0.862 1.04950752953e-38
-0.00319057071611 -0.0829548386189 0.862 1.25241176366e-38
-0.00159158399992 -0.0827623679957 0.86 1.31715777829e-38
0.0 -0.0825698973724 0.858 1.2703431992e-38
0.00158788264178 -0.0825698973724 0.858 1.61153359137e-38
0.00316836256728 -0.0823774267492 0.856 1.70376369317e-38
0.00475254385092 -0.0823774267492 0.856 1.23400360638e-38
0.00633672513455 -0.0823774267492 0.856 1.19769988681e-38
0.0079023996275 -0.082184956126 0.854 7.27114715479e-39
0.00948287955299 -0.082184956126 0.854 1.28017386844e-38
0.0110633594785 -0.082184956126 0.854 9.48093878109e-39
0.0125994231063 -0.0818962501911 0.851 1.73170992858e-38
0.0141743509946 -0.0818962501911 0.851 1.49178871396e-38
0.0157492788829 -0.0818962501911 0.851 5.23641694304e-39
0.0173242067712 -0.0818962501911 0.851 1.76891188047e-38
0.0188991346595 -0.0818962501911 0.851 1.60227829527e-38
0.0204740625478 -0.0818962501911 0.851 9.20112750374e-39
0.0219971714221 -0.0817037795678 0.849 1.4186445775e-38
0.0235683979523 -0.0817037795678 0.849 1.86982484795e-38
0.025287678808 -0.082184956126 0.854 1.8232574579e-38
0.0268681587335 -0.082184956126 0.854 1.83247688076e-38
0.028448638659 -0.082184956126 0.854 1.9245634896e-38
0.0300994443891 -0.0823774267492 0.856 1.96205635105e-38
0.0317576528356 -0.0825698973724 0.858 3.4947711077e-39
0.0333455354773 -0.0825698973724 0.858 8.56585445013e-39
0.0350148479982 -0.0827623679957 0.86 1.72171278507e-38
0.0366915632353 -0.0829548386189 0.862 1.40755834482e-38
0.0383756811887 -0.0831473092422 0.864 1.5085450206e-38
0.0398821339514 -0.0829548386189 0.862 1.70129082177e-38
0.0414774193095 -0.0829548386189 0.862 2.2936147781e-38
0.0430727046675 -0.0829548386189 0.862 1.91572171668e-38
-0.0146240660085 -0.0828697073817 0.878 2.33949581216e-38
-0.0129547534877 -0.0825865534841 0.875 2.33967559875e-38
-0.0113094997948 -0.082397784219 0.873 2.3493278827e-38
-0.00969385696694 -0.082397784219 0.873 1.13141034191e-38
-0.00805970734842 -0.0822090149539 0.871 7.07671419027e-39
