# .PCD v0.7 - Point Cloud Data file format
VERSION 0.7
FIELDS x y z rgb
SIZE 4 4 4 4
TYPE F F F F
COUNT 1 1 1 1
WIDTH 848
HEIGHT 1
VIEWPOINT 0 0 0 1 0 0 0
POINTS 848
DATA ascii
-0.00456932662302 -0.118802492198 0.823 8.54070114269e-39
-0.0030388150324 -0.118513786264 0.821 8.72437213501e-39
-0.00151570615806 -0.118225080329 0.819 9.36722060812e-39
0.0 -0.118225080329 0.819 9.73456259275e-39
0.00151200479992 -0.117936374394 0.817 9.45905610427e-39
0.00302400959984 -0.117936374394 0.817 1.03774110659e-38
0.00453601439976 -0.117936374394 0.817 1.00100690812e-38
0.00604801919968 -0.117936374394 0.817 9.64272709659e-39
0.00756002399961 -0.117936374394 0.817 1.03774110659e-38
0.00904982065069 -0.117647668459 0.815 1.05614407906e-38
0.0105581240925 -0.117647668459 0.815 1.12042934676e-38
0.0120664275343 -0.117647668459 0.815 1.10202623416e-38
0.013574730976 -0.117647668459 0.815 1.13876071288e-38
0.0150830344178 -0.117647668459 0.815 1.14794370197e-38
0.0165913378596 -0.117647668459 0.815 1.11120950351e-38
0.0180996413014 -0.117647668459 0.815 1.13883189884e-38
0.019656062399 -0.117936374394 0.817 1.11120950351e-38
0.0211680671989 -0.117936374394 0.817 1.13876015236e-38
0.0226800719988 -0.117936374394 0.817 1.12957660274e-38
0.0241920767987 -0.117936374394 0.817 1.16631080121e-38
0.0257040815987 -0.117936374394 0.817 1.15712725159e-38
0.0272160863986 -0.117936374394 0.817 1.16631108147e-38
0.0287984170032 -0.118225080329 0.819 1.25832566357e-38
0.030388150324 -0.118513786264 0.821 1.31400457649e-38
0.0319075578402 -0.118513786264 0.821 1.2771989118e-38
0.0335898251145 -0.119091198133 0.825 1.35999533222e-38
0.035116635347 -0.119091198133 0.825 1.31400331532e-38
0.0367322781748 -0.119379904068 0.827 1.31432673501e-38
0.0383553237189 -0.119668610003 0.829 1.12039305313e-38
0.0398895366677 -0.119668610003 0.829 1.46043984562e-38
0.0414237496164 -0.119668610003 0.829 2.16213304514e-38
-0.0139744776551 -0.119559419938 0.839 2.34961598967e-38
-0.0123921470505 -0.119274415361 0.837 8.55434838844e-39
-0.0108172191622 -0.118989410784 0.835 1.00140151377e-38
-0.00924969399022 -0.118704406208 0.833 7.89785266959e-39
-0.00767106474379 -0.118134397054 0.829 1.01062093663e-38
-0.00610724092991 -0.117564387901 0.825 7.80601717343e-39
-0.00458043069744 -0.117564387901 0.825 8.81620763117e-39
-0.00304621774868 -0.117279383324 0.823 9.36722060812e-39
-0.0015194075162 -0.116994378747 0.821 9.91823358506e-39
0.0 -0.116994378747 0.821 9.27538511196e-39
0.00151570615806 -0.116709374171 0.819 9.09171411964e-39
0.00303141231612 -0.116709374171 0.819 1.00100690812e-38
0.00453601439976 -0.116424369594 0.817 9.91823358506e-39
0.00604801919968 -0.116424369594 0.817 1.01019045774e-38
0.00756002399961 -0.116424369594 0.817 1.1020996622e-38
0.00907202879953 -0.116424369594 0.817 1.05610820582e-38
0.0105840335994 -0.116424369594 0.817 1.05611016763e-38
0.0120960383994 -0.116424369594 0.817 1.1020259539e-38
0.0136080431993 -0.116424369594 0.817 1.13876183392e-38
0.0151200479992 -0.116424369594 0.817 1.1020259539e-38
0.0166320527991 -0.116424369594 0.817 1.12039305313e-38
0.0181440575991 -0.116424369594 0.817 1.11120950351e-38
0.019656062399 -0.116424369594 0.817 1.10202707493e-38
0.0212198862128 -0.116709374171 0.819 1.14794370197e-38
0.0227355923709 -0.116709374171 0.819 1.13876015236e-38
0.024251298529 -0.116709374171 0.819 1.21222854929e-38
0.025767004687 -0.116709374171 0.819 1.19386159018e-38
0.0273493352916 -0.116994378747 0.821 1.1846819642e-38
0.0288687428078 -0.116994378747 0.821 1.27651437751e-38
0.0304621774868 -0.117279383324 0.823 1.28591526851e-38
0.0320630148821 -0.117564387901 0.825 1.39676456314e-38
0.0335898251145 -0.117564387901 0.825 1.41585164953e-38
0.035116635347 -0.117564387901 0.825 1.28674049318e-38
0.0367322781748 -0.117849392478 0.827 1.22187845103e-38
0.0383553237189 -0.118134397054 0.829 1.2765157788e-38
0.0398895366677 -0.118134397054 0.829 1.53512386897e-38
0.0414237496164 -0.118134397054 0.829 2.14369293826e-38
-0.0139078532086 -0.117444093761 0.835 2.34961500876e-38
-0.0123625361854 -0.117444093761 0.835 9.66102945583e-39
-0.0108172191622 -0.117444093761 0.835 1.01051359716e-38
-0.00924969399022 -0.117162790543 0.833 8.72437213501e-39
-0.00767106474379 -0.116600184106 0.829 8.35703015038e-39
-0.00613685179503 -0.116600184106 0.829 9.73456259275e-39
-0.00459153477185 -0.116318880887 0.827 8.99988562998e-39
-0.00305362046496 -0.116037577668 0.825 8.90804312733e-39
-0.00152310887434 -0.11575627445 0.823 9.73456259275e-39
0.0 -0.11575627445 0.823 9.91823358506e-39
0.0015194075162 -0.115474971231 0.821 9.45907151856e-39
0.0030388150324 -0.115474971231 0.821 9.73456259275e-39
0.00454711847418 -0.115193668013 0.819 9.91823358506e-39
0.00606282463224 -0.115193668013 0.819 1.03774110659e-38
0.0075785307903 -0.115193668013 0.819 1.0469246562e-38
0.00909423694836 -0.115193668013 0.819 1.0654352484e-38
0.0106099431064 -0.115193668013 0.819 1.01937400735e-38
0.0120960383994 -0.114912364794 0.817 1.12979184219e-38
0.0136080431993 -0.114912364794 0.817 1.1114606162e-38
0.0151570615806 -0.115193668013 0.819 1.1480513217e-38
0.0166727677387 -0.115193668013 0.819 1.09287827752e-38
0.0181440575991 -0.114912364794 0.817 1.11128124999e-38
0.019656062399 -0.114912364794 0.817 1.14794370197e-38
0.0212198862128 -0.115193668013 0.819 1.14794370197e-38
0.0227355923709 -0.115193668013 0.819 1.15712921341e-38
0.024251298529 -0.115193668013 0.819 1.18467790044e-38
0.0258299277754 -0.115474971231 0.821 1.15712725159e-38
0.0273493352916 -0.115474971231 0.821 1.18467930174e-38
0.0289390686124 -0.11575627445 0.823 1.23059662943e-38
0.0304621774868 -0.11575627445 0.823 1.43331995592e-38
0.032140743403 -0.116318880887 0.827 1.28609379394e-38
0.0336712549936 -0.116318880887 0.827 1.27723548569e-38
0.0352017665842 -0.116318880887 0.827 1.26762005589e-38
0.0368211107702 -0.116600184106 0.829 1.36870888633e-38
0.0386329255794 -0.117444093761 0.835 1.47055820144e-38
0.0401782426026 -0.117444093761 0.835 1.44318229451e-38
-0.0139078532086 -0.115898776738 0.835 2.34972332913e-38
-0.0123625361854 -0.115898776738 0.835 9.9376359636e-39
-0.0108172191622 -0.115898776738 0.835 1.07472823942e-38
-0.00924969399022 -0.115621174878 0.833 8.63253663885e-39
-0.00770807832518 -0.115621174878 0.833 9.09171411964e-39
-0.00613685179503 -0.115065971157 0.829 8.44886564654e-39
-0.00460263884627 -0.115065971157 0.829 8.72437213501e-39
-0.00306102318124 -0.114788369296 0.827 9.1835496158e-39
-0.00152681023248 -0.114510767436 0.825 9.45905610427e-39
0.0 -0.114510767436 0.825 8.81620763117e-39
0.00152310887434 -0.114233165575 0.823 9.1835496158e-39
0.00304621774868 -0.114233165575 0.823 9.64272709659e-39
0.0045582225486 -0.113955563715 0.821 1.07447530505e-38
0.0060776300648 -0.113955563715 0.821 1.01937400735e-38
0.007597037581 -0.113955563715 0.821 1.04692521672e-38
0.0091164450972 -0.113955563715 0.821 1.01937400735e-38
0.0106358526134 -0.113955563715 0.821 1.06529315673e-38
0.0121552601296 -0.113955563715 0.821 1.10202805584e-38
0.0136413554225 -0.113677961855 0.819 1.14794412236e-38
0.0151570615806 -0.113677961855 0.819 1.13876015236e-38
0.0167134826782 -0.113955563715 0.821 1.09284240428e-38
0.0182328901944 -0.113955563715 0.821 1.07447530505e-38
0.0197041800548 -0.113677961855 0.819 1.13876015236e-38
0.0212198862128 -0.113677961855 0.819 1.14794370197e-38
0.022791112743 -0.113955563715 0.821 1.18471419407e-38
0.0243105202592 -0.113955563715 0.821 1.15712725159e-38
0.0258928508638 -0.114233165575 0.823 1.12039305313e-38
0.0274159597381 -0.114233165575 0.823 1.18467790044e-38
0.0290093944171 -0.114510767436 0.825 1.25832566357e-38
0.0305362046496 -0.114510767436 0.825 1.2860940742e-38
0.032140743403 -0.114788369296 0.827 1.42438779925e-38
0.0337526848727 -0.115065971157 0.829 1.35106709918e-38
0.0352868978214 -0.115065971157 0.829 1.2586511852e-38
0.0369987759609 -0.115621174878 0.833 1.35037920177e-38
0.0386329255794 -0.115898776738 0.835 1.35985085835e-38
0.0401782426026 -0.115898776738 0.835 1.45222417286e-38
-0.0156382381387 -0.115722962227 0.845 2.30261910164e-38
-0.0139078532086 -0.114353459715 0.835 2.34947235658e-38
-0.0123625361854 -0.114353459715 0.835 1.45492195266e-38
-0.0108172191622 -0.114353459715 0.835 1.01987931558e-38
-0.00927190213905 -0.114353459715 0.835 8.99987862348e-39
-0.00770807832518 -0.114079559213 0.833 9.27538511196e-39
-0.00616646266014 -0.114079559213 0.833 8.72437213501e-39
-0.00462484699511 -0.114079559213 0.833 9.09171411964e-39
-0.00306842589751 -0.113531758208 0.829 8.63253663885e-39
-0.00153051159062 -0.113257857706 0.827 9.36722060812e-39
0.0 -0.113257857706 0.827 1.0928429648e-38
0.00152681023248 -0.112983957203 0.825 9.91823358506e-39
0.00305362046496 -0.112983957203 0.825 9.91823358506e-39
0.00456932662302 -0.112710056701 0.823 1.03774110659e-38
0.00609243549736 -0.112710056701 0.823 1.00100690812e-38
0.0076155443717 -0.112710056701 0.823 1.04692521672e-38
0.0091164450972 -0.112436156199 0.821 1.07461893814e-38
0.0106358526134 -0.112436156199 0.821 1.11142656464e-38
0.0121552601296 -0.112436156199 0.821 1.09323981252e-38
0.0136746676458 -0.112436156199 0.821 1.11135299647e-38
0.015194075162 -0.112436156199 0.821 1.15723501144e-38
0.0167134826782 -0.112436156199 0.821 1.12046479961e-38
0.0182773064921 -0.112710056701 0.823 1.12039361365e-38
0.0197522977106 -0.112436156199 0.821 1.13876113327e-38
0.0212717052268 -0.112436156199 0.821 1.13876015236e-38
0.0228466331151 -0.112710056701 0.823 1.22141223903e-38
0.0244289637197 -0.112983957203 0.825 1.17549435082e-38
0.0259557739521 -0.112983957203 0.825 1.23995940512e-38
0.0274825841846 -0.112983957203 0.825 1.19396906978e-38
0.0290797202217 -0.113257857706 0.827 1.21248050275e-38
0.0306102318124 -0.113257857706 0.827 1.30424621424e-38
0.0322184719239 -0.113531758208 0.829 1.31346605749e-38
0.0337526848727 -0.113531758208 0.829 1.2673332101e-38
0.0354571602958 -0.114079559213 0.833 1.33172539687e-38
0.0370876085562 -0.114353459715 0.835 1.4241006732e-38
0.0387254595329 -0.114627360217 0.837 1.43353701705e-38
0.0402744779142 -0.114627360217 0.837 1.27654926984e-38
0.0419234329653 -0.11490126072 0.839 2.3485832327e-38
-0.0156382381387 -0.114159138413 0.845 2.3119094302e-38
-0.0140411021016 -0.113888939268 0.843 2.34932760244e-38
-0.0123921470505 -0.113078341836 0.837 1.75001985483e-38
-0.0108172191622 -0.112808142692 0.835 8.26522408149e-39
-0.00927190213905 -0.112808142692 0.835 9.82890921575e-39
-0.00772658511588 -0.112808142692 0.835 9.09243158445e-39
-0.0061812680927 -0.112808142692 0.835 8.72437213501e-39
-0.00462484699511 -0.112537943548 0.833 9.09171411964e-39
-0.00308323133007 -0.112537943548 0.833 8.99987862348e-39
-0.00153421294876 -0.111997545259 0.829 9.1835496158e-39
0.0 -0.111727346115 0.827 9.55089160043e-39
0.00153051159062 -0.111727346115 0.827 9.73456259275e-39
0.00306102318124 -0.111727346115 0.827 9.91823358506e-39
0.00458043069744 -0.111457146971 0.825 1.00100690812e-38
0.00610724092991 -0.111457146971 0.825 1.02855755697e-38
0.00763405116239 -0.111457146971 0.825 1.01019045774e-38
0.00916086139487 -0.111457146971 0.825 1.05610820582e-38
0.0106617621204 -0.111186947827 0.823 1.06529175543e-38
0.0121848709947 -0.111186947827 0.823 1.09284240428e-38
0.0137079798691 -0.111186947827 0.823 1.11120950351e-38
0.0152310887434 -0.111186947827 0.823 1.13876015236e-38
0.0167541976177 -0.111186947827 0.823 1.12039305313e-38
0.0182773064921 -0.111186947827 0.823 1.07447530505e-38
0.0198004153664 -0.111186947827 0.823 1.14794370197e-38
0.0213753432547 -0.111457146971 0.825 1.15712725159e-38
0.0229021534872 -0.111457146971 0.825 1.18467804057e-38
0.0244289637197 -0.111457146971 0.825 1.14794370197e-38
0.0260186970405 -0.111727346115 0.827 1.19386145005e-38
0.0275492086311 -0.111727346115 0.827 1.19386201057e-38
0.0290797202217 -0.111727346115 0.827 1.27651395712e-38
0.0306842589751 -0.111997545259 0.829 1.26732998711e-38
0.0322962004448 -0.112267744403 0.831 1.25818217061e-38
0.0338341147517 -0.112267744403 0.831 1.32243352688e-38
0.035542291533 -0.112808142692 0.835 1.33218964705e-38
0.0370876085562 -0.112808142692 0.835 1.38732976071e-38
0.0387254595329 -0.113078341836 0.837 1.24925085471e-38
0.0403707132258 -0.11334854098 0.839 1.91259149617e-38
0.0419234329653 -0.11334854098 0.839 2.34915566312e-38
-0.0156382381387 -0.112595314599 0.845 2.3396415472e-38
-0.0140411021016 -0.112328816813 0.843 2.34975864185e-38
-0.0123921470505 -0.111529323455 0.837 1.84214345796e-38
-0.0108431286692 -0.111529323455 0.837 1.01156429075e-38
-0.00927190213905 -0.111262825669 0.835 8.44886564654e-39
-0.00772658511588 -0.111262825669 0.835 9.37010448035e-39
-0.0061812680927 -0.111262825669 0.835 8.90804312733e-39
-0.00463595106953 -0.111262825669 0.835 8.81620763117e-39
-0.00308323133007 -0.110996327883 0.833 9.09171411964e-39
-0.00153421294876 -0.110463332311 0.829 9.27538511196e-39
0.0 -0.110463332311 0.829 1.01019045774e-38
0.00153421294876 -0.110463332311 0.829 1.00100690812e-38
0.00306102318124 -0.110196834524 0.827 9.91823358506e-39
0.00459153477185 -0.110196834524 0.827 1.01937400735e-38
0.00612204636247 -0.110196834524 0.827 1.00100690812e-38
0.00765255795309 -0.110196834524 0.827 1.06532846945e-38
0.00916086139487 -0.109930336738 0.825 1.08376941711e-38
0.0106876716274 -0.109930336738 0.825 1.12982883647e-38
0.0122144818598 -0.109930336738 0.825 1.13000764215e-38
0.0137412920923 -0.109930336738 0.825 1.12983065815e-38
0.0152310887434 -0.109663838952 0.823 1.12039305313e-38
0.0167541976177 -0.109663838952 0.823 1.24032122038e-38
0.0182773064921 -0.109663838952 0.823 1.10202637429e-38
0.0198485330222 -0.109930336738 0.825 1.11121076468e-38
0.0214271622687 -0.110196834524 0.827 1.14794370197e-38
0.0229576738593 -0.110196834524 0.827 1.14794510327e-38
0.0244881854499 -0.110196834524 0.827 1.20304556019e-38
0.0260186970405 -0.110196834524 0.827 1.19386229083e-38
0.0275492086311 -0.110196834524 0.827 1.19386257109e-38
0.0291500460264 -0.110463332311 0.829 1.21222953019e-38
0.0306842589751 -0.110463332311 0.829 1.23059564852e-38
0.0322962004448 -0.110729830097 0.831 1.28569694621e-38
0.0339155446308 -0.110996327883 0.833 1.31324843584e-38
0.0354571602958 -0.110996327883 0.833 1.32279127838e-38
0.0371764411516 -0.111529323455 0.837 1.20304542006e-38
0.0388179934863 -0.111795821241 0.839 1.23059564852e-38
0.0403707132258 -0.111795821241 0.839 2.24726837282e-38
0.0421233063048 -0.112328816813 0.843 2.25688478353e-38
0.0436834287605 -0.112328816813 0.843 2.34990451702e-38
-0.0156382381387 -0.111031490785 0.845 2.28439493485e-38
-0.0140411021016 -0.110768694357 0.843 2.34982982781e-38
-0.0124217579156 -0.110243101501 0.839 1.79601019017e-38
-0.0108431286692 -0.109980305073 0.837 1.63909769268e-38
-0.00929411028789 -0.109980305073 0.837 5.60199048901e-39
-0.00772658511588 -0.109717508645 0.835 7.89785266959e-39
-0.0061812680927 -0.109717508645 0.835 9.64273130048e-39
-0.00463595106953 -0.109717508645 0.835 9.1835496158e-39
-0.00309063404635 -0.109717508645 0.835 9.45905610427e-39
-0.0015379143069 -0.10919191579 0.831 9.91823358506e-39
0.0 -0.108929119362 0.829 1.01937400735e-38
0.00153421294876 -0.108929119362 0.829 1.00100690812e-38
0.00306842589751 -0.108929119362 0.829 9.91823358506e-39
0.00460263884627 -0.108929119362 0.829 9.91823358506e-39
0.00612204636247 -0.108666322934 0.827 1.06529175543e-38
0.00765255795309 -0.108666322934 0.827 1.06529175543e-38
0.00918306954371 -0.108666322934 0.827 1.08365885466e-38
0.0107135811343 -0.108666322934 0.827 1.08365969544e-38
0.0122440927249 -0.108666322934 0.827 1.13876015236e-38
0.0137746043156 -0.108666322934 0.827 1.12039305313e-38
0.0152681023248 -0.108403526506 0.825 1.12039305313e-38
0.0167949125573 -0.108403526506 0.825 1.16631080121e-38
0.0183217227897 -0.108403526506 0.825 1.1020259539e-38
0.019896650678 -0.108666322934 0.827 1.14794370197e-38
0.0214271622687 -0.108666322934 0.827 1.16631080121e-38
0.0229576738593 -0.108666322934 0.827 1.15712725159e-38
0.0244881854499 -0.108666322934 0.827 1.20308087291e-38
0.0260816201289 -0.108929119362 0.829 1.20304598058e-38
0.0276158330776 -0.108929119362 0.829 1.23978003891e-38
0.0291500460264 -0.108929119362 0.829 1.25814643749e-38
0.0307582861379 -0.10919191579 0.831 1.23059592878e-38
0.0322962004448 -0.10919191579 0.831 1.30413915504e-38
0.0339155446308 -0.109454712218 0.833 1.37807460475e-38
0.0354571602958 -0.109454712218 0.833 1.18475076796e-38
0.0371764411516 -0.109980305073 0.837 9.82639808891e-39
0.0389105274398 -0.110505897929 0.841 2.30222253418e-38
0.0404669485374 -0.110505897929 0.841 2.10955128208e-38
0.0421233063048 -0.110768694357 0.843 2.23873278362e-38
0.0436834287605 -0.110768694357 0.843 2.34983277054e-38
-0.0156382381387 -0.109467666971 0.845 2.32127500849e-38
-0.0140744143248 -0.109467666971 0.845 2.34936459672e-38
-0.0124809796459 -0.109208571901 0.843 1.86965907434e-38
-0.0108431286692 -0.108431286692 0.837 1.50084180269e-38
-0.00929411028789 -0.108431286692 0.837 1.54715990174e-38
-0.00774509190657 -0.108431286692 0.837 5.78563625795e-39
-0.0061812680927 -0.108172191622 0.835 7.80601717343e-39
-0.00463595106953 -0.108172191622 0.835 9.91895104988e-39
-0.00309063404635 -0.108172191622 0.835 9.64272709659e-39
-0.0015379143069 -0.107654001483 0.831 9.55089160043e-39
0.0 -0.107654001483 0.831 1.03774110659e-38
0.00153421294876 -0.107394906413 0.829 1.00100690812e-38
0.00306842589751 -0.107394906413 0.829 1.01937400735e-38
0.00460263884627 -0.107394906413 0.829 1.03774110659e-38
0.00613685179503 -0.107394906413 0.829 1.07447530505e-38
0.00767106474379 -0.107394906413 0.829 1.0469246562e-38
0.00918306954371 -0.107135811343 0.827 1.07447530505e-38
0.0107135811343 -0.107135811343 0.827 1.11121188572e-38
0.0122440927249 -0.107135811343 0.827 1.10202651442e-38
0.0137746043156 -0.107135811343 0.827 1.1020259539e-38
0.0153051159062 -0.107135811343 0.827 1.12957660274e-38
0.0168356274968 -0.107135811343 0.827 1.14794370197e-38
0.0183661390874 -0.107135811343 0.827 1.17549435082e-38
0.019896650678 -0.107135811343 0.827 1.11120950351e-38
0.0214789812826 -0.107394906413 0.829 1.16631080121e-38
0.0230131942314 -0.107394906413 0.829 1.19386145005e-38
0.0245474071801 -0.107394906413 0.829 1.19386145005e-38
0.0260816201289 -0.107394906413 0.829 1.15712739172e-38
0.0276824575241 -0.107654001483 0.831 1.23977919813e-38
0.029220371831 -0.107654001483 0.831 1.26732984698e-38
0.0307582861379 -0.107654001483 0.831 1.28584043917e-38
0.0323739289658 -0.107913096553 0.833 1.28580568697e-38
0.0339969745099 -0.108172191622 0.835 1.06529329686e-38
0.035542291533 -0.108172191622 0.835 9.55089160043e-39
0.0371764411516 -0.108431286692 0.837 2.23793768687e-38
0.0390030613933 -0.109208571901 0.843 2.11877252663e-38
0.040563183849 -0.109208571901 0.843 1.99873673966e-38
0.0421233063048 -0.109208571901 0.843 2.26628231142e-38
-0.0156382381387 -0.107903843157 0.845 2.31190971046e-38
-0.0140744143248 -0.107903843157 0.845 2.34950640813e-38
-0.012510590511 -0.107903843157 0.845 1.97103727291e-38
-0.0108431286692 -0.106882268311 0.837 1.44563358592e-38
-0.00929411028789 -0.106882268311 0.837 1.4918753142e-38
-0.00774509190657 -0.106882268311 0.837 1.61183781327e-38
-0.00619607352526 -0.106882268311 0.837 8.18378621993e-39
-0.00464705514394 -0.106882268311 0.837 7.53051068496e-39
-0.00309803676263 -0.106882268311 0.837 9.36722060812e-39
-0.00154161566504 -0.106371480887 0.833 9.45905610427e-39
0.0 -0.106116087176 0.831 1.03774110659e-38
0.0015379143069 -0.106116087176 0.831 1.01019045774e-38
0.00307582861379 -0.106116087176 0.831 1.01937400735e-38
0.00461374292069 -0.106116087176 0.831 1.03774110659e-38
0.00613685179503 -0.105860693464 0.829 1.07447530505e-38
0.00767106474379 -0.105860693464 0.829 1.03774110659e-38
0.00920527769254 -0.105860693464 0.829 1.02855755697e-38
0.0107394906413 -0.105860693464 0.829 1.0469246562e-38
0.0122737035901 -0.105860693464 0.829 1.00100690812e-38
0.0138079165388 -0.105860693464 0.829 9.73456259275e-39
0.0153421294876 -0.105860693464 0.829 9.91823358506e-39
0.0168763424363 -0.105860693464 0.829 9.73456259275e-39
0.0184105553851 -0.105860693464 0.829 9.64272709659e-39
0.0199447683338 -0.105860693464 0.829 9.82639808891e-39
0.0214789812826 -0.105860693464 0.829 1.01019045774e-38
0.0230131942314 -0.105860693464 0.829 9.91823358506e-39
0.0245474071801 -0.105860693464 0.829 9.73456259275e-39
0.0260816201289 -0.105860693464 0.829 9.91823358506e-39
0.0276824575241 -0.106116087176 0.831 1.0469246562e-38
0.0292906976357 -0.106371480887 0.833 1.18467790044e-38
0.0308323133007 -0.106371480887 0.833 1.18467790044e-38
0.0324516574867 -0.106626874599 0.835 1.03774110659e-38
0.0339969745099 -0.106626874599 0.835 1.23124360893e-38
0.035542291533 -0.106626874599 0.835 2.26570777905e-38
0.0373541063422 -0.107393055734 0.841 1.97143804427e-38
0.0390030613933 -0.107648449446 0.843 2.10962190753e-38
0.040563183849 -0.107648449446 0.843 1.98969500144e-38
0.0421233063048 -0.107648449446 0.843 2.28475829155e-38
-0.0157122653015 -0.10684340405 0.849 2.33020422243e-38
-0.0141410387714 -0.10684340405 0.849 2.34943508204e-38
-0.0125698122412 -0.10684340405 0.849 2.02642751835e-38
-0.0109208571901 -0.10608832699 0.843 1.46399788255e-38
-0.0093607347344 -0.10608832699 0.843 1.51960659042e-38
-0.00776359869727 -0.105584942283 0.839 1.49180342759e-38
-0.00621087895782 -0.105584942283 0.839 1.66708302431e-38
-0.00464705514394 -0.105333249929 0.837 1.31674075187e-38
-0.00309803676263 -0.105333249929 0.837 6.79582671569e-39
-0.00154531702318 -0.105081557576 0.835 7.62234618111e-39
0.0 -0.104829865222 0.833 9.73456259275e-39
0.00154161566504 -0.104829865222 0.833 9.91823358506e-39
0.00308323133007 -0.104829865222 0.833 9.45905610427e-39
0.00461374292069 -0.104578172869 0.831 8.72437213501e-39
0.00615165722759 -0.104578172869 0.831 9.1835496158e-39
0.00768957153448 -0.104578172869 0.831 9.09171411964e-39
0.00922748584138 -0.104578172869 0.831 1.01937400735e-38
0.0107654001483 -0.104578172869 0.831 1.25912104058e-38
0.0122737035901 -0.104326480515 0.829 1.33363284434e-38
0.0138079165388 -0.104326480515 0.829 1.38045190759e-38
0.0153421294876 -0.104326480515 0.829 1.58345857664e-38
0.0168763424363 -0.104326480515 0.829 1.68505313569e-38
0.0184105553851 -0.104326480515 0.829 1.74976972306e-38
0.0199447683338 -0.104326480515 0.829 1.82352622695e-38
0.0214789812826 -0.104326480515 0.829 1.9250846325e-38
0.0230131942314 -0.104326480515 0.829 1.98025865759e-38
0.0246066289103 -0.104578172869 0.831 1.94345271264e-38
0.0261445432172 -0.104578172869 0.831 1.86029685917e-38
0.0277490819706 -0.104829865222 0.833 1.72189621504e-38
0.0292906976357 -0.104829865222 0.833 1.21406593183e-38
0.0309063404635 -0.105081557576 0.835 1.19443612255e-38
0.0324516574867 -0.105081557576 0.835 1.97946916603e-38
0.0340784043889 -0.105333249929 0.837 2.21110940738e-38
0.0356274227702 -0.105333249929 0.837 2.00831559557e-38
0.0373541063422 -0.105836634636 0.841 1.95281843106e-38
0.0390030613933 -0.10608832699 0.843 2.00824398922e-38
0.0406594191607 -0.106340019343 0.845 1.99902442623e-38
0.0422232429745 -0.106340019343 0.845 2.27550159415e-38
-0.0141410387714 -0.10527217752 0.849 2.34950696865e-38
-0.0125698122412 -0.10527217752 0.849 2.04490335834e-38
-0.0109208571901 -0.104528204534 0.843 1.49169412631e-38
-0.0093607347344 -0.104528204534 0.843 1.42740899874e-38
-0.00781911906936 -0.104776195529 0.845 1.46410928578e-38
-0.00624048982293 -0.104528204534 0.843 1.4458499464e-38
-0.00465815921836 -0.104032222543 0.839 1.56588251039e-38
-0.00309803676263 -0.103784231548 0.837 1.57520913258e-38
-0.00154531702318 -0.103536240553 0.835 1.3996076576e-38
0.0 -0.103536240553 0.835 7.71418167727e-39
0.00154531702318 -0.103536240553 0.835 9.55089160043e-39
0.00309063404635 -0.103536240553 0.835 1.45273410537e-38
0.00462484699511 -0.103288249557 0.833 1.70355826282e-38
0.00616646266014 -0.103288249557 0.833 1.78697419728e-38
0.00770807832518 -0.103288249557 0.833 1.84225458092e-38
0.00924969399022 -0.103288249557 0.833 1.85169064452e-38
0.0107913096553 -0.103288249557 0.833 1.7687524127e-38
0.0123033144552 -0.103040258562 0.831 1.88849799077e-38
0.0138412287621 -0.103040258562 0.831 1.88849476778e-38
0.015379143069 -0.103040258562 0.831 1.89757167858e-38
0.0169170573759 -0.103040258562 0.831 1.8422206695e-38
0.0184549716828 -0.103040258562 0.831 1.87924045259e-38
0.0199928859897 -0.103040258562 0.831 1.86980354821e-38
0.0215308002966 -0.103040258562 0.831 1.97093189527e-38
0.0230687146034 -0.103040258562 0.831 2.02596158661e-38
0.0246066289103 -0.103040258562 0.831 2.18276646438e-38
0.0262074663056 -0.103288249557 0.833 2.1922030885e-38
0.0277490819706 -0.103288249557 0.833 2.10033199936e-38
0.0292906976357 -0.103288249557 0.833 2.10033340066e-38
0.0309063404635 -0.103536240553 0.835 2.10973120881e-38
0.0324516574867 -0.103536240553 0.835 1.97150993088e-38
0.0340784043889 -0.103784231548 0.837 1.9437436222e-38
0.0357125540074 -0.104032222543 0.839 1.9529266113e-38
0.0374429389376 -0.104528204534 0.843 1.92516072301e-38
0.0390030613933 -0.104528204534 0.843 2.04497916859e-38
0.0408518897839 -0.10527217752 0.849 1.99895225936e-38
-0.0158788264178 -0.104800254357 0.858 2.33049260966e-38
-0.0141410387714 -0.10370095099 0.849 2.34922040311e-38
-0.0125698122412 -0.10370095099 0.849 2.13695451433e-38
-0.0109985857111 -0.10370095099 0.849 1.43626982932e-38
-0.0094273591809 -0.10370095099 0.849 1.51038506562e-38
-0.00785613265075 -0.10370095099 0.849 1.39982261678e-38
-0.00627010068805 -0.103456661353 0.847 1.51031500069e-38
-0.00469147144162 -0.103212371716 0.845 1.49205566131e-38
-0.00312024491147 -0.102968082078 0.843 1.46457647869e-38
-0.00155271973945 -0.102479502804 0.839 1.62116429533e-38
0.0 -0.102235213167 0.837 1.69484947312e-38
0.00154531702318 -0.10199092353 0.835 1.73161996522e-38
0.00309063404635 -0.10199092353 0.835 1.70410575013e-38
0.00463595106953 -0.10199092353 0.835 1.72247228884e-38
0.0061812680927 -0.10199092353 0.835 1.67633916119e-38
0.00770807832518 -0.101746633892 0.833 1.40868639009e-38
0.00924969399022 -0.101746633892 0.833 1.39913738183e-38
0.0107913096553 -0.101746633892 0.833 1.57448914543e-38
0.0123329253203 -0.101746633892 0.833 1.5010583033e-38
0.0138745409853 -0.101746633892 0.833 1.42683516702e-38
0.0154161566504 -0.101746633892 0.833 1.68477189509e-38
0.0169577723154 -0.101746633892 0.833 1.74991798043e-38
0.0184993879804 -0.101746633892 0.833 1.66711833703e-38
0.0200410036455 -0.101746633892 0.833 1.52803526055e-38
0.0215826193105 -0.101746633892 0.833 1.32359170006e-38
0.0231242349755 -0.101746633892 0.833 1.36834889275e-38
0.0247250723708 -0.10199092353 0.835 1.4510008393e-38
0.026270389394 -0.10199092353 0.835 1.41426664083e-38
0.0278157064172 -0.10199092353 0.835 1.83866473452e-38
0.0293610234403 -0.10199092353 0.835 2.16383183927e-38
0.0309063404635 -0.10199092353 0.835 1.91597745365e-38
0.0325293860076 -0.102235213167 0.837 1.96236323542e-38
0.0342412641471 -0.102723792441 0.841 1.94374334194e-38
0.0358828164819 -0.102968082078 0.843 1.98976927026e-38
0.0376206041283 -0.103456661353 0.847 2.00827902168e-38
0.0392806632538 -0.10370095099 0.849 2.02661052793e-38
0.0408518897839 -0.10370095099 0.849 1.99880904666e-38
-0.0158788264178 -0.103212371716 0.858 2.32120270149e-38
-0.014290943776 -0.103212371716 0.858 2.34954676552e-38
-0.0125994231063 -0.102370312739 0.851 2.24766073639e-38
-0.0109985857111 -0.10212972446 0.849 1.52832224648e-38
-0.0094273591809 -0.10212972446 0.849 1.50116578289e-38
-0.00785613265075 -0.10212972446 0.849 1.47361569456e-38
-0.00627010068805 -0.101889136181 0.847 1.4458499464e-38
-0.00469147144162 -0.101648547902 0.845 1.46446927936e-38
-0.00312024491147 -0.101407959623 0.843 1.48301602505e-38
-0.00155642109759 -0.101167371344 0.841 1.51975008338e-38
0.0 -0.100926783065 0.839 1.53811788327e-38
0.00154901838131 -0.100686194785 0.837 1.59343371975e-38
0.00309803676263 -0.100686194785 0.837 1.63956852897e-38
0.00464705514394 -0.100686194785 0.837 1.23286869476e-38
0.0061812680927 -0.100445606506 0.835 1.62022738717e-38
0.00772658511588 -0.100445606506 0.835 1.64785006276e-38
0.00927190213905 -0.100445606506 0.835 1.44473283127e-38
0.0108172191622 -0.100445606506 0.835 1.60182287327e-38
0.0123625361854 -0.100445606506 0.835 1.80533905444e-38
0.0139078532086 -0.100445606506 0.835 1.74112847595e-38
0.0154531702318 -0.100445606506 0.835 1.88838967039e-38
0.0169984872549 -0.100445606506 0.835 1.7963732666e-38
0.0185438042781 -0.100445606506 0.835 1.75949445414e-38
0.0200891213013 -0.100445606506 0.835 1.92523260962e-38
0.0216344383245 -0.100445606506 0.835 1.86044203369e-38
0.0231797553476 -0.100445606506 0.835 1.30622232534e-38
0.024784294101 -0.100686194785 0.837 1.47855148814e-38
0.0263333124823 -0.100686194785 0.837 1.49691858738e-38
0.0279489553102 -0.100926783065 0.839 1.42345019045e-38
0.0295016750496 -0.100926783065 0.839 2.0602136651e-38
0.0311284219519 -0.101167371344 0.841 1.94341978213e-38
0.0327625715704 -0.101407959623 0.843 1.97147335699e-38
0.0343226940261 -0.101407959623 0.843 1.96221848129e-38
0.0359679477191 -0.101648547902 0.845 2.00824370896e-38
0.0376206041283 -0.101889136181 0.847 1.93470230438e-38
0.0392806632538 -0.10212972446 0.849 1.91615597908e-38
0.0408518897839 -0.10212972446 0.849 2.00813398729e-38
-0.014290943776 -0.101624489074 0.858 2.34921956233e-38
-0.0125994231063 -0.100795384851 0.851 2.20159991574e-38
-0.011024495218 -0.100795384851 0.851 1.38080951896e-38
-0.00944956732974 -0.100795384851 0.851 1.4917668537e-38
-0.00787463944145 -0.100795384851 0.851 1.44599301897e-38
-0.0062849061206 -0.10055849793 0.849 1.45531978129e-38
-0.00470257551603 -0.100321611009 0.847 1.45528474883e-38
-0.00312764762774 -0.100084724088 0.845 1.45517782976e-38
-0.00155642109759 -0.099610950246 0.841 1.51042458223e-38
0.0 -0.099610950246 0.841 1.52886118587e-38
0.00155271973945 -0.0993740633251 0.839 1.62112800169e-38
0.00309803676263 -0.0991371764041 0.837 1.26131112995e-38
0.00464705514394 -0.0991371764041 0.837 1.712317219e-38
0.00619607352526 -0.0991371764041 0.837 1.14052452726e-38
0.00774509190657 -0.0991371764041 0.837 1.44433079874e-38
0.00929411028789 -0.0991371764041 0.837 1.86858287712e-38
0.0108172191622 -0.0989002894832 0.835 1.3620066159e-38
0.0123625361854 -0.0989002894832 0.835 1.81459407028e-38
0.0139078532086 -0.0989002894832 0.835 1.74065553772e-38
0.0154531702318 -0.0989002894832 0.835 1.8239969231e-38
0.0169984872549 -0.0989002894832 0.835 1.88828149015e-38
0.0185438042781 -0.0989002894832 0.835 1.38941741517e-38
0.0201372389571 -0.0991371764041 0.837 1.9620382743e-38
0.0216862573384 -0.0991371764041 0.837 1.86998529662e-38
0.0232352757197 -0.0991371764041 0.837 1.78643693945e-38
0.024784294101 -0.0991371764041 0.837 1.33161945871e-38
0.0263962355707 -0.0993740633251 0.839 1.40508309122e-38
0.0279489553102 -0.0993740633251 0.839 2.143515674e-38
0.0295720008543 -0.099610950246 0.841 1.9334812129e-38
0.0312024491147 -0.0998478371669 0.843 2.07260086327e-38
0.0327625715704 -0.0998478371669 0.843 1.99909421089e-38
0.0344041239052 -0.100084724088 0.845 2.02675514193e-38
0.0360530789563 -0.100321611009 0.847 2.10955128208e-38
0.037798269319 -0.100795384851 0.851 1.28918814121e-38
0.0393731972073 -0.100795384851 0.851 1.94363824456e-38
0.0409481250955 -0.100795384851 0.851 2.07292582438e-38
-0.0143242559993 -0.100269791995 0.86 2.34896830952e-38
-0.0126734502691 -0.0998034208692 0.856 2.34911264326e-38
-0.0110633594785 -0.0995702353064 0.854 1.46382089856e-38
-0.00944956732974 -0.0992204569623 0.851 1.51942512227e-38
-0.00787463944145 -0.0992204569623 0.851 1.49198321418e-38
-0.0062849061206 -0.0989872713995 0.849 1.132384945e-38
-0.00470257551603 -0.0987540858367 0.847 1.4551695621e-38
-0.00312764762774 -0.0985209002739 0.845 1.5198229509e-38
-0.00156382381387 -0.0985209002739 0.845 1.55641533796e-38
0.0 -0.0982877147112 0.843 1.58425143131e-38
0.00155642109759 -0.0980545291484 0.841 1.58425115105e-38
0.00310543947891 -0.0978213435856 0.839 1.09514697973e-38
0.00465815921836 -0.0978213435856 0.839 1.50866090799e-38
0.00619607352526 -0.0975881580228 0.837 1.72996573238e-38
0.00774509190657 -0.0975881580228 0.837 1.59202947856e-38
0.00929411028789 -0.0975881580228 0.837 1.81365828316e-38
0.0108431286692 -0.0975881580228 0.837 6.98129137004e-39
0.0123921470505 -0.0975881580228 0.837 1.64774468512e-38
0.0139411654318 -0.0975881580228 0.837 2.00507775534e-38
0.0154901838131 -0.0975881580228 0.837 1.05697995359e-38
0.0170392021945 -0.0975881580228 0.837 1.6926962379e-38
0.0185882205758 -0.0975881580228 0.837 1.73814020697e-38
0.0201372389571 -0.0975881580228 0.837 1.72193475075e-38
0.0216862573384 -0.0975881580228 0.837 1.00137432858e-38
0.0232352757197 -0.0975881580228 0.837 1.93337037019e-38
0.0248435158313 -0.0978213435856 0.839 1.74894533917e-38
0.0264591586591 -0.0980545291484 0.841 1.6749682709e-38
0.0280155797567 -0.0980545291484 0.841 1.96092536306e-38
0.0295720008543 -0.0980545291484 0.841 2.109541473e-38
0.0312024491147 -0.0982877147112 0.843 2.13746276529e-38
0.0327625715704 -0.0982877147112 0.843 1.30777748637e-38
0.0344041239052 -0.0985209002739 0.845 1.70377756603e-38
0.0362233414307 -0.0992204569623 0.851 2.19252510688e-38
0.037931518212 -0.0995702353064 0.854 1.40025870086e-38
0.0395119981375 -0.0995702353064 0.854 2.02733317755e-38
0.041092478063 -0.0995702353064 0.854 2.0637062614e-38
-0.0143242559993 -0.0986782079949 0.86 2.3492194222e-38
-0.0127030611342 -0.0984487237902 0.858 2.28446710173e-38
-0.0110633594785 -0.0979897553809 0.854 1.51913645479e-38
-0.00948287955299 -0.0979897553809 0.854 1.47343478693e-38
-0.00787463944145 -0.097645529074 0.851 1.5658806887e-38
-0.00629971155316 -0.097645529074 0.851 1.42769444324e-38
-0.00471367959045 -0.0974160448693 0.849 1.12348613923e-38
-0.00313505034402 -0.0971865606647 0.847 1.51978609675e-38
-0.00156382381387 -0.0969570764601 0.845 1.29862630675e-38
0.0 -0.0969570764601 0.845 1.47378847466e-38
0.00156382381387 -0.0969570764601 0.845 1.63974579322e-38
0.00311284219519 -0.0964981080508 0.841 1.62076800812e-38
0.00466926329278 -0.0964981080508 0.841 9.82643172007e-39
0.00621087895782 -0.0962686238461 0.839 1.26732984698e-38
0.00776359869727 -0.0962686238461 0.839 1.2214120989e-38
0.00931631843672 -0.0962686238461 0.839 2.12532836136e-38
0.0108431286692 -0.0960391396415 0.837 6.61466685022e-39
0.0123921470505 -0.0960391396415 0.837 1.81366402849e-38
0.0139411654318 -0.0960391396415 0.837 1.54420302185e-38
0.0154901838131 -0.0960391396415 0.837 1.59112171742e-38
0.0170392021945 -0.0960391396415 0.837 1.81287495732e-38
0.0186326368734 -0.0962686238461 0.839 1.20434526451e-38
0.0201853566129 -0.0962686238461 0.839 1.1854402068e-38
0.0217380763524 -0.0962686238461 0.839 1.38841394533e-38
0.0232907960918 -0.0962686238461 0.839 1.85957855358e-38
0.0248435158313 -0.0962686238461 0.839 1.59199626779e-38
0.0264591586591 -0.0964981080508 0.841 1.9423398014e-38
0.0280155797567 -0.0964981080508 0.841 1.64821159776e-38
0.0296423266589 -0.0967275922554 0.843 1.8889225842e-38
0.0312024491147 -0.0967275922554 0.843 1.14250077848e-38
0.0328403000913 -0.0969570764601 0.845 7.27437574645e-39
0.0345669836633 -0.0974160448693 0.849 2.00763190205e-38
0.0363510382865 -0.0979897553809 0.854 9.84763056324e-39
0.037931518212 -0.0979897553809 0.854 8.08977450726e-39
0.0395119981375 -0.0979897553809 0.854 2.22926084678e-38
0.041092478063 -0.0979897553809 0.854 1.88856889647e-38
-0.0143242559993 -0.0970866239949 0.86 2.34907677002e-38
-0.0127030611342 -0.0968608411484 0.858 2.34954466358e-38
-0.0110892689855 -0.0966350583019 0.856 1.54697591125e-38
-0.00948287955299 -0.0964092754554 0.854 1.37209134056e-38
-0.0079023996275 -0.0964092754554 0.854 1.41804524214e-38
-0.00629971155316 -0.0960706011857 0.851 9.29448901392e-39
-0.00471367959045 -0.0958448183392 0.849 1.58425115105e-38
-0.0031424530603 -0.0958448183392 0.849 6.25091218966e-39
-0.00156752517201 -0.0956190354927 0.847 1.23426480842e-38
0.0 -0.0953932526462 0.845 7.26720950611e-39
0.00156382381387 -0.0953932526462 0.845 1.64723573351e-38
0.00312764762774 -0.0953932526462 0.845 1.59379343307e-38
0.00466926329278 -0.0949416869532 0.841 1.27957579426e-38
0.00622568439037 -0.0949416869532 0.841 1.10231293982e-38
0.00778210548797 -0.0949416869532 0.841 1.33161777715e-38
0.00933852658556 -0.0949416869532 0.841 1.90301165935e-38
0.0108690381762 -0.0947159041067 0.839 1.91543669257e-38
0.0124217579156 -0.0947159041067 0.839 1.79644557361e-38
0.0139744776551 -0.0947159041067 0.839 1.79611921119e-38
0.0155271973945 -0.0947159041067 0.839 1.79586978007e-38
0.017079917134 -0.0947159041067 0.839 1.92505114147e-38
0.0186326368734 -0.0947159041067 0.839 1.90657614225e-38
0.0201853566129 -0.0947159041067 0.839 1.95274654445e-38
0.0217380763524 -0.0947159041067 0.839 1.91594214093e-38
0.0232907960918 -0.0947159041067 0.839 1.63863302211e-38
0.0248435158313 -0.0947159041067 0.839 1.97014128267e-38
0.0265220817475 -0.0951674697997 0.843 1.74933391923e-38
0.0280822042032 -0.0951674697997 0.843 2.00816761845e-38
0.0296423266589 -0.0951674697997 0.843 6.07226905623e-39
0.0312764762774 -0.0953932526462 0.845 7.92335209774e-39
0.0329180286122 -0.0956190354927 0.847 5.89332043974e-39
0.0346484135424 -0.0960706011857 0.851 1.73133059708e-38
0.0363510382865 -0.0964092754554 0.854 9.48273244313e-39
0.037931518212 -0.0964092754554 0.854 1.67630020509e-38
0.0395119981375 -0.0964092754554 0.854 2.19256336233e-38
0.0411887133746 -0.0966350583019 0.856 1.23361670788e-38
0.0427728946582 -0.0966350583019 0.856 2.3498330508e-38
-0.0143575682225 -0.0957171214834 0.862 2.29364981056e-38
-0.0127030611342 -0.0952729585067 0.858 2.34940075022e-38
-0.0110892689855 -0.0950508770183 0.856 1.47311220802e-38
-0.00948287955299 -0.0948287955299 0.854 1.55630337422e-38
-0.0079023996275 -0.0948287955299 0.854 5.23785187267e-39
-0.006321919702 -0.0948287955299 0.854 9.28578835176e-39
-0.00472478366487 -0.0944956732974 0.851 1.77698756352e-38
-0.0031424530603 -0.094273591809 0.849 1.40890204992e-38
-0.00157122653015 -0.094273591809 0.849 9.47849071267e-39
0.0 -0.0940515103207 0.847 1.10439779168e-38
0.00156752517201 -0.0940515103207 0.847 8.64975579438e-39
0.00312764762774 -0.0938294288323 0.845 2.47955839627e-39
0.0046803673672 -0.093607347344 0.843 1.74119685931e-38
0.00624048982293 -0.093607347344 0.843 1.51931343878e-38
0.00780061227866 -0.093607347344 0.843 1.11221395425e-38
0.0093607347344 -0.093607347344 0.843 1.25814629736e-38
0.0108949476832 -0.0933852658556 0.841 1.86796798735e-38
0.0124513687807 -0.0933852658556 0.841 1.80523381692e-38
0.0140077898783 -0.0933852658556 0.841 1.76881967503e-38
0.0155642109759 -0.0933852658556 0.841 1.73187331998e-38
0.0171206320735 -0.0933852658556 0.841 1.78711712973e-38
0.0186770531711 -0.0933852658556 0.841 1.82374454925e-38
0.0202334742687 -0.0933852658556 0.841 1.86065881456e-38
0.0217898953663 -0.0933852658556 0.841 1.72225396654e-38
0.0233463164639 -0.0933852658556 0.841 1.74923120406e-38
0.0249027375615 -0.0933852658556 0.841 1.85067946755e-38
0.0265220817475 -0.093607347344 0.843 1.80504478176e-38
0.0280822042032 -0.093607347344 0.843 1.91548755971e-38
0.0297126524636 -0.0938294288323 0.845 2.21105433635e-38
0.0312764762774 -0.0938294288323 0.845 8.10096807939e-39
0.0329957571332 -0.094273591809 0.849 1.00399083307e-38
0.0346484135424 -0.0944956732974 0.851 1.03157539334e-38
0.0363510382865 -0.0948287955299 0.854 1.30741398955e-38
0.037931518212 -0.0948287955299 0.854 1.65795888975e-38
0.0395119981375 -0.0948287955299 0.854 1.27968719749e-38
0.0411887133746 -0.0950508770183 0.856 2.17358599762e-38
0.0427728946582 -0.0950508770183 0.856 2.34929341076e-38
-0.0143575682225 -0.0941218361253 0.862 2.30283434109e-38
-0.0127326719993 -0.0939034559951 0.86 2.34950893047e-38
-0.0111151784924 -0.0936850758649 0.858 1.52839483374e-38
-0.00950508770183 -0.0934666957347 0.856 1.61162075213e-38
-0.00792090641819 -0.0934666957347 0.856 1.33536176638e-38
-0.006321919702 -0.0932483156044 0.854 8.54500593158e-39
-0.0047414397765 -0.0932483156044 0.854 1.38951985008e-38
-0.00314985577658 -0.0929207454091 0.851 8.82732833578e-39
-0.00157492788829 -0.0929207454091 0.851 1.09485635043e-38
0.0 -0.0927023652789 0.849 5.33004610123e-39
0.00156752517201 -0.0924839851487 0.847 4.05084137081e-39
0.00313505034402 -0.0924839851487 0.847 1.54812651742e-38
0.00469147144162 -0.0922656050184 0.845 1.54717699758e-38
0.00625529525549 -0.0922656050184 0.845 1.62993656384e-38
0.00781911906936 -0.0922656050184 0.845 1.86960806708e-38
0.0093607347344 -0.0920472248882 0.843 1.52817202728e-38
0.0109208571901 -0.0920472248882 0.843 1.03846263516e-38
0.0124809796459 -0.0920472248882 0.843 1.69339772791e-38
0.0140411021016 -0.0920472248882 0.843 1.68484055871e-38
0.0156012245573 -0.0920472248882 0.843 1.7869038521e-38
0.0171613470131 -0.0920472248882 0.843 1.83317935168e-38
0.0187214694688 -0.0920472248882 0.843 1.65747067737e-38
0.0202815919245 -0.0920472248882 0.843 1.62945031327e-38
0.0218417143803 -0.0920472248882 0.843 1.89695804998e-38
0.023401836836 -0.0920472248882 0.843 1.83242110908e-38
0.0249619592917 -0.0920472248882 0.843 1.80474686571e-38
0.0265220817475 -0.0920472248882 0.843 1.86006340285e-38
0.0281488286497 -0.0922656050184 0.845 1.87875336124e-38
0.0297126524636 -0.0922656050184 0.845 1.91563105267e-38
0.0313505034402 -0.0924839851487 0.847 2.14648208272e-38
0.0329957571332 -0.0927023652789 0.849 5.89364554099e-39
0.034770558361 -0.0932483156044 0.854 1.14332165912e-38
0.0363510382865 -0.0932483156044 0.854 1.09578989547e-38
0.037931518212 -0.0932483156044 0.854 1.49155343594e-38
0.0395119981375 -0.0932483156044 0.854 1.25252022416e-38
0.0411887133746 -0.0934666957347 0.856 2.12838487357e-38
0.0427728946582 -0.0934666957347 0.856 2.34929186933e-38
-0.0143908804458 -0.0927412295394 0.864 2.31194572383e-38
-0.0127918937296 -0.0927412295394 0.864 2.34929383115e-38
-0.0111669975064 -0.0925265507673 0.862 1.56541405631e-38
-0.0095495039995 -0.0923118719952 0.86 1.59318162616e-38
-0.00793941320889 -0.0920971932231 0.858 1.60269209871e-38
-0.00633672513455 -0.091882514451 0.856 7.171862356e-39
-0.0047414397765 -0.0916678356789 0.854 1.24186138752e-38
-0.003160959851 -0.0916678356789 0.854 1.00254945747e-38
-0.00157492788829 -0.0913458175208 0.851 1.2424744556e-38
0.0 -0.0913458175208 0.851 3.21890588682e-39
0.00157122653015 -0.0911311387487 0.849 1.53904442181e-38
0.0031424530603 -0.0911311387487 0.849 1.56572346301e-38
0.00470257551603 -0.0909164599767 0.847 1.61146184489e-38
0.00627010068805 -0.0909164599767 0.847 1.62082476071e-38
0.00781911906936 -0.0907017812046 0.845 1.62997243708e-38
0.00938294288323 -0.0907017812046 0.845 1.62078888747e-38
0.0109467666971 -0.0907017812046 0.845 1.75904561824e-38
0.0124809796459 -0.0904871024325 0.843 1.76808819723e-38
0.0140411021016 -0.0904871024325 0.843 1.83252256309e-38
0.0156012245573 -0.0904871024325 0.843 1.74962356763e-38
0.0171613470131 -0.0904871024325 0.843 1.74069085044e-38
0.0187214694688 -0.0904871024325 0.843 1.70359329528e-38
0.0202815919245 -0.0904871024325 0.843 1.74017503247e-38
0.0218417143803 -0.0904871024325 0.843 1.79552744285e-38
0.023401836836 -0.0904871024325 0.843 1.81396628856e-38
0.0249619592917 -0.0904871024325 0.843 1.92467110932e-38
0.0265850048358 -0.0907017812046 0.845 1.90626813685e-38
0.0281488286497 -0.0907017812046 0.845 1.93392640542e-38
0.0297126524636 -0.0907017812046 0.845 1.65813293102e-38
0.031424530603 -0.0911311387487 0.849 2.04531519996e-38
0.0330734856541 -0.0913458175208 0.851 1.63055411607e-38
0.034770558361 -0.0916678356789 0.854 1.10310215112e-39
0.0363510382865 -0.0916678356789 0.854 1.34461061651e-38
0.0380203508073 -0.091882514451 0.856 8.82738018382e-39
0.039604532091 -0.091882514451 0.856 1.23336433402e-38
0.0411887133746 -0.091882514451 0.856 2.19263468842e-38
0.0427728946582 -0.091882514451 0.856 2.34947277697e-38
-0.0145074732272 -0.091880663772 0.871 2.34896648783e-38
-0.0127918937296 -0.0911422428232 0.864 2.34925655661e-38
-0.0111929070134 -0.0911422428232 0.864 1.57463333904e-38
-0.00957171214834 -0.0909312654092 0.862 1.58381955112e-38
-0.00793941320889 -0.0905093105813 0.858 6.34706088249e-39
-0.00633672513455 -0.0902983331674 0.856 9.09854124576e-39
-0.00475254385092 -0.0902983331674 0.856 9.01066441776e-39
-0.003160959851 -0.0900873557534 0.854 1.03028059356e-38
-0.0015804799255 -0.0900873557534 0.854 4.4088212804e-39
0.0 -0.0897708896325 0.851 1.07749370194e-38
0.00157492788829 -0.0897708896325 0.851 1.5845678445e-38
0.00314985577658 -0.0897708896325 0.851 1.35396372324e-38
0.00471367959045 -0.0895599122186 0.849 6.99743432835e-39
0.0062849061206 -0.0895599122186 0.849 9.48524356997e-39
0.00783762586006 -0.0893489348046 0.847 1.17015428263e-38
0.00940515103207 -0.0893489348046 0.847 1.53863958668e-38
0.0109467666971 -0.0891379573907 0.845 1.63922773318e-38
0.012510590511 -0.0891379573907 0.845 1.74964556801e-38
0.0140744143248 -0.0891379573907 0.845 1.66681425527e-38
0.0156382381387 -0.0891379573907 0.845 1.74968144125e-38
0.0172020619526 -0.0891379573907 0.845 1.70365607345e-38
0.0187658857665 -0.0891379573907 0.845 1.7772320901e-38
0.0203297095803 -0.0891379573907 0.845 1.8419474163e-38
0.0218935333942 -0.0891379573907 0.845 1.86956981163e-38
0.0234573572081 -0.0891379573907 0.845 1.89708458724e-38
0.025021181022 -0.0891379573907 0.845 1.93417751811e-38
0.0265850048358 -0.0891379573907 0.845 1.56604632218e-38
0.0282154530962 -0.0893489348046 0.847 2.07293689464e-38
0.0297829782682 -0.0893489348046 0.847 3.76525534248e-39
0.031424530603 -0.0895599122186 0.849 1.93479212761e-38
0.0331900784355 -0.0900873557534 0.854 2.2292064764e-38
0.034770558361 -0.0900873557534 0.854 5.33723195976e-39
0.0364361695237 -0.0902983331674 0.856 1.21650923583e-38
0.0380203508073 -0.0902983331674 0.856 1.30826948226e-38
0.0396970660444 -0.0905093105813 0.858 1.0037031465e-38
0.0412849486862 -0.0905093105813 0.858 2.01771508528e-38
-0.0145074732272 -0.0902687223023 0.871 2.31194628435e-38
-0.0128955317575 -0.0902687223023 0.871 2.34954424319e-38
-0.0112576807808 -0.0900614462465 0.869 1.60225475346e-38
-0.00962723252043 -0.0898541701907 0.867 1.61172612978e-38
-0.00797642679028 -0.0893359800512 0.862 1.53815291573e-38
-0.00636633599967 -0.0891287039954 0.86 1.31680773394e-38
-0.00476364792533 -0.0889214279396 0.858 7.26755983072e-39
-0.00316836256728 -0.0887141518838 0.856 9.8418249837e-39
-0.0015804799255 -0.0885068758279 0.854 4.04650154946e-39
0.0 -0.0885068758279 0.854 1.57560443887e-38
0.00157492788829 -0.0881959617442 0.851 1.73145783499e-38
0.00314985577658 -0.0881959617442 0.851 2.20584556983e-39
0.00471367959045 -0.0879886856884 0.849 1.05077037971e-38
0.0062849061206 -0.0879886856884 0.849 1.51090915124e-38
0.00785613265075 -0.0879886856884 0.849 2.85048770497e-39
0.00940515103207 -0.0877814096326 0.847 1.62158034084e-38
0.0109467666971 -0.0875741335768 0.845 1.51966222197e-38
0.012510590511 -0.0875741335768 0.845 1.75004017366e-38
0.0140744143248 -0.0875741335768 0.845 1.63000831032e-38
0.0156382381387 -0.0875741335768 0.845 1.82375968327e-38
0.0172020619526 -0.0875741335768 0.845 1.71319835548e-38
0.0187658857665 -0.0875741335768 0.845 1.56622568838e-38
0.0203297095803 -0.0875741335768 0.845 1.74117948321e-38
0.0218935333942 -0.0875741335768 0.845 1.38190897773e-38
0.0234573572081 -0.0875741335768 0.845 1.06823336117e-38
0.025021181022 -0.0875741335768 0.845 1.29796559453e-38
0.0266479279242 -0.0877814096326 0.847 2.76044587084e-39
0.0282154530962 -0.0877814096326 0.847 1.95377005284e-38
0.0298533040729 -0.0879886856884 0.849 9.01279299013e-39
0.0314985577658 -0.0881959617442 0.851 1.98059805207e-38
0.0331900784355 -0.0885068758279 0.854 2.16444883098e-38
0.034770558361 -0.0885068758279 0.854 1.38187997086e-38
0.0364361695237 -0.0887141518838 0.856 3.13281010917e-39
0.0381091834027 -0.0889214279396 0.858 1.20674779073e-38
0.0396970660444 -0.0889214279396 0.858 1.74105364661e-38
0.0412849486862 -0.0889214279396 0.858 1.52849390554e-38
-0.0128955317575 -0.0886567808326 0.871 2.3490039025e-38
-0.0112576807808 -0.0884532061349 0.869 1.72225130407e-38
