# .PCD v0.7 - Point Cloud Data file format
VERSION 0.7
FIELDS x y z rgb
SIZE 4 4 4 4
TYPE F F F F
COUNT 1 1 1 1
WIDTH 850
HEIGHT 1
VIEWPOINT 0 0 0 1 0 0 0
POINTS 850
DATA ascii
0.0149349800922 -0.123960334766 0.807 1.3224312848e-38
0.016469193041 -0.124267547491 0.809 1.33197356683e-38
0.0179663924084 -0.124267547491 0.809 1.42423954187e-38
0.0194635917757 -0.124267547491 0.809 1.47948783578e-38
0.0209607911431 -0.124267547491 0.809 1.48906332857e-38
0.0225135108825 -0.124574760217 0.811 1.49806765212e-38
0.0240144116081 -0.124574760217 0.811 1.58086421266e-38
0.0255153123336 -0.124574760217 0.811 1.54409540212e-38
0.0270162130591 -0.124574760217 0.811 1.59011908837e-38
0.0285874395892 -0.124881972942 0.813 1.61788511679e-38
0.0301660688356 -0.125189185668 0.815 1.49842568387e-38
0.0316743722774 -0.125189185668 0.815 1.30406418557e-38
0.0331826757192 -0.125189185668 0.815 1.33161525481e-38
0.0347761103982 -0.125496398393 0.817 1.43313596543e-38
0.0362881151981 -0.125496398393 0.817 1.23059564852e-38
0.037800119998 -0.125496398393 0.817 1.09284240428e-38
-0.0166727677387 -0.124287904961 0.819 1.1869379146e-38
-0.0151570615806 -0.124287904961 0.819 6.70399121953e-39
-0.0136413554225 -0.124287904961 0.819 7.80601717343e-39
-0.0120960383994 -0.123984393594 0.817 9.00203101792e-39
-0.0105840335994 -0.123984393594 0.817 8.44886564654e-39
-0.00904982065069 -0.123680882226 0.815 8.54070114269e-39
-0.00752301041821 -0.123377370859 0.813 8.90804312733e-39
-0.00601840833457 -0.123377370859 0.813 9.45905610427e-39
-0.00451380625093 -0.123377370859 0.813 9.64272709659e-39
-0.00300180145101 -0.123073859491 0.811 9.64272709659e-39
-0.0015009007255 -0.123073859491 0.811 9.64272709659e-39
0.0 -0.123073859491 0.811 9.64272709659e-39
0.0015009007255 -0.123073859491 0.811 1.01019045774e-38
0.00300180145101 -0.123073859491 0.811 1.01937400735e-38
0.00450270217651 -0.123073859491 0.811 1.07447530505e-38
0.00598879746946 -0.122770348124 0.809 1.07447530505e-38
0.00748599683682 -0.122770348124 0.809 1.09284240428e-38
0.00898319620418 -0.122770348124 0.809 1.11120950351e-38
0.0104803955715 -0.122770348124 0.809 1.15712725159e-38
0.0119775949389 -0.122770348124 0.809 1.16631080121e-38
0.0134747943063 -0.122770348124 0.809 1.25821930501e-38
0.0149719936736 -0.122770348124 0.809 1.3411212432e-38
0.016469193041 -0.122770348124 0.809 1.36903048433e-38
0.0179663924084 -0.122770348124 0.809 1.41501997889e-38
0.0194635917757 -0.122770348124 0.809 1.4979957655e-38
0.021012610157 -0.123073859491 0.811 1.56271025092e-38
0.0225135108825 -0.123073859491 0.811 1.54409189888e-38
0.0240144116081 -0.123073859491 0.811 1.562640186e-38
0.0255153123336 -0.123073859491 0.811 1.59959074495e-38
0.0270162130591 -0.123073859491 0.811 1.59940955706e-38
0.0285874395892 -0.123377370859 0.813 1.28591218566e-38
0.0301660688356 -0.123680882226 0.815 1.39611744351e-38
0.0316743722774 -0.123680882226 0.815 1.36835113483e-38
0.0331826757192 -0.123680882226 0.815 1.35938212401e-38
0.0347761103982 -0.123984393594 0.817 1.33186594711e-38
0.0363769477935 -0.124287904961 0.819 1.15712725159e-38
0.0378926539515 -0.124287904961 0.819 1.2677257138e-38
-0.0166727677387 -0.122772198803 0.819 1.33455630003e-38
-0.0151570615806 -0.122772198803 0.819 6.79582671569e-39
-0.0136413554225 -0.122772198803 0.819 1.04757261661e-38
-0.0120960383994 -0.122472388794 0.817 7.62234618111e-39
-0.0105840335994 -0.122472388794 0.817 9.46013230149e-39
-0.00904982065069 -0.122172578784 0.815 8.35703015038e-39
-0.00752301041821 -0.121872768775 0.813 8.72437213501e-39
-0.00601840833457 -0.121872768775 0.813 9.36722060812e-39
-0.00451380625093 -0.121872768775 0.813 9.55089160043e-39
-0.00300180145101 -0.121572958766 0.811 9.82639808891e-39
-0.0015009007255 -0.121572958766 0.811 9.91823358506e-39
0.0 -0.121572958766 0.811 1.01937400735e-38
0.0015009007255 -0.121572958766 0.811 1.03774110659e-38
0.00300180145101 -0.121572958766 0.811 1.07447530505e-38
0.00449159810209 -0.121273148756 0.809 1.08365885466e-38
0.00598879746946 -0.121273148756 0.809 1.11120950351e-38
0.00748599683682 -0.121273148756 0.809 1.1020259539e-38
0.00898319620418 -0.121273148756 0.809 1.12957660274e-38
0.0104803955715 -0.121273148756 0.809 1.16631080121e-38
0.0119775949389 -0.121273148756 0.809 1.19386145005e-38
0.0134747943063 -0.121273148756 0.809 1.39622338168e-38
0.0149719936736 -0.121273148756 0.809 1.31349870774e-38
0.016469193041 -0.121273148756 0.809 1.35059163861e-38
0.0179663924084 -0.121273148756 0.809 1.36913810405e-38
0.0194635917757 -0.121273148756 0.809 1.43342295136e-38
0.021012610157 -0.121572958766 0.811 1.5074294469e-38
0.0225135108825 -0.121572958766 0.811 1.55341894146e-38
0.0240144116081 -0.121572958766 0.811 1.48913409415e-38
0.0255153123336 -0.121572958766 0.811 1.24896274775e-38
0.0270162130591 -0.121572958766 0.811 1.43263822422e-38
0.0285874395892 -0.121872768775 0.813 1.54402477668e-38
0.0301660688356 -0.122172578784 0.815 1.3412672585e-38
0.0317521007983 -0.122472388794 0.817 1.26744040943e-38
0.0332641055983 -0.122472388794 0.817 1.29491678946e-38
0.0348612416354 -0.122772198803 0.819 1.40572880955e-38
0.0363769477935 -0.122772198803 0.819 1.29524175057e-38
0.0378926539515 -0.122772198803 0.819 1.13876015236e-38
-0.0151570615806 -0.121256492645 0.819 7.07133320417e-39
-0.0136413554225 -0.121256492645 0.819 8.35703015038e-39
-0.0120960383994 -0.120960383994 0.817 9.64523822344e-39
-0.0105840335994 -0.120960383994 0.817 8.44886564654e-39
-0.00904982065069 -0.120664275343 0.815 8.63253663885e-39
-0.00752301041821 -0.120368166691 0.813 8.72437493761e-39
-0.00601840833457 -0.120368166691 0.813 9.64272709659e-39
-0.00451380625093 -0.120368166691 0.813 9.45905610427e-39
-0.00300180145101 -0.12007205804 0.811 9.55089160043e-39
-0.0015009007255 -0.12007205804 0.811 1.01019045774e-38
0.0 -0.12007205804 0.811 1.07447530505e-38
0.0015009007255 -0.12007205804 0.811 1.0469246562e-38
0.00300180145101 -0.12007205804 0.811 1.06529175543e-38
0.00449159810209 -0.119775949389 0.809 1.08365885466e-38
0.00598879746946 -0.119775949389 0.809 1.12957660274e-38
0.00748599683682 -0.119775949389 0.809 1.14794370197e-38
0.00898319620418 -0.119775949389 0.809 1.20304499967e-38
0.0104803955715 -0.119775949389 0.809 1.24896274775e-38
0.0119775949389 -0.119775949389 0.809 1.23059564852e-38
0.0134747943063 -0.119775949389 0.809 1.29488105635e-38
0.0149719936736 -0.119775949389 0.809 1.29488049583e-38
0.016469193041 -0.119775949389 0.809 1.3687434984e-38
0.0179663924084 -0.119775949389 0.809 1.3225387644e-38
0.0194635917757 -0.119775949389 0.809 1.38700297791e-38
0.021012610157 -0.12007205804 0.811 1.30406404544e-38
0.0225135108825 -0.12007205804 0.811 1.25814629736e-38
0.0240144116081 -0.12007205804 0.811 1.25814629736e-38
0.0255153123336 -0.12007205804 0.811 1.29488217739e-38
0.0270162130591 -0.12007205804 0.811 1.38704263466e-38
0.0285874395892 -0.120368166691 0.813 1.28602190733e-38
0.0301660688356 -0.120664275343 0.815 1.29527860472e-38
0.0317521007983 -0.120960383994 0.817 1.25825615916e-38
0.0333455354773 -0.121256492645 0.819 1.32279127838e-38
0.0348612416354 -0.121256492645 0.819 1.36849238572e-38
0.0363769477935 -0.121256492645 0.819 1.15712725159e-38
0.0378926539515 -0.121256492645 0.819 1.45218914039e-38
-0.0151570615806 -0.119740786487 0.819 7.25500419648e-39
-0.0136413554225 -0.119740786487 0.819 8.26519465422e-39
-0.0120960383994 -0.119448379194 0.817 8.35703015038e-39
-0.0105840335994 -0.119448379194 0.817 8.90804312733e-39
-0.00904982065069 -0.119155971901 0.815 8.54070114269e-39
-0.00752301041821 -0.118863564608 0.813 8.63253663885e-39
-0.00601840833457 -0.118863564608 0.813 9.09171411964e-39
-0.00451380625093 -0.118863564608 0.813 9.45905610427e-39
-0.00300180145101 -0.118571157315 0.811 9.09171411964e-39
-0.0015009007255 -0.118571157315 0.811 9.73456259275e-39
0.0 -0.118571157315 0.811 1.01937400735e-38
0.0015009007255 -0.118571157315 0.811 1.05610820582e-38
0.00300180145101 -0.118571157315 0.811 1.1020259539e-38
0.00450270217651 -0.118571157315 0.811 1.12039305313e-38
0.00598879746946 -0.118278750022 0.809 1.11120950351e-38
0.00748599683682 -0.118278750022 0.809 1.12039305313e-38
0.00898319620418 -0.118278750022 0.809 1.18467790044e-38
0.0104803955715 -0.118278750022 0.809 1.14794370197e-38
0.0119775949389 -0.118278750022 0.809 1.16631080121e-38
0.0134747943063 -0.118278750022 0.809 1.24896274775e-38
0.0149719936736 -0.118278750022 0.809 1.23059564852e-38
0.016469193041 -0.118278750022 0.809 1.23977919813e-38
0.0179663924084 -0.118278750022 0.809 1.23059564852e-38
0.0194635917757 -0.118278750022 0.809 1.23059564852e-38
0.021012610157 -0.118571157315 0.811 1.2214120989e-38
0.0225135108825 -0.118571157315 0.811 1.23059564852e-38
0.0240144116081 -0.118571157315 0.811 1.2214120989e-38
0.0255153123336 -0.118571157315 0.811 1.25814811905e-38
0.0270162130591 -0.118571157315 0.811 1.27680248447e-38
0.0285874395892 -0.118863564608 0.813 1.29552845624e-38
0.0301660688356 -0.119155971901 0.815 1.2219909753e-38
0.0317521007983 -0.119448379194 0.817 1.26740383554e-38
0.0333455354773 -0.119740786487 0.819 1.29488189713e-38
0.0348612416354 -0.119740786487 0.819 1.34998179352e-38
0.0363769477935 -0.119740786487 0.819 1.32279281981e-38
0.0378926539515 -0.119740786487 0.819 1.4519370468e-38
-0.015194075162 -0.118513786264 0.821 6.70399121953e-39
-0.0136746676458 -0.118513786264 0.821 7.71418167727e-39
-0.0120960383994 -0.117936374394 0.817 8.99987862348e-39
-0.0105840335994 -0.117936374394 0.817 8.90804312733e-39
-0.00904982065069 -0.117647668459 0.815 8.81620763117e-39
-0.00752301041821 -0.117358962524 0.813 8.90804312733e-39
-0.00601840833457 -0.117358962524 0.813 9.09171411964e-39
-0.00451380625093 -0.117358962524 0.813 8.63253663885e-39
-0.00300180145101 -0.117070256589 0.811 8.81620763117e-39
-0.0015009007255 -0.117070256589 0.811 8.99987862348e-39
0.0 -0.117070256589 0.811 9.45905610427e-39
0.0015009007255 -0.117070256589 0.811 1.01019045774e-38
0.00300180145101 -0.117070256589 0.811 1.05610820582e-38
0.00450270217651 -0.117070256589 0.811 1.12039305313e-38
0.00598879746946 -0.116781550654 0.809 1.12957660274e-38
0.00748599683682 -0.116781550654 0.809 1.13876015236e-38
0.00898319620418 -0.116781550654 0.809 1.19408019274e-38
0.0104803955715 -0.116781550654 0.809 1.11120950351e-38
0.0119775949389 -0.116781550654 0.809 1.14794370197e-38
0.0134747943063 -0.116781550654 0.809 1.16631080121e-38
0.0149719936736 -0.116781550654 0.809 1.16631080121e-38
0.016469193041 -0.116781550654 0.809 1.13876015236e-38
0.0179663924084 -0.116781550654 0.809 1.16631080121e-38
0.0194635917757 -0.116781550654 0.809 1.16631080121e-38
0.021012610157 -0.117070256589 0.811 1.17549435082e-38
0.0225135108825 -0.117070256589 0.811 1.2214120989e-38
0.0240144116081 -0.117070256589 0.811 1.15712725159e-38
0.0255153123336 -0.117070256589 0.811 1.21230057603e-38
0.0270162130591 -0.117070256589 0.811 1.22152027914e-38
0.0286577653939 -0.117647668459 0.815 1.27680248447e-38
0.0302400959984 -0.117936374394 0.817 1.29538426263e-38
0.0318298293193 -0.118225080329 0.819 1.32268323827e-38
0.0334269653564 -0.118513786264 0.821 1.29495616594e-38
0.0349463728726 -0.118513786264 0.821 1.37756831561e-38
0.0364657803888 -0.118513786264 0.821 1.14794426249e-38
-0.0136746676458 -0.116994378747 0.821 8.35703015038e-39
-0.0121552601296 -0.116994378747 0.821 8.81620763117e-39
-0.0106099431064 -0.116709374171 0.819 8.63253663885e-39
-0.00907202879953 -0.116424369594 0.817 9.1835496158e-39
-0.00752301041821 -0.11585436044 0.813 8.0815236619e-39
-0.00601840833457 -0.11585436044 0.813 8.99987862348e-39
-0.00451380625093 -0.11585436044 0.813 9.09171411964e-39
-0.00300180145101 -0.115569355864 0.811 8.99987862348e-39
-0.0015009007255 -0.115569355864 0.811 8.99987862348e-39
0.0 -0.115569355864 0.811 9.1835496158e-39
0.0015009007255 -0.115569355864 0.811 9.73456259275e-39
0.00300180145101 -0.115569355864 0.811 1.03774110659e-38
0.00450270217651 -0.115569355864 0.811 1.01019045774e-38
0.00600360290201 -0.115569355864 0.811 1.0469246562e-38
0.00750450362752 -0.115569355864 0.811 1.07447530505e-38
0.00898319620418 -0.115284351287 0.809 1.11120950351e-38
0.0104803955715 -0.115284351287 0.809 1.12039305313e-38
0.0119775949389 -0.115284351287 0.809 1.07447530505e-38
0.0134747943063 -0.115284351287 0.809 1.12957660274e-38
0.015009007255 -0.115569355864 0.811 1.16631080121e-38
0.0165099079805 -0.115569355864 0.811 1.15712725159e-38
0.018010808706 -0.115569355864 0.811 1.16631080121e-38
0.0195117094315 -0.115569355864 0.811 1.12957660274e-38
0.021064429171 -0.11585436044 0.813 1.12039305313e-38
0.0225690312546 -0.11585436044 0.813 1.16631080121e-38
0.0240736333383 -0.11585436044 0.813 1.17549435082e-38
0.0255782354219 -0.11585436044 0.813 1.20322436587e-38
0.0270828375056 -0.11585436044 0.813 1.26761795394e-38
0.0286577653939 -0.116139365017 0.815 1.29531209575e-38
0.0302400959984 -0.116424369594 0.817 1.33208398915e-38
0.0318298293193 -0.116709374171 0.819 1.27654926984e-38
0.0334269653564 -0.116994378747 0.821 1.31331990206e-38
0.0350315041098 -0.117279383324 0.823 1.29495224231e-38
0.0365546129841 -0.117279383324 0.823 1.23977919813e-38
-0.0121552601296 -0.115474971231 0.821 8.72437213501e-39
-0.0106099431064 -0.115193668013 0.819 8.72437213501e-39
-0.00907202879953 -0.114912364794 0.817 8.81620763117e-39
-0.00754151720891 -0.114631061575 0.815 8.72437213501e-39
-0.00603321376713 -0.114631061575 0.815 8.99987862348e-39
-0.00451380625093 -0.114349758357 0.813 8.99987862348e-39
-0.00300920416729 -0.114349758357 0.813 8.90804312733e-39
-0.00150460208364 -0.114349758357 0.813 9.36722060812e-39
0.0 -0.114068455138 0.811 9.36722060812e-39
0.0015009007255 -0.114068455138 0.811 9.91823358506e-39
0.00300180145101 -0.114068455138 0.811 1.00100690812e-38
0.00450270217651 -0.114068455138 0.811 1.02855755697e-38
0.00600360290201 -0.114068455138 0.811 1.07447530505e-38
0.00750450362752 -0.114068455138 0.811 1.0836975305e-38
0.00900540435302 -0.114068455138 0.811 1.1020259539e-38
0.0104803955715 -0.11378715192 0.809 1.14794370197e-38
0.0119775949389 -0.11378715192 0.809 1.1020259539e-38
0.0135081065295 -0.114068455138 0.811 1.11120950351e-38
0.015009007255 -0.114068455138 0.811 1.13876015236e-38
0.0165099079805 -0.114068455138 0.811 1.14794370197e-38
0.018010808706 -0.114068455138 0.811 1.12039305313e-38
0.0195117094315 -0.114068455138 0.811 1.18467790044e-38
0.021064429171 -0.114349758357 0.813 1.14794370197e-38
0.0226245516267 -0.114631061575 0.815 1.21222868942e-38
0.0241328550685 -0.114631061575 0.815 1.14794370197e-38
0.0256411585103 -0.114631061575 0.815 1.22141237916e-38
0.0271494619521 -0.114631061575 0.815 1.25818371203e-38
0.0287280911985 -0.114912364794 0.817 1.30453348043e-38
0.0303141231612 -0.115193668013 0.819 1.29546007287e-38
0.0318298293193 -0.115193668013 0.819 1.35941897816e-38
0.0335083952355 -0.11575627445 0.823 1.2858072284e-38
0.0354571602958 -0.117162790543 0.833 1.36867357361e-38
0.0369987759609 -0.117162790543 0.833 1.16631080121e-38
-0.0154901838131 -0.116176378599 0.837 6.3366492349e-39
-0.0139078532086 -0.115898776738 0.835 6.97949770801e-39
-0.0121848709947 -0.114233165575 0.823 8.90804312733e-39
-0.0106358526134 -0.113955563715 0.821 9.09171411964e-39
-0.0091164450972 -0.113955563715 0.821 8.99987862348e-39
-0.00756002399961 -0.113400359994 0.817 8.54070114269e-39
-0.00604801919968 -0.113400359994 0.817 8.99987862348e-39
-0.00453601439976 -0.113400359994 0.817 9.1835496158e-39
-0.00301660688356 -0.113122758134 0.815 9.09171411964e-39
-0.00150460208364 -0.112845156273 0.813 9.1835496158e-39
0.0 -0.112845156273 0.813 9.73456259275e-39
0.00150460208364 -0.112845156273 0.813 9.91823358506e-39
0.00300180145101 -0.112567554413 0.811 1.00100690812e-38
0.00450270217651 -0.112567554413 0.811 1.03774110659e-38
0.00600360290201 -0.112567554413 0.811 1.0469246562e-38
0.00750450362752 -0.112567554413 0.811 1.08365885466e-38
0.00900540435302 -0.112567554413 0.811 1.1020259539e-38
0.0105063050785 -0.112567554413 0.811 1.12039305313e-38
0.012007205804 -0.112567554413 0.811 1.07447530505e-38
0.0135081065295 -0.112567554413 0.811 1.14794370197e-38
0.015009007255 -0.112567554413 0.811 1.17549435082e-38
0.0165099079805 -0.112567554413 0.811 1.13876015236e-38
0.0180552250037 -0.112845156273 0.813 1.12957660274e-38
0.0195598270874 -0.112845156273 0.813 1.15712725159e-38
0.021064429171 -0.112845156273 0.813 1.1020259539e-38
0.0226245516267 -0.113122758134 0.815 1.20304499967e-38
0.0241328550685 -0.113122758134 0.815 1.14794370197e-38
0.0257040815987 -0.113400359994 0.817 1.24896274775e-38
0.0272160863986 -0.113400359994 0.817 1.22152027914e-38
0.0287984170032 -0.113677961855 0.819 1.43378728896e-38
0.0303141231612 -0.113677961855 0.819 1.25865216611e-38
0.0319075578402 -0.113955563715 0.821 1.28587701306e-38
0.0336712549936 -0.114788369296 0.827 1.29498965698e-38
0.0352868978214 -0.115065971157 0.829 1.19386145005e-38
-0.0169984872549 -0.114353459715 0.835 2.34943662347e-38
-0.0154531702318 -0.114353459715 0.835 5.51012976948e-39
-0.0138745409853 -0.114079559213 0.833 8.44886564654e-39
-0.0122737035901 -0.113531758208 0.829 8.35704696596e-39
-0.0106617621204 -0.112710056701 0.823 8.81620763117e-39
-0.00913865324604 -0.112710056701 0.823 8.54070114269e-39
-0.0075785307903 -0.112162255696 0.819 9.36722060812e-39
-0.00606282463224 -0.112162255696 0.819 9.64272709659e-39
-0.00454711847418 -0.112162255696 0.819 8.81620763117e-39
-0.00302400959984 -0.111888355194 0.817 9.09171411964e-39
-0.00150830344178 -0.111614454692 0.815 9.09171411964e-39
0.0 -0.11134055419 0.813 9.91823358506e-39
0.00150460208364 -0.11134055419 0.813 1.03774110659e-38
0.00300920416729 -0.11134055419 0.813 9.45905610427e-39
0.00451380625093 -0.11134055419 0.813 1.05610848608e-38
0.00601840833457 -0.11134055419 0.813 1.05610820582e-38
0.00752301041821 -0.11134055419 0.813 1.02855811749e-38
0.00902761250186 -0.11134055419 0.813 1.13876029249e-38
0.0105063050785 -0.111066653687 0.811 1.11120964364e-38
0.012007205804 -0.111066653687 0.811 1.10202735519e-38
0.0135414187528 -0.11134055419 0.813 1.12039305313e-38
0.0150460208364 -0.11134055419 0.813 1.15712725159e-38
0.0165506229201 -0.11134055419 0.813 1.11120950351e-38
0.0180552250037 -0.11134055419 0.813 1.13876015236e-38
0.0195598270874 -0.11134055419 0.813 1.15712725159e-38
0.021064429171 -0.11134055419 0.813 1.18467874122e-38
0.0227355923709 -0.112162255696 0.819 1.15712725159e-38
0.024251298529 -0.112162255696 0.819 1.16631080121e-38
0.025767004687 -0.112162255696 0.819 1.25814685788e-38
0.0272827108451 -0.112162255696 0.819 1.2401020573e-38
0.0288687428078 -0.112436156199 0.821 1.3135754989e-38
0.030388150324 -0.112436156199 0.821 1.29538818626e-38
0.0319852863611 -0.112710056701 0.823 1.31357297656e-38
0.0336712549936 -0.113257857706 0.827 1.30417194543e-38
0.0352868978214 -0.113531758208 0.829 1.29509657605e-38
-0.0201372389571 -0.113078341836 0.837 2.31198131681e-38
-0.0185882205758 -0.113078341836 0.837 2.34896690822e-38
-0.0169984872549 -0.112808142692 0.835 2.3495438228e-38
-0.0154531702318 -0.112808142692 0.835 5.6938007618e-39
-0.0138745409853 -0.112537943548 0.833 1.13958747897e-38
-0.0122737035901 -0.111997545259 0.829 8.0815236619e-39
-0.0107135811343 -0.111727346115 0.827 8.99987862348e-39
-0.00916086139487 -0.111457146971 0.825 8.72437213501e-39
-0.007597037581 -0.110916748683 0.821 8.81620763117e-39
-0.0060776300648 -0.110916748683 0.821 8.90804312733e-39
-0.00454711847418 -0.110646549538 0.819 1.00100690812e-38
-0.00303141231612 -0.110646549538 0.819 9.36722200941e-39
-0.00151200479992 -0.110376350394 0.817 1.00100690812e-38
0.0 -0.11010615125 0.815 1.01019045774e-38
0.00150460208364 -0.109835952106 0.813 9.64272709659e-39
0.00300920416729 -0.109835952106 0.813 1.00100690812e-38
0.00451380625093 -0.109835952106 0.813 1.05610820582e-38
0.00601840833457 -0.109835952106 0.813 1.03774110659e-38
0.00752301041821 -0.109835952106 0.813 1.07447530505e-38
0.00902761250186 -0.109835952106 0.813 1.12039305313e-38
0.0105322145855 -0.109835952106 0.813 1.1020259539e-38
0.0120368166691 -0.109835952106 0.813 1.15712725159e-38
0.0135414187528 -0.109835952106 0.813 1.12039305313e-38
0.0150460208364 -0.109835952106 0.813 1.14794370197e-38
0.0165913378596 -0.11010615125 0.815 1.13876015236e-38
0.0180996413014 -0.11010615125 0.815 1.12039305313e-38
0.0196079447432 -0.11010615125 0.815 1.14794370197e-38
0.0211680671989 -0.110376350394 0.817 1.18467790044e-38
0.0227355923709 -0.110646549538 0.819 1.17549435082e-38
0.024251298529 -0.110646549538 0.819 1.19386145005e-38
0.025767004687 -0.110646549538 0.819 1.23059718995e-38
0.0272827108451 -0.110646549538 0.819 1.24914393564e-38
0.0288687428078 -0.110916748683 0.821 1.25861559222e-38
0.0304621774868 -0.111186947827 0.823 1.32268590074e-38
0.0320630148821 -0.111457146971 0.825 1.23059662943e-38
0.0336712549936 -0.111727346115 0.827 1.29488049583e-38
0.0352868978214 -0.111997545259 0.829 1.52566005966e-38
-0.0216862573384 -0.111529323455 0.837 2.3490386547e-38
-0.0201372389571 -0.111529323455 0.837 2.31198103655e-38
-0.0185882205758 -0.111529323455 0.837 2.34886012928e-38
-0.0169984872549 -0.111262825669 0.835 2.34961626993e-38
-0.0154531702318 -0.111262825669 0.835 5.78563625795e-39
-0.0138745409853 -0.110996327883 0.833 1.17700214797e-38
-0.0122737035901 -0.110463332311 0.829 9.28292830159e-39
-0.0107394906413 -0.110463332311 0.829 8.63253663885e-39
-0.00918306954371 -0.110196834524 0.827 8.54070114269e-39
-0.0076155443717 -0.109663838952 0.823 9.27538511196e-39
-0.0060776300648 -0.109397341166 0.821 9.1835496158e-39
-0.0045582225486 -0.109397341166 0.821 9.64272709659e-39
-0.00303141231612 -0.10913084338 0.819 8.90804312733e-39
-0.00151570615806 -0.10913084338 0.819 9.73456259275e-39
0.0 -0.108864345594 0.817 1.01019045774e-38
0.00150830344178 -0.108597847808 0.815 9.64272709659e-39
0.00301660688356 -0.108597847808 0.815 1.00100690812e-38
0.00452491032535 -0.108597847808 0.815 1.07447530505e-38
0.00601840833457 -0.108331350022 0.813 1.07447530505e-38
0.00752301041821 -0.108331350022 0.813 1.08365885466e-38
0.00902761250186 -0.108331350022 0.813 1.12039333339e-38
0.0105322145855 -0.108331350022 0.813 1.09284408584e-38
0.0120368166691 -0.108331350022 0.813 1.13876057275e-38
0.0135414187528 -0.108331350022 0.813 1.13876085301e-38
0.0150830344178 -0.108597847808 0.815 1.09284240428e-38
0.0165913378596 -0.108597847808 0.815 1.13876015236e-38
0.0180996413014 -0.108597847808 0.815 1.12039305313e-38
0.0196079447432 -0.108597847808 0.815 1.14794370197e-38
0.0212198862128 -0.10913084338 0.819 1.20304499967e-38
0.0227355923709 -0.10913084338 0.819 1.19386145005e-38
0.0243105202592 -0.109397341166 0.821 1.17549435082e-38
0.0258299277754 -0.109397341166 0.821 1.22148496642e-38
0.0273493352916 -0.109397341166 0.821 1.25861335014e-38
0.0289390686124 -0.109663838952 0.823 1.2126605696e-38
0.0305362046496 -0.109930336738 0.825 1.34108747191e-38
0.032140743403 -0.110196834524 0.827 1.30420921996e-38
0.0336712549936 -0.110196834524 0.827 1.32279127838e-38
0.0352868978214 -0.110463332311 0.829 1.51665545586e-38
-0.0200891213013 -0.109717508645 0.835 2.28443024758e-38
-0.0185438042781 -0.109717508645 0.835 2.34896676809e-38
-0.0169984872549 -0.109717508645 0.835 2.34965284382e-38
-0.0154531702318 -0.109717508645 0.835 5.5112059667e-39
-0.0138745409853 -0.109454712218 0.833 1.28731474529e-38
-0.0123033144552 -0.10919191579 0.831 9.56096413379e-39
-0.0107394906413 -0.108929119362 0.829 9.18498454543e-39
-0.00918306954371 -0.108666322934 0.827 8.63253663885e-39
-0.00763405116239 -0.108403526506 0.825 8.81620763117e-39
-0.00609243549736 -0.108140730078 0.823 8.81620763117e-39
-0.0045582225486 -0.10787793365 0.821 9.73456259275e-39
-0.0030388150324 -0.10787793365 0.821 1.01019045774e-38
-0.00151570615806 -0.107615137222 0.819 1.01019045774e-38
0.0 -0.107352340794 0.817 1.00100690812e-38
0.00150830344178 -0.107089544367 0.815 9.36722060812e-39
0.00301660688356 -0.107089544367 0.815 9.91823358506e-39
0.00452491032535 -0.107089544367 0.815 1.09284240428e-38
0.00603321376713 -0.107089544367 0.815 1.13876015236e-38
0.00754151720891 -0.107089544367 0.815 1.12039305313e-38
0.00904982065069 -0.107089544367 0.815 1.09284240428e-38
0.0105322145855 -0.106826747939 0.813 1.13876015236e-38
0.0120368166691 -0.106826747939 0.813 1.1020259539e-38
0.0136080431993 -0.107352340794 0.817 1.14794370197e-38
0.0150830344178 -0.107089544367 0.815 1.12039305313e-38
0.0165913378596 -0.107089544367 0.815 1.14794370197e-38
0.0181440575991 -0.107352340794 0.817 1.11120950351e-38
0.019656062399 -0.107352340794 0.817 1.15712725159e-38
0.0212198862128 -0.107615137222 0.819 1.20304499967e-38
0.0227355923709 -0.107615137222 0.819 1.17549435082e-38
0.0243105202592 -0.10787793365 0.821 1.20308101304e-38
0.0258299277754 -0.10787793365 0.821 1.23981507137e-38
0.0274825841846 -0.108403526506 0.825 1.29517112513e-38
0.0290093944171 -0.108403526506 0.825 1.24035919557e-38
0.0306102318124 -0.108666322934 0.827 1.32272065294e-38
0.032140743403 -0.108666322934 0.827 1.32282631084e-38
0.0337526848727 -0.108929119362 0.829 1.50711219292e-38
0.0352868978214 -0.108929119362 0.829 1.27719751051e-38
0.0368211107702 -0.108929119362 0.829 1.49828289156e-38
-0.0185882205758 -0.108431286692 0.837 2.34878740189e-38
-0.0170392021945 -0.108431286692 0.837 2.34968801641e-38
-0.0154531702318 -0.108172191622 0.835 8.92384136621e-39
-0.0138745409853 -0.107913096553 0.833 1.0010786546e-38
-0.0123033144552 -0.107654001483 0.831 9.83503148874e-39
-0.0107654001483 -0.107654001483 0.831 9.83034414538e-39
-0.00920527769254 -0.107394906413 0.829 8.81620763117e-39
-0.00765255795309 -0.107135811343 0.827 9.1835496158e-39
-0.00610724092991 -0.106876716274 0.825 8.72437213501e-39
-0.00456932662302 -0.106617621204 0.823 9.55089160043e-39
-0.0030388150324 -0.106358526134 0.821 9.36722060812e-39
-0.0015194075162 -0.106358526134 0.821 9.1835496158e-39
0.0 -0.106099431064 0.819 9.36722060812e-39
0.00151570615806 -0.106099431064 0.819 9.1835496158e-39
0.00302400959984 -0.105840335994 0.817 1.07447530505e-38
0.00453601439976 -0.105840335994 0.817 1.05610820582e-38
0.00603321376713 -0.105581240925 0.815 1.07447530505e-38
0.00754151720891 -0.105581240925 0.815 1.13876015236e-38
0.00904982065069 -0.105581240925 0.815 1.11120964364e-38
0.0105581240925 -0.105581240925 0.815 1.13876015236e-38
0.0120664275343 -0.105581240925 0.815 1.12957660274e-38
0.0136080431993 -0.105840335994 0.817 1.15712725159e-38
0.0151200479992 -0.105840335994 0.817 1.09284240428e-38
0.0166320527991 -0.105840335994 0.817 1.18467790044e-38
0.0181884738967 -0.106099431064 0.819 1.129576883e-38
0.0197041800548 -0.106099431064 0.819 1.13876225431e-38
0.0212198862128 -0.106099431064 0.819 1.23059564852e-38
0.0227355923709 -0.106099431064 0.819 1.19386145005e-38
0.0243105202592 -0.106358526134 0.821 1.1571282325e-38
0.0258299277754 -0.106358526134 0.821 1.21222854929e-38
0.0274825841846 -0.106876716274 0.825 1.25814643749e-38
0.0290093944171 -0.106876716274 0.825 1.3041018805e-38
0.0306102318124 -0.107135811343 0.827 1.31371394719e-38
0.032140743403 -0.107135811343 0.827 1.32286344525e-38
0.0337526848727 -0.107394906413 0.829 1.3224688396e-38
0.0352868978214 -0.107394906413 0.829 1.32325847129e-38
0.0368211107702 -0.107394906413 0.829 1.61799652002e-38
-0.0185882205758 -0.106882268311 0.837 2.28435990239e-38
-0.0170392021945 -0.106882268311 0.837 2.34932816296e-38
-0.0154901838131 -0.106882268311 0.837 1.42704578218e-38
-0.0139078532086 -0.106626874599 0.835 8.26523529187e-39
-0.0123329253203 -0.106371480887 0.833 1.1396237726e-38
-0.0107913096553 -0.106371480887 0.833 8.72616579704e-39
-0.00922748584138 -0.106116087176 0.831 9.27538511196e-39
-0.00765255795309 -0.105605299753 0.827 9.1835496158e-39
-0.00610724092991 -0.105349906041 0.825 9.09171411964e-39
-0.00458043069744 -0.105349906041 0.825 9.64272709659e-39
-0.00304621774868 -0.105094512329 0.823 9.73456259275e-39
-0.0015194075162 -0.104839118618 0.821 9.1835496158e-39
0.0 -0.104839118618 0.821 9.1835496158e-39
0.0015194075162 -0.104839118618 0.821 1.01019045774e-38
0.00303141231612 -0.104583724906 0.819 1.01937400735e-38
0.00454711847418 -0.104583724906 0.819 1.02855755697e-38
0.00604801919968 -0.104328331195 0.817 1.1020259539e-38
0.00756002399961 -0.104328331195 0.817 1.07447530505e-38
0.00907202879953 -0.104328331195 0.817 1.07447530505e-38
0.0105840335994 -0.104328331195 0.817 1.1020259539e-38
0.0120960383994 -0.104328331195 0.817 1.13876015236e-38
0.0136413554225 -0.104583724906 0.819 1.13876015236e-38
0.0151570615806 -0.104583724906 0.819 1.11120950351e-38
0.0166727677387 -0.104583724906 0.819 1.12957660274e-38
0.0181884738967 -0.104583724906 0.819 1.11120950351e-38
0.0197041800548 -0.104583724906 0.819 1.1020259539e-38
0.0212198862128 -0.104583724906 0.819 1.17549435082e-38
0.0227355923709 -0.104583724906 0.819 1.19386145005e-38
0.0243105202592 -0.104839118618 0.821 1.2030451398e-38
0.0258299277754 -0.104839118618 0.821 1.23059564852e-38
0.0274825841846 -0.105349906041 0.825 1.22144797214e-38
0.0290797202217 -0.105605299753 0.827 1.23995940512e-38
0.0306102318124 -0.105605299753 0.827 1.30470976378e-38
0.0322184719239 -0.105860693464 0.829 1.35041395397e-38
0.0337526848727 -0.105860693464 0.829 1.36017077479e-38
0.0353720290586 -0.106116087176 0.831 1.45190145382e-38
0.0369099433655 -0.106116087176 0.831 1.75772923846e-38
-0.0185882205758 -0.105333249929 0.837 2.34886040954e-38
-0.0170392021945 -0.105333249929 0.837 2.34947221645e-38
-0.0154901838131 -0.105333249929 0.837 1.43623017257e-38
-0.0139078532086 -0.105081557576 0.835 1.39932095193e-38
-0.0123329253203 -0.104829865222 0.833 6.98344376448e-39
-0.0107913096553 -0.104829865222 0.833 9.36831642351e-39
-0.00922748584138 -0.104578172869 0.831 9.55089160043e-39
-0.00765255795309 -0.104074788162 0.827 9.36722060812e-39
-0.00612204636247 -0.104074788162 0.827 9.1835496158e-39
-0.00458043069744 -0.103823095809 0.825 9.27538511196e-39
-0.00304621774868 -0.103571403455 0.823 8.99987862348e-39
-0.00152310887434 -0.103571403455 0.823 9.64272709659e-39
0.0 -0.103319711102 0.821 9.91823358506e-39
0.0015194075162 -0.103319711102 0.821 9.73456259275e-39
0.0030388150324 -0.103319711102 0.821 1.05610820582e-38
0.00454711847418 -0.103068018748 0.819 1.01937400735e-38
0.00606282463224 -0.103068018748 0.819 1.11120950351e-38
0.0075785307903 -0.103068018748 0.819 1.05610820582e-38
0.00909423694836 -0.103068018748 0.819 1.08365899479e-38
0.0106099431064 -0.103068018748 0.819 1.12957674287e-38
0.0121256492645 -0.103068018748 0.819 1.13876057275e-38
0.0136413554225 -0.103068018748 0.819 1.09284464636e-38
0.0151570615806 -0.103068018748 0.819 1.14794370197e-38
0.0166727677387 -0.103068018748 0.819 1.14794398223e-38
0.0181884738967 -0.103068018748 0.819 1.15712725159e-38
0.0197041800548 -0.103068018748 0.819 1.14794426249e-38
0.0212717052268 -0.103319711102 0.821 1.18467790044e-38
0.022791112743 -0.103319711102 0.821 1.20304499967e-38
0.0243105202592 -0.103319711102 0.821 1.2214120989e-38
0.0258928508638 -0.103571403455 0.823 1.21222854929e-38
0.0274825841846 -0.103823095809 0.825 1.32250387207e-38
0.0290797202217 -0.104074788162 0.827 1.29527860472e-38
0.0306102318124 -0.104074788162 0.827 1.32289819745e-38
0.0322184719239 -0.104326480515 0.829 1.39654778227e-38
0.0337526848727 -0.104326480515 0.829 1.1573799057e-38
0.0353720290586 -0.104578172869 0.831 2.06068211918e-38
0.0369099433655 -0.104578172869 0.831 1.35214315627e-38
0.0383553237189 -0.104326480515 0.829 2.23678736096e-38
-0.0185882205758 -0.103784231548 0.837 2.33967685992e-38
-0.0170392021945 -0.103784231548 0.837 2.34940018971e-38
-0.0154901838131 -0.103784231548 0.837 1.4363026197e-38
-0.0139078532086 -0.103536240553 0.835 1.69405759936e-38
-0.0123329253203 -0.103288249557 0.833 1.16936941536e-38
-0.0107913096553 -0.103288249557 0.833 9.45977356909e-39
-0.00922748584138 -0.103040258562 0.831 9.27539071715e-39
-0.00767106474379 -0.102792267567 0.829 9.27538511196e-39
-0.00612204636247 -0.102544276571 0.827 9.09171411964e-39
-0.00459153477185 -0.102544276571 0.827 9.27538511196e-39
-0.00305362046496 -0.102296285576 0.825 9.1835496158e-39
-0.00152310887434 -0.102048294581 0.823 9.73456259275e-39
0.0 -0.102048294581 0.823 9.64272709659e-39
0.00152310887434 -0.102048294581 0.823 1.08365885466e-38
0.0030388150324 -0.101800303585 0.821 1.0469246562e-38
0.0045582225486 -0.101800303585 0.821 1.05610820582e-38
0.0060776300648 -0.101800303585 0.821 1.05610820582e-38
0.007597037581 -0.101800303585 0.821 1.08365885466e-38
0.0091164450972 -0.101800303585 0.821 1.09284240428e-38
0.0106358526134 -0.101800303585 0.821 1.10202623416e-38
0.0121552601296 -0.101800303585 0.821 1.13876015236e-38
0.0136413554225 -0.10155231259 0.819 1.12039305313e-38
0.0151570615806 -0.10155231259 0.819 1.13876015236e-38
0.0166727677387 -0.10155231259 0.819 1.14794370197e-38
0.0181884738967 -0.10155231259 0.819 1.15712725159e-38
0.0197522977106 -0.101800303585 0.821 1.17549435082e-38
0.0212717052268 -0.101800303585 0.821 1.20304499967e-38
0.022791112743 -0.101800303585 0.821 1.21222854929e-38
0.0243697419894 -0.102048294581 0.823 1.2214120989e-38
0.0259557739521 -0.102296285576 0.825 1.27654926984e-38
0.0275492086311 -0.102544276571 0.827 1.25814629736e-38
0.0290797202217 -0.102544276571 0.827 1.31332088297e-38
0.0306842589751 -0.102792267567 0.829 1.30438690461e-38
0.0322184719239 -0.102792267567 0.829 1.29495490478e-38
0.0337526848727 -0.102792267567 0.829 1.85856415362e-38
0.0352868978214 -0.102792267567 0.829 1.57351972715e-38
0.0368211107702 -0.102792267567 0.829 1.3789326198e-38
0.0383553237189 -0.102792267567 0.829 2.34781882439e-38
-0.0204740625478 -0.103945240627 0.851 2.34903893496e-38
-0.0188991346595 -0.103945240627 0.851 2.32123619252e-38
-0.0172427768921 -0.103456661353 0.847 2.3495438228e-38
-0.0154901838131 -0.102235213167 0.837 1.48254308682e-38
-0.0139411654318 -0.102235213167 0.837 1.58342158236e-38
-0.0123625361854 -0.10199092353 0.835 1.25213066319e-38
-0.0108172191622 -0.10199092353 0.835 8.81620763117e-39
-0.00924969399022 -0.101746633892 0.833 9.91824199285e-39
-0.00770807832518 -0.101746633892 0.833 9.91823358506e-39
-0.00615165722759 -0.101502344255 0.831 9.91823358506e-39
-0.00460263884627 -0.101258054618 0.829 1.00100690812e-38
-0.00306842589751 -0.101258054618 0.829 9.1835496158e-39
-0.00153421294876 -0.101258054618 0.829 9.91823358506e-39
0.0 -0.101013764981 0.827 1.01019045774e-38
0.00153051159062 -0.101013764981 0.827 1.03774110659e-38
0.00304621774868 -0.100525185706 0.823 1.06529175543e-38
0.00456932662302 -0.100525185706 0.823 1.0469246562e-38
0.00609243549736 -0.100525185706 0.823 1.02855755697e-38
0.0076155443717 -0.100525185706 0.823 1.08365885466e-38
0.00913865324604 -0.100525185706 0.823 1.11120950351e-38
0.0106358526134 -0.100280896069 0.821 1.08365885466e-38
0.0121552601296 -0.100280896069 0.821 1.09284240428e-38
0.0136746676458 -0.100280896069 0.821 1.11120950351e-38
0.015194075162 -0.100280896069 0.821 1.18467790044e-38
0.0167134826782 -0.100280896069 0.821 1.15712725159e-38
0.0182328901944 -0.100280896069 0.821 1.2214120989e-38
0.0198004153664 -0.100525185706 0.823 1.15712739172e-38
0.0213235242407 -0.100525185706 0.823 1.20304499967e-38
0.0228466331151 -0.100525185706 0.823 1.20304499967e-38
0.0244289637197 -0.100769475344 0.825 1.23985094461e-38
0.0260186970405 -0.101013764981 0.827 1.24896274775e-38
0.0275492086311 -0.101013764981 0.827 1.26733012724e-38
0.0290797202217 -0.101013764981 0.827 1.30410131998e-38
0.0306842589751 -0.101258054618 0.829 1.44214519352e-38
0.0322184719239 -0.101258054618 0.829 1.29570838296e-38
0.0337526848727 -0.101258054618 0.829 1.68411594728e-38
0.0352868978214 -0.101258054618 0.829 1.51805591354e-38
0.0368211107702 -0.101258054618 0.829 1.35145764107e-38
0.0383553237189 -0.101258054618 0.829 2.34788958996e-38
-0.0204740625478 -0.102370312739 0.851 2.33956741851e-38
-0.0188991346595 -0.102370312739 0.851 2.33971091147e-38
-0.0172427768921 -0.101889136181 0.847 2.34939962919e-38
-0.0156012245573 -0.101407959623 0.843 1.41789894658e-38
-0.0140077898783 -0.101167371344 0.841 1.65725039325e-38
-0.0123921470505 -0.100686194785 0.837 1.27056726682e-38
-0.0108431286692 -0.100686194785 0.837 8.54070114269e-39
-0.00927190213905 -0.100445606506 0.835 1.01029975902e-38
-0.00772658511588 -0.100445606506 0.835 1.01040569718e-38
-0.00616646266014 -0.100205018227 0.833 9.73456259275e-39
-0.00462484699511 -0.100205018227 0.833 9.64272709659e-39
-0.00306842589751 -0.0997238416692 0.829 9.91823358506e-39
-0.00153421294876 -0.0997238416692 0.829 1.01937400735e-38
0.0 -0.0997238416692 0.829 9.82639808891e-39
0.00153421294876 -0.0997238416692 0.829 1.00100690812e-38
0.00306102318124 -0.0994832533902 0.827 1.07447530505e-38
0.00459153477185 -0.0994832533902 0.827 1.06529175543e-38
0.00612204636247 -0.0994832533902 0.827 1.08365885466e-38
0.00763405116239 -0.0992426651111 0.825 1.05610820582e-38
0.00916086139487 -0.0992426651111 0.825 1.06529175543e-38
0.0106876716274 -0.0992426651111 0.825 1.11120950351e-38
0.0122144818598 -0.0992426651111 0.825 1.08365885466e-38
0.0137079798691 -0.0990020768321 0.823 1.12957660274e-38
0.0152310887434 -0.0990020768321 0.823 1.13876015236e-38
0.0167949125573 -0.0992426651111 0.825 1.16631080121e-38
0.0183217227897 -0.0992426651111 0.825 1.14794370197e-38
0.0198485330222 -0.0992426651111 0.825 1.21222854929e-38
0.0214271622687 -0.0994832533902 0.827 1.25814629736e-38
0.0229576738593 -0.0994832533902 0.827 1.18467790044e-38
0.0244881854499 -0.0994832533902 0.827 1.2765133966e-38
0.0260816201289 -0.0997238416692 0.829 1.20304499967e-38
0.0276158330776 -0.0997238416692 0.829 1.18467790044e-38
0.0291500460264 -0.0997238416692 0.829 1.29542181742e-38
0.0307582861379 -0.0999644299483 0.831 1.90459989103e-38
0.0322184719239 -0.0997238416692 0.829 1.21430919725e-38
0.0337526848727 -0.0997238416692 0.829 1.48128556158e-38
0.0352868978214 -0.0997238416692 0.829 1.55443179999e-38
0.0368211107702 -0.0997238416692 0.829 1.51726684238e-38
-0.0204740625478 -0.100795384851 0.851 2.3394955319e-38
-0.0188991346595 -0.100795384851 0.851 2.34875068787e-38
-0.0172834918317 -0.10055849793 0.849 2.34943564256e-38
-0.0156382381387 -0.100084724088 0.845 1.6391330054e-38
-0.0140411021016 -0.0998478371669 0.843 1.5466522113e-38
-0.0124513687807 -0.099610950246 0.841 1.30737461307e-38
-0.0108690381762 -0.0993740633251 0.839 8.0815236619e-39
-0.00929411028789 -0.0991371764041 0.837 9.27539351975e-39
-0.00772658511588 -0.0989002894832 0.835 1.32372636485e-38
-0.0061812680927 -0.0989002894832 0.835 1.33428402774e-38
-0.00462484699511 -0.0986634025623 0.833 7.4386751888e-39
-0.00308323133007 -0.0986634025623 0.833 8.9080683507e-39
-0.00153421294876 -0.0981896287205 0.829 9.36722060812e-39
0.0 -0.0981896287205 0.829 9.91823358506e-39
0.00153421294876 -0.0981896287205 0.829 1.01937400735e-38
0.00306102318124 -0.0979527417995 0.827 1.06529175543e-38
0.00459153477185 -0.0979527417995 0.827 1.07447530505e-38
0.00612204636247 -0.0979527417995 0.827 1.07447530505e-38
0.00765255795309 -0.0979527417995 0.827 1.08365969544e-38
0.00918306954371 -0.0979527417995 0.827 1.08365885466e-38
0.0107135811343 -0.0979527417995 0.827 1.16631080121e-38
0.0122144818598 -0.0977158548786 0.825 1.16631080121e-38
0.0137412920923 -0.0977158548786 0.825 1.10202763545e-38
0.0152681023248 -0.0977158548786 0.825 1.12957660274e-38
0.0168356274968 -0.0979527417995 0.827 1.17549435082e-38
0.0183661390874 -0.0979527417995 0.827 1.16631080121e-38
0.019896650678 -0.0979527417995 0.827 1.18467790044e-38
0.0214271622687 -0.0979527417995 0.827 1.20304499967e-38
0.0229576738593 -0.0979527417995 0.827 1.15712725159e-38
0.0245474071801 -0.0981896287205 0.829 1.14794370197e-38
0.0260816201289 -0.0981896287205 0.829 1.44243428139e-38
0.0276158330776 -0.0981896287205 0.829 1.74804906867e-38
0.0291500460264 -0.0981896287205 0.829 1.69395068029e-38
0.0308323133007 -0.0986634025623 0.833 1.37976274901e-38
0.0323739289658 -0.0986634025623 0.833 1.38869714775e-38
0.0339969745099 -0.0989002894832 0.835 1.3695768506e-38
0.035542291533 -0.0989002894832 0.835 1.73796182168e-38
-0.0204740625478 -0.0992204569623 0.851 2.321091018e-38
-0.0188991346595 -0.0992204569623 0.851 2.34893131524e-38
-0.0172834918317 -0.0989872713995 0.849 2.34943340048e-38
-0.0156752517201 -0.0987540858367 0.847 1.66682840838e-38
-0.0140744143248 -0.0985209002739 0.845 1.58338346704e-38
-0.0124809796459 -0.0982877147112 0.843 1.42748186626e-38
-0.0108690381762 -0.0978213435856 0.839 8.54070114269e-39
-0.00929411028789 -0.0975881580228 0.837 9.73637307036e-39
-0.00774509190657 -0.0975881580228 0.837 1.01019045774e-38
-0.0061812680927 -0.09735497246 0.835 1.00140515715e-38
-0.00462484699511 -0.0971217868973 0.833 1.28760565485e-38
-0.00308323133007 -0.0971217868973 0.833 1.43547669439e-38
-0.0015379143069 -0.0968886013345 0.831 7.43869340568e-39
0.0 -0.0968886013345 0.831 1.47149328791e-38
0.0015379143069 -0.0968886013345 0.831 7.89785266959e-39
0.00306842589751 -0.0966554157717 0.829 9.73458361222e-39
0.00460263884627 -0.0966554157717 0.829 9.91823358506e-39
0.00613685179503 -0.0966554157717 0.829 1.01937400735e-38
0.00765255795309 -0.0964222302089 0.827 1.07447530505e-38
0.00918306954371 -0.0964222302089 0.827 1.0469246562e-38
0.0107135811343 -0.0964222302089 0.827 1.09284240428e-38
0.0122440927249 -0.0964222302089 0.827 1.11120950351e-38
0.0137746043156 -0.0964222302089 0.827 1.08365899479e-38
0.0153051159062 -0.0964222302089 0.827 1.08365885466e-38
0.0168356274968 -0.0964222302089 0.827 1.13876015236e-38
0.0184105553851 -0.0966554157717 0.829 1.1020259539e-38
0.0199447683338 -0.0966554157717 0.829 1.15712725159e-38
0.0214789812826 -0.0966554157717 0.829 1.2950249697e-38
0.0230131942314 -0.0966554157717 0.829 1.63823645465e-38
0.0245474071801 -0.0966554157717 0.829 1.76745130708e-38
0.0261445432172 -0.0968886013345 0.831 1.56465973735e-38
0.0276824575241 -0.0968886013345 0.831 1.09385316086e-38
0.0292906976357 -0.0971217868973 0.833 1.18485726664e-38
0.0309063404635 -0.09735497246 0.835 1.5909549629e-38
0.0324516574867 -0.09735497246 0.835 1.3796570911e-38
0.0340784043889 -0.0975881580228 0.837 1.5909549629e-38
0.0356274227702 -0.0975881580228 0.837 1.63765841903e-38
-0.0188991346595 -0.097645529074 0.851 2.34893089485e-38
-0.0173242067712 -0.097645529074 0.851 2.3490734069e-38
-0.0157122653015 -0.0974160448693 0.849 1.82359404979e-38
-0.0140411021016 -0.0967275922554 0.843 1.51899156053e-38
-0.0124809796459 -0.0967275922554 0.843 1.39975255186e-38
-0.0109208571901 -0.0967275922554 0.843 7.98968816575e-39
-0.00931631843672 -0.0962686238461 0.839 9.92040419638e-39
-0.00774509190657 -0.0960391396415 0.837 1.04724751537e-38
-0.00619607352526 -0.0960391396415 0.837 1.14934598135e-38
-0.00463595106953 -0.0958096554369 0.835 9.55089160043e-39
-0.00309063404635 -0.0958096554369 0.835 1.08373284322e-38
-0.00154161566504 -0.0955801712322 0.833 8.72440716747e-39
0.0 -0.0955801712322 0.833 1.28703364482e-38
0.00154161566504 -0.0955801712322 0.833 1.36204192863e-38
0.00308323133007 -0.0955801712322 0.833 1.35278397006e-38
0.00460263884627 -0.095121202823 0.829 1.32488047426e-38
0.00613685179503 -0.095121202823 0.829 1.36117690708e-38
0.00767106474379 -0.095121202823 0.829 9.27538511196e-39
0.00920527769254 -0.095121202823 0.829 1.74739718463e-38
0.0107394906413 -0.095121202823 0.829 1.11275275351e-38
0.0122737035901 -0.095121202823 0.829 1.12096786576e-38
0.0138079165388 -0.095121202823 0.829 1.23117326374e-38
0.0153421294876 -0.095121202823 0.829 1.42546357608e-38
0.0168763424363 -0.095121202823 0.829 1.45384267258e-38
0.0184105553851 -0.095121202823 0.829 1.57391237098e-38
0.0199928859897 -0.0953506870276 0.831 1.7119890349e-38
0.0215308002966 -0.0953506870276 0.831 1.28609379394e-38
0.0230687146034 -0.0953506870276 0.831 1.49987294493e-38
0.0246066289103 -0.0953506870276 0.831 1.06576034964e-38
0.0262074663056 -0.0955801712322 0.833 1.07447530505e-38
0.0277490819706 -0.0955801712322 0.833 1.60056534803e-38
0.029431349245 -0.0960391396415 0.837 1.30557688727e-38
0.0309803676263 -0.0960391396415 0.837 1.48121227367e-38
0.0326071145285 -0.0962686238461 0.839 1.38859008855e-38
0.034159834268 -0.0962686238461 0.839 1.60088778681e-38
-0.0188991346595 -0.0960706011857 0.851 2.33016862945e-38
-0.0173242067712 -0.0960706011857 0.851 2.34950570748e-38
-0.0157122653015 -0.0958448183392 0.849 1.8328517281e-38
-0.0140411021016 -0.0951674697997 0.843 1.51006164593e-38
-0.0124809796459 -0.0951674697997 0.843 1.45524817494e-38
-0.0109208571901 -0.0951674697997 0.843 7.62234618111e-39
-0.00933852658556 -0.0949416869532 0.841 1.05650547393e-38
-0.00776359869727 -0.0947159041067 0.839 9.82783301853e-39
-0.00619607352526 -0.0944901212602 0.837 1.04757261661e-38
-0.00464705514394 -0.0944901212602 0.837 1.10267167223e-38
-0.00309063404635 -0.0942643384137 0.835 1.23203716425e-38
-0.00154531702318 -0.0942643384137 0.835 1.06615439477e-38
0.0 -0.0942643384137 0.835 9.36722200941e-39
0.00154531702318 -0.0942643384137 0.835 1.08376647439e-38
0.00308323133007 -0.0940385555672 0.833 9.83035675707e-39
0.00461374292069 -0.0938127727207 0.831 1.17621756096e-38
0.00615165722759 -0.0938127727207 0.831 1.53574324289e-38
0.00767106474379 -0.0935869898742 0.829 9.27546918986e-39
0.00920527769254 -0.0935869898742 0.829 1.66460608915e-38
0.0107654001483 -0.0938127727207 0.831 1.38955614371e-38
0.0123033144552 -0.0938127727207 0.831 1.463248328e-38
0.0138079165388 -0.0935869898742 0.829 1.61071649423e-38
0.0153421294876 -0.0935869898742 0.829 1.14063018516e-38
0.0169170573759 -0.0938127727207 0.831 1.5182331778e-38
0.0184549716828 -0.0938127727207 0.831 8.63253663885e-39
0.0199928859897 -0.0938127727207 0.831 1.10202959727e-38
0.0215826193105 -0.0940385555672 0.833 1.19386145005e-38
0.0231242349755 -0.0940385555672 0.833 1.4245692674e-38
0.0246658506406 -0.0940385555672 0.833 1.61911181346e-38
0.026270389394 -0.0942643384137 0.835 1.10256657484e-38
0.0278157064172 -0.0942643384137 0.835 1.50829488883e-38
0.029431349245 -0.0944901212602 0.837 1.50848364373e-38
0.0310543947891 -0.0947159041067 0.839 1.24132679216e-38
0.0326071145285 -0.0947159041067 0.839 1.49904477754e-38
0.0344041239052 -0.0953932526462 0.845 1.54567732796e-38
0.0360530789563 -0.0956190354927 0.847 1.34234471689e-38
-0.018965759106 -0.0948287955299 0.854 2.34878768215e-38
-0.0173242067712 -0.0944956732974 0.851 2.34921858142e-38
-0.0157122653015 -0.094273591809 0.849 1.8882394512e-38
-0.0141410387714 -0.094273591809 0.849 1.52835783946e-38
-0.0125402013761 -0.0940515103207 0.847 1.47361443339e-38
-0.0109467666971 -0.0938294288323 0.845 6.79582671569e-39
-0.0093607347344 -0.093607347344 0.843 1.06536350191e-38
-0.00776359869727 -0.0931631843672 0.839 1.04724751537e-38
-0.00621087895782 -0.0931631843672 0.839 9.73886738163e-39
-0.00464705514394 -0.0929411028789 0.837 1.15813772791e-38
-0.00309803676263 -0.0929411028789 0.837 1.10307426528e-38
-0.00154531702318 -0.0927190213905 0.835 8.99987862348e-39
0.0 -0.0927190213905 0.835 1.06583069482e-38
0.00154531702318 -0.0927190213905 0.835 1.2411818979e-38
0.00309063404635 -0.0927190213905 0.835 1.15842513423e-38
0.00462484699511 -0.0924969399022 0.833 9.7346046317e-39
0.00616646266014 -0.0924969399022 0.833 1.33266524775e-38
0.00768957153448 -0.0922748584138 0.831 1.19494143078e-38
0.00922748584138 -0.0922748584138 0.831 1.07461991905e-38
0.0107654001483 -0.0922748584138 0.831 1.20380240149e-38
0.0123033144552 -0.0922748584138 0.831 1.24953798077e-38
0.0138412287621 -0.0922748584138 0.831 1.09284492662e-38
0.015379143069 -0.0922748584138 0.831 1.35138281173e-38
0.0169577723154 -0.0924969399022 0.833 1.30550205793e-38
0.0184993879804 -0.0924969399022 0.833 1.34191143541e-38
0.0200410036455 -0.0924969399022 0.833 1.37915360456e-38
0.0215826193105 -0.0924969399022 0.833 1.25011237301e-38
0.0231242349755 -0.0924969399022 0.833 1.05657581911e-38
0.0246658506406 -0.0924969399022 0.833 1.44361627665e-38
0.026270389394 -0.0927190213905 0.835 1.51759348505e-38
0.0278823308637 -0.0929411028789 0.837 1.11121286663e-38
0.0295720008543 -0.0933852658556 0.841 1.60059785815e-38
