# .PCD v0.7 - Point Cloud Data file format
VERSION 0.7
FIELDS x y z rgb
SIZE 4 4 4 4
TYPE F F F F
COUNT 1 1 1 1
WIDTH 856
HEIGHT 1
VIEWPOINT 0 0 0 1 0 0 0
POINTS 856
DATA ascii
0.0103897122971 -0.160298418299 0.802 1.47568162889e-38
0.011873956911 -0.160298418299 0.802 1.47571750213e-38
0.0133582015249 -0.160298418299 0.802 1.46649807927e-38
0.0148424461388 -0.160298418299 0.802 1.46635458631e-38
0.0162859758131 -0.15989867162 0.8 1.49397698164e-38
0.0177665190688 -0.15989867162 0.8 1.46642633279e-38
0.0192470623246 -0.15989867162 0.8 1.40192624604e-38
0.0207276055803 -0.15989867162 0.8 1.46646220603e-38
0.0222081488361 -0.15989867162 0.8 1.48493692499e-38
0.023747913822 -0.160298418299 0.802 1.49422809432e-38
0.0252321584359 -0.160298418299 0.802 1.45749389586e-38
0.0267164030498 -0.160298418299 0.802 1.52195810937e-38
0.028235810566 -0.160498291638 0.803 1.51273868652e-38
0.0297219058589 -0.160498291638 0.803 1.49429984081e-38
-0.0104285765576 -0.159408241666 0.805 1.98841995997e-38
-0.00891657175768 -0.159012196345 0.803 2.0067161535e-38
-0.00743047646473 -0.159012196345 0.803 2.03455855269e-38
-0.00594438117178 -0.159012196345 0.803 1.44536874051e-38
-0.00445828587884 -0.159012196345 0.803 1.6225825495e-38
-0.00297219058589 -0.159012196345 0.803 1.4480951068e-38
-0.00148424461388 -0.158814173685 0.802 1.47586099509e-38
0.0 -0.158814173685 0.802 1.46649807927e-38
0.00148054325574 -0.158418128364 0.8 1.5033757707e-38
0.00296108651147 -0.158418128364 0.8 1.47571750213e-38
0.00444162976721 -0.158418128364 0.8 1.45738627614e-38
0.00592217302295 -0.158418128364 0.8 1.48493692499e-38
0.00740271627868 -0.158418128364 0.8 1.42969213433e-38
0.00888325953442 -0.158418128364 0.8 1.56805522366e-38
0.0103638027902 -0.158418128364 0.8 1.42965626109e-38
0.0118443460459 -0.158418128364 0.8 1.46642997617e-38
0.0133248893016 -0.158418128364 0.8 1.47571750213e-38
0.0148054325574 -0.158418128364 0.8 1.43887568394e-38
0.0162452608736 -0.158022083043 0.798 1.49415634784e-38
0.0177221027712 -0.158022083043 0.798 1.50330402422e-38
0.0191989446688 -0.158022083043 0.798 1.48497279823e-38
0.0206757865664 -0.158022083043 0.798 1.49426396756e-38
0.022152628464 -0.158022083043 0.798 1.49426396756e-38
0.0236294703616 -0.158022083043 0.798 1.46671331872e-38
0.0251692353475 -0.158418128364 0.8 1.45742523224e-38
0.0266497786033 -0.158418128364 0.8 1.49426396756e-38
0.028130321859 -0.158418128364 0.8 1.49426396756e-38
0.0296848922775 -0.158814173685 0.802 1.61408059146e-38
-0.00891657175768 -0.157526101052 0.803 1.99756959816e-38
-0.00743047646473 -0.157526101052 0.803 2.10823742464e-38
-0.00594438117178 -0.157526101052 0.803 1.22421021167e-38
-0.00445828587884 -0.157526101052 0.803 1.5948198842e-38
-0.00296848922775 -0.157329929071 0.802 1.55855161747e-38
-0.00148424461388 -0.157329929071 0.802 1.50330402422e-38
0.0 -0.156937585108 0.8 1.60482739731e-38
0.0014768418976 -0.156545241145 0.798 1.46646220603e-38
0.00295368379519 -0.156545241145 0.798 1.47586099509e-38
0.00443052569279 -0.156545241145 0.798 1.45738627614e-38
0.00590736759039 -0.156545241145 0.798 1.45742214938e-38
0.00738420948799 -0.156545241145 0.798 1.42979975405e-38
0.00886105138558 -0.156545241145 0.798 1.44823859976e-38
0.0103378932832 -0.156545241145 0.798 1.44813098004e-38
0.0118147351808 -0.156545241145 0.798 1.47571750213e-38
0.0132915770784 -0.156545241145 0.798 1.54025346212e-38
0.014768418976 -0.156545241145 0.798 1.46649807927e-38
0.0162452608736 -0.156545241145 0.798 1.46649807927e-38
0.0177221027712 -0.156545241145 0.798 1.49415634784e-38
0.019150827013 -0.156152897183 0.796 1.47582512185e-38
0.0206239675524 -0.156152897183 0.796 1.448274473e-38
0.0220971080919 -0.156152897183 0.796 1.44823859976e-38
0.0235702486313 -0.156152897183 0.796 1.54028933537e-38
0.0251063122592 -0.156545241145 0.798 1.46660569899e-38
0.0265831541568 -0.156545241145 0.798 1.50351926366e-38
0.0280599960544 -0.156545241145 0.798 1.48497279823e-38
0.0295368379519 -0.156545241145 0.798 1.80772560585e-38
-0.00893877990651 -0.156428648364 0.805 1.9330351796e-38
-0.00743047646473 -0.156040005759 0.803 2.16341144973e-38
-0.00594438117178 -0.156040005759 0.803 9.94047499429e-39
-0.00445828587884 -0.156040005759 0.803 5.81720470976e-39
-0.00296848922775 -0.155845684457 0.802 1.57709906382e-38
-0.00148054325574 -0.155457041852 0.8 1.51249051656e-38
0.0 -0.155068399248 0.798 1.47564575565e-38
0.0014768418976 -0.155068399248 0.798 1.47575337537e-38
0.00294628107892 -0.154679756643 0.796 1.54947288498e-38
0.00441942161837 -0.154679756643 0.796 1.46642633279e-38
0.00589256215783 -0.154679756643 0.796 1.49415634784e-38
0.00736570269729 -0.154679756643 0.796 1.49437158729e-38
0.00883884323675 -0.154679756643 0.796 1.45742214938e-38
0.0103119837762 -0.154679756643 0.796 1.47586099509e-38
0.0118147351808 -0.155068399248 0.798 1.46671331872e-38
0.0132915770784 -0.155068399248 0.798 1.45742214938e-38
0.0147314053946 -0.154679756643 0.796 1.48490105175e-38
0.016204545934 -0.154679756643 0.796 1.48490105175e-38
0.0176776864735 -0.154679756643 0.796 1.45738627614e-38
0.019150827013 -0.154679756643 0.796 1.45742214938e-38
0.0206239675524 -0.154679756643 0.796 1.44816685328e-38
0.0220971080919 -0.154679756643 0.796 1.47582512185e-38
0.0235702486313 -0.154679756643 0.796 1.50333989746e-38
0.0250433891708 -0.154679756643 0.796 1.47571750213e-38
0.0265165297102 -0.154679756643 0.796 1.54039695509e-38
0.0279896702497 -0.154679756643 0.796 1.72492890518e-38
0.0294628107892 -0.154679756643 0.796 1.45760151558e-38
-0.00743047646473 -0.154553910466 0.803 2.06217688425e-38
-0.0059369784555 -0.154361439843 0.802 1.04014461371e-38
-0.00445273384163 -0.154361439843 0.802 5.99908204004e-39
-0.00296108651147 -0.153976498597 0.8 8.12134295907e-39
-0.0014768418976 -0.15359155735 0.798 1.38366844809e-38
0.0 -0.15359155735 0.798 1.57720752432e-38
0.00147314053946 -0.153206616104 0.796 1.53106991251e-38
0.00294628107892 -0.153206616104 0.796 1.46653395251e-38
0.00441942161837 -0.153206616104 0.796 1.47571750213e-38
0.00589256215783 -0.153206616104 0.796 1.43894743043e-38
0.00736570269729 -0.153206616104 0.796 1.42979975405e-38
0.00883884323675 -0.153206616104 0.796 1.45738627614e-38
0.0103119837762 -0.153206616104 0.796 1.49437158729e-38
0.0117851243157 -0.153206616104 0.796 1.45760151558e-38
0.0132582648551 -0.153206616104 0.796 1.45742214938e-38
0.0147314053946 -0.153206616104 0.796 1.4848651785e-38
0.016204545934 -0.153206616104 0.796 1.5033757707e-38
0.0176332701758 -0.152821674857 0.794 1.4113250351e-38
0.0191027093571 -0.152821674857 0.794 1.57731051975e-38
0.0205721485385 -0.152821674857 0.794 1.50344751718e-38
0.0220415877198 -0.152821674857 0.794 1.5126310668e-38
0.0235110269011 -0.152821674857 0.794 1.52195810937e-38
0.0249804660824 -0.152821674857 0.794 1.55876405432e-38
0.0264499052637 -0.152821674857 0.794 1.67887074699e-38
0.0279896702497 -0.153206616104 0.796 1.43941378255e-38
0.0294628107892 -0.153206616104 0.796 1.42065207768e-38
-0.00742122306938 -0.152877195229 0.802 1.88632443672e-38
-0.0059369784555 -0.152877195229 0.802 1.15084943447e-38
-0.00444162976721 -0.152495955341 0.8 6.1849054268e-39
-0.00296108651147 -0.152495955341 0.8 6.92640531179e-39
-0.0014768418976 -0.152114715453 0.798 8.21604831448e-39
0.0 -0.152114715453 0.798 1.03350806418e-38
0.00147314053946 -0.151733475564 0.796 1.36526393418e-38
0.00294628107892 -0.151733475564 0.796 1.59564174575e-38
0.00441942161837 -0.151733475564 0.796 1.55879992756e-38
0.00589256215783 -0.151733475564 0.796 1.47589686833e-38
0.00736570269729 -0.151733475564 0.796 1.58642484523e-38
0.00883884323675 -0.151733475564 0.796 1.46653395251e-38
0.0102860742692 -0.151352235676 0.794 1.44823859976e-38
0.0117555134506 -0.151352235676 0.794 1.44823859976e-38
0.0132249526319 -0.151352235676 0.794 1.47571750213e-38
0.0146943918132 -0.151352235676 0.794 1.56780789448e-38
0.0161638309945 -0.151352235676 0.794 1.4480951068e-38
0.0175888538782 -0.150970995787 0.792 1.45738627614e-38
0.0190545917013 -0.150970995787 0.792 1.41143265482e-38
0.0205203295245 -0.150970995787 0.792 1.54028933537e-38
0.0219860673477 -0.150970995787 0.792 1.60482529536e-38
0.0234518051709 -0.150970995787 0.792 1.73407672168e-38
0.0249804660824 -0.151352235676 0.794 1.57731051975e-38
0.0264499052637 -0.151352235676 0.794 1.37484194932e-38
0.0279896702497 -0.151733475564 0.796 1.36576601942e-38
0.0294628107892 -0.151733475564 0.796 1.42065207768e-38
-0.00742122306938 -0.151392950615 0.802 2.01582627508e-38
-0.00592217302295 -0.151015412085 0.8 1.15985361788e-38
-0.00444162976721 -0.151015412085 0.8 6.09199373342e-39
-0.00296108651147 -0.151015412085 0.8 6.64874642888e-39
-0.0014768418976 -0.150637873555 0.798 8.49155480295e-39
0.0 -0.150260335025 0.796 7.93838943156e-39
0.00147314053946 -0.150260335025 0.796 9.13873048572e-39
0.00293887836264 -0.149882796495 0.794 1.18094708341e-38
0.00440831754396 -0.149882796495 0.794 1.24544717016e-38
0.00587775672528 -0.149882796495 0.794 1.42979975405e-38
0.00734719590659 -0.149882796495 0.794 1.53106991251e-38
0.00881663508791 -0.149882796495 0.794 1.49440746053e-38
0.0102860742692 -0.149882796495 0.794 1.45760151558e-38
0.0117555134506 -0.149882796495 0.794 1.51295392596e-38
0.0131916404086 -0.149505257964 0.792 1.48518803767e-38
0.0146573782318 -0.149505257964 0.792 1.53106991251e-38
0.016123116055 -0.149505257964 0.792 1.56805522366e-38
0.0175888538782 -0.149505257964 0.792 1.54054044805e-38
0.0190545917013 -0.149505257964 0.792 1.60500466156e-38
0.0205203295245 -0.149505257964 0.792 1.61408059146e-38
0.0219860673477 -0.149505257964 0.792 1.5035551369e-38
0.0234518051709 -0.149505257964 0.792 1.47600448805e-38
0.0249804660824 -0.149882796495 0.794 1.31030598932e-38
0.0264499052637 -0.149882796495 0.794 1.36576601942e-38
0.0279896702497 -0.150260335025 0.796 1.33807187761e-38
0.0294628107892 -0.150260335025 0.796 1.44834621949e-38
0.0309359513286 -0.150260335025 0.796 1.4939411084e-38
-0.00592217302295 -0.149534868829 0.8 1.05843996646e-38
-0.00444162976721 -0.149534868829 0.8 1.01471048606e-38
-0.00296108651147 -0.149534868829 0.8 7.01393601907e-39
-0.0014768418976 -0.149161031657 0.798 7.4752658943e-39
0.0 -0.148787194485 0.796 8.03130112494e-39
0.00146943918132 -0.148413357313 0.794 1.07064121232e-38
0.00293887836264 -0.148413357313 0.794 1.06105871303e-38
0.00440831754396 -0.148413357313 0.794 1.11644699665e-38
0.00587775672528 -0.148413357313 0.794 1.00574217589e-38
0.0073286891159 -0.148039520141 0.792 1.18098295665e-38
0.00879442693908 -0.148039520141 0.792 1.16265173066e-38
0.0102860742692 -0.148413357313 0.794 1.1721222662e-38
0.0117555134506 -0.148413357313 0.794 1.19074047811e-38
0.0131916404086 -0.148039520141 0.792 1.08925508021e-38
0.0146573782318 -0.148039520141 0.792 1.23666144918e-38
0.016123116055 -0.148039520141 0.792 1.24587764905e-38
0.0175888538782 -0.148039520141 0.792 1.32867308855e-38
0.0190545917013 -0.148039520141 0.792 1.41139678158e-38
0.0205203295245 -0.148039520141 0.792 1.3652996673e-38
0.0219860673477 -0.148039520141 0.792 1.44834621949e-38
0.0234518051709 -0.148039520141 0.792 1.36555077998e-38
0.0249804660824 -0.148413357313 0.794 1.39306555559e-38
0.0264499052637 -0.148413357313 0.794 1.42090319036e-38
0.0279896702497 -0.148787194485 0.796 1.41172146243e-38
0.0294628107892 -0.148787194485 0.796 1.35633135712e-38
0.0309359513286 -0.148787194485 0.796 1.4941204746e-38
-0.0059369784555 -0.148424461388 0.802 1.14130715245e-38
-0.00444162976721 -0.148054325574 0.8 9.22229271574e-39
-0.00295368379519 -0.14768418976 0.798 1.00563455617e-38
-0.0014768418976 -0.14768418976 0.798 6.09235246582e-39
0.0 -0.147314053946 0.796 5.07929214883e-39
0.00146943918132 -0.146943918132 0.794 1.03369485727e-38
0.00293887836264 -0.146943918132 0.794 1.01492572551e-38
0.00440831754396 -0.146943918132 0.794 1.13485024938e-38
0.00586295129272 -0.146573782318 0.792 1.17162004083e-38
0.0073286891159 -0.146573782318 0.792 1.17162004083e-38
0.00879442693908 -0.146573782318 0.792 1.07974867143e-38
0.0102601647623 -0.146573782318 0.792 1.07067274154e-38
0.0117259025854 -0.146573782318 0.792 1.01560731708e-38
0.0131916404086 -0.146573782318 0.792 1.11705684174e-38
0.0146573782318 -0.146573782318 0.792 1.1445361645e-38
0.016123116055 -0.146573782318 0.792 1.15379104021e-38
0.0175888538782 -0.146573782318 0.792 1.29186714361e-38
0.0190545917013 -0.146573782318 0.792 1.28239660807e-38
0.0205203295245 -0.146573782318 0.792 1.42075983753e-38
0.0219860673477 -0.146573782318 0.792 1.28239660807e-38
0.0234518051709 -0.146573782318 0.792 1.37477118375e-38
0.0249804660824 -0.146943918132 0.794 1.38406137217e-38
0.0264499052637 -0.146943918132 0.794 1.35647485009e-38
0.0279896702497 -0.147314053946 0.796 1.30115831295e-38
0.0294628107892 -0.147314053946 0.796 1.42086731712e-38
0.0308582228077 -0.146943918132 0.794 1.52185105017e-38
0.032327661989 -0.146943918132 0.794 1.47378469116e-38
-0.00443052569279 -0.146207347862 0.798 9.22229271574e-39
-0.00295368379519 -0.146207347862 0.798 9.77868667879e-39
-0.0014768418976 -0.146207347862 0.798 9.96379260074e-39
0.0 -0.145840913406 0.796 8.11954929703e-39
0.00146943918132 -0.145474478951 0.794 1.0146754536e-38
0.00293887836264 -0.145474478951 0.794 1.11619588397e-38
0.00440831754396 -0.145474478951 0.794 1.16229299825e-38
0.00586295129272 -0.145108044495 0.792 1.20842598577e-38
0.0073286891159 -0.145108044495 0.792 1.16254411093e-38
0.00879442693908 -0.145108044495 0.792 1.16254411093e-38
0.0102601647623 -0.145108044495 0.792 1.15357580076e-38
0.0117259025854 -0.145108044495 0.792 1.0523056423e-38
0.0131916404086 -0.145108044495 0.792 1.12620451812e-38
0.0146573782318 -0.145108044495 0.792 1.12613431307e-38
0.016123116055 -0.145108044495 0.792 1.20907170411e-38
0.0175888538782 -0.145108044495 0.792 1.32874483504e-38
0.0190545917013 -0.145108044495 0.792 1.42990737377e-38
0.0205203295245 -0.145108044495 0.792 1.39310142883e-38
0.0219860673477 -0.145108044495 0.792 1.45749683859e-38
0.0235110269011 -0.145474478951 0.794 1.42990737377e-38
0.0249804660824 -0.145474478951 0.794 1.32878070828e-38
0.0265165297102 -0.145840913406 0.796 1.31034186256e-38
0.0279896702497 -0.145840913406 0.796 1.50362688338e-38
0.0294628107892 -0.145840913406 0.796 1.45745802262e-38
0.0308582228077 -0.145474478951 0.794 1.51260163953e-38
0.032327661989 -0.145474478951 0.794 1.47374447389e-38
-0.00443052569279 -0.144730505965 0.798 9.86693485088e-39
-0.00295368379519 -0.144730505965 0.798 9.31771553597e-39
-0.0014768418976 -0.144730505965 0.798 9.41277962379e-39
0.0 -0.144367772867 0.796 1.04247637436e-38
0.00146943918132 -0.144005039769 0.794 9.96307513592e-39
0.00293887836264 -0.144005039769 0.794 9.13081595199e-39
0.00440831754396 -0.144005039769 0.794 1.07917483971e-38
0.00587775672528 -0.144005039769 0.794 1.03318520502e-38
0.0073286891159 -0.143642306672 0.792 1.16229299825e-38
0.00879442693908 -0.143642306672 0.792 1.17154829435e-38
0.0102601647623 -0.143642306672 0.792 1.22708007093e-38
0.0117259025854 -0.143642306672 0.792 1.14457343904e-38
0.0131583281854 -0.143279573574 0.79 1.08929095345e-38
0.0146203646504 -0.143279573574 0.79 1.13535219449e-38
0.016123116055 -0.143642306672 0.792 1.31041416956e-38
0.0175888538782 -0.143642306672 0.792 1.27346417114e-38
0.0190545917013 -0.143642306672 0.792 1.3654790335e-38
0.0205721485385 -0.144005039769 0.794 1.40228497844e-38
0.0220415877198 -0.144005039769 0.794 1.32849372235e-38
0.0235110269011 -0.144005039769 0.794 1.33774901845e-38
0.0250433891708 -0.144367772867 0.796 1.31023424284e-38
0.0265831541568 -0.144730505965 0.798 1.36555077998e-38
0.0280599960544 -0.144730505965 0.798 1.42990737377e-38
0.0295368379519 -0.144730505965 0.798 1.36537141378e-38
0.0310136798495 -0.144730505965 0.798 1.5218915477e-38
0.0324905217471 -0.144730505965 0.798 1.01270214511e-38
-0.00444162976721 -0.143612695806 0.8 9.49925235072e-39
-0.00295368379519 -0.143253664067 0.798 9.77976287601e-39
-0.0014768418976 -0.143253664067 0.798 9.04220904749e-39
0.0 -0.142894632327 0.796 9.87123963976e-39
0.00147314053946 -0.142894632327 0.796 1.01481810579e-38
0.00293887836264 -0.142535600588 0.794 1.10686884139e-38
0.00440831754396 -0.142535600588 0.794 1.09757767205e-38
0.00587775672528 -0.142535600588 0.794 1.16222125177e-38
0.00734719590659 -0.142535600588 0.794 1.06069998062e-38
0.00879442693908 -0.142176568848 0.792 1.06066410738e-38
0.0102601647623 -0.142176568848 0.792 9.22767370184e-39
0.0117259025854 -0.142176568848 0.792 9.78622005934e-39
0.0131583281854 -0.141817537109 0.79 1.00635202098e-38
0.0146203646504 -0.141817537109 0.79 1.16290284334e-38
0.016123116055 -0.142176568848 0.792 1.25509707191e-38
0.0176332701758 -0.142535600588 0.794 1.16279522362e-38
0.0191027093571 -0.142535600588 0.794 1.39306583585e-38
0.0205721485385 -0.142535600588 0.794 1.3009430735e-38
0.0220415877198 -0.142535600588 0.794 1.31012662312e-38
0.0235702486313 -0.142894632327 0.796 1.32867308855e-38
0.0250433891708 -0.142894632327 0.796 1.3194536657e-38
0.0265831541568 -0.143253664067 0.798 1.34711193427e-38
0.0280599960544 -0.143253664067 0.798 1.38381025949e-38
0.0295368379519 -0.143253664067 0.798 1.4115044013e-38
0.0310914083705 -0.143612695806 0.8 1.56798964289e-38
0.0325719516262 -0.143612695806 0.8 4.68719762813e-39
-0.00445273384163 -0.142487482932 0.802 9.40703990528e-39
-0.00296108651147 -0.142132152551 0.8 8.76706129143e-39
-0.00148054325574 -0.142132152551 0.8 9.50318019032e-39
0.0 -0.141421491788 0.796 9.7790454112e-39
0.00147314053946 -0.141421491788 0.796 1.04244050112e-38
0.00294628107892 -0.141421491788 0.796 1.07013464293e-38
0.00440831754396 -0.141066161407 0.794 1.17158416759e-38
0.00587775672528 -0.141066161407 0.794 1.10697646111e-38
0.00734719590659 -0.141066161407 0.794 1.17154829435e-38
0.00881663508791 -0.141066161407 0.794 1.17154829435e-38
0.0102860742692 -0.141066161407 0.794 1.1439976455e-38
0.0117259025854 -0.140710831025 0.792 1.12598927867e-38
0.0131916404086 -0.140710831025 0.792 1.10755043296e-38
0.0146573782318 -0.140710831025 0.792 1.16290284334e-38
0.016123116055 -0.140710831025 0.792 1.19038174571e-38
0.0176332701758 -0.141066161407 0.794 1.28264772075e-38
0.0191027093571 -0.141066161407 0.794 1.29168777741e-38
0.0205721485385 -0.141066161407 0.794 1.37469845636e-38
0.0220971080919 -0.141421491788 0.796 1.41154027454e-38
0.0235702486313 -0.141421491788 0.796 1.31959715866e-38
0.0251063122592 -0.141776822169 0.798 1.36558665322e-38
0.0265831541568 -0.141776822169 0.798 1.3287089618e-38
0.0280599960544 -0.141776822169 0.798 1.4115044013e-38
0.0295368379519 -0.141776822169 0.798 1.4115044013e-38
0.0311691368914 -0.142487482932 0.802 1.49419586446e-38
0.0326533815053 -0.142487482932 0.802 6.52534248091e-39
-0.00445828587884 -0.14117905283 0.803 9.40703990528e-39
-0.00296848922775 -0.141003238318 0.802 8.94965608652e-39
-0.00148054325574 -0.140651609295 0.8 9.41026849694e-39
0.0 -0.140299980272 0.798 1.00556280969e-38
0.00147314053946 -0.139948351249 0.796 1.07935406578e-38
0.00294628107892 -0.139948351249 0.796 1.04233288139e-38
0.00441942161837 -0.139948351249 0.796 1.05162405073e-38
0.00587775672528 -0.139596722225 0.794 1.1347423494e-38
0.00734719590659 -0.139596722225 0.794 1.13484996912e-38
0.00881663508791 -0.139596722225 0.794 1.11644699665e-38
0.0102860742692 -0.139596722225 0.794 1.11641112341e-38
0.0117259025854 -0.139245093202 0.792 1.14432050467e-38
0.0131916404086 -0.139245093202 0.792 1.08918333373e-38
0.0146943918132 -0.139596722225 0.794 1.19063285839e-38
0.0161638309945 -0.139596722225 0.794 1.14449987087e-38
0.0176776864735 -0.139948351249 0.796 1.28264772075e-38
0.019150827013 -0.139948351249 0.796 1.2734282979e-38
0.0206757865664 -0.140299980272 0.798 1.31023662505e-38
0.022152628464 -0.140299980272 0.798 1.24584177581e-38
0.0236294703616 -0.140299980272 0.798 1.27346417114e-38
0.0251063122592 -0.140299980272 0.798 1.43945077683e-38
0.0265831541568 -0.140299980272 0.798 1.2274029301e-38
0.028130321859 -0.140651609295 0.8 1.37473979466e-38
0.0296108651147 -0.140651609295 0.8 1.48511699184e-38
0.0311691368914 -0.141003238318 0.802 1.53104132602e-38
0.0327755263239 -0.141530681853 0.805 6.70937220564e-39
-0.00909423694836 -0.142476378858 0.819 1.00359832937e-38
-0.0075785307903 -0.142476378858 0.819 7.27265214934e-39
-0.00600360290201 -0.141084668197 0.811 8.83998486351e-39
-0.00446938995326 -0.140040885202 0.805 9.22121651852e-39
-0.00297959330217 -0.140040885202 0.805 8.94893862171e-39
-0.00148609529295 -0.139692957537 0.803 9.31807426837e-39
0.0 -0.139518993704 0.802 9.59501568648e-39
0.00148054325574 -0.139171066039 0.8 9.68900357707e-39
0.00295368379519 -0.138823138374 0.798 1.08864523512e-38
0.00441942161837 -0.138475210709 0.796 1.15307357539e-38
0.00589256215783 -0.138475210709 0.796 1.16229299825e-38
0.00736570269729 -0.138475210709 0.796 1.0979722777e-38
0.00883884323675 -0.138475210709 0.796 1.12555879979e-38
0.0103119837762 -0.138475210709 0.796 1.13481409588e-38
0.0117851243157 -0.138475210709 0.796 1.07982041791e-38
0.0132582648551 -0.138475210709 0.796 1.06145331868e-38
0.0147314053946 -0.138475210709 0.796 1.14446399763e-38
0.016204545934 -0.138475210709 0.796 1.22743880334e-38
0.0177221027712 -0.138823138374 0.798 1.24584177581e-38
0.0191989446688 -0.138823138374 0.798 1.24559066312e-38
0.0206757865664 -0.138823138374 0.798 1.31948953894e-38
0.022152628464 -0.138823138374 0.798 1.3287089618e-38
0.0236294703616 -0.138823138374 0.798 1.3469684413e-38
0.0251692353475 -0.139171066039 0.8 1.33771314521e-38
0.0266497786033 -0.139171066039 0.8 1.32867308855e-38
0.028130321859 -0.139171066039 0.8 1.37451909015e-38
0.0297219058589 -0.139692957537 0.803 1.44820272652e-38
0.0312080011519 -0.139692957537 0.803 1.58624702045e-38
0.0327755263239 -0.140040885202 0.805 6.43637684401e-39
-0.00909423694836 -0.1409606727 0.819 7.35586545605e-39
-0.0075785307903 -0.1409606727 0.819 5.78565447483e-39
-0.00600360290201 -0.139583767472 0.811 1.01235490335e-38
-0.00448049402767 -0.138895314858 0.807 9.12902228996e-39
-0.00298699601845 -0.138895314858 0.807 9.04113285027e-39
-0.00148979665109 -0.138551088551 0.805 8.94965608652e-39
0.0 -0.138206862244 0.803 9.7790454112e-39
0.00148424461388 -0.13803474909 0.802 9.41277962379e-39
0.00296108651147 -0.137690522784 0.8 1.01481810579e-38
0.00443052569279 -0.137346296477 0.798 1.06095109331e-38
0.00590736759039 -0.137346296477 0.798 1.06995527672e-38
0.00738420948799 -0.137346296477 0.798 1.09786465798e-38
0.00883884323675 -0.13700207017 0.796 1.16250823769e-38
0.0103119837762 -0.13700207017 0.796 1.15328881484e-38
0.0117851243157 -0.13700207017 0.796 1.07985629115e-38
0.0132582648551 -0.13700207017 0.796 1.12595340543e-38
0.0147314053946 -0.13700207017 0.796 1.12609703853e-38
0.0162452608736 -0.137346296477 0.798 1.20899995762e-38
0.0177221027712 -0.137346296477 0.798 1.32856546883e-38
0.0191989446688 -0.137346296477 0.798 1.32856546883e-38
0.0206757865664 -0.137346296477 0.798 1.36537141378e-38
0.0222081488361 -0.137690522784 0.8 1.37459083663e-38
0.023747913822 -0.13803474909 0.802 1.30079958054e-38
0.0252321584359 -0.13803474909 0.802 1.33771314521e-38
0.0267164030498 -0.13803474909 0.802 1.3469684413e-38
0.028235810566 -0.138206862244 0.803 1.37451909015e-38
0.0297959330217 -0.138551088551 0.805 1.39288618938e-38
0.0312857296728 -0.138551088551 0.805 1.51245674527e-38
0.0331012458401 -0.139927993779 0.813 7.08030151434e-39
0.0348612416354 -0.1409606727 0.819 1.34079824391e-38
-0.0106617621204 -0.140126016439 0.823 7.9068714265e-39
-0.0091164450972 -0.13978549149 0.821 6.97951732619e-39
-0.00756002399961 -0.139104441593 0.817 6.88766221185e-39
-0.00601840833457 -0.138423391695 0.813 9.19688577328e-39
-0.00450270217651 -0.138082866746 0.811 9.2201403213e-39
-0.00299439873473 -0.137742341797 0.809 8.11883183222e-39
-0.00149349800922 -0.137401816849 0.807 9.04220904749e-39
0.0 -0.1370612919 0.805 9.41206215897e-39
0.00148609529295 -0.136720766951 0.803 9.50425919014e-39
0.00296848922775 -0.136550504477 0.802 9.78119780564e-39
0.00444162976721 -0.136209979528 0.8 9.96558626277e-39
0.00590736759039 -0.135869454579 0.798 1.07935406578e-38
0.00738420948799 -0.135869454579 0.798 1.09793640446e-38
0.00886105138558 -0.135869454579 0.798 1.0887169816e-38
0.0103378932832 -0.135869454579 0.798 1.13481409588e-38
0.0118147351808 -0.135869454579 0.798 1.10755043296e-38
0.0132915770784 -0.135869454579 0.798 1.09851037631e-38
0.014768418976 -0.135869454579 0.798 1.1260968984e-38
0.0162859758131 -0.136209979528 0.8 1.13513695505e-38
0.0177665190688 -0.136209979528 0.8 1.37462713026e-38
0.0192470623246 -0.136209979528 0.8 1.26385014263e-38
0.0207794245943 -0.136550504477 0.802 1.32845784911e-38
0.0222636692081 -0.136550504477 0.802 1.35608024444e-38
0.0237775246871 -0.136720766951 0.803 1.29168777741e-38
0.0252636199801 -0.136720766951 0.803 1.32849372235e-38
0.026749715273 -0.136720766951 0.803 1.31927429949e-38
0.0283061363706 -0.1370612919 0.805 1.33774901845e-38
0.0298699601845 -0.137401816849 0.807 1.36533554054e-38
0.0315189152356 -0.138082866746 0.811 1.52135008597e-38
0.0331012458401 -0.138423391695 0.813 8.91342411343e-39
0.0347761103982 -0.139104441593 0.817 1.42345019045e-38
0.0366434455795 -0.140466541388 0.825 1.41426664083e-38
-0.0122144818598 -0.138939731156 0.825 7.99005110205e-39
-0.0106617621204 -0.138602907565 0.823 7.62236860189e-39
-0.0091164450972 -0.138266083974 0.821 7.62234618111e-39
-0.00756002399961 -0.137592436793 0.817 7.16316870032e-39
-0.00601840833457 -0.136918789611 0.813 6.24481373874e-39
-0.00450270217651 -0.136581966021 0.811 9.67537174561e-39
-0.00300180145101 -0.136581966021 0.811 8.67056227398e-39
-0.00149349800922 -0.135908318839 0.807 9.13404454365e-39
0.0 -0.135571495249 0.805 8.85746185796e-39
0.00148609529295 -0.135234671658 0.803 9.31843300078e-39
0.00297219058589 -0.135234671658 0.803 1.00574217589e-38
0.00445273384163 -0.135066259863 0.802 1.08886047456e-38
0.00592217302295 -0.134729436272 0.8 1.02400263631e-38
0.00740271627868 -0.134729436272 0.8 1.11633937693e-38
0.00888325953442 -0.134729436272 0.8 1.11644699665e-38
0.0103638027902 -0.134729436272 0.8 9.87590316105e-39
0.0118443460459 -0.134729436272 0.8 9.87805555549e-39
0.0133248893016 -0.134729436272 0.8 1.09843862983e-38
0.0148054325574 -0.134729436272 0.8 1.17215827957e-38
0.0163266907526 -0.135066259863 0.802 1.18126994257e-38
0.0178109353665 -0.135066259863 0.802 1.23619187406e-38
0.0192951799804 -0.135066259863 0.802 1.34682761081e-38
0.0207794245943 -0.135066259863 0.802 1.34686082158e-38
0.0222636692081 -0.135066259863 0.802 1.37459083663e-38
0.0237775246871 -0.135234671658 0.803 1.31016249636e-38
0.0252636199801 -0.135234671658 0.803 1.31927429949e-38
0.0268163397195 -0.135571495249 0.805 1.26410531908e-38
0.0283764621753 -0.135908318839 0.807 1.3560443712e-38
0.0299439873473 -0.13624514243 0.809 1.45731452966e-38
0.0315189152356 -0.136581966021 0.811 9.95231316372e-39
0.0330198159611 -0.136581966021 0.811 1.29488049583e-38
0.0346058479238 -0.136918789611 0.813 1.45114433226e-38
0.0362881151981 -0.137592436793 0.817 1.43277723303e-38
-0.0137079798691 -0.137079798691 0.823 6.15297824259e-39
-0.0121848709947 -0.137079798691 0.823 7.80601717343e-39
-0.0106617621204 -0.137079798691 0.823 7.71418167727e-39
-0.0091164450972 -0.136746676458 0.821 7.4386751888e-39
-0.00756002399961 -0.136080431993 0.817 6.79582671569e-39
-0.00603321376713 -0.13574730976 0.815 6.24481373874e-39
-0.00451380625093 -0.135414187528 0.813 1.04043594366e-38
-0.00300180145101 -0.135081065295 0.811 8.57729184819e-39
-0.00149719936736 -0.134747943063 0.809 8.39577325032e-39
0.0 -0.13441482083 0.807 8.94929735411e-39
0.00148979665109 -0.134081698598 0.805 9.50318019032e-39
0.00297219058589 -0.133748576365 0.803 9.22803243425e-39
0.00445828587884 -0.133748576365 0.803 1.03336457122e-38
0.0059369784555 -0.133582015249 0.802 1.00567042941e-38
0.00742122306938 -0.133582015249 0.802 1.07038575561e-38
0.00890546768326 -0.133582015249 0.802 1.11630350369e-38
0.0103638027902 -0.133248893016 0.8 1.17176353379e-38
0.0118443460459 -0.133248893016 0.8 1.08921920697e-38
0.0133248893016 -0.133248893016 0.8 1.07067274154e-38
0.0148424461388 -0.133582015249 0.802 1.12602515192e-38
0.0163266907526 -0.133582015249 0.802 1.1996370418e-38
0.0178109353665 -0.133582015249 0.802 1.24555478988e-38
0.0193192388083 -0.133748576365 0.803 1.3100551569e-38
0.0208053341012 -0.133748576365 0.803 1.26395776236e-38
0.0222914293942 -0.133748576365 0.803 1.26385014263e-38
0.0237775246871 -0.133748576365 0.803 1.35600849796e-38
0.0253265430684 -0.134081698598 0.805 1.31920255301e-38
0.0268163397195 -0.134081698598 0.805 1.27317718521e-38
0.0284467879799 -0.134747943063 0.809 1.45727865642e-38
0.0299439873473 -0.134747943063 0.809 1.44752225599e-38
0.0315189152356 -0.135081065295 0.811 8.09228563411e-39
0.0330198159611 -0.135081065295 0.811 1.44185316292e-38
0.0346058479238 -0.135414187528 0.813 1.42355781017e-38
0.0362881151981 -0.136080431993 0.817 1.43274135979e-38
0.0378926539515 -0.136413554225 0.819 1.38678773847e-38
-0.015194075162 -0.135227268942 0.821 2.3497245903e-38
-0.0136746676458 -0.135227268942 0.821 6.61215572338e-39
-0.0121848709947 -0.135556689816 0.823 7.62234618111e-39
-0.0106358526134 -0.135227268942 0.821 7.89785266959e-39
-0.0091164450972 -0.135227268942 0.821 7.89785266959e-39
-0.0075785307903 -0.134897848067 0.819 7.25500419648e-39
-0.00604801919968 -0.134568427193 0.817 6.97949770801e-39
-0.00451380625093 -0.133909585444 0.813 4.5917748079e-39
-0.00300180145101 -0.13358016457 0.811 1.05930442748e-38
-0.0015009007255 -0.13358016457 0.811 1.00523995052e-38
0.0 -0.133250743695 0.809 8.76419143217e-39
0.00149349800922 -0.132921322821 0.807 9.0425677799e-39
0.00297959330217 -0.132591901947 0.805 9.77940414361e-39
0.00446938995326 -0.132591901947 0.805 9.77796921398e-39
0.00594438117178 -0.132262481072 0.803 1.05162405073e-38
0.00743047646473 -0.132262481072 0.803 1.07020638941e-38
0.00891657175768 -0.132262481072 0.803 1.09772116501e-38
0.0103897122971 -0.132097770635 0.802 1.13484996912e-38
0.011873956911 -0.132097770635 0.802 9.60183160221e-39
0.0133582015249 -0.132097770635 0.802 1.11673398258e-38
0.0148424461388 -0.132097770635 0.802 1.09822339038e-38
0.0163470482224 -0.132262481072 0.803 1.18098295665e-38
0.0178331435154 -0.132262481072 0.803 1.30072783406e-38
0.0193192388083 -0.132262481072 0.803 1.29147253796e-38
0.0208053341012 -0.132262481072 0.803 1.28236073483e-38
0.0222914293942 -0.132262481072 0.803 1.34671732862e-38
0.0238367464174 -0.132591901947 0.805 1.43887568394e-38
0.0253265430684 -0.132591901947 0.805 1.28218136862e-38
0.0268163397195 -0.132591901947 0.805 1.47582512185e-38
0.0284467879799 -0.133250743695 0.809 1.44781134386e-38
0.0299439873473 -0.133250743695 0.809 5.97791682803e-39
0.0315189152356 -0.13358016457 0.811 1.4516130666e-38
0.0331012458401 -0.133909585444 0.813 1.4147688662e-38
0.0347761103982 -0.134568427193 0.817 1.46025627552e-38
0.0362881151981 -0.134568427193 0.817 1.49699033386e-38
0.0378926539515 -0.134897848067 0.819 1.46018438891e-38
-0.0167134826782 -0.133707861426 0.821 2.31201662953e-38
-0.015194075162 -0.133707861426 0.821 2.34990423676e-38
-0.0136746676458 -0.133707861426 0.821 6.42848893495e-39
-0.0121552601296 -0.133707861426 0.821 6.88766221185e-39
-0.0106358526134 -0.133707861426 0.821 7.98968816575e-39
-0.00909423694836 -0.133382141909 0.819 7.71418167727e-39
-0.00756002399961 -0.133056422393 0.817 7.25500419648e-39
-0.00603321376713 -0.132730702877 0.815 7.4386751888e-39
-0.00451380625093 -0.132404983361 0.813 7.07133320417e-39
-0.00300920416729 -0.132404983361 0.813 4.40810381558e-39
-0.0015009007255 -0.132079263844 0.811 9.48346952612e-39
0.0 -0.132079263844 0.811 1.00502471108e-38
0.00149349800922 -0.131427824812 0.807 9.59286329203e-39
0.00298699601845 -0.131427824812 0.807 8.95001481893e-39
0.00446938995326 -0.131102105295 0.805 1.05158845775e-38
0.00595918660434 -0.131102105295 0.805 9.96307513592e-39
0.00744898325543 -0.131102105295 0.805 1.03336457122e-38
0.00891657175768 -0.130776385779 0.803 1.02418102161e-38
0.0104026670506 -0.130776385779 0.803 9.2305435611e-39
0.0118887623436 -0.130776385779 0.803 1.07989216439e-38
0.0133748576365 -0.130776385779 0.803 1.03390266983e-38
0.0148609529295 -0.130776385779 0.803 1.15350405428e-38
0.0163470482224 -0.130776385779 0.803 1.19009475978e-38
0.0178331435154 -0.130776385779 0.803 1.22686483149e-38
0.0193192388083 -0.130776385779 0.803 1.28221724187e-38
0.0208053341012 -0.130776385779 0.803 1.26374252291e-38
0.0223469497663 -0.131102105295 0.805 1.3560443712e-38
0.0238367464174 -0.131102105295 0.805 1.33746203252e-38
0.0253265430684 -0.131102105295 0.805 1.57666592246e-38
0.026882964166 -0.131427824812 0.807 1.15221261762e-38
0.0284467879799 -0.131753544328 0.809 6.89627178961e-39
0.0300180145101 -0.132079263844 0.811 1.51647244628e-38
0.0315966437565 -0.132404983361 0.813 1.45189767031e-38
0.0331012458401 -0.132404983361 0.813 1.48823768352e-38
0.034690979161 -0.132730702877 0.815 1.43270548655e-38
0.0362881151981 -0.133056422393 0.817 1.56145454737e-38
0.0378926539515 -0.133382141909 0.819 1.47869498111e-38
-0.0167134826782 -0.132188453909 0.821 2.34893131524e-38
-0.015194075162 -0.132188453909 0.821 2.34986794313e-38
-0.0136746676458 -0.132188453909 0.821 4.31626831943e-39
-0.0121552601296 -0.132188453909 0.821 6.61215572338e-39
-0.0106358526134 -0.132188453909 0.821 8.26519465422e-39
-0.00909423694836 -0.131866435751 0.819 7.98968816575e-39
-0.00756002399961 -0.131544417593 0.817 7.53051068496e-39
-0.00603321376713 -0.131222399435 0.815 7.71418167727e-39
-0.00451380625093 -0.130900381277 0.813 7.62234618111e-39
-0.00300920416729 -0.130900381277 0.813 7.16316870032e-39
-0.0015009007255 -0.130578363119 0.811 5.6938007618e-39
0.0 -0.130578363119 0.811 4.95912940422e-39
0.00149719936736 -0.130256344961 0.809 1.03200250911e-38
0.00299439873473 -0.130256344961 0.809 1.13395313811e-38
0.00448049402767 -0.129934326803 0.807 1.15260918508e-38
0.0059739920369 -0.129934326803 0.807 1.03300583881e-38
0.00744898325543 -0.129612308644 0.805 1.02403752864e-38
0.00893877990651 -0.129612308644 0.805 1.04258399408e-38
0.0104026670506 -0.129290290486 0.803 9.96594499518e-39
0.0118887623436 -0.129290290486 0.803 1.01524858467e-38
0.0133748576365 -0.129290290486 0.803 9.96989105165e-39
0.0148609529295 -0.129290290486 0.803 1.09819045987e-38
0.0163470482224 -0.129290290486 0.803 1.17154829435e-38
0.0178331435154 -0.129290290486 0.803 1.24516018424e-38
0.0193673564641 -0.129612308644 0.805 1.38341565384e-38
0.0208571531152 -0.129612308644 0.805 1.45713516345e-38
0.0223469497663 -0.129612308644 0.805 1.41075106325e-38
0.0238959681476 -0.129934326803 0.807 1.4378712332e-38
0.0254523892452 -0.130256344961 0.809 6.61968910392e-39
0.0269495886125 -0.130256344961 0.809 1.36964271163e-38
0.0284467879799 -0.130256344961 0.809 1.53516100338e-38
0.0300180145101 -0.130578363119 0.811 1.59944585069e-38
0.0315966437565 -0.130900381277 0.813 1.56213768037e-38
0.0331012458401 -0.130900381277 0.813 1.52493558835e-38
0.034690979161 -0.131222399435 0.815 1.48823768352e-38
0.0362881151981 -0.131544417593 0.817 1.49731319302e-38
0.0378926539515 -0.131866435751 0.819 1.4604355016e-38
0.0394083601096 -0.131866435751 0.819 1.34079824391e-38
-0.015194075162 -0.130669046393 0.821 2.34986836352e-38
-0.0136746676458 -0.130669046393 0.821 4.31626831943e-39
-0.0121552601296 -0.130669046393 0.821 6.42848473106e-39
-0.0106358526134 -0.130669046393 0.821 8.35703015038e-39
-0.0091164450972 -0.130669046393 0.821 8.17335915806e-39
-0.00756002399961 -0.130032412793 0.817 7.80601717343e-39
-0.00604801919968 -0.130032412793 0.817 8.0815236619e-39
-0.00451380625093 -0.129395779193 0.813 7.98968816575e-39
-0.00300920416729 -0.129395779193 0.813 7.89785266959e-39
-0.0015009007255 -0.129077462393 0.811 7.80601717343e-39
0.0 -0.129077462393 0.811 7.62234618111e-39
0.0015009007255 -0.129077462393 0.811 6.15297824259e-39
0.00299439873473 -0.128759145593 0.809 5.05095228869e-39
0.00449159810209 -0.128759145593 0.809 9.38481531163e-39
0.0059739920369 -0.128440828793 0.807 1.17022098444e-38
0.00746749004612 -0.128440828793 0.807 1.18916205552e-38
0.00893877990651 -0.128122511993 0.805 1.09750732687e-38
0.0104285765576 -0.128122511993 0.805 1.23587111685e-38
0.0118887623436 -0.127804195193 0.803 1.25431220464e-38
0.0133748576365 -0.127804195193 0.803 1.22679770929e-38
0.0148609529295 -0.127804195193 0.803 1.15318567927e-38
0.0163877631619 -0.128122511993 0.805 1.35579550059e-38
0.017877559813 -0.128122511993 0.805 1.35521928666e-38
0.0193673564641 -0.128122511993 0.805 1.29943639739e-38
0.0209089721291 -0.128440828793 0.807 1.03128392326e-38
0.0224024701384 -0.128440828793 0.807 7.89785266959e-39
0.0239551898778 -0.128759145593 0.809 1.20365484476e-38
0.0254523892452 -0.128759145593 0.809 1.63668353569e-38
0.0270162130591 -0.129077462393 0.811 1.53519603584e-38
0.0285171137846 -0.129077462393 0.811 1.56260361211e-38
0.0300180145101 -0.129077462393 0.811 1.57167996239e-38
0.0315966437565 -0.129395779193 0.813 1.54369729323e-38
0.0331012458401 -0.129395779193 0.813 1.58021625225e-38
0.0346058479238 -0.129395779193 0.813 1.52518670104e-38
0.0361992826028 -0.129714095993 0.815 1.58075463112e-38
0.037800119998 -0.130032412793 0.817 1.35008941324e-38
0.0394083601096 -0.130350729593 0.819 1.28569694621e-38
-0.0151570615806 -0.128835023435 0.819 2.34994179156e-38
-0.0136413554225 -0.128835023435 0.819 3.94892633479e-39
-0.0121256492645 -0.128835023435 0.819 5.96930725027e-39
-0.0106099431064 -0.128835023435 0.819 8.0815236619e-39
-0.00909423694836 -0.128835023435 0.819 8.35703015038e-39
-0.00756002399961 -0.128520407993 0.817 8.35703015038e-39
-0.00604801919968 -0.128520407993 0.817 8.26519465422e-39
-0.00452491032535 -0.128205792551 0.815 8.26519465422e-39
-0.00300920416729 -0.12789117711 0.813 8.35703015038e-39
-0.00150460208364 -0.12789117711 0.813 8.17335915806e-39
0.0 -0.127576561668 0.811 8.44886564654e-39
0.0015009007255 -0.127576561668 0.811 8.0815236619e-39
0.00300180145101 -0.127576561668 0.811 8.17335915806e-39
0.00449159810209 -0.127261946226 0.809 7.25500419648e-39
0.00598879746946 -0.127261946226 0.809 6.24481373874e-39
0.00748599683682 -0.127261946226 0.809 5.96930725027e-39
0.00896098805535 -0.126947330784 0.807 4.5917748079e-39
0.0104544860646 -0.126947330784 0.807 6.06114274643e-39
0.0119183732087 -0.126632715342 0.805 1.42754394378e-38
0.0134081698598 -0.126632715342 0.805 3.489748854e-39
0.0148979665109 -0.126632715342 0.805 5.51012976948e-39
0.0163877631619 -0.126632715342 0.805 6.97949770801e-39
0.017877559813 -0.126632715342 0.805 8.0815236619e-39
0.0193673564641 -0.126632715342 0.805 1.03774110659e-38
0.0209089721291 -0.126947330784 0.807 1.43342589409e-38
0.0224024701384 -0.126947330784 0.807 1.48909990246e-38
0.0239551898778 -0.127261946226 0.809 1.51697411113e-38
0.0254523892452 -0.127261946226 0.809 1.51675915194e-38
0.0270162130591 -0.127576561668 0.811 1.59040621442e-38
0.0285171137846 -0.127576561668 0.811 1.59030083678e-38
0.0300920416729 -0.12789117711 0.813 1.56246039941e-38
0.0315966437565 -0.12789117711 0.813 1.5716433885e-38
0.0331012458401 -0.12789117711 0.813 1.56238725163e-38
0.0346058479238 -0.12789117711 0.813 1.56242312487e-38
0.0361992826028 -0.128205792551 0.815 1.45161068439e-38
0.037800119998 -0.128520407993 0.817 1.30406404544e-38
0.0394083601096 -0.128835023435 0.819 1.25814629736e-38
0.0409240662676 -0.128835023435 0.819 1.54355632261e-38
-0.0151570615806 -0.127319317277 0.819 2.34994039026e-38
-0.0136413554225 -0.127319317277 0.819 4.13259732711e-39
-0.0121256492645 -0.127319317277 0.819 7.34791729116e-39
-0.0106099431064 -0.127319317277 0.819 7.62234618111e-39
-0.00907202879953 -0.127008403193 0.817 8.35703015038e-39
-0.00756002399961 -0.127008403193 0.817 8.35703015038e-39
-0.00603321376713 -0.12669748911 0.815 8.44886564654e-39
-0.00451380625093 -0.126386575026 0.813 8.72437213501e-39
-0.00300920416729 -0.126386575026 0.813 8.72437213501e-39
-0.00150460208364 -0.126386575026 0.813 8.81620763117e-39
0.0 -0.126075660942 0.811 8.54070114269e-39
0.0015009007255 -0.126075660942 0.811 8.63253663885e-39
0.00300180145101 -0.126075660942 0.811 8.99987862348e-39
0.00450270217651 -0.126075660942 0.811 8.81620763117e-39
0.00600360290201 -0.126075660942 0.811 9.09171411964e-39
0.00750450362752 -0.126075660942 0.811 9.45905610427e-39
0.00898319620418 -0.125764746859 0.809 9.64272709659e-39
0.0104544860646 -0.125453832775 0.807 9.55089160043e-39
0.0119479840738 -0.125453832775 0.807 9.27538511196e-39
0.013441482083 -0.125453832775 0.807 1.1020259539e-38
0.0149349800922 -0.125453832775 0.807 1.17549435082e-38
0.0164284781015 -0.125453832775 0.807 1.18471377368e-38
0.0179219761107 -0.125453832775 0.807 1.25846915653e-38
0.0194154741199 -0.125453832775 0.807 1.42406003554e-38
0.0209089721291 -0.125453832775 0.807 1.4981032451e-38
0.0224024701384 -0.125453832775 0.807 1.46133807794e-38
0.0240144116081 -0.126075660942 0.811 1.49839037115e-38
0.0255153123336 -0.126075660942 0.811 1.54430839949e-38
0.0270162130591 -0.126075660942 0.811 1.55356383572e-38
0.0285171137846 -0.126075660942 0.811 1.57182443627e-38
0.0300920416729 -0.126386575026 0.813 1.62699706005e-38
0.0315966437565 -0.126386575026 0.813 1.55334845614e-38
0.0331012458401 -0.126386575026 0.813 1.62696062629e-38
0.0346058479238 -0.126386575026 0.813 1.41505585213e-38
0.0361992826028 -0.12669748911 0.815 1.30406404544e-38
0.037800119998 -0.127008403193 0.817 1.51561022733e-38
0.0394083601096 -0.127319317277 0.819 1.17549435082e-38
0.0409240662676 -0.127319317277 0.819 1.77386617119e-38
0.0425434104536 -0.127630231361 0.821 1.95165633424e-38
-0.0183661390874 -0.127032462021 0.827 2.30283462135e-38
-0.0167134826782 -0.126110823845 0.821 2.34871355346e-38
-0.015194075162 -0.126110823845 0.821 2.34983206989e-38
-0.0136746676458 -0.126110823845 0.821 4.13259732711e-39
-0.0121256492645 -0.125803611119 0.819 6.15297824259e-39
-0.0106099431064 -0.125803611119 0.819 9.00274848274e-39
-0.00907202879953 -0.125496398393 0.817 7.80601717343e-39
-0.00754151720891 -0.125189185668 0.815 8.54070114269e-39
-0.00603321376713 -0.125189185668 0.815 8.72437213501e-39
-0.00451380625093 -0.124881972942 0.813 9.09171411964e-39
-0.00300920416729 -0.124881972942 0.813 9.64272709659e-39
-0.00150460208364 -0.124881972942 0.813 8.90804312733e-39
0.0 -0.124574760217 0.811 9.09171411964e-39
0.0015009007255 -0.124574760217 0.811 9.09171411964e-39
0.00300180145101 -0.124574760217 0.811 9.55089160043e-39
0.00450270217651 -0.124574760217 0.811 9.64272709659e-39
0.00600360290201 -0.124574760217 0.811 1.05610820582e-38
0.00750450362752 -0.124574760217 0.811 1.0469246562e-38
0.00898319620418 -0.124267547491 0.809 1.03774110659e-38
0.0104803955715 -0.124267547491 0.809 1.07447530505e-38
0.0119775949389 -0.124267547491 0.809 1.11120950351e-38
0.013441482083 -0.123960334766 0.807 1.15712725159e-38
0.0149349800922 -0.123960334766 0.807 1.18467790044e-38
0.0164284781015 -0.123960334766 0.807 1.20308087291e-38
0.0179219761107 -0.123960334766 0.807 1.33204517318e-38
0.0194154741199 -0.123960334766 0.807 1.35970344175e-38
0.0209607911431 -0.124267547491 0.809 1.45186221746e-38
0.0224579905105 -0.124267547491 0.809 1.46140449948e-38
0.0240144116081 -0.124574760217 0.811 1.51650537679e-38
0.0255153123336 -0.124574760217 0.811 1.50732280808e-38
0.0270162130591 -0.124574760217 0.811 1.57189478145e-38
0.0285171137846 -0.124574760217 0.811 1.60859380732e-38
0.0300920416729 -0.124881972942 0.813 1.54405700655e-38
0.0315966437565 -0.124881972942 0.813 1.63625193576e-38
0.0331012458401 -0.124881972942 0.813 1.40565706307e-38
0.0346058479238 -0.124881972942 0.813 1.26732984698e-38
0.0361992826028 -0.125189185668 0.815 1.38671599199e-38
0.037800119998 -0.125496398393 0.817 1.29488049583e-38
0.0394083601096 -0.125803611119 0.819 1.16631080121e-38
0.0409240662676 -0.125803611119 0.819 1.63567992573e-38
0.0425434104536 -0.126110823845 0.821 1.91456228233e-38
-0.0183661390874 -0.125501950431 0.827 2.27510306487e-38
-0.0168356274968 -0.125501950431 0.827 2.34889502161e-38
-0.0152310887434 -0.124894927696 0.823 2.34972445017e-38
-0.0136746676458 -0.124591416328 0.821 5.51371709355e-39
-0.0121552601296 -0.124591416328 0.821 6.42848473106e-39
-0.0106099431064 -0.124287904961 0.819 7.80601717343e-39
-0.00907202879953 -0.123984393594 0.817 9.92361457117e-39
-0.00754151720891 -0.123680882226 0.815 7.98968816575e-39
-0.00603321376713 -0.123680882226 0.815 8.54070114269e-39
-0.00451380625093 -0.123377370859 0.813 8.90804312733e-39
-0.00300920416729 -0.123377370859 0.813 9.64272709659e-39
-0.00150460208364 -0.123377370859 0.813 9.64272709659e-39
0.0 -0.123073859491 0.811 9.73456259275e-39
0.0015009007255 -0.123073859491 0.811 1.01019045774e-38
0.00300180145101 -0.123073859491 0.811 1.01019045774e-38
0.00450270217651 -0.123073859491 0.811 1.01937400735e-38
0.00600360290201 -0.123073859491 0.811 1.12039305313e-38
0.00750450362752 -0.123073859491 0.811 1.07447530505e-38
0.00898319620418 -0.122770348124 0.809 1.08365885466e-38
0.0104803955715 -0.122770348124 0.809 1.11120950351e-38
0.0119775949389 -0.122770348124 0.809 1.13876015236e-38
0.013441482083 -0.122466836756 0.807 1.18467790044e-38
0.0149349800922 -0.122466836756 0.807 1.25814629736e-38
0.0164284781015 -0.122466836756 0.807 1.29488049583e-38
0.0179219761107 -0.122466836756 0.807 1.31324759506e-38
0.0194154741199 -0.122466836756 0.807 1.4796288064e-38
0.0209607911431 -0.122770348124 0.809 1.43360231756e-38
0.0224579905105 -0.122770348124 0.809 1.47040826251e-38
0.0240144116081 -0.123073859491 0.811 1.47952132681e-38
0.0255153123336 -0.123073859491 0.811 1.57200436299e-38
0.0270162130591 -0.123073859491 0.811 1.58118525014e-38
0.0285171137846 -0.123073859491 0.811 1.53498009574e-38
0.0300920416729 -0.123377370859 0.813 1.34119284955e-38
0.0315966437565 -0.123377370859 0.813 1.38722256138e-38
0.0331012458401 -0.123377370859 0.813 1.35920485975e-38
0.0346058479238 -0.123377370859 0.813 1.35952687814e-38
0.0361992826028 -0.123680882226 0.815 1.20304499967e-38
0.037800119998 -0.123984393594 0.817 1.47966664146e-38
0.0394083601096 -0.124287904961 0.819 1.14801544846e-38
0.0409240662676 -0.124287904961 0.819 1.93985319728e-38
0.0425434104536 -0.124591416328 0.821 2.01604711972e-38
-0.0183661390874 -0.12397143884 0.827 2.34889656304e-38
-0.0168356274968 -0.12397143884 0.827 2.3027264411e-38
-0.0152681023248 -0.123671628831 0.825 2.34958249864e-38
-0.0136746676458 -0.123072008812 0.821 9.10894868945e-39
-0.0121552601296 -0.123072008812 0.821 6.3366492349e-39
-0.0106099431064 -0.122772198803 0.819 9.46480142798e-39
-0.00907202879953 -0.122472388794 0.817 7.34683969264e-39
-0.00754151720891 -0.122172578784 0.815 8.99987862348e-39
-0.00601840833457 -0.121872768775 0.813 8.72437213501e-39
-0.00451380625093 -0.121872768775 0.813 8.90804312733e-39
-0.00300920416729 -0.121872768775 0.813 9.45905610427e-39
-0.00150460208364 -0.121872768775 0.813 9.64272709659e-39
0.0 -0.121572958766 0.811 9.91823358506e-39
0.0015009007255 -0.121572958766 0.811 1.01019045774e-38
0.00300180145101 -0.121572958766 0.811 1.02855755697e-38
0.00450270217651 -0.121572958766 0.811 1.07447530505e-38
0.00600360290201 -0.121572958766 0.811 1.09284240428e-38
0.00750450362752 -0.121572958766 0.811 1.12039305313e-38
0.00898319620418 -0.121273148756 0.809 1.12957660274e-38
0.0104803955715 -0.121273148756 0.809 1.12957660274e-38
0.0119775949389 -0.121273148756 0.809 1.15712725159e-38
0.0134747943063 -0.121273148756 0.809 1.2214120989e-38
0.0149719936736 -0.121273148756 0.809 1.29488049583e-38
0.016469193041 -0.121273148756 0.809 1.29505986203e-38
0.0179663924084 -0.121273148756 0.809 1.33200929994e-38
0.0194635917757 -0.121273148756 0.809 1.43360231756e-38
0.0209607911431 -0.121273148756 0.809 1.36899461109e-38
0.0224579905105 -0.121273148756 0.809 1.50746532014e-38
0.0240144116081 -0.121572958766 0.811 1.52594003909e-38
0.0255153123336 -0.121572958766 0.811 1.26776032587e-38
0.0270162130591 -0.121572958766 0.811 1.39600716132e-38
0.0285171137846 -0.121572958766 0.811 1.31324759506e-38
