# .PCD v0.7 - Point Cloud Data file format
VERSION 0.7
FIELDS x y z rgb
SIZE 4 4 4 4
TYPE F F F F
COUNT 1 1 1 1
WIDTH 842
HEIGHT 1
VIEWPOINT 0 0 0 1 0 0 0
POINTS 842
DATA ascii
-0.00324979244634 -0.06662074515 0.878 1.32574367411e-38
-0.00162489622317 -0.06662074515 0.878 1.78668524954e-38
0.0 -0.0663931116244 0.875 1.11358484454e-38
0.00161934418596 -0.0663931116244 0.875 1.51862848409e-38
0.00323128565565 -0.0662413559407 0.873 1.9244686217e-38
0.00484692848347 -0.0662413559407 0.873 1.8145956117e-38
0.00646257131129 -0.0662413559407 0.873 1.01019045774e-39
0.00805970734842 -0.066089600257 0.871 1.65875748975e-38
0.0096716488181 -0.066089600257 0.871 1.67610542461e-38
0.0112835902878 -0.066089600257 0.871 1.85098747295e-38
0.0128955317575 -0.066089600257 0.871 1.81421740125e-38
0.0145074732272 -0.066089600257 0.871 1.77748320279e-38
0.0160824011154 -0.0659378445733 0.869 1.86067324794e-38
0.017690641227 -0.0659378445733 0.869 1.80524909108e-38
0.0193432976362 -0.066089600257 0.871 1.81454026042e-38
0.0209552391059 -0.066089600257 0.871 1.77777018871e-38
0.0225671805756 -0.066089600257 0.871 1.56622568838e-38
0.0242346424173 -0.0662413559407 0.873 1.32680768004e-38
0.0258502852452 -0.0662413559407 0.873 7.54952350252e-39
0.0275288511614 -0.0663931116244 0.875 1.45616896816e-38
0.0291481953473 -0.0663931116244 0.875 1.30772311599e-38
0.0308730282403 -0.06662074515 0.878 1.97977815234e-38
0.0325719516262 -0.0667725008337 0.88 1.57479939291e-38
0.0343948705098 -0.067151890043 0.885 1.32695285456e-38
0.0360327214865 -0.067151890043 0.885 1.58527437919e-38
0.0377557037004 -0.0673036457267 0.887 1.95301096947e-38
0.0394860886305 -0.0674554014104 0.889 2.12771365161e-38
0.0412238762769 -0.0676071570942 0.891 1.84202350681e-38
0.042872831328 -0.0676071570942 0.891 2.34975920237e-38
-0.0132952784365 -0.0664763921826 0.898 1.76827947447e-38
-0.011607459125 -0.066328337857 0.896 1.0751966935e-38
-0.00987152215763 -0.0658101477175 0.889 9.09171411964e-39
-0.00820776167399 -0.0656620933919 0.887 1.68530466876e-38
-0.00655140390664 -0.0655140390664 0.885 1.47358122262e-38
-0.00489689681835 -0.065291957578 0.882 1.60254636367e-38
-0.00325719516262 -0.0651439032524 0.88 1.46385621128e-38
-0.00162489622317 -0.0649958489268 0.878 1.68494187259e-38
0.0 -0.0649958489268 0.878 1.71296531954e-38
0.00162489622317 -0.0649958489268 0.878 1.15939581367e-38
0.00323868837192 -0.0647737674385 0.875 1.41725028552e-38
0.00485803255789 -0.0647737674385 0.875 1.82355327201e-38
0.00647737674385 -0.0647737674385 0.875 1.56120343469e-39
0.00807821413911 -0.0646257131129 0.873 1.61276883597e-38
0.00969385696694 -0.0646257131129 0.873 1.67617717109e-38
0.0113094997948 -0.0646257131129 0.873 1.74028265219e-38
0.0129251426226 -0.0646257131129 0.873 1.71280374983e-38
0.0145074732272 -0.0644776587873 0.871 1.49196808016e-38
0.0161194146968 -0.0644776587873 0.871 1.35403546972e-38
0.0177313561665 -0.0644776587873 0.871 1.14195287078e-38
0.0193432976362 -0.0644776587873 0.871 8.93315439581e-39
0.0209552391059 -0.0644776587873 0.871 1.52924626269e-38
0.0226189995895 -0.0646257131129 0.873 2.85550995866e-39
0.0242346424173 -0.0646257131129 0.873 9.86698529763e-39
0.0259095069754 -0.0647737674385 0.875 9.30551863413e-39
0.0276232357939 -0.0649958489268 0.878 1.49268652588e-38
0.0292481320171 -0.0649958489268 0.878 1.74078487756e-38
0.0309433540449 -0.0651439032524 0.88 1.67596193164e-38
0.032645978789 -0.065291957578 0.882 1.39955861215e-38
0.0343948705098 -0.0655140390664 0.885 1.83315917298e-38
0.0361141513656 -0.0656620933919 0.887 1.97159330814e-38
0.0377557037004 -0.0656620933919 0.887 1.74060551136e-38
0.0394860886305 -0.0658101477175 0.889 2.32107546359e-38
0.0412238762769 -0.0659582020431 0.891 1.60224676606e-38
0.042872831328 -0.0659582020431 0.891 2.34976060367e-38
-0.015007156576 -0.0650310118292 0.901 2.34915019806e-38
-0.0132952784365 -0.064814482378 0.898 1.85118267383e-38
-0.011607459125 -0.0646701294106 0.896 8.44886564654e-39
-0.00992704252972 -0.0645257764432 0.894 8.90804312733e-39
-0.00822626846469 -0.0641648940246 0.889 1.76803088412e-38
-0.00656620933919 -0.0640205410571 0.887 1.50134697078e-38
-0.00491355292998 -0.0638761880897 0.885 1.56577531106e-38
-0.0032645978789 -0.0636596586385 0.882 1.50109333576e-38
-0.00162859758131 -0.0635153056711 0.88 1.59303491021e-38
0.0 -0.0635153056711 0.88 1.60222000126e-38
0.00162489622317 -0.0633709527037 0.878 1.77746148266e-38
0.00324979244634 -0.0633709527037 0.878 1.00245010541e-38
0.00485803255789 -0.0631544232525 0.875 1.55557287733e-38
0.00647737674385 -0.0631544232525 0.875 2.29588740395e-39
0.00809672092981 -0.0631544232525 0.875 1.54844895619e-38
0.00971606511577 -0.0631544232525 0.875 1.64862652224e-38
0.0113354093017 -0.0631544232525 0.875 1.80492623191e-38
0.0129547534877 -0.0631544232525 0.875 1.64862652224e-38
0.0145407854504 -0.0630100702851 0.873 1.29897004527e-38
0.0161564282782 -0.0630100702851 0.873 1.06913019219e-38
0.0177720711061 -0.0630100702851 0.873 7.93264971305e-39
0.0193877139339 -0.0630100702851 0.873 1.13363027894e-38
0.0210514744175 -0.0631544232525 0.875 1.68594001749e-38
0.0226708186035 -0.0631544232525 0.875 9.03431693454e-39
0.0242901627894 -0.0631544232525 0.875 1.4011387163e-38
0.0259983395707 -0.0633709527037 0.878 1.05887044535e-38
0.0276861588823 -0.0635153056711 0.88 1.64913014891e-38
0.0293147564636 -0.0635153056711 0.88 1.30815359488e-38
0.0310136798495 -0.0636596586385 0.882 1.38137087912e-38
0.032831046696 -0.0640205410571 0.887 2.07247222407e-38
0.0344725990308 -0.0640205410571 0.887 2.01733211041e-38
0.0361141513656 -0.0640205410571 0.887 1.74049789164e-38
0.0378408349376 -0.0641648940246 0.889 2.15548136159e-38
0.0395749212258 -0.064309246992 0.891 2.17366909462e-38
0.0412238762769 -0.064309246992 0.891 1.45465990985e-38
0.042872831328 -0.064309246992 0.891 2.34986752274e-38
-0.015007156576 -0.0633635499874 0.901 2.34943354061e-38
-0.0132952784365 -0.0631525725735 0.898 1.97118146652e-38
-0.011607459125 -0.0630119209642 0.896 9.00382467996e-39
-0.00992704252972 -0.0628712693549 0.894 8.99987862348e-39
-0.00824477525538 -0.0626602919409 0.891 1.78654203684e-38
-0.00658101477175 -0.0625196403316 0.889 1.48308735114e-38
-0.00492465700439 -0.0623789887223 0.887 1.53826109597e-38
-0.0032645978789 -0.0620273596991 0.882 1.46425235835e-38
-0.00163229893945 -0.0620273596991 0.882 1.61136515529e-38
0.0 -0.0618867080898 0.88 1.6945582833e-38
0.00162859758131 -0.0618867080898 0.88 1.71303440356e-38
0.00324979244634 -0.0617460564805 0.878 1.88809455694e-38
0.00487468866951 -0.0617460564805 0.878 1.75916683056e-38
0.00649958489268 -0.0617460564805 0.878 6.42848473106e-40
0.00812448111586 -0.0617460564805 0.878 1.42891959848e-38
0.00974937733903 -0.0617460564805 0.878 1.64873414196e-38
0.0113742735622 -0.0617460564805 0.878 1.76794092076e-38
0.0129547534877 -0.0615350790666 0.875 1.62086063395e-38
0.0145740976737 -0.0615350790666 0.875 1.39109252735e-38
0.0161934418596 -0.0615350790666 0.875 1.07845723476e-38
0.0178127860456 -0.0615350790666 0.875 7.47167857023e-39
0.0194321302315 -0.0615350790666 0.875 1.73217950369e-38
0.0211236509012 -0.0617460564805 0.878 1.58394706928e-38
0.0227485471244 -0.0617460564805 0.878 9.58210131983e-39
0.0243734433476 -0.0617460564805 0.878 1.37412672658e-38
0.026057561301 -0.0618867080898 0.88 7.74001041057e-39
0.0276861588823 -0.0618867080898 0.88 1.44565572643e-38
0.0294813175799 -0.062238337113 0.885 1.81461284768e-38
0.0311894943612 -0.0623789887223 0.887 2.0175828027e-38
0.032831046696 -0.0623789887223 0.887 1.91573867239e-38
0.0345503275517 -0.0625196403316 0.889 1.82354444383e-38
0.0361955812446 -0.0625196403316 0.889 1.82372381003e-38
0.0378408349376 -0.0625196403316 0.889 2.09101574678e-38
0.0395749212258 -0.0626602919409 0.891 2.27504855436e-38
0.0412238762769 -0.0626602919409 0.891 1.38076411689e-38
0.042872831328 -0.0626602919409 0.891 2.34986626157e-38
-0.015007156576 -0.0616960881456 0.901 2.34914655468e-38
-0.0132952784365 -0.0614906627689 0.898 1.98954800524e-38
-0.011607459125 -0.0613537125177 0.896 8.26519465422e-39
-0.00992704252972 -0.0612167622666 0.894 8.54070114269e-39
-0.00824477525538 -0.0610113368898 0.891 1.74051666904e-38
-0.00658101477175 -0.0608743866387 0.889 1.52911341959e-38
-0.00492465700439 -0.0607374363875 0.887 1.52904153298e-38
-0.00327570195332 -0.0606004861364 0.885 1.60265454391e-38
-0.00163229893945 -0.0603950607596 0.882 1.28864485779e-38
0.0 -0.0603950607596 0.882 1.39902625886e-38
0.00162859758131 -0.0602581105085 0.88 1.53749122259e-38
0.00325719516262 -0.0602581105085 0.88 1.59270322287e-38
0.00487468866951 -0.0601211602573 0.878 1.97095936072e-38
0.00649958489268 -0.0601211602573 0.878 1.56120343469e-39
0.00812448111586 -0.0601211602573 0.878 1.22601466371e-38
0.00974937733903 -0.0601211602573 0.878 1.63958786688e-38
0.0113742735622 -0.0601211602573 0.878 1.81414565477e-38
0.0129991697854 -0.0601211602573 0.878 1.65777419861e-38
0.0146240660085 -0.0601211602573 0.878 1.26202060736e-38
0.0162489622317 -0.0601211602573 0.878 1.10593613713e-38
0.0178738584549 -0.0601211602573 0.878 7.65032730885e-39
0.0195431709757 -0.0602581105085 0.88 1.16064282918e-38
0.021171768557 -0.0602581105085 0.88 1.37136224497e-38
0.0228003661383 -0.0602581105085 0.88 1.15974599816e-38
0.0244289637197 -0.0602581105085 0.88 1.47389413257e-38
0.026057561301 -0.0602581105085 0.88 1.75072176523e-38
0.0277490819706 -0.0603950607596 0.882 2.01743930974e-38
0.0295479420264 -0.0607374363875 0.887 1.93417751811e-38
0.0311894943612 -0.0607374363875 0.887 1.80521321784e-38
0.032831046696 -0.0607374363875 0.887 1.74060551136e-38
0.0345503275517 -0.0608743866387 0.889 1.91598978508e-38
0.0361955812446 -0.0608743866387 0.889 1.67621304433e-38
0.0379259661748 -0.0610113368898 0.891 2.19210723968e-38
0.0395749212258 -0.0610113368898 0.891 2.23806240243e-38
-0.015007156576 -0.0600286263038 0.901 2.34907438781e-38
-0.0132952784365 -0.0598287529643 0.898 2.09099921146e-38
-0.011607459125 -0.0596955040713 0.896 8.3581077489e-39
-0.00994925067855 -0.0596955040713 0.896 8.54070114269e-39
-0.00827253544143 -0.0595622551783 0.894 1.77710429168e-38
-0.00659582020431 -0.0593623818388 0.891 1.48301546453e-38
-0.00493576107881 -0.0592291329458 0.889 1.60268957637e-38
-0.0032831046696 -0.0590958840527 0.887 1.61187466742e-38
-0.0016415523348 -0.0590958840527 0.887 1.32592402123e-38
0.0 -0.0589626351597 0.885 1.16807251364e-38
0.00163229893945 -0.0587627618202 0.882 9.74785250738e-39
0.0032645978789 -0.0587627618202 0.882 1.15849099526e-38
0.00488579274393 -0.0586295129272 0.88 1.61985744438e-38
0.00651439032524 -0.0586295129272 0.88 6.9005765785e-39
0.00814298790655 -0.0586295129272 0.88 6.63838102414e-39
0.00977158548786 -0.0586295129272 0.88 1.69534160914e-38
0.0114001830692 -0.0586295129272 0.88 1.72202317268e-38
0.0130287806505 -0.0586295129272 0.88 1.70379956642e-38
0.0146573782318 -0.0586295129272 0.88 1.62111174663e-38
0.0162859758131 -0.0586295129272 0.88 1.67675114294e-38
0.0179145733944 -0.0586295129272 0.88 1.74121535645e-38
0.0195431709757 -0.0586295129272 0.88 1.71359296112e-38
0.021171768557 -0.0586295129272 0.88 1.79631665415e-38
0.0228003661383 -0.0586295129272 0.88 1.98034637887e-38
0.0244289637197 -0.0586295129272 0.88 1.92492222201e-38
0.026057561301 -0.0586295129272 0.88 1.98023875915e-38
0.0278434666032 -0.0589626351597 0.885 1.69432903087e-38
0.0295479420264 -0.0590958840527 0.887 1.63922773318e-38
0.0311894943612 -0.0590958840527 0.887 1.86074499442e-38
0.0329050738588 -0.0592291329458 0.889 1.80524909108e-38
0.0345503275517 -0.0592291329458 0.889 1.90655512278e-38
0.0362770111237 -0.0593623818388 0.891 1.99867760486e-38
0.0379259661748 -0.0593623818388 0.891 1.96172816695e-38
-0.0150404687992 -0.058490711997 0.903 2.33042072304e-38
-0.0132952784365 -0.0581668431598 0.898 2.25688043951e-38
-0.011633368632 -0.0581668431598 0.898 7.4386751888e-39
-0.00997145882739 -0.0581668431598 0.898 8.0815236619e-39
-0.00829104223213 -0.0580372956249 0.896 1.83195840033e-38
-0.00661802835314 -0.05790774809 0.894 1.50134556948e-38
-0.00494686515323 -0.0577134267877 0.891 1.54740779143e-38
-0.00329050738588 -0.0575838792528 0.889 1.63027693924e-38
-0.0016415523348 -0.0574543317179 0.887 1.72247060728e-38
0.0 -0.0574543317179 0.887 1.65793506768e-38
0.00163785097666 -0.0573247841831 0.885 1.5475512844e-38
0.00327570195332 -0.0573247841831 0.885 1.67633523755e-38
0.00489689681835 -0.0571304628807 0.882 1.83270823514e-38
0.0065291957578 -0.0571304628807 0.882 1.26134321968e-38
0.00814298790655 -0.0570009153459 0.88 1.46936793853e-39
0.00977158548786 -0.0570009153459 0.88 1.64960981337e-38
0.0114001830692 -0.0570009153459 0.88 1.73145783499e-38
0.0130287806505 -0.0570009153459 0.88 1.84201916278e-38
0.0146573782318 -0.0570009153459 0.88 1.81428914773e-38
0.0162859758131 -0.0570009153459 0.88 1.78663087916e-38
0.0179145733944 -0.0570009153459 0.88 1.78670262564e-38
0.0195431709757 -0.0570009153459 0.88 1.72241777833e-38
0.0212198862128 -0.0571304628807 0.882 1.75021953986e-38
0.0228521851523 -0.0571304628807 0.882 1.67639241053e-38
0.0244844840917 -0.0571304628807 0.882 1.62075301423e-38
0.0261167830312 -0.0571304628807 0.882 1.98005953307e-38
0.0279063896916 -0.0574543317179 0.887 1.63944297262e-38
0.0296145664729 -0.0575838792528 0.889 1.72259714454e-38
0.0312598201658 -0.0575838792528 0.889 1.69468776328e-38
0.0329791010215 -0.0577134267877 0.891 1.86967743135e-38
0.034744648854 -0.05790774809 0.894 2.13686399045e-38
0.0363991559423 -0.05790774809 0.894 1.82329333114e-38
0.0381387942678 -0.0580372956249 0.896 1.74089249729e-38
-0.0150904371341 -0.0570083180621 0.906 2.3027264411e-38
-0.0133396947342 -0.0566937026203 0.901 2.31219795756e-38
-0.0116722328924 -0.0566937026203 0.901 6.79582671569e-39
-0.0100047710506 -0.0566937026203 0.901 8.35703015038e-39
-0.00830954902282 -0.0565049333552 0.898 1.85025193139e-38
-0.0066328337857 -0.0563790871785 0.896 1.52911313933e-38
-0.00496352126486 -0.0562532410017 0.894 1.53829584817e-38
-0.00329050738588 -0.0559386255599 0.889 1.56577531106e-38
-0.00164525369294 -0.0559386255599 0.889 1.75002335808e-38
0.0 -0.0559386255599 0.889 1.52900776169e-38
0.0016415523348 -0.0558127793831 0.887 1.65815016699e-38
0.0032831046696 -0.0558127793831 0.887 1.68541004641e-38
0.00491355292998 -0.0556869332064 0.885 1.65764247656e-38
0.00655140390664 -0.0556869332064 0.885 1.63916649644e-38
0.00816149469725 -0.0554981639413 0.882 1.92854541932e-39
0.0097937936367 -0.0554981639413 0.882 1.64943409054e-38
0.0114260925761 -0.0554981639413 0.882 1.69458014356e-38
0.0130583915156 -0.0554981639413 0.882 1.74960969477e-38
0.014690690455 -0.0554981639413 0.882 1.65759483241e-38
0.0163229893945 -0.0554981639413 0.882 1.51908825012e-38
0.0179552883339 -0.0554981639413 0.882 1.60195543611e-38
0.0195875872734 -0.0554981639413 0.882 1.69454427032e-38
0.0212198862128 -0.0554981639413 0.882 1.59352522454e-38
0.0228521851523 -0.0554981639413 0.882 1.69490300273e-38
0.0244844840917 -0.0554981639413 0.882 1.7500760469e-38
0.0262056156265 -0.0556869332064 0.885 1.94336106772e-38
0.0279063896916 -0.0558127793831 0.887 1.60235004175e-38
0.0296145664729 -0.0559386255599 0.889 1.8051773446e-38
0.0313301459705 -0.0560644717366 0.891 2.02637174667e-38
0.0329791010215 -0.0560644717366 0.891 2.03544767656e-38
0.034744648854 -0.0562532410017 0.894 1.76790504752e-38
0.0364805858214 -0.0563790871785 0.896 1.74067725784e-38
0.0381387942678 -0.0563790871785 0.896 2.20193818919e-38
0.0398858353096 -0.0565049333552 0.898 1.22503529621e-38
0.0420104148815 -0.0571341642389 0.908 1.86954795137e-38
-0.0150904371341 -0.055331602825 0.906 2.33971189238e-38
-0.0133396947342 -0.0550262407785 0.901 2.34918354896e-38
-0.0116722328924 -0.0550262407785 0.901 7.71777040264e-39
-0.0100047710506 -0.0550262407785 0.901 8.26519465422e-39
-0.00830954902282 -0.0548430235506 0.898 1.82255736919e-38
-0.00664763921826 -0.0548430235506 0.898 1.54748079908e-38
-0.00497462533928 -0.054720878732 0.896 1.5198567222e-38
-0.00331641689285 -0.054720878732 0.896 1.55655574807e-38
-0.00164895505108 -0.0544155166855 0.891 1.75927823379e-38
0.0 -0.0542933718669 0.889 1.07731994093e-38
0.00164525369294 -0.0542933718669 0.889 1.06813218742e-38
0.00329050738588 -0.0542933718669 0.889 1.23404676638e-38
0.00492465700439 -0.0541712270483 0.887 9.84792203332e-39
0.00656620933919 -0.0541712270483 0.887 1.38980375315e-38
0.00820776167399 -0.0541712270483 0.887 1.65303893084e-39
0.00984931400879 -0.0541712270483 0.887 1.42841709286e-38
0.0114908663436 -0.0541712270483 0.887 1.70415829882e-38
0.0131028078133 -0.0540490822297 0.885 1.80485448543e-38
0.0147406587899 -0.0540490822297 0.885 1.81418152801e-38
0.0163785097666 -0.0540490822297 0.885 1.87882510773e-38
0.0180163607432 -0.0540490822297 0.885 1.82350857059e-38
0.0196986280176 -0.0541712270483 0.887 1.51026343291e-38
0.0213401803524 -0.0541712270483 0.887 1.51037105263e-38
0.0229817326872 -0.0541712270483 0.887 1.61146184489e-38
0.024623285022 -0.0541712270483 0.887 1.62979307088e-38
0.026324059087 -0.0542933718669 0.889 1.97977394845e-38
0.0279693127799 -0.0542933718669 0.889 1.95258049058e-38
0.0296811909194 -0.0544155166855 0.891 2.02619238047e-38
0.0313301459705 -0.0544155166855 0.891 2.00753829531e-38
0.0330901417657 -0.0545987339134 0.894 2.02590539454e-38
0.0348223773749 -0.054720878732 0.896 1.88772167142e-38
0.0364805858214 -0.054720878732 0.896 1.46413044539e-38
0.038223925505 -0.0548430235506 0.898 2.19210976202e-38
0.0398858353096 -0.0548430235506 0.898 1.18769125266e-38
0.041917880928 -0.055331602825 0.906 2.08138462243e-38
0.0435945961652 -0.055331602825 0.906 2.34982954755e-38
0.0452713114023 -0.055331602825 0.906 2.34900502354e-38
-0.0151237493574 -0.0537733310484 0.908 2.2752102642e-38
-0.0133693055993 -0.0534772223972 0.903 2.34907634963e-38
-0.0116981423994 -0.0534772223972 0.903 8.27345110477e-39
-0.0100047710506 -0.0533587789368 0.901 7.98968816575e-39
-0.00833730920887 -0.0533587789368 0.901 1.90528176286e-38
-0.00664763921826 -0.0531811137461 0.898 1.51974980312e-38
-0.00498572941369 -0.0531811137461 0.898 1.55662763468e-38
-0.00331641689285 -0.0530626702856 0.896 1.56581230534e-38
-0.00164895505108 -0.0527665616345 0.891 1.63942419522e-38
0.0 -0.0527665616345 0.891 1.67648433571e-38
0.00164525369294 -0.052648118174 0.889 7.55131716455e-39
0.00329050738588 -0.052648118174 0.889 8.19886138881e-39
0.00493576107881 -0.052648118174 0.889 8.74880097114e-39
0.00658101477175 -0.052648118174 0.889 1.53861800669e-38
0.00822626846469 -0.052648118174 0.889 1.225437609e-38
0.00987152215763 -0.052648118174 0.889 5.98545020858e-39
0.0114908663436 -0.0525296747135 0.887 1.69548748431e-38
0.0131324186784 -0.0525296747135 0.887 1.74039027192e-38
0.0147739710132 -0.0525296747135 0.887 1.8232574579e-38
0.016415523348 -0.0525296747135 0.887 1.82322158466e-38
0.0180570756828 -0.0525296747135 0.887 1.86031451553e-38
0.0196986280176 -0.0525296747135 0.887 1.6393353529e-38
0.0213401803524 -0.0525296747135 0.887 1.81468375338e-38
0.0229817326872 -0.0525296747135 0.887 1.85148969832e-38
0.0246788053941 -0.052648118174 0.889 1.97091171657e-38
0.0263832808172 -0.0527665616345 0.891 1.97083997009e-38
0.0281266205009 -0.0529442268251 0.894 1.94346868744e-38
0.0297811275891 -0.0529442268251 0.894 1.73163720119e-38
0.0314356346774 -0.0529442268251 0.894 1.90637575657e-38
0.0330901417657 -0.0529442268251 0.894 2.15522898774e-38
0.0349001058959 -0.0531811137461 0.898 2.15519423553e-38
0.0365620157004 -0.0531811137461 0.898 9.19323539078e-39
0.0383516223608 -0.0533587789368 0.901 1.23235708069e-38
0.0401079167979 -0.0534772223972 0.903 1.49057154611e-38
0.041917880928 -0.0536548875879 0.906 2.07212652374e-38
0.0435945961652 -0.0536548875879 0.906 2.34964976096e-38
0.0452713114023 -0.0536548875879 0.906 2.34889586239e-38
-0.0151237493574 -0.0520929144531 0.908 2.30272447929e-38
-0.0133693055993 -0.0518060591973 0.903 2.32141569885e-38
-0.0116981423994 -0.0518060591973 0.903 8.36636700204e-39
-0.0100269791995 -0.0518060591973 0.903 8.26519465422e-39
-0.00833730920887 -0.051691317095 0.901 1.82212576926e-38
-0.00666984736709 -0.051691317095 0.901 1.51974980312e-38
-0.00498572941369 -0.0515192039415 0.898 1.5658473378e-38
-0.00332381960913 -0.0515192039415 0.898 1.55659260222e-38
-0.00165820844643 -0.0514044618392 0.896 1.66715519118e-38
0.0 -0.0514044618392 0.896 1.71346628374e-38
0.00164895505108 -0.0511176065834 0.891 1.16051110712e-38
0.00329791010215 -0.0511176065834 0.891 8.01085337775e-39
0.00493576107881 -0.0510028644811 0.889 8.56727676807e-39
0.00658101477175 -0.0510028644811 0.889 7.18756250399e-39
0.00822626846469 -0.0510028644811 0.889 1.12394828746e-38
0.00987152215763 -0.0510028644811 0.889 2.852281367e-39
0.0115167758506 -0.0510028644811 0.889 1.67723543169e-38
0.0131620295435 -0.0510028644811 0.889 1.74993255394e-38
0.0148072832364 -0.0510028644811 0.889 1.80489035867e-38
0.016415523348 -0.0508881223787 0.887 1.83247688076e-38
0.0180570756828 -0.0508881223787 0.887 1.8417680501e-38
0.0197430443153 -0.0510028644811 0.889 1.86024276905e-38
0.0213882980082 -0.0510028644811 0.889 1.99839061893e-38
0.0230335517011 -0.0510028644811 0.889 1.84180392334e-38
0.0246788053941 -0.0510028644811 0.889 1.66692187499e-38
0.0264721134126 -0.0512897197369 0.894 1.76819203345e-38
0.0281266205009 -0.0512897197369 0.894 1.57479939291e-38
0.0297811275891 -0.0512897197369 0.894 1.759331343e-38
0.0315059604821 -0.0514044618392 0.896 1.89729982668e-38
0.0331641689285 -0.0514044618392 0.896 1.75814752606e-38
0.0349001058959 -0.0515192039415 0.898 1.68467912913e-38
0.0365620157004 -0.0515192039415 0.898 1.32491004166e-38
0.0385644504538 -0.0519781723508 0.906 1.03049471197e-38
0.0402411656909 -0.0519781723508 0.906 1.49147734544e-38
0.0420104148815 -0.0520929144531 0.908 2.07205757985e-38
0.0436908314768 -0.0520929144531 0.908 2.34957815461e-38
0.0453712480721 -0.0520929144531 0.908 2.3490039025e-38
-0.013413721897 -0.0503014571137 0.906 2.34918396935e-38
-0.0117370066599 -0.0503014571137 0.906 8.09157237319e-39
-0.0100269791995 -0.0501348959974 0.903 8.54070114269e-39
-0.00835581599956 -0.0501348959974 0.903 1.86811442304e-38
-0.00666984736709 -0.0500238552532 0.901 1.51060212675e-38
-0.00500238552532 -0.0500238552532 0.901 1.56584691741e-38
-0.00332381960913 -0.0498572941369 0.898 1.55652071561e-38
-0.00165820844643 -0.0497462533928 0.896 1.68545082419e-38
0.0 -0.0497462533928 0.896 1.65793534794e-38
0.00165820844643 -0.0497462533928 0.896 1.84232590702e-38
0.00329791010215 -0.0494686515323 0.891 6.71656927455e-39
0.00494686515323 -0.0494686515323 0.891 7.91938362049e-39
0.00658101477175 -0.0493576107881 0.889 8.56975986895e-39
0.00822626846469 -0.0493576107881 0.889 8.56796480562e-39
0.00987152215763 -0.0493576107881 0.889 3.96291689866e-39
0.0115167758506 -0.0493576107881 0.889 1.05130707702e-38
0.0131620295435 -0.0493576107881 0.889 1.68601316527e-38
0.0148072832364 -0.0493576107881 0.889 1.84173217686e-38
0.0164525369294 -0.0493576107881 0.889 1.83244100752e-38
0.0180977906223 -0.0493576107881 0.889 1.64805255039e-38
0.0197430443153 -0.0493576107881 0.889 1.59305887242e-38
0.0213882980082 -0.0493576107881 0.889 1.78688199185e-38
0.0230335517011 -0.0493576107881 0.889 1.34445731446e-38
0.0247343257662 -0.0494686515323 0.891 1.53792170148e-38
0.0264721134126 -0.0496352126486 0.894 1.68525310098e-38
0.0281266205009 -0.0496352126486 0.894 1.87896860069e-38
0.0298477520357 -0.0497462533928 0.896 2.07246886095e-38
0.0315059604821 -0.0497462533928 0.896 2.10902369321e-38
0.0332381960913 -0.0498572941369 0.898 1.05650281146e-38
0.0350166986772 -0.0500238552532 0.901 1.55464283554e-38
0.036684160519 -0.0500238552532 0.901 1.3153680399e-38
0.0385644504538 -0.0503014571137 0.906 1.18647240325e-38
0.0402411656909 -0.0503014571137 0.906 1.66639540716e-38
0.0420104148815 -0.0504124978578 0.908 2.22882350152e-38
0.0436908314768 -0.0504124978578 0.908 2.3495438228e-38
-0.013413721897 -0.0486247418765 0.906 2.32141738041e-38
-0.0117370066599 -0.0486247418765 0.906 8.45998635115e-39
-0.0100602914227 -0.0486247418765 0.906 8.81620763117e-39
-0.00835581599956 -0.0484637327975 0.903 1.83134505199e-38
-0.00668465279965 -0.0484637327975 0.903 1.53826081571e-38
-0.00500238552532 -0.0483563934114 0.901 1.56584761806e-38
-0.00332381960913 -0.0481953843324 0.898 1.60265482417e-38
-0.00166190980456 -0.0481953843324 0.898 1.69470598016e-38
0.0 -0.0481953843324 0.898 1.64875067728e-38
0.00165820844643 -0.0480880449463 0.896 1.77771735976e-38
0.00330901417657 -0.0479807055603 0.894 1.79637354686e-38
0.00496352126486 -0.0479807055603 0.894 8.19060774086e-39
0.00659582020431 -0.0478196964812 0.891 1.19673285074e-38
0.00824477525538 -0.0478196964812 0.891 1.23314376964e-38
0.00989373030646 -0.0478196964812 0.891 7.53768533309e-39
0.0115426853575 -0.0478196964812 0.891 2.03437147934e-39
0.0131620295435 -0.0477123570952 0.889 1.64954002871e-38
0.0148072832364 -0.0477123570952 0.889 1.84198328954e-38
0.0164525369294 -0.0477123570952 0.889 1.86946219191e-38
0.0180977906223 -0.0477123570952 0.889 1.60206305583e-38
0.0197874606129 -0.0478196964812 0.891 1.75904435707e-38
0.021436415664 -0.0478196964812 0.891 1.76865838558e-38
0.0230853707151 -0.0478196964812 0.891 1.79624490767e-38
0.0248176063243 -0.0479807055603 0.894 1.84209090926e-38
0.0265313351428 -0.0480880449463 0.896 1.99856998514e-38
0.0281895435892 -0.0480880449463 0.896 1.99864173162e-38
0.0298477520357 -0.0480880449463 0.896 2.09054897426e-38
0.0315762862867 -0.0481953843324 0.898 2.06296245217e-38
0.0332381960913 -0.0481953843324 0.898 1.37107525905e-38
0.0350944271982 -0.0484637327975 0.903 1.46284167119e-38
0.0368877352167 -0.0486247418765 0.906 1.49064315246e-38
0.0385644504538 -0.0486247418765 0.906 1.49078804672e-38
0.0402411656909 -0.0486247418765 0.906 1.73075087991e-38
0.0420104148815 -0.0487320812626 0.908 2.34897195289e-38
0.0436908314768 -0.0487320812626 0.908 2.34914809611e-38
-0.013413721897 -0.0469480266394 0.906 2.28464534689e-38
-0.0117370066599 -0.0469480266394 0.906 8.55327639511e-39
-0.0100602914227 -0.0469480266394 0.906 9.09171411964e-39
-0.00838357618561 -0.0469480266394 0.906 1.76662664293e-38
-0.00668465279965 -0.0467925695976 0.903 1.54748079908e-38
-0.00501348959974 -0.0467925695976 0.903 1.5566629474e-38
-0.00333492368355 -0.0466889315697 0.901 1.58414353133e-38
-0.00166746184177 -0.0466889315697 0.901 1.63027693924e-38
0.0 -0.0465334745278 0.898 1.61201745973e-38
0.00166190980456 -0.0465334745278 0.898 1.63949818378e-38
0.00331641689285 -0.0464298364999 0.896 1.75013153832e-38
0.00497462533928 -0.0464298364999 0.896 1.06737394482e-38
0.00661802835314 -0.046326198472 0.894 1.45333904591e-38
0.00827253544143 -0.046326198472 0.894 1.18618723901e-38
0.00989373030646 -0.0461707414302 0.891 9.6592315899e-39
0.0115426853575 -0.0461707414302 0.891 9.57531483137e-39
0.0131916404086 -0.0461707414302 0.891 1.05858542124e-38
0.0148405954597 -0.0461707414302 0.891 1.83334666672e-38
0.0164895505108 -0.0461707414302 0.891 1.81421740125e-38
0.0181385055618 -0.0461707414302 0.891 1.85098747295e-38
0.0198540850594 -0.046326198472 0.894 1.86009927609e-38
0.0215085921477 -0.046326198472 0.894 1.90626813685e-38
0.023163099236 -0.046326198472 0.894 2.07221774827e-38
0.0248176063243 -0.046326198472 0.894 1.57469177318e-38
0.0265313351428 -0.0464298364999 0.896 1.69422141115e-38
0.0281895435892 -0.0464298364999 0.896 2.06314181837e-38
0.0298477520357 -0.0464298364999 0.896 1.26933874846e-38
0.0315762862867 -0.0465334745278 0.898 1.36063614601e-38
0.0334232639983 -0.0467925695976 0.903 1.55482080044e-38
0.0350944271982 -0.0467925695976 0.903 1.31586872384e-38
0.0368877352167 -0.0469480266394 0.906 1.41725028552e-38
0.0385644504538 -0.0469480266394 0.906 1.59245561343e-38
0.0402411656909 -0.0469480266394 0.906 1.76766934912e-38
0.0420104148815 -0.0470516646673 0.908 2.34907887197e-38
-0.0134433327621 -0.0453712480721 0.908 2.29372141691e-38
-0.0117629161668 -0.0453712480721 0.908 9.29154768844e-39
-0.0100824995716 -0.0453712480721 0.908 8.26519465422e-39
-0.00838357618561 -0.0452713114023 0.906 1.71116633257e-38
-0.00670686094849 -0.0452713114023 0.906 1.54748051882e-38
-0.00503014571137 -0.0452713114023 0.906 1.51978483559e-38
-0.00334232639983 -0.0451214063976 0.903 1.64871578495e-38
-0.00166746184177 -0.0450214697279 0.901 1.58428674403e-38
0.0 -0.0450214697279 0.901 1.58435863064e-38
0.00166190980456 -0.0448715647232 0.898 1.64868075249e-38
0.00332381960913 -0.0448715647232 0.898 1.74094672754e-38
0.00497462533928 -0.0447716280535 0.896 1.40865135763e-38
0.0066328337857 -0.0447716280535 0.896 1.52791615019e-38
0.00829104223213 -0.0447716280535 0.896 1.371189605e-38
0.00992704252972 -0.0446716913837 0.894 1.10428947131e-38
0.011581549618 -0.0446716913837 0.894 1.11311078527e-38
0.0132360567063 -0.0446716913837 0.894 8.27201056995e-39
0.0148905637946 -0.0446716913837 0.894 1.5572699899e-38
0.0165450708829 -0.0446716913837 0.894 1.75961832892e-38
0.0181995779711 -0.0446716913837 0.894 1.84183979658e-38
0.0198540850594 -0.0446716913837 0.894 1.86946219191e-38
0.0215085921477 -0.0446716913837 0.894 1.92481460229e-38
0.02321491825 -0.0447716280535 0.896 1.74053376488e-38
0.0248731266964 -0.0447716280535 0.896 1.25197609997e-38
0.0265313351428 -0.0447716280535 0.896 2.06300238918e-38
0.0282524666776 -0.0448715647232 0.898 2.10942012055e-38
0.0299143764822 -0.0448715647232 0.898 1.85999473922e-38
0.0315762862867 -0.0448715647232 0.898 1.4626980381e-38
0.0335343047424 -0.0452713114023 0.906 1.31572284867e-38
0.0352110199796 -0.0452713114023 0.906 1.25176338286e-38
0.0368877352167 -0.0452713114023 0.906 1.6292673037e-38
0.0385644504538 -0.0452713114023 0.906 1.63844202513e-38
0.0402411656909 -0.0452713114023 0.906 2.17343577842e-38
0.0420104148815 -0.0453712480721 0.908 2.20163550872e-38
-0.0152403421387 -0.0440276550675 0.915 2.02646199029e-38
-0.0134729436272 -0.0437870667884 0.91 2.14642350845e-38
-0.0117888256738 -0.0437870667884 0.91 9.10749974684e-39
-0.0101047077204 -0.0437870667884 0.91 1.00143738701e-38
-0.008420589767 -0.0437870667884 0.91 1.58230572839e-38
-0.00672166638105 -0.0436908314768 0.908 1.60272516935e-38
-0.00504124978578 -0.0436908314768 0.908 1.55659106079e-38
-0.00335343047424 -0.0435945961652 0.906 1.61180222028e-38
-0.00167116319991 -0.0434502431977 0.903 1.61183781327e-38
0.0 -0.0434502431977 0.903 1.60268957637e-38
0.00166746184177 -0.0433540078861 0.901 1.65790003522e-38
0.00332381960913 -0.0432096549187 0.898 1.63038455896e-38
0.00498572941369 -0.0432096549187 0.898 1.90682501286e-38
0.00664763921826 -0.0432096549187 0.898 1.15975454608e-38
0.00829104223213 -0.0431134196071 0.896 1.36957236644e-38
0.00994925067855 -0.0431134196071 0.896 1.28623504482e-38
0.011607459125 -0.0431134196071 0.896 7.25500419648e-39
0.0132656675714 -0.0431134196071 0.896 1.0111616977e-38
0.0149238760178 -0.0431134196071 0.896 6.80838234993e-39
0.0165820844643 -0.0431134196071 0.896 1.60355151506e-38
0.0182402929107 -0.0431134196071 0.896 1.67685876266e-38
0.0198985013571 -0.0431134196071 0.896 1.65824055074e-38
0.0215567098035 -0.0431134196071 0.896 1.56593870246e-38
0.02321491825 -0.0431134196071 0.896 8.09551422577e-39
0.0248731266964 -0.0431134196071 0.896 1.63001111292e-38
0.026590556873 -0.0432096549187 0.898 1.59270140118e-38
0.0282524666776 -0.0432096549187 0.898 1.30604099732e-38
0.0299143764822 -0.0432096549187 0.898 1.64676405645e-38
0.0316817749937 -0.0433540078861 0.901 1.19554749237e-38
0.0335343047424 -0.0435945961652 0.906 1.09470991474e-38
0.0352110199796 -0.0435945961652 0.906 1.62954546144e-38
0.0368877352167 -0.0435945961652 0.906 1.64744774997e-38
0.0385644504538 -0.0435945961652 0.906 1.62861457887e-38
0.0402411656909 -0.0435945961652 0.906 2.24701249572e-38
0.0420104148815 -0.0436908314768 0.908 1.89710504619e-38
-0.0152403421387 -0.0423342837187 0.915 1.9435215164e-38
-0.0135173599249 -0.0422417497652 0.913 2.03586133987e-38
-0.0118276899343 -0.0422417497652 0.913 9.56990722059e-39
-0.0101380199437 -0.0422417497652 0.913 9.1835496158e-39
-0.008420589767 -0.042102948835 0.91 1.51766144802e-38
-0.0067364718136 -0.042102948835 0.91 1.58432177649e-38
-0.00504124978578 -0.0420104148815 0.908 1.60261797002e-38
-0.00336083319052 -0.0420104148815 0.908 1.61183781327e-38
-0.00167671523712 -0.041917880928 0.906 1.66697526446e-38
0.0 -0.0417790799978 0.903 1.66708274405e-38
0.00167116319991 -0.0417790799978 0.903 1.66715491092e-38
0.00333492368355 -0.0416865460443 0.901 1.71325202521e-38
0.00500238552532 -0.0416865460443 0.901 1.73176219701e-38
0.00664763921826 -0.0415477451141 0.898 1.86076419221e-38
0.00830954902282 -0.0415477451141 0.898 1.40835750534e-38
0.00997145882739 -0.0415477451141 0.898 1.31543656339e-38
0.011607459125 -0.0414552111606 0.896 7.98968816575e-39
0.0132656675714 -0.0414552111606 0.896 1.13970042363e-38
0.0149238760178 -0.0414552111606 0.896 6.97949770801e-39
0.0165820844643 -0.0414552111606 0.896 1.28050163216e-38
0.0182402929107 -0.0414552111606 0.896 1.24429922646e-38
0.0198985013571 -0.0414552111606 0.896 9.95054612635e-39
0.0215567098035 -0.0414552111606 0.896 9.66496850581e-39
0.02321491825 -0.0414552111606 0.896 1.51916882478e-38
0.0249286470685 -0.0415477451141 0.898 1.47277855886e-38
0.026590556873 -0.0415477451141 0.898 1.44486749605e-38
0.0282524666776 -0.0415477451141 0.898 1.3803350393e-38
0.0300143131519 -0.0416865460443 0.901 1.02073901219e-38
0.0317521007983 -0.0417790799978 0.903 9.65781908105e-39
0.0335343047424 -0.041917880928 0.906 1.27035048595e-38
0.0352887485005 -0.0420104148815 0.908 1.17775478538e-38
0.0369691650957 -0.0420104148815 0.908 1.56454847425e-38
0.038649581691 -0.0420104148815 0.908 1.70258814389e-38
0.0403299982863 -0.0420104148815 0.908 2.34875068787e-38
-0.0152403421387 -0.04064091237 0.915 1.88813379329e-38
-0.0135173599249 -0.0405520797746 0.913 1.98050864923e-38
-0.0118276899343 -0.0405520797746 0.913 9.57027996598e-39
-0.0101380199437 -0.0405520797746 0.913 1.01991210596e-38
-0.00844834995305 -0.0405520797746 0.913 1.48985800493e-38
-0.0067364718136 -0.0404188308816 0.91 1.65811513453e-38
-0.00504124978578 -0.0403299982863 0.908 1.51978483559e-38
-0.00336083319052 -0.0403299982863 0.908 1.55648540289e-38
-0.00167671523712 -0.0402411656909 0.906 1.6671195982e-38
0.0 -0.0402411656909 0.906 1.59332680068e-38
0.00167116319991 -0.0401079167979 0.903 1.69466940627e-38
0.00334232639983 -0.0401079167979 0.903 1.6855217299e-38
0.00500238552532 -0.0400190842026 0.901 1.69481388014e-38
0.00666984736709 -0.0400190842026 0.901 1.6211289826e-38
0.00833730920887 -0.0400190842026 0.901 1.14087877551e-38
0.00997145882739 -0.0398858353096 0.898 1.84157060714e-38
0.011633368632 -0.0398858353096 0.898 1.00273274731e-38
0.0132952784365 -0.0398858353096 0.898 1.37089841518e-38
0.0149571882411 -0.0398858353096 0.898 1.63987933697e-38
0.0166190980456 -0.0398858353096 0.898 1.21625574094e-38
0.0182810078502 -0.0398858353096 0.898 9.30337464748e-39
0.0199429176548 -0.0398858353096 0.898 1.18794642911e-38
0.0216048274593 -0.0398858353096 0.898 1.67571628402e-38
0.0232667372639 -0.0398858353096 0.898 1.63869790223e-38
0.0249286470685 -0.0398858353096 0.898 1.47260059396e-38
0.026590556873 -0.0398858353096 0.898 1.22381728759e-38
0.0283468513102 -0.0400190842026 0.901 8.18413374195e-39
0.0300809375984 -0.0401079167979 0.903 8.28210272149e-39
0.0317521007983 -0.0401079167979 0.903 8.19167412899e-39
0.0335343047424 -0.0402411656909 0.906 9.66319165936e-39
0.0352887485005 -0.0403299982863 0.908 1.08577971989e-38
0.0369691650957 -0.0403299982863 0.908 1.20538348655e-38
0.038649581691 -0.0403299982863 0.908 1.98868718759e-38
0.0403299982863 -0.0403299982863 0.908 1.49104994941e-38
-0.0152903104736 -0.039075237877 0.918 1.78679090745e-38
-0.01354697079 -0.0389475410212 0.915 1.91593667587e-38
-0.0118535994412 -0.0389475410212 0.915 6.89734798683e-39
-0.0101602280925 -0.0389475410212 0.915 1.21319950899e-38
-0.00844834995305 -0.038862409784 0.913 1.25004202783e-38
-0.00675867996244 -0.038862409784 0.913 1.68566592351e-38
-0.0050523538602 -0.0387347129282 0.91 1.54751344934e-38
-0.00336083319052 -0.038649581691 0.908 1.56581230534e-38
-0.00168041659526 -0.038649581691 0.908 1.60265454391e-38
0.0 -0.0385644504538 0.906 1.60265454391e-38
0.00167671523712 -0.0385644504538 0.906 1.67637475417e-38
0.00334232639983 -0.038436753598 0.903 1.66715491092e-38
0.00501348959974 -0.038436753598 0.903 1.69470598016e-38
0.00668465279965 -0.038436753598 0.903 1.81470351169e-38
0.00835581599956 -0.038436753598 0.903 1.5564150577e-38
0.0100047710506 -0.0383516223608 0.901 1.79601229212e-38
0.0116722328924 -0.0383516223608 0.901 1.23407535286e-38
0.0132952784365 -0.038223925505 0.898 1.26188047751e-38
0.0149571882411 -0.038223925505 0.898 6.16913661518e-39
0.0166190980456 -0.038223925505 0.898 1.08671354519e-38
0.0182810078502 -0.038223925505 0.898 1.23414976181e-38
0.0199429176548 -0.038223925505 0.898 1.39967225746e-38
0.0216048274593 -0.038223925505 0.898 1.50036466056e-38
0.0233444657848 -0.0383516223608 0.901 1.34399628726e-38
0.0250119276266 -0.0383516223608 0.901 1.01191573641e-38
0.0266793894684 -0.0383516223608 0.901 8.64547763017e-39
0.0284097743985 -0.038436753598 0.903 4.41491973131e-39
0.0301808742682 -0.0385644504538 0.906 1.22464545498e-38
0.0318575895053 -0.0385644504538 0.906 4.32059973298e-39
0.0335343047424 -0.0385644504538 0.906 4.22515028808e-39
0.0352887485005 -0.038649581691 0.908 6.71116586767e-39
0.0369691650957 -0.038649581691 0.908 1.36121768487e-38
0.038649581691 -0.038649581691 0.908 1.97107622901e-38
0.0403299982863 -0.038649581691 0.908 1.02981312039e-38
0.042102948835 -0.0387347129282 0.91 2.09734120805e-38
-0.0135913870877 -0.0373763144911 0.918 1.87909373664e-38
-0.0118924637017 -0.0373763144911 0.918 7.17536560216e-39
-0.0101602280925 -0.0372541696725 0.915 1.20405155236e-38
-0.00846685674374 -0.0372541696725 0.915 1.16746042647e-38
-0.006773485395 -0.0372541696725 0.915 1.69481135781e-38
-0.00508011404625 -0.0372541696725 0.915 1.59325351277e-38
-0.0033682359068 -0.0370505949748 0.91 1.6119450126e-38
-0.00168041659526 -0.0369691650957 0.908 1.62105709599e-38
0.0 -0.0369691650957 0.908 1.61190969988e-38
0.00167671523712 -0.0368877352167 0.906 1.65789975496e-38
0.00335343047424 -0.0368877352167 0.906 1.68548641717e-38
0.00503014571137 -0.0368877352167 0.906 1.75013153832e-38
0.00668465279965 -0.0367655903981 0.903 1.69485059416e-38
0.00835581599956 -0.0367655903981 0.903 1.84225458092e-38
0.0100269791995 -0.0367655903981 0.903 8.28065377888e-39
0.0116722328924 -0.036684160519 0.901 7.3654937778e-39
0.0133396947342 -0.036684160519 0.901 9.76404451114e-39
0.015007156576 -0.036684160519 0.901 1.11462026397e-38
0.0166746184177 -0.036684160519 0.901 1.31673766901e-38
0.0183420802595 -0.036684160519 0.901 1.3446054317e-38
0.0200095421013 -0.036684160519 0.901 1.41842961831e-38
0.0217251215989 -0.0367655903981 0.903 1.45491326461e-38
0.0233962847988 -0.0367655903981 0.903 1.24311919302e-38
0.0250674479987 -0.0367655903981 0.903 5.97755809563e-39
0.0267386111986 -0.0367655903981 0.903 4.77688072984e-39
0.0284097743985 -0.0367655903981 0.903 4.59320973753e-39
0.0301808742682 -0.0368877352167 0.906 2.137168913e-38
0.0318575895053 -0.0368877352167 0.906 1.91644408604e-38
0.0336083319052 -0.0369691650957 0.908 1.1693691351e-38
0.0352887485005 -0.0369691650957 0.908 1.72189831699e-38
0.0369691650957 -0.0369691650957 0.908 2.09114690831e-38
0.0387347129282 -0.0370505949748 0.91 9.09961604168e-39
0.0404188308816 -0.0370505949748 0.91 1.61796302898e-38
0.042102948835 -0.0370505949748 0.91 2.07018726679e-38
-0.0118924637017 -0.0356773911051 0.918 9.11002068278e-39
-0.0101935403157 -0.0356773911051 0.918 9.643085829e-39
-0.00846685674374 -0.0355607983237 0.915 8.44886704783e-39
-0.006773485395 -0.0355607983237 0.915 1.56540354657e-38
-0.00508011404625 -0.0355607983237 0.915 1.71321741313e-38
-0.0033867426975 -0.0355607983237 0.915 1.5933235777e-38
-0.00168966999061 -0.0354830698028 0.913 1.62105765651e-38
0.0 -0.0353664770214 0.91 1.63038413857e-38
0.00168041659526 -0.0352887485005 0.908 1.62112926286e-38
0.00336083319052 -0.0352887485005 0.908 1.69488590688e-38
0.00504124978578 -0.0352887485005 0.908 1.70396113613e-38
0.00670686094849 -0.0352110199796 0.906 1.71325258573e-38
0.00838357618561 -0.0352110199796 0.906 1.7409470078e-38
0.0100269791995 -0.0350944271982 0.903 8.74167116455e-39
0.0116981423994 -0.0350944271982 0.903 1.02192100744e-38
0.0133693055993 -0.0350944271982 0.903 1.26055106566e-38
0.0150404687992 -0.0350944271982 0.903 7.4386751888e-39
0.0167116319991 -0.0350944271982 0.903 1.49951743551e-38
0.018382795199 -0.0350944271982 0.903 1.38134229263e-38
0.020053958399 -0.0350944271982 0.903 1.40942725659e-38
0.0217251215989 -0.0350944271982 0.903 1.41835871261e-38
0.0233962847988 -0.0350944271982 0.903 1.60268411131e-38
0.0250674479987 -0.0350944271982 0.903 5.51838061484e-39
0.0267386111986 -0.0350944271982 0.903 2.20405190779e-39
0.0285041590311 -0.0352110199796 0.906 1.6478953247e-38
0.0301808742682 -0.0352110199796 0.906 2.17426618789e-38
0.0318575895053 -0.0352110199796 0.906 2.11866140366e-38
0.0336083319052 -0.0352887485005 0.908 2.34925949934e-38
0.0352887485005 -0.0352887485005 0.908 1.98022334486e-38
0.0369691650957 -0.0352887485005 0.908 8.26806451347e-39
0.0387347129282 -0.0353664770214 0.91 1.78319293351e-38
0.0404188308816 -0.0353664770214 0.91 1.56303815477e-38
0.0423342837187 -0.0355607983237 0.915 2.1435466427e-38
-0.0101935403157 -0.0339784677192 0.918 8.99987862348e-39
-0.00849461692979 -0.0339784677192 0.918 9.45905610427e-39
-0.00679569354383 -0.0339784677192 0.918 7.53052750054e-39
-0.00509677015787 -0.0339784677192 0.918 1.39805740111e-38
-0.0033867426975 -0.033867426975 0.915 1.77757540823e-38
-0.00169337134875 -0.033867426975 0.915 1.63960412195e-38
0.0 -0.0337933998122 0.913 1.66718868222e-38
0.00168041659526 -0.0336083319052 0.908 1.63967446713e-38
0.00336083319052 -0.0336083319052 0.908 1.74101889441e-38
0.00504124978578 -0.0336083319052 0.908 1.68562934962e-38
0.00672166638105 -0.0336083319052 0.908 1.74073120783e-38
0.00838357618561 -0.0335343047424 0.906 1.77768106613e-38
0.0100602914227 -0.0335343047424 0.906 1.79615718638e-38
0.0116981423994 -0.0334232639983 0.903 1.81437855057e-38
0.0133693055993 -0.0334232639983 0.903 1.28814319294e-38
0.0150904371341 -0.0335343047424 0.906 1.06604747569e-38
0.0167116319991 -0.0334232639983 0.903 1.66639961105e-38
0.018382795199 -0.0334232639983 0.903 1.50097646747e-38
0.020053958399 -0.0334232639983 0.903 1.36297547366e-38
0.0217972980826 -0.0335343047424 0.906 1.27116884425e-38
0.0234740133197 -0.0335343047424 0.906 1.3815177352e-38
0.0251507285568 -0.0335343047424 0.906 2.8469003809e-39
0.026827443794 -0.0335343047424 0.906 2.57139389242e-39
0.0285041590311 -0.0335343047424 0.906 1.9615387114e-38
0.0302474987147 -0.0336083319052 0.908 2.16493746376e-38
0.03192791531 -0.0336083319052 0.908 2.28450591769e-38
0.0336083319052 -0.0336083319052 0.908 1.4266899925e-38
0.0352887485005 -0.0336083319052 0.908 1.1020259539e-38
0.0370505949748 -0.033682359068 0.91 1.59001371072e-38
0.0389475410212 -0.033867426975 0.915 1.50754141064e-38
0.04064091237 -0.033867426975 0.915 1.57232862345e-38
0.0423342837187 -0.033867426975 0.915 2.29095231102e-38
-0.0102157484646 -0.0323498701378 0.92 9.64810808269e-39
-0.00851312372049 -0.0323498701378 0.92 9.28150598365e-39
-0.00679569354383 -0.0322795443332 0.918 9.18356082619e-39
-0.00509677015787 -0.0322795443332 0.918 7.80601717343e-39
-0.0033867426975 -0.0321740556262 0.915 7.16316870032e-39
-0.00169337134875 -0.0321740556262 0.915 1.70348791764e-38
0.0 -0.0321037298216 0.913 1.74105392687e-38
0.00168966999061 -0.0321037298216 0.913 1.76849625534e-38
0.0033682359068 -0.0319982411146 0.91 1.71318069911e-38
0.0050523538602 -0.0319982411146 0.91 1.82381489443e-38
0.00672166638105 -0.03192791531 0.908 1.68559431716e-38
0.00840208297631 -0.03192791531 0.908 1.7409470078e-38
0.0100602914227 -0.0318575895053 0.906 1.77746750824e-38
0.0117370066599 -0.0318575895053 0.906 1.80505206851e-38
0.013413721897 -0.0318575895053 0.906 1.72218516279e-38
0.0150904371341 -0.0318575895053 0.906 1.50112892874e-38
0.0167671523712 -0.0318575895053 0.906 7.9897260008e-39
0.0184438676083 -0.0318575895053 0.906 1.79572516606e-38
0.0201205828455 -0.0318575895053 0.906 4.41814832298e-39
0.0217972980826 -0.0318575895053 0.906 4.41276733687e-39
0.0234740133197 -0.0318575895053 0.906 9.56741150803e-39
0.0251507285568 -0.0318575895053 0.906 1.87937820023e-38
0.026827443794 -0.0318575895053 0.906 2.09121753376e-38
0.0285041590311 -0.0318575895053 0.906 2.27557376102e-38
0.0302474987147 -0.03192791531 0.908 1.92493917772e-38
0.0319982411146 -0.0319982411146 0.91 8.3581063476e-39
0.033682359068 -0.0319982411146 0.91 1.21222854929e-38
0.0353664770214 -0.0319982411146 0.91 1.47970335548e-38
0.0372541696725 -0.0321740556262 0.915 1.52608605439e-38
0.039075237877 -0.0322795443332 0.918 1.52626584098e-38
0.04064091237 -0.0321740556262 0.915 1.53530421608e-38
0.0423342837187 -0.0321740556262 0.915 2.34637955074e-38
-0.0102490606878 -0.0307471820635 0.923 9.09386651408e-39
-0.00854088390653 -0.0307471820635 0.923 9.00312122813e-39
-0.00681049897639 -0.0306472453938 0.92 9.37044919978e-39
-0.00510787423229 -0.0306472453938 0.92 9.36757934052e-39
-0.00339784677192 -0.0305806209472 0.918 9.91823358506e-39
-0.00169892338596 -0.0305806209472 0.918 8.26519465422e-39
0.0 -0.0304806842775 0.915 8.54070114269e-39
0.00169337134875 -0.0304806842775 0.915 1.64745405581e-38
0.00337933998122 -0.030414059831 0.913 1.81433777279e-38
0.00506900997183 -0.030414059831 0.913 1.9253363057e-38
0.0067364718136 -0.0303141231612 0.91 1.79622851247e-38
0.008420589767 -0.0303141231612 0.91 1.79615690612e-38
0.0100824995716 -0.0302474987147 0.908 1.84214766185e-38
0.0117370066599 -0.0301808742682 0.906 1.86058552665e-38
0.013413721897 -0.0301808742682 0.906 1.86998529662e-38
0.0150904371341 -0.0301808742682 0.906 1.7501309778e-38
0.0168041659526 -0.0302474987147 0.908 1.33478204921e-38
0.0184438676083 -0.0301808742682 0.906 1.63913664878e-38
0.0201205828455 -0.0301808742682 0.906 1.65840380201e-38
0.0217972980826 -0.0301808742682 0.906 1.39088401414e-38
0.0235258323337 -0.0302474987147 0.908 2.03596629713e-38
0.0252062489289 -0.0302474987147 0.908 2.1740182982e-38
0.0268866655242 -0.0302474987147 0.908 1.75895004969e-38
0.0285670821194 -0.0302474987147 0.908 8.54070114269e-39
0.0303141231612 -0.0303141231612 0.91 1.08365885466e-38
0.0321037298216 -0.030414059831 0.913 1.50653359679e-38
0.033867426975 -0.0304806842775 0.915 1.46104674799e-38
0.0356773911051 -0.0305806209472 0.918 1.49781752034e-38
0.0373763144911 -0.0305806209472 0.918 1.59019363745e-38
0.039075237877 -0.0305806209472 0.918 1.57218583114e-38
0.040774161263 -0.0305806209472 0.918 1.41519976548e-38
0.042473084649 -0.0305806209472 0.918 2.34677737937e-38
-0.00512453034392 -0.0290390052822 0.923 9.45941483668e-39
-0.00341635356261 -0.0290390052822 0.923 1.00111452784e-38
-0.0017026247441 -0.0289446206497 0.92 1.03774110659e-38
0.0 -0.0289446206497 0.92 1.03774110659e-38
0.00169892338596 -0.0288816975613 0.918 9.36722060812e-39
0.00339784677192 -0.0288816975613 0.918 8.44886564654e-39
0.00508011404625 -0.0287873129287 0.915 9.36722060812e-39
0.006773485395 -0.0287873129287 0.915 1.65495492623e-38
0.00846685674374 -0.0287873129287 0.915 1.6478525851e-38
0.0101380199437 -0.0287243898404 0.913 1.86965515071e-38
0.0117888256738 -0.0286300052078 0.91 1.86061957821e-38
0.0134729436272 -0.0286300052078 0.91 1.89756985689e-38
0.0151237493574 -0.0285670821194 0.908 2.00813286625e-38
0.0168041659526 -0.0285670821194 0.908 2.05423040092e-38
0.0184845825479 -0.0285670821194 0.908 1.96192687108e-38
0.0201649991431 -0.0285670821194 0.908 1.86937222855e-38
0.0218454157384 -0.0285670821194 0.908 1.47260255577e-38
0.0235258323337 -0.0285670821194 0.908 1.1203994991e-38
0.0252062489289 -0.0285670821194 0.908 1.07447530505e-38
0.0268866655242 -0.0285670821194 0.908 1.02855755697e-38
0.0286300052078 -0.0286300052078 0.91 1.34079824391e-38
