# .PCD v0.7 - Point Cloud Data file format
VERSION 0.7
FIELDS x y z rgb
SIZE 4 4 4 4
TYPE F F F F
COUNT 1 1 1 1
WIDTH 846
HEIGHT 1
VIEWPOINT 0 0 0 1 0 0 0
POINTS 846
DATA ascii
-0.0165450708829 -0.122433524533 0.894 7.25500419648e-39
-0.0148905637946 -0.122433524533 0.894 7.53051068496e-39
-0.0131916404086 -0.12202267378 0.891 7.71418167727e-39
-0.0115426853575 -0.12202267378 0.891 7.80601717343e-39
-0.00989373030646 -0.12202267378 0.891 7.71418167727e-39
-0.00824477525538 -0.12202267378 0.891 8.35703015038e-39
-0.00659582020431 -0.12202267378 0.891 8.35703015038e-39
-0.00493576107881 -0.121748773277 0.889 8.44886564654e-39
-0.00329050738588 -0.121748773277 0.889 8.81620763117e-39
-0.00164525369294 -0.121748773277 0.889 8.99987862348e-39
0.0 -0.121748773277 0.889 9.09171411964e-39
0.00164525369294 -0.121748773277 0.889 9.09171411964e-39
0.00329050738588 -0.121748773277 0.889 9.09171411964e-39
0.00493576107881 -0.121748773277 0.889 9.55089160043e-39
0.00658101477175 -0.121748773277 0.889 9.64272709659e-39
0.00822626846469 -0.121748773277 0.889 8.81620763117e-39
0.00992704252972 -0.122433524533 0.894 9.55089160043e-39
0.011581549618 -0.122433524533 0.894 9.45905610427e-39
0.0132360567063 -0.122433524533 0.894 9.55089160043e-39
0.0148905637946 -0.122433524533 0.894 9.82639808891e-39
0.0165820844643 -0.122707425035 0.896 9.91823358506e-39
0.0182810078502 -0.122981325538 0.898 1.01019045774e-38
0.0200095421013 -0.123392176291 0.901 1.01937400735e-38
0.0216770039431 -0.123392176291 0.901 1.01019045774e-38
0.0233444657848 -0.123392176291 0.901 1.01937400735e-38
-0.0301808742682 -0.12240021231 0.906 2.20054768072e-38
-0.0284097743985 -0.121994913594 0.903 5.78563625795e-39
-0.0267386111986 -0.121994913594 0.903 5.05095228869e-39
-0.0250674479987 -0.121994913594 0.903 6.52032022722e-39
-0.0233962847988 -0.121994913594 0.903 7.07133320417e-39
-0.0217251215989 -0.121994913594 0.903 7.07133320417e-39
-0.0199429176548 -0.121319415733 0.898 7.25500419648e-39
-0.0182810078502 -0.121319415733 0.898 7.25500419648e-39
-0.0165820844643 -0.121049216589 0.896 7.34683969264e-39
-0.0149238760178 -0.121049216589 0.896 7.62234618111e-39
-0.0132360567063 -0.120779017445 0.894 7.62234618111e-39
-0.011581549618 -0.120779017445 0.894 7.71418167727e-39
-0.00992704252972 -0.120779017445 0.894 7.80601717343e-39
-0.00827253544143 -0.120779017445 0.894 8.17335915806e-39
-0.00661802835314 -0.120779017445 0.894 8.35703015038e-39
-0.00494686515323 -0.120373718729 0.891 8.72437213501e-39
-0.00329791010215 -0.120373718729 0.891 8.99987862348e-39
-0.00164895505108 -0.120373718729 0.891 8.81620763117e-39
0.0 -0.120373718729 0.891 9.09171411964e-39
0.00164895505108 -0.120373718729 0.891 8.99987862348e-39
0.00329791010215 -0.120373718729 0.891 8.90804312733e-39
0.00494686515323 -0.120373718729 0.891 9.55089160043e-39
0.00659582020431 -0.120373718729 0.891 9.36722060812e-39
0.00827253544143 -0.120779017445 0.894 9.36722060812e-39
0.00994925067855 -0.121049216589 0.896 9.36722060812e-39
0.011607459125 -0.121049216589 0.896 9.27538511196e-39
0.0132656675714 -0.121049216589 0.896 9.55089160043e-39
0.0149238760178 -0.121049216589 0.896 9.55089160043e-39
0.0166190980456 -0.121319415733 0.898 9.82639808891e-39
0.0183420802595 -0.121724714449 0.901 9.55089160043e-39
0.0200095421013 -0.121724714449 0.901 9.91823358506e-39
0.0216770039431 -0.121724714449 0.901 1.01019045774e-38
0.0233962847988 -0.121994913594 0.903 1.01937400735e-38
-0.0318575895053 -0.120723497073 0.906 1.92381015155e-38
-0.0301808742682 -0.120723497073 0.906 2.21894757034e-38
-0.0284097743985 -0.120323750394 0.903 9.38121117198e-39
-0.0267386111986 -0.120323750394 0.903 6.24481373874e-39
-0.0250674479987 -0.120323750394 0.903 6.70399121953e-39
-0.0233962847988 -0.120323750394 0.903 7.07133320417e-39
-0.0217251215989 -0.120323750394 0.903 6.97949770801e-39
-0.0199429176548 -0.119657505929 0.898 7.34683969264e-39
-0.0182810078502 -0.119657505929 0.898 7.25500419648e-39
-0.0165820844643 -0.119391008143 0.896 7.34683969264e-39
-0.0149238760178 -0.119391008143 0.896 7.98968816575e-39
-0.0132656675714 -0.119391008143 0.896 7.62234618111e-39
-0.011581549618 -0.119124510357 0.894 7.71418167727e-39
-0.00992704252972 -0.119124510357 0.894 7.98968816575e-39
-0.00827253544143 -0.119124510357 0.894 8.26519465422e-39
-0.00661802835314 -0.119124510357 0.894 8.35703015038e-39
-0.00496352126486 -0.119124510357 0.894 8.81620763117e-39
-0.00330901417657 -0.119124510357 0.894 8.81620763117e-39
-0.00165450708829 -0.119124510357 0.894 8.90804312733e-39
0.0 -0.119124510357 0.894 8.90804312733e-39
0.00165450708829 -0.119124510357 0.894 8.81620763117e-39
0.00330901417657 -0.119124510357 0.894 8.54070114269e-39
0.00496352126486 -0.119124510357 0.894 8.72437213501e-39
0.00661802835314 -0.119124510357 0.894 8.99987862348e-39
0.00827253544143 -0.119124510357 0.894 9.09171411964e-39
0.00994925067855 -0.119391008143 0.896 9.36722060812e-39
0.011607459125 -0.119391008143 0.896 9.36722060812e-39
0.0132952784365 -0.119657505929 0.898 9.55089160043e-39
0.0149571882411 -0.119657505929 0.898 9.73456259275e-39
0.0166746184177 -0.120057252608 0.901 9.73456259275e-39
0.0183420802595 -0.120057252608 0.901 9.55089160043e-39
0.0200095421013 -0.120057252608 0.901 1.01019045774e-38
0.0216770039431 -0.120057252608 0.901 1.00100690812e-38
0.0233962847988 -0.120323750394 0.903 1.03774110659e-38
-0.0318575895053 -0.119046781836 0.906 1.76679297706e-38
-0.0301808742682 -0.119046781836 0.906 2.05256187484e-38
-0.0285041590311 -0.119046781836 0.906 1.1501678429e-38
-0.0267386111986 -0.118652587194 0.903 5.41829427332e-39
-0.0250674479987 -0.118652587194 0.903 6.24481373874e-39
-0.0233962847988 -0.118652587194 0.903 7.16316870032e-39
-0.0217251215989 -0.118652587194 0.903 6.88766221185e-39
-0.0200095421013 -0.118389790766 0.901 7.34683969264e-39
-0.0182810078502 -0.117995596124 0.898 7.25500419648e-39
-0.0166190980456 -0.117995596124 0.898 7.62234618111e-39
-0.0149571882411 -0.117995596124 0.898 7.98968816575e-39
-0.0132656675714 -0.117732799696 0.896 7.89785266959e-39
-0.011607459125 -0.117732799696 0.896 7.71418167727e-39
-0.00994925067855 -0.117732799696 0.896 8.17335915806e-39
-0.00827253544143 -0.117470003268 0.894 8.26519465422e-39
-0.00661802835314 -0.117470003268 0.894 8.54070114269e-39
-0.00497462533928 -0.117732799696 0.896 8.63253663885e-39
-0.00330901417657 -0.117470003268 0.894 8.72437213501e-39
-0.00165450708829 -0.117470003268 0.894 8.81620763117e-39
0.0 -0.117470003268 0.894 8.90804312733e-39
0.00165450708829 -0.117470003268 0.894 8.72437213501e-39
0.00330901417657 -0.117470003268 0.894 8.63253663885e-39
0.00496352126486 -0.117470003268 0.894 9.09171411964e-39
0.00661802835314 -0.117470003268 0.894 9.64272709659e-39
0.00827253544143 -0.117470003268 0.894 9.36722060812e-39
0.00994925067855 -0.117732799696 0.896 9.27538511196e-39
0.011607459125 -0.117732799696 0.896 9.55089160043e-39
0.0132952784365 -0.117995596124 0.898 9.55089160043e-39
0.0149571882411 -0.117995596124 0.898 9.73456259275e-39
0.0166746184177 -0.118389790766 0.901 9.91823358506e-39
0.0183420802595 -0.118389790766 0.901 9.55089160043e-39
0.020053958399 -0.118652587194 0.903 1.01019045774e-38
0.0217972980826 -0.119046781836 0.906 1.01019045774e-38
0.0234740133197 -0.119046781836 0.906 1.02855755697e-38
-0.03192791531 -0.117629161668 0.908 1.80363479525e-38
-0.0301808742682 -0.117370066599 0.906 2.09876604832e-38
-0.0285041590311 -0.117370066599 0.906 1.19633670366e-38
-0.026827443794 -0.117370066599 0.906 5.14278778485e-39
-0.0251507285568 -0.117370066599 0.906 6.24481373874e-39
-0.0234740133197 -0.117370066599 0.906 7.16316870032e-39
-0.0217972980826 -0.117370066599 0.906 7.16316870032e-39
-0.0200095421013 -0.116722328924 0.901 7.25500419648e-39
-0.0183420802595 -0.116722328924 0.901 7.25500419648e-39
-0.0166190980456 -0.11633368632 0.898 7.25500419648e-39
-0.0149571882411 -0.11633368632 0.898 7.71418167727e-39
-0.0132952784365 -0.11633368632 0.898 7.98968816575e-39
-0.011607459125 -0.11607459125 0.896 7.98968816575e-39
-0.00994925067855 -0.11607459125 0.896 8.17335915806e-39
-0.00829104223213 -0.11607459125 0.896 8.35703015038e-39
-0.0066328337857 -0.11607459125 0.896 8.54070114269e-39
-0.00497462533928 -0.11607459125 0.896 8.35703015038e-39
-0.00331641689285 -0.11607459125 0.896 8.99987862348e-39
-0.00165820844643 -0.11607459125 0.896 8.81620763117e-39
0.0 -0.11607459125 0.896 8.72437213501e-39
0.00165820844643 -0.11607459125 0.896 8.81620763117e-39
0.00331641689285 -0.11607459125 0.896 8.54070114269e-39
0.00496352126486 -0.11581549618 0.894 8.99987862348e-39
0.00661802835314 -0.11581549618 0.894 9.27538511196e-39
0.00827253544143 -0.11581549618 0.894 9.36722060812e-39
0.00994925067855 -0.11607459125 0.896 9.27538511196e-39
0.011607459125 -0.11607459125 0.896 9.55089160043e-39
0.0132952784365 -0.11633368632 0.898 9.55089160043e-39
0.0149571882411 -0.11633368632 0.898 9.91823358506e-39
0.0166746184177 -0.116722328924 0.901 9.91823358506e-39
0.018382795199 -0.116981423994 0.903 1.00100690812e-38
0.0201205828455 -0.117370066599 0.906 9.64272709659e-39
0.0217972980826 -0.117370066599 0.906 1.01937400735e-38
0.0234740133197 -0.117370066599 0.906 9.27538511196e-39
-0.03192791531 -0.115948745073 0.908 1.84994714897e-38
-0.0302474987147 -0.115948745073 0.908 2.10805721766e-38
-0.0285041590311 -0.115693351361 0.906 1.06704954423e-38
-0.026827443794 -0.115693351361 0.906 5.78563625795e-39
-0.0251507285568 -0.115693351361 0.906 6.79582671569e-39
-0.0234740133197 -0.115693351361 0.906 1.04814518716e-38
-0.0217972980826 -0.115693351361 0.906 9.19431158801e-39
-0.0200095421013 -0.115054867082 0.901 6.97949770801e-39
-0.0183420802595 -0.115054867082 0.901 7.34683969264e-39
-0.0166190980456 -0.114671776515 0.898 7.53051068496e-39
-0.0149571882411 -0.114671776515 0.898 7.98968816575e-39
-0.0132952784365 -0.114671776515 0.898 8.17335915806e-39
-0.011633368632 -0.114671776515 0.898 7.71418167727e-39
-0.00994925067855 -0.114416382803 0.896 8.17335915806e-39
-0.00829104223213 -0.114416382803 0.896 8.63253663885e-39
-0.0066328337857 -0.114416382803 0.896 8.81620763117e-39
-0.00497462533928 -0.114416382803 0.896 8.90804312733e-39
-0.00331641689285 -0.114416382803 0.896 8.99987862348e-39
-0.00165820844643 -0.114416382803 0.896 8.81620763117e-39
0.0 -0.114416382803 0.896 8.72437213501e-39
0.00165820844643 -0.114416382803 0.896 8.72437213501e-39
0.00331641689285 -0.114416382803 0.896 8.72437213501e-39
0.00497462533928 -0.114416382803 0.896 8.99987862348e-39
0.0066328337857 -0.114416382803 0.896 9.55089160043e-39
0.00829104223213 -0.114416382803 0.896 9.27538511196e-39
0.00997145882739 -0.114671776515 0.898 9.1835496158e-39
0.011633368632 -0.114671776515 0.898 9.45905610427e-39
0.0132952784365 -0.114671776515 0.898 9.45905610427e-39
0.015007156576 -0.115054867082 0.901 9.91823358506e-39
0.0167116319991 -0.115310260794 0.903 9.64272709659e-39
0.0184438676083 -0.115693351361 0.906 8.99987862348e-39
0.0201205828455 -0.115693351361 0.906 1.43439461171e-38
0.0217972980826 -0.115693351361 0.906 1.40759519897e-38
-0.0319982411146 -0.114520020831 0.91 1.79452299211e-38
-0.0302474987147 -0.114268328478 0.908 2.07103645366e-38
-0.0285041590311 -0.114016636124 0.906 1.12218727568e-38
-0.026827443794 -0.114016636124 0.906 5.6938007618e-39
-0.0251507285568 -0.114016636124 0.906 6.61215572338e-39
-0.0234740133197 -0.114016636124 0.906 7.25500419648e-39
-0.0217972980826 -0.114016636124 0.906 8.91485904306e-39
-0.0200095421013 -0.113387405241 0.901 1.11304562489e-38
-0.0183420802595 -0.113387405241 0.901 1.09399034798e-38
-0.0166746184177 -0.113387405241 0.901 7.89785266959e-39
-0.0149571882411 -0.11300986671 0.898 7.53051068496e-39
-0.0132952784365 -0.11300986671 0.898 7.80601717343e-39
-0.011633368632 -0.11300986671 0.898 7.80601717343e-39
-0.00997145882739 -0.11300986671 0.898 7.89785266959e-39
-0.00829104223213 -0.112758174357 0.896 8.81620763117e-39
-0.0066328337857 -0.112758174357 0.896 8.72437213501e-39
-0.00497462533928 -0.112758174357 0.896 8.90804312733e-39
-0.00331641689285 -0.112758174357 0.896 9.45905610427e-39
-0.00165820844643 -0.112758174357 0.896 9.36722060812e-39
0.0 -0.112758174357 0.896 9.36722060812e-39
0.00165820844643 -0.112758174357 0.896 8.90804312733e-39
0.00331641689285 -0.112758174357 0.896 8.99987862348e-39
0.00497462533928 -0.112758174357 0.896 9.36722060812e-39
0.0066328337857 -0.112758174357 0.896 9.64272709659e-39
0.00829104223213 -0.112758174357 0.896 9.36722060812e-39
0.00997145882739 -0.11300986671 0.898 8.99987862348e-39
0.011633368632 -0.11300986671 0.898 8.72437213501e-39
0.0132952784365 -0.11300986671 0.898 9.09171411964e-39
0.015007156576 -0.113387405241 0.901 9.27538511196e-39
0.0167116319991 -0.113639097594 0.903 1.56297355491e-38
0.0184438676083 -0.114016636124 0.906 1.33438127785e-38
0.0201205828455 -0.114016636124 0.906 1.29736457762e-38
0.0217972980826 -0.114016636124 0.906 9.27538511196e-39
0.0234740133197 -0.114016636124 0.906 1.19439954866e-38
-0.0321740556262 -0.113455880366 0.915 1.88678994807e-38
-0.0303141231612 -0.112835902878 0.91 2.11738383985e-38
-0.0285670821194 -0.112587911883 0.908 1.15906903087e-38
-0.0268866655242 -0.112587911883 0.908 5.6938007618e-39
-0.0251507285568 -0.112339920887 0.906 6.61215572338e-39
-0.0234740133197 -0.112339920887 0.906 8.3581077489e-39
-0.0217972980826 -0.112339920887 0.906 7.16316870032e-39
-0.020053958399 -0.111967934394 0.903 7.34683969264e-39
-0.0183420802595 -0.111719943399 0.901 8.0815236619e-39
-0.0166746184177 -0.111719943399 0.901 1.10260328886e-38
-0.015007156576 -0.111719943399 0.901 1.16818349647e-38
-0.0132952784365 -0.111347956906 0.898 1.26044218477e-38
-0.011633368632 -0.111347956906 0.898 9.46480142798e-39
-0.00997145882739 -0.111347956906 0.898 7.98968816575e-39
-0.00830954902282 -0.111347956906 0.898 1.21373802799e-38
-0.00664763921826 -0.111347956906 0.898 7.80601717343e-39
-0.00498572941369 -0.111347956906 0.898 8.44886564654e-39
-0.00331641689285 -0.11109996591 0.896 8.26519465422e-39
-0.00165820844643 -0.11109996591 0.896 9.64272709659e-39
0.0 -0.111347956906 0.898 9.45905610427e-39
0.00165820844643 -0.11109996591 0.896 9.27538511196e-39
0.00331641689285 -0.11109996591 0.896 9.09171411964e-39
0.00498572941369 -0.111347956906 0.898 9.64380329381e-39
0.00664763921826 -0.111347956906 0.898 9.1835496158e-39
0.00830954902282 -0.111347956906 0.898 8.35704416336e-39
0.00997145882739 -0.111347956906 0.898 1.37918625482e-38
0.011633368632 -0.111347956906 0.898 1.03856619112e-38
0.0133396947342 -0.111719943399 0.901 1.42596397976e-38
0.0150404687992 -0.111967934394 0.903 1.01141014792e-38
0.0167116319991 -0.111967934394 0.903 1.35217608679e-38
0.0184438676083 -0.112339920887 0.906 7.16316870032e-39
0.0201205828455 -0.112339920887 0.906 9.91823358506e-39
0.0217972980826 -0.112339920887 0.906 1.35981372394e-38
0.0234740133197 -0.112339920887 0.906 9.1835496158e-39
-0.0321740556262 -0.111762509017 0.915 2.00682125089e-38
-0.0303141231612 -0.111151784924 0.91 2.0067509057e-38
-0.0286300052078 -0.111151784924 0.91 1.03917715725e-38
-0.0268866655242 -0.110907495287 0.908 6.15297824259e-39
-0.0252062489289 -0.110907495287 0.908 6.79582671569e-39
-0.0235258323337 -0.110907495287 0.908 7.25500419648e-39
-0.0218454157384 -0.110907495287 0.908 7.89785266959e-39
-0.0201205828455 -0.11066320565 0.906 8.08154608268e-39
-0.018382795199 -0.110296771194 0.903 7.80601717343e-39
-0.0167116319991 -0.110296771194 0.903 7.62234618111e-39
-0.015007156576 -0.110052481557 0.901 7.89785266959e-39
-0.0132952784365 -0.109686047101 0.898 7.80601717343e-39
-0.011633368632 -0.109686047101 0.898 1.38847854519e-38
-0.00997145882739 -0.109686047101 0.898 8.63253663885e-39
-0.00830954902282 -0.109686047101 0.898 1.18658128414e-38
-0.00664763921826 -0.109686047101 0.898 1.13148475086e-38
-0.00498572941369 -0.109686047101 0.898 1.40781604361e-38
-0.00332381960913 -0.109686047101 0.898 1.02135236053e-38
-0.00166190980456 -0.109686047101 0.898 1.36164381973e-38
0.0 -0.109686047101 0.898 1.011018485e-38
0.00166190980456 -0.109686047101 0.898 1.28795696038e-38
0.00332381960913 -0.109686047101 0.898 1.40695200298e-38
0.00498572941369 -0.109686047101 0.898 1.06716459083e-38
0.00664763921826 -0.109686047101 0.898 1.25122766646e-38
0.00830954902282 -0.109686047101 0.898 1.15936022069e-38
0.00997145882739 -0.109686047101 0.898 1.14973736401e-38
0.011633368632 -0.109686047101 0.898 1.0846633054e-38
0.0133396947342 -0.110052481557 0.901 1.19530142436e-38
0.0150404687992 -0.110296771194 0.903 8.54070114269e-39
0.0167116319991 -0.110296771194 0.903 9.45905610427e-39
0.0184438676083 -0.11066320565 0.906 1.31396954403e-38
0.0201205828455 -0.11066320565 0.906 1.23170771898e-38
0.0217972980826 -0.11066320565 0.906 1.12957660274e-38
0.0234740133197 -0.11066320565 0.906 1.02855755697e-38
-0.0321740556262 -0.110069137669 0.915 1.94224955778e-38
-0.030414059831 -0.10982854939 0.913 2.07139953009e-38
-0.0287243898404 -0.10982854939 0.913 1.05768662841e-38
-0.0269458872544 -0.109467666971 0.91 6.24481373874e-39
-0.0252062489289 -0.109227078692 0.908 6.97949770801e-39
-0.0235258323337 -0.109227078692 0.908 7.98968816575e-39
-0.0218454157384 -0.109227078692 0.908 8.44958311135e-39
-0.0201649991431 -0.109227078692 0.908 7.71418167727e-39
-0.0184438676083 -0.108986490413 0.906 7.62234618111e-39
-0.0167116319991 -0.108625607994 0.903 8.81692509598e-39
-0.0150404687992 -0.108625607994 0.903 9.64776756717e-39
-0.0133396947342 -0.108385019715 0.901 8.90804312733e-39
-0.0116722328924 -0.108385019715 0.901 9.27610257677e-39
-0.0100047710506 -0.108385019715 0.901 8.17335915806e-39
-0.00830954902282 -0.108024137297 0.898 9.1835496158e-39
-0.00664763921826 -0.108024137297 0.898 8.54070114269e-39
-0.00498572941369 -0.108024137297 0.898 8.72437213501e-39
-0.00333492368355 -0.108385019715 0.901 8.54070114269e-39
-0.00166746184177 -0.108385019715 0.901 9.45905890687e-39
0.0 -0.108385019715 0.901 8.99987862348e-39
0.00166190980456 -0.108024137297 0.898 8.54070114269e-39
0.00332381960913 -0.108024137297 0.898 8.72437213501e-39
0.00500238552532 -0.108385019715 0.901 9.45905610427e-39
0.00666984736709 -0.108385019715 0.901 8.81620763117e-39
0.00833730920887 -0.108385019715 0.901 8.44886564654e-39
0.0100047710506 -0.108385019715 0.901 9.45905610427e-39
0.0116722328924 -0.108385019715 0.901 1.01937400735e-38
0.0133693055993 -0.108625607994 0.903 1.10288873336e-38
0.0150904371341 -0.108986490413 0.906 1.00100802916e-38
0.0167671523712 -0.108986490413 0.906 1.07462019931e-38
0.0184438676083 -0.108986490413 0.906 1.02855755697e-38
0.0201205828455 -0.108986490413 0.906 1.25951158246e-38
0.0218454157384 -0.109227078692 0.908 1.02855755697e-38
-0.0322795443332 -0.108731096701 0.918 1.82232475364e-38
-0.0304806842775 -0.10837576632 0.915 2.10827371827e-38
-0.0287243898404 -0.108138879399 0.913 1.03928561775e-38
-0.0270347198498 -0.108138879399 0.913 6.3366492349e-39
-0.025261769301 -0.107783549018 0.91 6.97949770801e-39
-0.0235776513476 -0.107783549018 0.91 8.17371789047e-39
-0.0218454157384 -0.107546662097 0.908 7.34683969264e-39
-0.0201649991431 -0.107546662097 0.908 7.80601717343e-39
-0.0184438676083 -0.107309775176 0.906 8.72795945908e-39
-0.0167671523712 -0.107309775176 0.906 9.18571742452e-39
-0.0150404687992 -0.106954444794 0.903 7.89785266959e-39
-0.0133693055993 -0.106954444794 0.903 8.54070114269e-39
-0.0116981423994 -0.106954444794 0.903 9.1835496158e-39
-0.0100047710506 -0.106717557874 0.901 8.90804312733e-39
-0.00833730920887 -0.106717557874 0.901 1.06590230117e-38
-0.00666984736709 -0.106717557874 0.901 1.16749545893e-38
-0.00500238552532 -0.106717557874 0.901 9.27968990084e-39
-0.00333492368355 -0.106717557874 0.901 1.19508436322e-38
-0.00166746184177 -0.106717557874 0.901 1.04757317713e-38
0.0 -0.106717557874 0.901 1.09327288317e-38
0.00166746184177 -0.106717557874 0.901 1.2871335574e-38
0.00333492368355 -0.106717557874 0.901 8.17443535528e-39
0.00500238552532 -0.106717557874 0.901 1.24082484705e-38
0.00666984736709 -0.106717557874 0.901 1.17685753397e-38
0.00833730920887 -0.106717557874 0.901 1.19483002755e-38
0.0100269791995 -0.106954444794 0.903 9.64739061788e-39
0.0116981423994 -0.106954444794 0.903 9.45905610427e-39
0.0133693055993 -0.106954444794 0.903 1.05625169878e-38
0.0150904371341 -0.107309775176 0.906 1.16742413284e-38
0.0167671523712 -0.107309775176 0.906 1.13980580127e-38
0.0184845825479 -0.107546662097 0.908 1.10202805584e-38
0.0201649991431 -0.107546662097 0.908 9.27538511196e-39
0.0218454157384 -0.107546662097 0.908 1.2032606595e-38
-0.0323498701378 -0.107265358878 0.92 1.96962182133e-38
-0.0305806209472 -0.107032173315 0.918 2.14518728294e-38
-0.0287873129287 -0.106682394971 0.915 1.03924778269e-38
-0.02709394158 -0.106682394971 0.915 6.42848473106e-39
-0.0253450498591 -0.106449209408 0.913 7.07133320417e-39
-0.0236553798685 -0.106449209408 0.913 7.62234618111e-39
-0.0218935333942 -0.106099431064 0.91 7.62234618111e-39
-0.0201649991431 -0.105866245501 0.908 8.99987862348e-39
-0.0184845825479 -0.105866245501 0.908 6.88766221185e-39
-0.0168041659526 -0.105866245501 0.908 7.62234618111e-39
-0.0150904371341 -0.105633059939 0.906 9.18606074265e-39
-0.0133693055993 -0.105283281595 0.903 8.91127171899e-39
-0.0116981423994 -0.105283281595 0.903 8.54177733991e-39
-0.0100269791995 -0.105283281595 0.903 8.17335915806e-39
-0.00835581599956 -0.105283281595 0.903 9.46623075241e-39
-0.00666984736709 -0.105050096032 0.901 9.55591385413e-39
-0.00500238552532 -0.105050096032 0.901 1.02938390267e-38
-0.00334232639983 -0.105283281595 0.903 8.44886564654e-39
-0.00166746184177 -0.105050096032 0.901 9.91823358506e-39
0.0 -0.105050096032 0.901 1.06529175543e-38
0.00166746184177 -0.105050096032 0.901 8.44886564654e-39
0.00333492368355 -0.105050096032 0.901 1.08441219272e-38
0.00501348959974 -0.105283281595 0.903 8.99987862348e-39
0.00668465279965 -0.105283281595 0.903 1.24100071e-38
0.00835581599956 -0.105283281595 0.903 9.09171411964e-39
0.0100269791995 -0.105283281595 0.903 1.30485816128e-38
0.0116981423994 -0.105283281595 0.903 1.04803980952e-38
0.013413721897 -0.105633059939 0.906 1.1394777573e-38
0.0150904371341 -0.105633059939 0.906 9.92217964154e-39
0.0167671523712 -0.105633059939 0.906 1.11149648944e-38
0.0184845825479 -0.105866245501 0.908 1.21287482814e-38
0.0201649991431 -0.105866245501 0.908 1.06536350191e-38
0.0218454157384 -0.105866245501 0.908 1.20408532365e-38
-0.0324553588448 -0.105906960441 0.923 1.89582902381e-38
-0.0306472453938 -0.105562734134 0.92 2.08983277061e-38
-0.0288816975613 -0.105333249929 0.918 1.06690675191e-38
-0.02709394158 -0.104989023622 0.915 6.3366492349e-39
-0.0253450498591 -0.104759539418 0.913 7.16316870032e-39
-0.0236553798685 -0.104759539418 0.913 7.16316870032e-39
-0.0219657098779 -0.104759539418 0.913 8.0815236619e-39
-0.0202094154408 -0.104415313111 0.91 7.80601717343e-39
-0.0184845825479 -0.104185828906 0.908 7.71418167727e-39
-0.0168041659526 -0.104185828906 0.908 8.90804312733e-39
-0.0150904371341 -0.103956344702 0.906 9.37116666459e-39
-0.013413721897 -0.103956344702 0.906 8.35703015038e-39
-0.0116981423994 -0.103612118395 0.903 9.00023735589e-39
-0.0100269791995 -0.103612118395 0.903 8.26519465422e-39
-0.00835581599956 -0.103612118395 0.903 9.27538511196e-39
-0.00668465279965 -0.103612118395 0.903 8.63253663885e-39
-0.00501348959974 -0.103612118395 0.903 9.27574384436e-39
-0.00334232639983 -0.103612118395 0.903 9.27682004158e-39
-0.00167116319991 -0.103612118395 0.903 1.14841047449e-38
0.0 -0.103612118395 0.903 9.64272709659e-39
0.00167116319991 -0.103612118395 0.903 8.54070114269e-39
0.00334232639983 -0.103612118395 0.903 1.00100718838e-38
0.00501348959974 -0.103612118395 0.903 1.01937400735e-38
0.00668465279965 -0.103612118395 0.903 1.0654352484e-38
0.00835581599956 -0.103612118395 0.903 9.27538511196e-39
0.0100602914227 -0.103956344702 0.906 9.64272709659e-39
0.0117370066599 -0.103956344702 0.906 1.04721164213e-38
0.013413721897 -0.103956344702 0.906 1.2589042597e-38
0.0150904371341 -0.103956344702 0.906 9.91931678878e-39
0.0168041659526 -0.104185828906 0.908 1.13890364532e-38
0.0184845825479 -0.104185828906 0.908 1.02855755697e-38
0.0201649991431 -0.104185828906 0.908 1.41541780752e-38
0.0218935333942 -0.104415313111 0.91 9.36722060812e-39
-0.0306472453938 -0.10386010939 0.92 2.1358585588e-38
-0.0289446206497 -0.10386010939 0.92 1.04853993294e-38
-0.0271827741753 -0.103634326543 0.918 6.24481373874e-39
-0.0254005702312 -0.103295652274 0.915 7.25500980168e-39
-0.0237071988825 -0.103295652274 0.915 7.89821140199e-39
-0.0219657098779 -0.103069869427 0.913 8.54141860751e-39
-0.0202760398873 -0.103069869427 0.913 7.16316870032e-39
-0.0185252974874 -0.102731195157 0.91 9.27717877399e-39
-0.0168041659526 -0.102505412311 0.908 7.53051068496e-39
-0.0151237493574 -0.102505412311 0.908 9.64487949103e-39
-0.013413721897 -0.102279629464 0.906 7.62234618111e-39
-0.0117370066599 -0.102279629464 0.906 8.90804312733e-39
-0.0100602914227 -0.102279629464 0.906 8.35703015038e-39
-0.00838357618561 -0.102279629464 0.906 1.11192822949e-38
-0.00668465279965 -0.101940955195 0.903 9.18860409936e-39
-0.00501348959974 -0.101940955195 0.903 1.12165127902e-38
-0.00335343047424 -0.102279629464 0.906 9.83467696023e-39
-0.00167671523712 -0.102279629464 0.906 8.81620763117e-39
0.0 -0.102279629464 0.906 1.14862753563e-38
0.00167671523712 -0.102279629464 0.906 1.11239374084e-38
0.00335343047424 -0.102279629464 0.906 1.13036945741e-38
0.00503014571137 -0.102279629464 0.906 1.25972668177e-38
0.00670686094849 -0.102279629464 0.906 1.11218018296e-38
0.00838357618561 -0.102279629464 0.906 8.81620763117e-39
0.0100602914227 -0.102279629464 0.906 1.02855755697e-38
0.0117370066599 -0.102279629464 0.906 9.1835496158e-39
0.013413721897 -0.102279629464 0.906 1.11120950351e-38
0.0150904371341 -0.102279629464 0.906 1.22220257137e-38
0.0168041659526 -0.102505412311 0.908 1.24064043617e-38
0.0185252974874 -0.102731195157 0.91 9.09171411964e-39
0.0202094154408 -0.102731195157 0.91 1.0469246562e-38
0.0218935333942 -0.102731195157 0.91 1.02855755697e-38
-0.0307471820635 -0.102490606878 0.923 2.07121371792e-38
-0.0289446206497 -0.102157484646 0.92 1.02995661336e-38
-0.0271827741753 -0.101935403157 0.918 6.3366492349e-39
-0.0254005702312 -0.101602280925 0.915 6.9795033132e-39
-0.0237071988825 -0.101602280925 0.915 7.4386751888e-39
-0.0220138275337 -0.101602280925 0.915 7.89785266959e-39
-0.0202760398873 -0.101380199437 0.913 8.0815236619e-39
-0.0185252974874 -0.101047077204 0.91 8.0815236619e-39
-0.016841179534 -0.101047077204 0.91 7.71418167727e-39
-0.0151237493574 -0.100824995716 0.908 8.44886564654e-39
-0.013413721897 -0.100602914227 0.906 8.72616579704e-39
-0.0117370066599 -0.100602914227 0.906 7.80601717343e-39
-0.0100602914227 -0.100602914227 0.906 1.04728450965e-38
-0.00838357618561 -0.100602914227 0.906 9.18821313709e-39
-0.00670686094849 -0.100602914227 0.906 9.46300636464e-39
-0.00503014571137 -0.100602914227 0.906 9.64631442066e-39
-0.00335343047424 -0.100602914227 0.906 1.01019045774e-38
-0.00167671523712 -0.100602914227 0.906 9.1835496158e-39
0.0 -0.100602914227 0.906 9.18679222045e-39
0.00167671523712 -0.100602914227 0.906 9.73635625478e-39
0.00335343047424 -0.100602914227 0.906 9.82639808891e-39
0.00503014571137 -0.100602914227 0.906 1.28656070659e-38
0.00670686094849 -0.100602914227 0.906 9.55699005135e-39
0.00838357618561 -0.100602914227 0.906 1.2780228753e-38
0.0100602914227 -0.100602914227 0.906 1.1214000262e-38
0.0117370066599 -0.100602914227 0.906 9.45905610427e-39
0.0134433327621 -0.100824995716 0.908 1.21262315493e-38
0.0151237493574 -0.100824995716 0.908 1.00100690812e-38
0.0168041659526 -0.100824995716 0.908 9.91823358506e-39
0.0185252974874 -0.101047077204 0.91 9.55089160043e-39
0.0202094154408 -0.101047077204 0.91 1.08365885466e-38
0.0218935333942 -0.101047077204 0.91 1.12986358867e-38
-0.0307471820635 -0.100782430097 0.923 2.11716916093e-38
-0.0290390052822 -0.100782430097 0.923 1.20523747125e-38
-0.0272419959056 -0.100454859902 0.92 5.78563625795e-39
-0.0254838507894 -0.100236479772 0.918 6.79582671569e-39
-0.0237849274034 -0.100236479772 0.918 8.17443535528e-39
-0.0220138275337 -0.0999089095762 0.915 9.37336670318e-39
-0.0202760398873 -0.099690529446 0.913 7.16316870032e-39
-0.0185252974874 -0.0993629592506 0.91 7.71418167727e-39
-0.016841179534 -0.0993629592506 0.91 8.90804312733e-39
-0.0151570615806 -0.0993629592506 0.91 1.03856689177e-38
-0.013413721897 -0.0989261989902 0.906 1.01087204931e-38
-0.0117370066599 -0.0989261989902 0.906 9.37118348017e-39
-0.0100602914227 -0.0989261989902 0.906 9.09386651408e-39
-0.00838357618561 -0.0989261989902 0.906 8.99987862348e-39
-0.00670686094849 -0.0989261989902 0.906 8.81620763117e-39
-0.00503014571137 -0.0989261989902 0.906 8.90804312733e-39
-0.00335343047424 -0.0989261989902 0.906 1.01944575384e-38
-0.00167671523712 -0.0989261989902 0.906 9.27538511196e-39
0.0 -0.0989261989902 0.906 9.55089160043e-39
0.00167671523712 -0.0989261989902 0.906 1.03774110659e-38
0.00335343047424 -0.0989261989902 0.906 9.1835496158e-39
0.00503014571137 -0.0989261989902 0.906 9.45905610427e-39
0.00670686094849 -0.0989261989902 0.906 9.55089160043e-39
0.00838357618561 -0.0989261989902 0.906 8.99987862348e-39
0.0100602914227 -0.0989261989902 0.906 8.81620763117e-39
0.0117629161668 -0.0991445791204 0.908 9.36722060812e-39
0.0134433327621 -0.0991445791204 0.908 9.91823358506e-39
0.0151237493574 -0.0991445791204 0.908 1.03774110659e-38
0.016841179534 -0.0993629592506 0.91 1.01019045774e-38
0.0185252974874 -0.0993629592506 0.91 1.14851767383e-38
0.0202094154408 -0.0993629592506 0.91 1.28702425612e-38
0.0218935333942 -0.0993629592506 0.91 1.00100690812e-38
-0.0307471820635 -0.0990742533158 0.923 2.08040049052e-38
-0.0290390052822 -0.0990742533158 0.923 1.05772250165e-38
-0.0272419959056 -0.0987522351576 0.92 6.61215572338e-39
-0.0254838507894 -0.0985375563856 0.918 7.4386751888e-39
-0.0237849274034 -0.0985375563856 0.918 9.74283305628e-39
-0.0220138275337 -0.0982155382274 0.915 7.80673463824e-39
-0.020320456185 -0.0982155382274 0.915 8.08224112672e-39
-0.0185863698967 -0.0980008594554 0.913 7.89785266959e-39
-0.0168966999061 -0.0980008594554 0.913 7.16316870032e-39
-0.0151570615806 -0.0976788412972 0.91 8.0815236619e-39
-0.0134433327621 -0.0974641625252 0.908 8.26519465422e-39
-0.0117629161668 -0.0974641625252 0.908 8.35703015038e-39
-0.0100602914227 -0.0972494837531 0.906 8.63254784924e-39
-0.00838357618561 -0.0972494837531 0.906 1.02902629131e-38
-0.00670686094849 -0.0972494837531 0.906 8.81620763117e-39
-0.00503014571137 -0.0972494837531 0.906 1.36067902574e-38
-0.00335343047424 -0.0972494837531 0.906 9.46445530726e-39
-0.00167671523712 -0.0972494837531 0.906 1.06593761389e-38
0.0 -0.0972494837531 0.906 1.03824459312e-38
0.00167671523712 -0.0972494837531 0.906 1.32386733547e-38
0.00335343047424 -0.0972494837531 0.906 9.0005960883e-39
0.00504124978578 -0.0974641625252 0.908 9.55089160043e-39
0.00672166638105 -0.0974641625252 0.908 9.55089160043e-39
0.00840208297631 -0.0974641625252 0.908 9.45905610427e-39
0.0100824995716 -0.0974641625252 0.908 8.90804312733e-39
0.0117629161668 -0.0974641625252 0.908 9.36722060812e-39
0.0134433327621 -0.0974641625252 0.908 1.12957758365e-38
0.0151570615806 -0.0976788412972 0.91 1.0469246562e-38
0.016841179534 -0.0976788412972 0.91 1.01019045774e-38
0.0185863698967 -0.0980008594554 0.913 1.1389753918e-38
0.0202760398873 -0.0980008594554 0.913 1.17667816776e-38
0.0220138275337 -0.0982155382274 0.915 1.12975596895e-38
-0.0290390052822 -0.0973660765345 0.923 1.0299924866e-38
-0.0272419959056 -0.0970496104135 0.92 6.70399121953e-39
-0.0254838507894 -0.0968386329996 0.918 7.25500419648e-39
-0.0237849274034 -0.0968386329996 0.918 8.0815236619e-39
-0.0220860040175 -0.0968386329996 0.918 8.0815236619e-39
-0.020320456185 -0.0965221668787 0.915 1.10306992125e-38
-0.0186270848362 -0.0965221668787 0.915 9.00706728461e-39
-0.0168966999061 -0.0963111894648 0.913 7.98968816575e-39
-0.0152070299155 -0.0963111894648 0.913 9.2775375064e-39
-0.0134433327621 -0.0957837459299 0.908 8.54070114269e-39
-0.0117629161668 -0.0957837459299 0.908 1.05672057325e-38
-0.0100824995716 -0.0957837459299 0.908 9.18928933431e-39
-0.00840208297631 -0.0957837459299 0.908 9.8314203426e-39
-0.00672166638105 -0.0957837459299 0.908 1.00132976729e-38
-0.00504124978578 -0.0957837459299 0.908 7.89785266959e-39
-0.00336083319052 -0.0957837459299 0.908 8.63253663885e-39
-0.00168041659526 -0.0957837459299 0.908 1.00100690812e-38
0.0 -0.0957837459299 0.908 8.99987862348e-39
0.00168041659526 -0.0957837459299 0.908 9.36722060812e-39
0.00336083319052 -0.0957837459299 0.908 1.10202623416e-38
0.00504124978578 -0.0957837459299 0.908 9.55089160043e-39
0.00672166638105 -0.0957837459299 0.908 9.36722060812e-39
0.00840208297631 -0.0957837459299 0.908 1.23156548718e-38
0.0100824995716 -0.0957837459299 0.908 1.13062127075e-38
0.0117629161668 -0.0957837459299 0.908 9.7370737196e-39
0.0134729436272 -0.0959947233438 0.91 1.23145884837e-38
0.0151570615806 -0.0959947233438 0.91 9.36722060812e-39
0.0168966999061 -0.0963111894648 0.913 1.24950140688e-38
0.0186270848362 -0.0965221668787 0.915 1.32365251642e-38
0.020320456185 -0.0965221668787 0.915 9.55089160043e-39
0.0220860040175 -0.0968386329996 0.918 1.13944174393e-38
0.0238367464174 -0.0970496104135 0.92 9.91823358506e-39
-0.0290390052822 -0.0956578997532 0.923 1.14062822334e-38
-0.0272419959056 -0.0953469856695 0.92 7.07133320417e-39
-0.0255393711615 -0.0953469856695 0.92 7.16316870032e-39
-0.0238367464174 -0.0953469856695 0.92 8.26519465422e-39
-0.0221341216733 -0.0953469856695 0.92 8.17335915806e-39
-0.0203870806315 -0.0951397096136 0.918 7.62234618111e-39
-0.0186270848362 -0.0948287955299 0.915 7.80601717343e-39
-0.0169337134875 -0.0948287955299 0.915 8.81620763117e-39
-0.0152070299155 -0.0946215194741 0.913 1.02916740206e-38
-0.0134433327621 -0.0941033293346 0.908 1.0481491108e-38
-0.0117629161668 -0.0941033293346 0.908 8.08295859153e-39
-0.0100824995716 -0.0941033293346 0.908 9.55125033284e-39
-0.00840208297631 -0.0941033293346 0.908 9.55089160043e-39
-0.00672166638105 -0.0941033293346 0.908 9.45905610427e-39
-0.00504124978578 -0.0941033293346 0.908 9.37009046737e-39
-0.00336083319052 -0.0941033293346 0.908 8.90804312733e-39
-0.00168041659526 -0.0941033293346 0.908 1.14841173566e-38
0.0 -0.0941033293346 0.908 1.01062093663e-38
0.00168041659526 -0.0941033293346 0.908 9.73814991682e-39
0.00336083319052 -0.0941033293346 0.908 1.09316526345e-38
0.00504124978578 -0.0941033293346 0.908 9.36722060812e-39
0.00672166638105 -0.0941033293346 0.908 8.99987862348e-39
0.00840208297631 -0.0941033293346 0.908 8.99987862348e-39
0.0100824995716 -0.0941033293346 0.908 9.09171411964e-39
0.0117888256738 -0.0943106053904 0.91 1.2223459242e-38
0.0134729436272 -0.0943106053904 0.91 1.30575289035e-38
0.0152070299155 -0.0946215194741 0.913 1.1213291205e-38
0.0169337134875 -0.0948287955299 0.915 9.55232653006e-39
0.0186270848362 -0.0948287955299 0.915 1.18507250609e-38
0.0203870806315 -0.0951397096136 0.918 1.14873865859e-38
0.0220860040175 -0.0951397096136 0.918 8.81620763117e-39
0.0238367464174 -0.0953469856695 0.92 9.91823358506e-39
0.0256226517196 -0.0956578997532 0.923 2.04356525844e-38
-0.0290390052822 -0.0939497229719 0.923 1.14051850167e-38
-0.0272419959056 -0.0936443609254 0.92 7.34827462227e-39
-0.0255393711615 -0.0936443609254 0.92 7.62235318761e-39
-0.0238367464174 -0.0936443609254 0.92 8.26519465422e-39
-0.0220860040175 -0.0934407862277 0.918 7.25500419648e-39
-0.0203870806315 -0.0934407862277 0.918 7.80601717343e-39
-0.0186270848362 -0.0931354241812 0.915 8.44886564654e-39
-0.0169337134875 -0.0931354241812 0.915 9.09279031686e-39
-0.0152070299155 -0.0929318494835 0.913 7.4386751888e-39
-0.0134729436272 -0.092626487437 0.91 9.64559695584e-39
-0.0117888256738 -0.092626487437 0.91 8.63253663885e-39
-0.0100824995716 -0.0924229127394 0.908 8.99987862348e-39
-0.00840208297631 -0.0924229127394 0.908 1.16735532908e-38
-0.00672166638105 -0.0924229127394 0.908 9.00491208757e-39
-0.00504124978578 -0.0924229127394 0.908 1.22295759098e-38
-0.00336083319052 -0.0924229127394 0.908 1.00176024618e-38
-0.00168041659526 -0.0924229127394 0.908 1.01033507174e-38
0.0 -0.0924229127394 0.908 1.14895067505e-38
0.00168041659526 -0.0924229127394 0.908 1.07555430487e-38
0.00336083319052 -0.0924229127394 0.908 8.35704556466e-39
0.00504124978578 -0.0924229127394 0.908 1.38876721268e-38
0.00672166638105 -0.0924229127394 0.908 1.12211819167e-38
0.008420589767 -0.092626487437 0.91 1.14887710688e-38
0.0101047077204 -0.092626487437 0.91 9.27538511196e-39
0.0117888256738 -0.092626487437 0.91 1.01940988059e-38
0.0135173599249 -0.0929318494835 0.913 1.02855755697e-38
0.0152070299155 -0.0929318494835 0.913 1.23091962872e-38
0.0169337134875 -0.0931354241812 0.915 1.06568636108e-38
0.0186881572455 -0.0934407862277 0.918 1.02855755697e-38
0.0203870806315 -0.0934407862277 0.918 1.31468252469e-38
0.0220860040175 -0.0934407862277 0.918 9.09171411964e-39
0.0238367464174 -0.0936443609254 0.92 1.24028338532e-38
0.0256226517196 -0.0939497229719 0.923 2.03467191773e-38
-0.0290390052822 -0.0922415461905 0.923 1.2787421618e-38
-0.0273308285009 -0.0922415461905 0.923 7.34935081949e-39
-0.0255393711615 -0.0919417361813 0.92 7.89786528127e-39
-0.0238367464174 -0.0919417361813 0.92 8.35703015038e-39
-0.0220860040175 -0.0917418628417 0.918 8.0815236619e-39
-0.0203870806315 -0.0917418628417 0.918 8.81764256079e-39
-0.0186270848362 -0.0914420528324 0.915 8.35774761519e-39
-0.0169337134875 -0.0914420528324 0.915 8.44886564654e-39
-0.0152403421387 -0.0914420528324 0.915 7.98968816575e-39
-0.0134729436272 -0.0909423694836 0.91 9.27717877399e-39
-0.0117888256738 -0.0909423694836 0.91 1.02002028621e-38
-0.0101047077204 -0.0909423694836 0.91 1.0849891073e-38
-0.008420589767 -0.0909423694836 0.91 9.74317217051e-39
-0.0067364718136 -0.0909423694836 0.91 9.92935428968e-39
-0.00504124978578 -0.0907424961441 0.908 9.82926794816e-39
-0.00336083319052 -0.0907424961441 0.908 9.1835496158e-39
-0.00168041659526 -0.0907424961441 0.908 1.09313023098e-38
0.0 -0.0907424961441 0.908 1.05664630443e-38
0.00168041659526 -0.0907424961441 0.908 1.00100690812e-38
0.00336083319052 -0.0907424961441 0.908 1.05610820582e-38
0.0050523538602 -0.0909423694836 0.91 1.12990044282e-38
0.0067364718136 -0.0909423694836 0.91 1.17621181564e-38
0.008420589767 -0.0909423694836 0.91 1.13969285662e-38
0.0101047077204 -0.0909423694836 0.91 1.08423478833e-38
0.0118276899343 -0.0912421794929 0.913 1.13965782416e-38
0.0135173599249 -0.0912421794929 0.913 9.55089160043e-39
0.0152403421387 -0.0914420528324 0.915 1.35091589908e-38
0.0169892338596 -0.0917418628417 0.918 1.18579039129e-38
0.0186881572455 -0.0917418628417 0.918 1.15773723681e-38
0.0204314969292 -0.0919417361813 0.92 1.09320113669e-38
0.0221341216733 -0.0919417361813 0.92 1.14794832626e-38
0.0239144749383 -0.0922415461905 0.923 1.01937400735e-38
0.0256226517196 -0.0922415461905 0.923 2.34802145215e-38
-0.0291019283706 -0.0907295413906 0.925 1.31572803347e-38
-0.0273900502311 -0.0907295413906 0.925 6.3366492349e-39
-0.0255393711615 -0.0902391114372 0.92 7.98968816575e-39
-0.0238367464174 -0.0902391114372 0.92 8.0815236619e-39
-0.0221341216733 -0.0902391114372 0.92 8.54141860751e-39
-0.0203870806315 -0.0900429394558 0.918 7.89785687348e-39
-0.0186270848362 -0.0897486814837 0.915 8.63253663885e-39
-0.0169337134875 -0.0897486814837 0.915 8.63253663885e-39
-0.0152403421387 -0.0897486814837 0.915 1.02012734541e-38
-0.0135173599249 -0.0895525095023 0.913 7.16316870032e-39
-0.0118276899343 -0.0895525095023 0.913 9.09171411964e-39
-0.0101047077204 -0.0892582515302 0.91 8.90804312733e-39
-0.008420589767 -0.0892582515302 0.91 8.90804312733e-39
-0.0067364718136 -0.0892582515302 0.91 8.54070114269e-39
-0.00504124978578 -0.0890620795488 0.908 1.00100690812e-38
-0.00336083319052 -0.0890620795488 0.908 9.73456259275e-39
-0.00168041659526 -0.0890620795488 0.908 1.01019045774e-38
0.0 -0.0890620795488 0.908 1.09302303165e-38
0.00168041659526 -0.0890620795488 0.908 1.01019045774e-38
0.00336083319052 -0.0890620795488 0.908 9.45905610427e-39
0.0050523538602 -0.0892582515302 0.91 9.55089160043e-39
0.0067364718136 -0.0892582515302 0.91 1.20383421096e-38
0.008420589767 -0.0892582515302 0.91 8.90804312733e-39
0.0101380199437 -0.0895525095023 0.913 1.2125521091e-38
0.0118276899343 -0.0895525095023 0.913 1.15856288187e-38
0.0135173599249 -0.0895525095023 0.913 1.02895622638e-38
0.0152403421387 -0.0897486814837 0.915 1.15716312483e-38
0.0169892338596 -0.0900429394558 0.918 1.01019045774e-38
0.0187288721851 -0.0902391114372 0.92 1.44293412456e-38
0.0204314969292 -0.0902391114372 0.92 1.04713989565e-38
0.0221341216733 -0.0902391114372 0.92 1.00100690812e-38
0.0239144749383 -0.0905333694092 0.923 1.05610820582e-38
0.0256781720917 -0.0907295413906 0.925 2.34936109348e-38
-0.0327014991611 -0.0894988398093 0.93 1.80363479525e-38
-0.03081380651 -0.0890176632512 0.925 1.95128905391e-38
-0.0291019283706 -0.0890176632512 0.925 1.33420373333e-38
-0.0273900502311 -0.0890176632512 0.925 8.63827635736e-39
-0.0256226517196 -0.0888251926279 0.923 7.34683969264e-39
-0.0238367464174 -0.0885364866931 0.92 8.72688326186e-39
-0.0221341216733 -0.0885364866931 0.92 7.80601717343e-39
-0.0203870806315 -0.0883440160698 0.918 7.25500419648e-39
-0.0186881572455 -0.0883440160698 0.918 1.12143505867e-38
-0.0169892338596 -0.0883440160698 0.918 1.03889297392e-38
-0.0152403421387 -0.0880553101349 0.915 9.56093610782e-39
-0.0135173599249 -0.0878628395117 0.913 7.71418167727e-39
-0.0118276899343 -0.0878628395117 0.913 8.72437213501e-39
-0.0101380199437 -0.0878628395117 0.913 1.02884454289e-38
-0.00844834995305 -0.0878628395117 0.913 1.07501522535e-38
-0.00675867996244 -0.0878628395117 0.913 1.12168533057e-38
-0.0050523538602 -0.0875741335768 0.91 1.04803952926e-38
-0.0033682359068 -0.0875741335768 0.91 1.19497464155e-38
-0.0016841179534 -0.0875741335768 0.91 9.8314203426e-39
0.0 -0.0875741335768 0.91 1.08441373415e-38
0.0016841179534 -0.0875741335768 0.91 1.05715217317e-38
0.0033682359068 -0.0875741335768 0.91 8.81620763117e-39
0.0050523538602 -0.0875741335768 0.91 1.25922627809e-38
0.00675867996244 -0.0878628395117 0.913 1.00151053479e-38
0.00844834995305 -0.0878628395117 0.913 1.08387409411e-38
0.0101380199437 -0.0878628395117 0.913 9.73456259275e-39
0.0118535994412 -0.0880553101349 0.915 1.09327288317e-38
0.01354697079 -0.0880553101349 0.915 1.2597605932e-38
0.0152403421387 -0.0880553101349 0.915 1.305785961e-38
0.0169892338596 -0.0883440160698 0.918 1.0659052439e-38
0.0187288721851 -0.0885364866931 0.92 1.0469246562e-38
0.0204314969292 -0.0885364866931 0.92 1.0469246562e-38
0.022206298157 -0.0888251926279 0.923 9.91823358506e-39
0.0239662939522 -0.0890176632512 0.925 1.32286316499e-38
0.0256781720917 -0.0890176632512 0.925 2.34921619922e-38
-0.0345336714401 -0.0880608621722 0.933 1.91455485545e-38
-0.0327014991611 -0.0877777082745 0.93 1.90555445554e-38
-0.03081380651 -0.0873057851117 0.925 1.98871409252e-38
-0.0291019283706 -0.0873057851117 0.925 1.37108198528e-38
-0.0273900502311 -0.0873057851117 0.925 6.88766221185e-39
-0.0256226517196 -0.0871170158466 0.923 7.89787649166e-39
-0.0239144749383 -0.0871170158466 0.923 7.34683969264e-39
-0.0221341216733 -0.086833861949 0.92 7.16316870032e-39
-0.0204314969292 -0.086833861949 0.92 7.62234618111e-39
-0.0186881572455 -0.0866450926839 0.918 1.1764304182e-38
-0.0169892338596 -0.0866450926839 0.918 7.80601717343e-39
-0.0152403421387 -0.0863619387862 0.915 7.53051068496e-39
-0.01354697079 -0.0863619387862 0.915 1.05657581911e-38
-0.0118535994412 -0.0863619387862 0.915 8.44886564654e-39
-0.0101602280925 -0.0863619387862 0.915 1.12993785749e-38
-0.00844834995305 -0.0861731695211 0.913 1.09374470036e-38
-0.00675867996244 -0.0861731695211 0.913 9.83464893426e-39
-0.0050523538602 -0.0858900156234 0.91 9.92863682486e-39
-0.0033682359068 -0.0858900156234 0.91 9.37116666459e-39
-0.00168966999061 -0.0861731695211 0.913 9.27538511196e-39
0.0 -0.0861731695211 0.913 1.05661085158e-38
0.00168966999061 -0.0861731695211 0.913 1.12179210951e-38
0.00337933998122 -0.0861731695211 0.913 1.0020472321e-38
0.00506900997183 -0.0861731695211 0.913 9.36722060812e-39
0.00675867996244 -0.0861731695211 0.913 1.31464931391e-38
0.00844834995305 -0.0861731695211 0.913 1.08444806596e-38
0.0101602280925 -0.0863619387862 0.915 1.16728049974e-38
0.0118535994412 -0.0863619387862 0.915 1.04706814916e-38
0.01354697079 -0.0863619387862 0.915 1.00100690812e-38
0.0152903104736 -0.0866450926839 0.918 1.02855755697e-38
0.017026247441 -0.086833861949 0.92 1.08365885466e-38
0.0187288721851 -0.086833861949 0.92 1.06529175543e-38
0.0204981213757 -0.0871170158466 0.923 1.08365885466e-38
0.022206298157 -0.0871170158466 0.923 9.82639808891e-39
0.0239662939522 -0.0873057851117 0.925 1.2491066611e-38
0.0256781720917 -0.0873057851117 0.925 2.34914179027e-38
0.0273900502311 -0.0873057851117 0.925 2.20109250556e-38
-0.0361437622307 -0.0860565767397 0.93 2.20101879727e-38
-0.0344226306959 -0.0860565767397 0.93 2.26559259232e-38
-0.0327014991611 -0.0860565767397 0.93 2.33023673256e-38
-0.0309803676263 -0.0860565767397 0.93 2.22903705941e-38
-0.0292592360915 -0.0860565767397 0.93 1.28810633879e-38
-0.0275381045567 -0.0860565767397 0.93 6.70399121953e-39
-0.0257614526498 -0.0858715088327 0.928 8.26522268019e-39
-0.0240440224732 -0.0858715088327 0.928 1.06694206463e-38
-0.0222544158128 -0.0855939069723 0.925 7.89964633162e-39
-0.0204981213757 -0.0854088390653 0.923 7.34683969264e-39
-0.0187288721851 -0.0851312372049 0.92 7.53051068496e-39
-0.0169892338596 -0.0849461692979 0.918 7.98968816575e-39
-0.0152403421387 -0.0846685674374 0.915 1.01973316015e-38
-0.01354697079 -0.0846685674374 0.915 1.21370299553e-38
-0.0118535994412 -0.0846685674374 0.915 9.19040196529e-39
-0.0101602280925 -0.0846685674374 0.915 9.36901427015e-39
-0.00846685674374 -0.0846685674374 0.915 9.82711555372e-39
-0.006773485395 -0.0846685674374 0.915 9.09314904927e-39
-0.00506900997183 -0.0844834995305 0.913 9.9203859795e-39
-0.00337933998122 -0.0844834995305 0.913 8.90804312733e-39
-0.00168966999061 -0.0844834995305 0.913 1.0938504984e-38
0.0 -0.0844834995305 0.913 9.27538511196e-39
0.00168966999061 -0.0844834995305 0.913 9.55089160043e-39
0.00337933998122 -0.0844834995305 0.913 9.55089160043e-39
0.00506900997183 -0.0844834995305 0.913 9.55089160043e-39
0.006773485395 -0.0846685674374 0.915 1.05610820582e-38
0.00846685674374 -0.0846685674374 0.915 9.64272709659e-39
0.0101602280925 -0.0846685674374 0.915 9.73456259275e-39
0.0118535994412 -0.0846685674374 0.915 1.05610820582e-38
0.01354697079 -0.0846685674374 0.915 1.01937400735e-38
0.0152903104736 -0.0849461692979 0.918 1.03774110659e-38
0.017026247441 -0.0851312372049 0.92 1.11120950351e-38
0.0187288721851 -0.0851312372049 0.92 1.0469246562e-38
0.0204981213757 -0.0854088390653 0.923 1.01937400735e-38
0.022206298157 -0.0854088390653 0.923 1.17549435082e-38
0.0239662939522 -0.0855939069723 0.925 1.51625720683e-38
0.0256781720917 -0.0855939069723 0.925 2.34911040118e-38
-0.0360660337097 -0.0841540786561 0.928 2.31168816517e-38
-0.0343486035331 -0.0841540786561 0.928 2.21935058378e-38
-0.0327014991611 -0.0843354452049 0.93 2.28392255714e-38
-0.0309803676263 -0.0843354452049 0.93 2.26577209865e-38
-0.0292592360915 -0.0843354452049 0.93 1.22353408517e-38
-0.0275381045567 -0.0843354452049 0.93 6.79582671569e-39
-0.0257614526498 -0.0841540786561 0.928 8.63577083571e-39
-0.0240440224732 -0.0841540786561 0.928 8.54357100195e-39
-0.0222544158128 -0.0838820288328 0.925 6.97949770801e-39
-0.0204981213757 -0.083700662284 0.923 9.18750828396e-39
-0.0187288721851 -0.0834286124608 0.92 1.04832959804e-38
-0.017026247441 -0.0834286124608 0.92 7.07133320417e-39
-0.0152903104736 -0.0832472459119 0.918 9.45905610427e-39
-0.0135913870877 -0.0832472459119 0.918 8.0815236619e-39
-0.0118924637017 -0.0832472459119 0.918 7.62234618111e-39
-0.0101935403157 -0.0832472459119 0.918 9.73456259275e-39
-0.00846685674374 -0.0829751960887 0.915 9.73456259275e-39
-0.006773485395 -0.0829751960887 0.915 1.04778631463e-38
