# .PCD v0.7 - Point Cloud Data file format
VERSION 0.7
FIELDS x y z rgb
SIZE 4 4 4 4
TYPE F F F F
COUNT 1 1 1 1
WIDTH 844
HEIGHT 1
VIEWPOINT 0 0 0 1 0 0 0
POINTS 844
DATA ascii
0.0123329253203 -0.084788861577 0.833 1.63048517219e-38
0.0138745409853 -0.084788861577 0.833 1.81676510199e-38
0.0154161566504 -0.084788861577 0.833 1.85364209276e-38
0.0169577723154 -0.084788861577 0.833 1.81683614782e-38
0.0184993879804 -0.084788861577 0.833 1.85360621952e-38
0.0199928859897 -0.0845852868793 0.831 1.84431505019e-38
0.0215308002966 -0.0845852868793 0.831 1.91810630628e-38
0.0230687146034 -0.0845852868793 0.831 1.92743334886e-38
0.0246066289103 -0.0845852868793 0.831 1.83531086677e-38
0.0261445432172 -0.0845852868793 0.831 1.80761672496e-38
0.0276158330776 -0.0843817121817 0.829 1.91817805276e-38
0.0291500460264 -0.0843817121817 0.829 1.77063141381e-38
0.0307582861379 -0.0845852868793 0.831 1.84417155722e-38
0.0322962004448 -0.0845852868793 0.831 1.90874339046e-38
0.0339155446308 -0.084788861577 0.833 1.89963158732e-38
0.0354571602958 -0.084788861577 0.833 1.80754497848e-38
0.0369987759609 -0.084788861577 0.833 1.91810630628e-38
0.0385403916259 -0.084788861577 0.833 1.89973920705e-38
0.0400820072909 -0.084788861577 0.833 1.85371383925e-38
0.0415236862862 -0.0845852868793 0.831 1.84456616287e-38
0.0430616005931 -0.0845852868793 0.831 1.74304489173e-38
0.0445995149 -0.0845852868793 0.831 1.92750509534e-38
0.0461374292069 -0.0845852868793 0.831 1.8169078943e-38
0.0476753435138 -0.0845852868793 0.831 1.89970333381e-38
0.0492132578207 -0.0845852868793 0.831 1.74315251145e-38
0.0507511721276 -0.0845852868793 0.831 2.35089957906e-38
0.0107913096553 -0.0832472459119 0.833 2.35051183978e-38
0.0123329253203 -0.0832472459119 0.833 1.53832107154e-38
0.0138745409853 -0.0832472459119 0.833 1.78946486518e-38
0.0154161566504 -0.0832472459119 0.833 1.81683614782e-38
0.0169577723154 -0.0832472459119 0.833 1.91835741896e-38
0.0184993879804 -0.0832472459119 0.833 1.89062740391e-38
0.0199928859897 -0.0830473725724 0.831 1.89973920705e-38
0.0214789812826 -0.0828474992329 0.829 1.87211681172e-38
0.0230131942314 -0.0828474992329 0.829 1.85364209276e-38
0.0245474071801 -0.0828474992329 0.829 1.93650927875e-38
0.0260816201289 -0.0828474992329 0.829 1.94580044809e-38
0.0276158330776 -0.0828474992329 0.829 1.84435092343e-38
0.0291500460264 -0.0828474992329 0.829 1.87193744551e-38
0.0307582861379 -0.0830473725724 0.831 1.86257452969e-38
0.0322962004448 -0.0830473725724 0.831 1.85353447304e-38
0.0338341147517 -0.0830473725724 0.831 1.78003020287e-38
0.0353720290586 -0.0830473725724 0.831 1.82609144392e-38
0.0369099433655 -0.0830473725724 0.831 1.87226030468e-38
0.0384478576724 -0.0830473725724 0.831 1.8261631904e-38
0.0399857719793 -0.0830473725724 0.831 1.76155548392e-38
0.0415236862862 -0.0830473725724 0.831 1.89981095353e-38
0.0430616005931 -0.0830473725724 0.831 1.90899450314e-38
0.0445995149 -0.0830473725724 0.831 1.77091839974e-38
0.0461374292069 -0.0830473725724 0.831 1.91842916544e-38
0.0476753435138 -0.0830473725724 0.831 1.88140798106e-38
0.0492132578207 -0.0830473725724 0.831 1.72474953898e-38
0.0507511721276 -0.0830473725724 0.831 2.35094021672e-38
0.0123329253203 -0.0817056302469 0.833 1.42793896982e-38
0.0138412287621 -0.0815094582655 0.831 1.89984682677e-38
0.015379143069 -0.0815094582655 0.831 1.82587620447e-38
0.0169170573759 -0.0815094582655 0.831 1.84456616287e-38
0.0184105553851 -0.0813132862841 0.829 1.8169078943e-38
0.0199447683338 -0.0813132862841 0.829 1.83534674001e-38
0.0214789812826 -0.0813132862841 0.829 1.88158734726e-38
0.0230131942314 -0.0813132862841 0.829 1.8169078943e-38
0.0245474071801 -0.0813132862841 0.829 1.91799868656e-38
0.0260816201289 -0.0813132862841 0.829 1.85364209276e-38
0.0276158330776 -0.0813132862841 0.829 1.9089586299e-38
0.0291500460264 -0.0813132862841 0.829 1.84431505019e-38
0.0307582861379 -0.0815094582655 0.831 1.87197331875e-38
0.0322962004448 -0.0815094582655 0.831 1.77073903354e-38
0.0337526848727 -0.0813132862841 0.829 1.89988270001e-38
0.0352868978214 -0.0813132862841 0.829 1.84438679667e-38
0.0368211107702 -0.0813132862841 0.829 1.83527499353e-38
0.0384478576724 -0.0815094582655 0.831 1.80779609117e-38
0.0399857719793 -0.0815094582655 0.831 1.8169078943e-38
0.0414237496164 -0.0813132862841 0.829 1.89981095353e-38
0.0429579625652 -0.0813132862841 0.829 1.85360621952e-38
0.0445995149 -0.0815094582655 0.831 1.8261631904e-38
0.0461374292069 -0.0815094582655 0.831 1.8908785166e-38
0.0476753435138 -0.0815094582655 0.831 1.89995444649e-38
0.0492132578207 -0.0815094582655 0.831 2.01955583094e-38
0.0507511721276 -0.0815094582655 0.831 8.56007269266e-39
0.0138412287621 -0.0799715439586 0.831 1.93647340551e-38
0.015379143069 -0.0799715439586 0.831 1.87208093848e-38
0.0169170573759 -0.0799715439586 0.831 1.88137210781e-38
0.0184105553851 -0.0797790733354 0.829 1.87215268496e-38
0.0199447683338 -0.0797790733354 0.829 1.9549839977e-38
0.0214789812826 -0.0797790733354 0.829 1.82609144392e-38
0.0230131942314 -0.0797790733354 0.829 1.88147972754e-38
0.0245474071801 -0.0797790733354 0.829 1.89966746057e-38
0.0260816201289 -0.0797790733354 0.829 1.89062740391e-38
0.0276158330776 -0.0797790733354 0.829 1.87215268496e-38
0.0291500460264 -0.0797790733354 0.829 1.8814438543e-38
0.0306842589751 -0.0797790733354 0.829 1.79843317535e-38
0.0322184719239 -0.0797790733354 0.829 1.78003020287e-38
0.0337526848727 -0.0797790733354 0.829 1.89048391095e-38
0.0352868978214 -0.0797790733354 0.829 1.94565695513e-38
0.0368211107702 -0.0797790733354 0.829 1.79839730211e-38
0.0383553237189 -0.0797790733354 0.829 1.77099014622e-38
0.0398895366677 -0.0797790733354 0.829 1.87222443144e-38
0.0414237496164 -0.0797790733354 0.829 1.86314850155e-38
0.0429579625652 -0.0797790733354 0.829 1.84460203611e-38
0.0445995149 -0.0799715439586 0.831 1.85385733221e-38
0.0461374292069 -0.0799715439586 0.831 1.79857666831e-38
0.0476753435138 -0.0799715439586 0.831 1.89069915039e-38
0.0492132578207 -0.0799715439586 0.831 2.09331121379e-38
0.0507511721276 -0.0799715439586 0.831 6.07477457789e-39
0.0122737035901 -0.0782448603866 0.829 1.30761549627e-38
0.0138079165388 -0.0782448603866 0.829 2.02856323734e-38
0.0153421294876 -0.0782448603866 0.829 1.89977508029e-38
0.0168356274968 -0.0780560911215 0.827 1.77102601946e-38
0.0183661390874 -0.0780560911215 0.827 1.72478541222e-38
0.019896650678 -0.0780560911215 0.827 1.86286151562e-38
0.0214271622687 -0.0780560911215 0.827 1.84438679667e-38
0.0229576738593 -0.0780560911215 0.827 1.87222443144e-38
0.0245474071801 -0.0782448603866 0.829 1.8629332621e-38
0.0260816201289 -0.0782448603866 0.829 1.84460203611e-38
0.0276158330776 -0.0782448603866 0.829 1.80779609117e-38
0.0291500460264 -0.0782448603866 0.829 1.77099014622e-38
0.0306842589751 -0.0782448603866 0.829 1.8261631904e-38
0.0322184719239 -0.0782448603866 0.829 1.8629332621e-38
0.0337526848727 -0.0782448603866 0.829 1.82594795095e-38
0.0352868978214 -0.0782448603866 0.829 1.85353447304e-38
0.0368211107702 -0.0782448603866 0.829 1.80761672496e-38
0.0383553237189 -0.0782448603866 0.829 1.76177072337e-38
0.0398895366677 -0.0782448603866 0.829 1.85385733221e-38
0.0414237496164 -0.0782448603866 0.829 1.8354184865e-38
0.0429579625652 -0.0782448603866 0.829 1.88147972754e-38
0.044492175514 -0.0782448603866 0.829 1.85385733221e-38
0.0461374292069 -0.0784336296517 0.831 1.83545435974e-38
0.0476753435138 -0.0784336296517 0.831 1.9089586299e-38
0.0492132578207 -0.0784336296517 0.831 2.13015373263e-38
0.0507511721276 -0.0784336296517 0.831 9.30013764803e-39
0.0122737035901 -0.0767106474379 0.829 1.21520602826e-38
0.0138079165388 -0.0767106474379 0.829 1.68751829995e-38
0.0153421294876 -0.0767106474379 0.829 1.88147972754e-38
0.0168356274968 -0.0765255795309 0.827 1.80790371089e-38
0.0183661390874 -0.0765255795309 0.827 1.86311262831e-38
0.019896650678 -0.0765255795309 0.827 1.85371383925e-38
0.0214271622687 -0.0765255795309 0.827 1.89051978419e-38
0.0229576738593 -0.0765255795309 0.827 1.89051978419e-38
0.0244881854499 -0.0765255795309 0.827 1.83527499353e-38
0.0260186970405 -0.0765255795309 0.827 1.85382145897e-38
0.0275492086311 -0.0765255795309 0.827 1.81705138726e-38
0.0290797202217 -0.0765255795309 0.827 1.83534674001e-38
0.0306102318124 -0.0765255795309 0.827 1.87215268496e-38
0.032140743403 -0.0765255795309 0.827 1.83538261325e-38
0.0336712549936 -0.0765255795309 0.827 1.8261631904e-38
0.0352017665842 -0.0765255795309 0.827 1.86289738886e-38
0.0367322781748 -0.0765255795309 0.827 1.83527499353e-38
0.0382627897654 -0.0765255795309 0.827 1.84467378259e-38
0.0397933013561 -0.0765255795309 0.827 1.93679626468e-38
0.0413238129467 -0.0765255795309 0.827 1.88119274161e-38
0.0428543245373 -0.0765255795309 0.827 1.89966746057e-38
0.0443848361279 -0.0765255795309 0.827 1.84456616287e-38
0.0459153477185 -0.0765255795309 0.827 1.80772434468e-38
0.0474458593092 -0.0765255795309 0.827 1.92750509534e-38
0.0492132578207 -0.0768957153448 0.831 2.13001051992e-38
0.0507511721276 -0.0768957153448 0.831 8.1912957784e-39
0.0122737035901 -0.0751764344891 0.829 1.37090261908e-38
0.0138079165388 -0.0751764344891 0.829 1.1804089848e-38
0.0153421294876 -0.0751764344891 0.829 1.9273631438e-38
0.0168356274968 -0.0749950679403 0.827 1.93654515199e-38
0.0183661390874 -0.0749950679403 0.827 1.82605557068e-38
0.019896650678 -0.0749950679403 0.827 1.8261631904e-38
0.0214271622687 -0.0749950679403 0.827 1.85382145897e-38
0.0229576738593 -0.0749950679403 0.827 1.82612731716e-38
0.0244881854499 -0.0749950679403 0.827 1.85364209276e-38
0.0260186970405 -0.0749950679403 0.827 1.81705138726e-38
0.0275492086311 -0.0749950679403 0.827 1.80779609117e-38
0.0290797202217 -0.0749950679403 0.827 1.89973920705e-38
0.0306102318124 -0.0749950679403 0.827 1.9089586299e-38
0.032140743403 -0.0749950679403 0.827 1.89062740391e-38
0.0336712549936 -0.0749950679403 0.827 2.01955583094e-38
0.0352017665842 -0.0749950679403 0.827 1.8721885582e-38
0.0367322781748 -0.0749950679403 0.827 1.83545435974e-38
0.0382627897654 -0.0749950679403 0.827 1.7708825265e-38
0.0397933013561 -0.0749950679403 0.827 1.75233606106e-38
0.0413238129467 -0.0749950679403 0.827 1.93661689847e-38
0.0428543245373 -0.0749950679403 0.827 1.94569282837e-38
0.0442774967419 -0.0748137013915 0.825 1.87222443144e-38
0.0458043069744 -0.0748137013915 0.825 2.02899049324e-38
0.0473311172068 -0.0748137013915 0.825 1.54043282833e-38
0.0488579274393 -0.0748137013915 0.825 2.10231777941e-38
0.0503847376718 -0.0748137013915 0.825 8.64832086475e-39
0.0122737035901 -0.0736422215403 0.829 1.56429876286e-38
0.0138079165388 -0.0736422215403 0.829 1.01399302125e-38
0.0153051159062 -0.0734645563497 0.827 1.3923843844e-38
0.0168356274968 -0.0734645563497 0.827 2.01913291906e-38
0.0183661390874 -0.0734645563497 0.827 1.96402405436e-38
0.019896650678 -0.0734645563497 0.827 1.8354184865e-38
0.0213753432547 -0.073286891159 0.825 1.79857666831e-38
0.0229021534872 -0.073286891159 0.825 1.83538261325e-38
0.0244289637197 -0.073286891159 0.825 1.82612731716e-38
0.0259557739521 -0.073286891159 0.825 1.7341124548e-38
0.0275492086311 -0.0734645563497 0.827 1.78932137221e-38
0.0290797202217 -0.0734645563497 0.827 1.89059153067e-38
0.0306102318124 -0.0734645563497 0.827 1.82609144392e-38
0.032140743403 -0.0734645563497 0.827 1.88133623457e-38
0.0336712549936 -0.0734645563497 0.827 1.79828968238e-38
0.0352017665842 -0.0734645563497 0.827 1.83527499353e-38
0.0367322781748 -0.0734645563497 0.827 1.85392907869e-38
0.0382627897654 -0.0734645563497 0.827 1.83545435974e-38
0.0397933013561 -0.0734645563497 0.827 1.80761672496e-38
0.0413238129467 -0.0734645563497 0.827 1.84460203611e-38
0.0428543245373 -0.0734645563497 0.827 1.83534674001e-38
0.0442774967419 -0.073286891159 0.825 1.95516336391e-38
0.0458043069744 -0.073286891159 0.825 1.61397297174e-38
0.0473311172068 -0.073286891159 0.825 1.57734639299e-38
0.0488579274393 -0.073286891159 0.825 1.84420743046e-38
0.0503847376718 -0.073286891159 0.825 9.66030498453e-39
0.0519115479043 -0.073286891159 0.825 1.73569087739e-38
0.0122737035901 -0.0721080085916 0.829 1.53628050072e-38
0.0138079165388 -0.0721080085916 0.829 1.17969151998e-38
0.0153051159062 -0.071934044759 0.827 1.10629486954e-38
0.0168356274968 -0.071934044759 0.827 1.46603298831e-38
0.0183661390874 -0.071934044759 0.827 1.94558534877e-38
0.019896650678 -0.071934044759 0.827 1.85364209276e-38
0.0213753432547 -0.0717600809265 0.825 1.79857666831e-38
0.0229021534872 -0.0717600809265 0.825 1.84460203611e-38
0.0244289637197 -0.0717600809265 0.825 1.85382145897e-38
0.0259557739521 -0.0717600809265 0.825 1.84470965583e-38
0.0274825841846 -0.0717600809265 0.825 1.93686801116e-38
0.0290093944171 -0.0717600809265 0.825 1.77995901691e-38
0.0305362046496 -0.0717600809265 0.825 1.81683614782e-38
0.0320630148821 -0.0717600809265 0.825 1.85385733221e-38
0.0335898251145 -0.0717600809265 0.825 1.81705138726e-38
0.035116635347 -0.0717600809265 0.825 1.80768847144e-38
0.0366434455795 -0.0717600809265 0.825 1.89991857325e-38
0.038170255812 -0.0717600809265 0.825 1.87226030468e-38
0.0397933013561 -0.071934044759 0.827 1.8169078943e-38
0.0413238129467 -0.071934044759 0.827 1.88147972754e-38
0.0428543245373 -0.071934044759 0.827 1.95519923715e-38
0.0442774967419 -0.0717600809265 0.825 1.76137611772e-38
0.0458043069744 -0.0717600809265 0.825 1.4386604445e-38
0.0472163751045 -0.0715861170939 0.823 1.9087445115e-38
0.0487394839789 -0.0715861170939 0.823 1.64130838114e-38
0.0502625928532 -0.0715861170939 0.823 1.03975000806e-38
0.0516598555508 -0.0714121532614 0.821 1.70814022854e-38
0.0122737035901 -0.0705737956428 0.829 1.3149755362e-38
0.0138079165388 -0.0705737956428 0.829 1.51138096844e-38
0.0153051159062 -0.0704035331684 0.827 1.23493631064e-38
0.0168356274968 -0.0704035331684 0.827 1.15242785706e-38
0.0183661390874 -0.0704035331684 0.827 1.27271083308e-38
0.0198485330222 -0.070233270694 0.825 1.88133959769e-38
0.0213753432547 -0.070233270694 0.825 1.98271401275e-38
0.0229021534872 -0.070233270694 0.825 1.86296913534e-38
0.0244289637197 -0.070233270694 0.825 1.87222443144e-38
0.0259557739521 -0.070233270694 0.825 1.94605156077e-38
0.0274825841846 -0.070233270694 0.825 1.7708825265e-38
0.0290093944171 -0.070233270694 0.825 1.82605557068e-38
0.0305362046496 -0.070233270694 0.825 1.81697964078e-38
0.0320630148821 -0.070233270694 0.825 1.7801378226e-38
0.0335898251145 -0.070233270694 0.825 1.79857666831e-38
0.035116635347 -0.070233270694 0.825 1.81701551402e-38
0.0366434455795 -0.070233270694 0.825 1.8169078943e-38
0.038170255812 -0.070233270694 0.825 1.85382145897e-38
0.0396970660444 -0.070233270694 0.825 1.91824979924e-38
0.0412238762769 -0.070233270694 0.825 1.99200518209e-38
0.0427506865094 -0.070233270694 0.825 1.58627882993e-38
0.0442774967419 -0.070233270694 0.825 1.35568563879e-38
0.0456932662302 -0.0700630082196 0.823 1.71506502516e-38
0.0471016330022 -0.0698927457452 0.821 1.66885902999e-38
0.0486210405184 -0.0698927457452 0.821 1.57634194226e-38
0.0501404480346 -0.0698927457452 0.821 1.12233020812e-38
0.0516598555508 -0.0698927457452 0.821 1.64385538123e-38
0.0123033144552 -0.0692061438103 0.831 1.15831527243e-38
0.0138079165388 -0.0690395826941 0.829 1.2809981122e-38
0.0153051159062 -0.0688730215778 0.827 1.20752915476e-38
0.0168356274968 -0.0688730215778 0.827 1.25366214228e-38
0.0183217227897 -0.0687064604615 0.825 1.18959253441e-38
0.0198485330222 -0.0687064604615 0.825 1.12527181386e-38
0.0213753432547 -0.0687064604615 0.825 1.51248869487e-38
0.0228466331151 -0.0685398993453 0.823 1.83513150057e-38
0.0243697419894 -0.0685398993453 0.823 1.97331522369e-38
0.0258928508638 -0.0685398993453 0.823 2.01948408446e-38
0.0274159597381 -0.0685398993453 0.823 2.0195199577e-38
0.0289390686124 -0.0685398993453 0.823 1.94572870161e-38
0.0304621774868 -0.0685398993453 0.823 1.85357034628e-38
0.0319852863611 -0.0685398993453 0.823 1.89973920705e-38
0.0335083952355 -0.0685398993453 0.823 1.96420342056e-38
0.0350315041098 -0.0685398993453 0.823 1.90892275666e-38
0.0365546129841 -0.0685398993453 0.823 1.99178994265e-38
0.038170255812 -0.0687064604615 0.825 1.83523912029e-38
0.0396970660444 -0.0687064604615 0.825 1.62315652135e-38
0.0412238762769 -0.0687064604615 0.825 1.37419623099e-38
0.0427506865094 -0.0687064604615 0.825 1.35597262472e-38
0.0442774967419 -0.0687064604615 0.825 1.49397698164e-38
0.0456932662302 -0.0685398993453 0.823 1.58574073132e-38
0.0471016330022 -0.068373338229 0.821 1.5858124778e-38
0.0485025970579 -0.0682067771127 0.819 1.71470503158e-38
0.050018303216 -0.0682067771127 0.819 9.84146484999e-39
0.0515340093741 -0.0682067771127 0.819 1.54283633545e-38
0.0530497155321 -0.0682067771127 0.819 1.63582005557e-38
0.00318316799983 -0.0700296959964 0.86 2.35098225567e-38
0.0123033144552 -0.0676682295035 0.831 1.12154492047e-38
0.0138412287621 -0.0676682295035 0.831 1.26248695949e-38
0.0153051159062 -0.0673425099872 0.827 1.19834560514e-38
0.0168356274968 -0.0673425099872 0.827 1.22600387371e-38
0.0183217227897 -0.0671796502291 0.825 1.2722803542e-38
0.0198485330222 -0.0671796502291 0.825 1.26316855106e-38
0.0213753432547 -0.0671796502291 0.825 1.16200601232e-38
0.0228466331151 -0.0670167904709 0.823 1.24490907155e-38
0.0243697419894 -0.0670167904709 0.823 1.44755700819e-38
0.0258928508638 -0.0670167904709 0.823 1.60435894323e-38
0.0274159597381 -0.0670167904709 0.823 1.77956385075e-38
0.0289390686124 -0.0670167904709 0.823 1.81651328865e-38
0.0304621774868 -0.0670167904709 0.823 1.85353447304e-38
0.0319852863611 -0.0670167904709 0.823 1.87215268496e-38
0.0335083952355 -0.0670167904709 0.823 1.74308076497e-38
0.0350315041098 -0.0670167904709 0.823 1.60461005592e-38
0.0365546129841 -0.0670167904709 0.823 1.52156350373e-38
0.038170255812 -0.0671796502291 0.825 1.30973201747e-38
0.0396970660444 -0.0671796502291 0.825 1.355865005e-38
0.0412238762769 -0.0671796502291 0.825 1.39259920346e-38
0.0427506865094 -0.0671796502291 0.825 1.42014985231e-38
0.0441701573558 -0.0670167904709 0.823 1.45684817753e-38
0.0456932662302 -0.0670167904709 0.823 1.64102139521e-38
0.0471016330022 -0.0668539307128 0.821 1.59492428093e-38
0.0485025970579 -0.0666910709547 0.819 1.39191761189e-38
0.050018303216 -0.0666910709547 0.819 1.15949488548e-38
0.0515340093741 -0.0666910709547 0.819 1.58000101281e-38
0.0530497155321 -0.0666910709547 0.819 1.61680695775e-38
0.00318316799983 -0.0684381119964 0.86 2.35098393723e-38
0.00477475199975 -0.0684381119964 0.86 7.4386751888e-39
0.00636633599967 -0.0684381119964 0.86 8.72437213501e-39
0.00952729585067 -0.0682789535964 0.858 9.91823358506e-39
0.0111151784924 -0.0682789535964 0.858 8.72437213501e-39
0.0122440927249 -0.0658119983966 0.827 1.00133060807e-38
0.0137746043156 -0.0658119983966 0.827 1.15167451901e-38
0.0153051159062 -0.0658119983966 0.827 1.21674857761e-38
0.0168356274968 -0.0658119983966 0.827 1.21685619733e-38
0.0183661390874 -0.0658119983966 0.827 1.23543853601e-38
0.0198485330222 -0.0656528399966 0.825 1.26316855106e-38
0.0213753432547 -0.0656528399966 0.825 1.37380162534e-38
0.0229021534872 -0.0656528399966 0.825 1.34621510325e-38
0.0244289637197 -0.0656528399966 0.825 1.28164327001e-38
0.0258928508638 -0.0654936815966 0.823 1.38294930171e-38
0.0274159597381 -0.0654936815966 0.823 1.28164327001e-38
0.0289390686124 -0.0654936815966 0.823 1.28196612918e-38
0.0304621774868 -0.0654936815966 0.823 1.20839011253e-38
0.0319852863611 -0.0654936815966 0.823 1.21768128187e-38
0.0335083952355 -0.0654936815966 0.823 1.28225311511e-38
0.0350315041098 -0.0654936815966 0.823 1.30976789071e-38
0.0365546129841 -0.0654936815966 0.823 1.3741244845e-38
0.038170255812 -0.0656528399966 0.825 1.44787986736e-38
0.0396970660444 -0.0656528399966 0.825 1.4386604445e-38
0.0412238762769 -0.0656528399966 0.825 1.46613934687e-38
0.0427506865094 -0.0656528399966 0.825 1.47525115e-38
0.0441701573558 -0.0654936815966 0.823 1.52120477132e-38
0.0456932662302 -0.0654936815966 0.823 1.50273005237e-38
0.0471016330022 -0.0653345231966 0.821 1.51177010902e-38
0.0485025970579 -0.0651753647966 0.819 1.46542188205e-38
0.050018303216 -0.0651753647966 0.819 1.25104339571e-38
0.0515340093741 -0.0651753647966 0.819 1.60769529475e-38
0.0554463449273 -0.0681197951965 0.856 1.63499469078e-38
0.057030526211 -0.0681197951965 0.856 1.53393977176e-38
0.0586147074946 -0.0681197951965 0.856 1.31324759506e-38
0.0601988887783 -0.0681197951965 0.856 2.34713737295e-38
0.00159158399992 -0.0668465279965 0.86 2.35004324557e-38
0.00318316799983 -0.0668465279965 0.86 2.35098351684e-38
0.00477475199975 -0.0668465279965 0.86 7.53051068496e-39
0.00635153056711 -0.0666910709547 0.858 8.81620763117e-39
0.00793941320889 -0.0666910709547 0.858 1.0469246562e-38
0.00952729585067 -0.0666910709547 0.858 9.82639808891e-39
0.0111151784924 -0.0666910709547 0.858 9.36722060812e-39
0.0127030611342 -0.0666910709547 0.858 8.99987862348e-39
0.0138079165388 -0.0644369438478 0.829 1.0960351227e-38
0.0153421294876 -0.0644369438478 0.829 1.143029068e-38
0.0168356274968 -0.064281486806 0.827 1.2630250581e-38
0.0183661390874 -0.064281486806 0.827 1.24458621238e-38
0.019896650678 -0.064281486806 0.827 1.21703556354e-38
0.0213753432547 -0.0641260297641 0.825 1.29997449601e-38
0.0229021534872 -0.0641260297641 0.825 1.39227634429e-38
0.0244289637197 -0.0641260297641 0.825 1.39227634429e-38
0.0258928508638 -0.0639705727222 0.823 1.37387337182e-38
0.0274159597381 -0.0639705727222 0.823 1.35550627259e-38
0.0289390686124 -0.0639705727222 0.823 1.39252745698e-38
0.0304621774868 -0.0639705727222 0.823 1.39259920346e-38
0.0319852863611 -0.0639705727222 0.823 1.40174687983e-38
0.0335083952355 -0.0639705727222 0.823 1.38330803412e-38
0.0350315041098 -0.0639705727222 0.823 1.39259920346e-38
0.0365546129841 -0.0639705727222 0.823 1.37416035775e-38
0.038170255812 -0.0641260297641 0.825 1.44784399412e-38
0.0396970660444 -0.0641260297641 0.825 1.4384810783e-38
0.0412238762769 -0.0641260297641 0.825 1.53067530686e-38
0.0428543245373 -0.064281486806 0.827 1.47517940352e-38
0.0442774967419 -0.0641260297641 0.825 1.53964361703e-38
0.0456932662302 -0.0639705727222 0.823 1.50265830589e-38
0.0471016330022 -0.0638151156804 0.821 1.41957588045e-38
0.0486210405184 -0.0638151156804 0.821 1.50176147487e-38
0.0524001271787 -0.0666910709547 0.858 1.46212294521e-38
0.0538621636437 -0.0665356139128 0.856 1.61723827742e-38
0.0554463449273 -0.0665356139128 0.856 1.77357456098e-38
0.057030526211 -0.0665356139128 0.856 1.69102883286e-38
0.0586147074946 -0.0665356139128 0.856 1.43263374006e-38
0.0601988887783 -0.0665356139128 0.856 2.34702695063e-38
0.0617830700619 -0.0665356139128 0.856 2.35098323658e-38
0.00159158399992 -0.0652549439966 0.86 2.35015100542e-38
0.00318316799983 -0.0652549439966 0.86 2.35098183528e-38
0.00477475199975 -0.0652549439966 0.86 7.34683969264e-39
0.00635153056711 -0.0651031883129 0.858 9.09171411964e-39
0.00793941320889 -0.0651031883129 0.858 1.06529175543e-38
0.00952729585067 -0.0651031883129 0.858 1.00100690812e-38
0.0111151784924 -0.0651031883129 0.858 9.55089160043e-39
0.0127030611342 -0.0651031883129 0.858 8.54070114269e-39
0.0138079165388 -0.062902730899 0.829 1.18729832857e-38
0.0153421294876 -0.062902730899 0.829 1.1428497018e-38
0.0168763424363 -0.062902730899 0.829 1.14331605393e-38
0.0183661390874 -0.0627509752153 0.827 1.16157553344e-38
0.019896650678 -0.0627509752153 0.827 1.21692794382e-38
0.0214271622687 -0.0627509752153 0.827 1.30926566534e-38
0.0229021534872 -0.0625992195316 0.825 1.30926566534e-38
0.0244289637197 -0.0625992195316 0.825 1.28164327001e-38
0.0258928508638 -0.0624474638479 0.823 1.40153164039e-38
0.0274159597381 -0.0624474638479 0.823 1.38309279468e-38
0.0289390686124 -0.0624474638479 0.823 1.26341966375e-38
0.0304621774868 -0.0624474638479 0.823 1.31870032764e-38
0.0319852863611 -0.0624474638479 0.823 1.30955265127e-38
0.0335083952355 -0.0624474638479 0.823 1.32802737022e-38
0.0350315041098 -0.0624474638479 0.823 1.34646621594e-38
0.0365546129841 -0.0624474638479 0.823 1.39252745698e-38
0.038170255812 -0.0625992195316 0.825 1.39231221753e-38
0.0396970660444 -0.0625992195316 0.825 1.47514353028e-38
0.0413238129467 -0.0627509752153 0.827 1.43837345857e-38
0.0428543245373 -0.0627509752153 0.827 1.47514353028e-38
0.0443848361279 -0.0627509752153 0.827 1.49340300979e-38
0.0459153477185 -0.0627509752153 0.827 1.49340300979e-38
0.0474458593092 -0.0627509752153 0.827 1.39177411892e-38
0.0506938010764 -0.0649514326292 0.856 1.29782210156e-38
0.0521558375415 -0.0647996769455 0.854 1.63574802883e-38
0.053736317467 -0.0647996769455 0.854 1.6726615935e-38
0.0553167973925 -0.0647996769455 0.854 1.74602405226e-38
0.056897277318 -0.0647996769455 0.854 1.64468088615e-38
0.0586147074946 -0.0649514326292 0.856 1.54283633545e-38
0.060058237169 -0.0647996769455 0.854 2.34760316455e-38
0.0616387170945 -0.0647996769455 0.854 2.35098309645e-38
0.06321919702 -0.0647996769455 0.854 2.35080064739e-38
0.00159158399992 -0.0636633599967 0.86 2.34986415963e-38
0.00318316799983 -0.0636633599967 0.86 2.35098365697e-38
0.00476364792533 -0.0635153056711 0.858 6.42991966069e-39
0.00635153056711 -0.0635153056711 0.858 8.72437213501e-39
0.00793941320889 -0.0635153056711 0.858 1.06529175543e-38
0.00952729585067 -0.0635153056711 0.858 1.02855755697e-38
0.0110892689855 -0.0633672513455 0.856 9.55089160043e-39
0.0126734502691 -0.0633672513455 0.856 9.09171411964e-39
0.0142576315527 -0.0633672513455 0.856 9.64524943382e-39
0.0153421294876 -0.0613685179503 0.829 1.02256672577e-38
0.0168763424363 -0.0613685179503 0.829 1.1615396602e-38
0.0184105553851 -0.0613685179503 0.829 1.12476958849e-38
0.0199447683338 -0.0613685179503 0.829 1.23540266277e-38
0.0214271622687 -0.0612204636247 0.827 1.21703556354e-38
0.0229576738593 -0.0612204636247 0.827 1.29093443935e-38
0.0244881854499 -0.0612204636247 0.827 1.2817150165e-38
0.0259557739521 -0.0610724092991 0.825 1.364510456e-38
0.0274825841846 -0.0610724092991 0.825 1.33706742688e-38
0.0290093944171 -0.0610724092991 0.825 1.25398500144e-38
0.0305362046496 -0.0610724092991 0.825 1.41085868297e-38
0.0320630148821 -0.0610724092991 0.825 1.40160338687e-38
0.0335083952355 -0.0609243549736 0.823 1.36461807572e-38
0.0350315041098 -0.0609243549736 0.823 1.41078693649e-38
0.0366434455795 -0.0610724092991 0.825 1.40156751363e-38
0.038170255812 -0.0610724092991 0.825 1.45659706484e-38
0.0397933013561 -0.0612204636247 0.827 1.45659706484e-38
0.0413238129467 -0.0612204636247 0.827 1.36447458276e-38
0.0429579625652 -0.0613685179503 0.829 1.40124465446e-38
0.0443848361279 -0.0612204636247 0.827 1.41039233084e-38
0.0459153477185 -0.0612204636247 0.827 1.42861593711e-38
0.0491096197928 -0.0633672513455 0.856 1.32655656735e-38
0.0506938010764 -0.0633672513455 0.856 1.3976573304e-38
0.0521558375415 -0.06321919702 0.854 1.66319203887e-38
0.053736317467 -0.06321919702 0.854 1.68191871128e-38
0.0553167973925 -0.06321919702 0.854 1.70036106024e-38
0.056897277318 -0.06321919702 0.854 1.57121333001e-38
0.0586147074946 -0.0633672513455 0.856 1.44181728968e-38
0.060058237169 -0.06321919702 0.854 2.34840554806e-38
0.0616387170945 -0.06321919702 0.854 2.35098253593e-38
0.06321919702 -0.06321919702 0.854 2.35083596011e-38
0.00158788264178 -0.0619274230293 0.858 2.35029884241e-38
0.00317576528356 -0.0619274230293 0.858 2.35098365697e-38
0.00476364792533 -0.0619274230293 0.858 6.613590653e-39
0.00635153056711 -0.0619274230293 0.858 8.63253663885e-39
0.00793941320889 -0.0619274230293 0.858 1.03774110659e-38
0.00950508770183 -0.0617830700619 0.856 1.0469246562e-38
0.0110892689855 -0.0617830700619 0.856 9.73456259275e-39
0.012643839404 -0.0616387170945 0.854 9.55089160043e-39
0.0141743509946 -0.0614221876433 0.851 7.80601717343e-39
0.0157492788829 -0.0614221876433 0.851 1.214099563e-38
0.0169170573759 -0.059978657969 0.831 1.15192563169e-38
0.0184549716828 -0.059978657969 0.831 1.17075908305e-38
0.0199447683338 -0.0598343050015 0.829 1.16157553344e-38
0.0214789812826 -0.0598343050015 0.829 1.23543853601e-38
0.0230131942314 -0.0598343050015 0.829 1.23558202897e-38
0.0245474071801 -0.0598343050015 0.829 1.24480145183e-38
0.0260186970405 -0.0596899520341 0.827 1.28164327001e-38
0.0275492086311 -0.0596899520341 0.827 1.27238797392e-38
0.0290797202217 -0.0596899520341 0.827 1.34628684973e-38
0.0305362046496 -0.0595455990667 0.825 1.28193025594e-38
0.0320630148821 -0.0595455990667 0.825 1.31877207413e-38
0.0335898251145 -0.0595455990667 0.825 1.43837345857e-38
0.035116635347 -0.0595455990667 0.825 1.43840933182e-38
0.0367322781748 -0.0596899520341 0.827 1.37383749858e-38
0.0382627897654 -0.0596899520341 0.827 1.429046416e-38
0.0398895366677 -0.0598343050015 0.829 1.44744938847e-38
0.0414237496164 -0.0598343050015 0.829 1.38280580875e-38
0.0429579625652 -0.0598343050015 0.829 1.4196117537e-38
0.044492175514 -0.0598343050015 0.829 1.33660107475e-38
0.0464705514394 -0.0604117168713 0.837 1.49268554497e-38
0.048822764537 -0.0614221876433 0.851 1.25143800136e-38
0.050575357616 -0.0616387170945 0.854 1.6726615935e-38
0.0521558375415 -0.0616387170945 0.854 1.62634923977e-38
0.053736317467 -0.0616387170945 0.854 1.65429505479e-38
0.0553167973925 -0.0616387170945 0.854 1.663264486e-38
0.056897277318 -0.0616387170945 0.854 1.63571271611e-38
0.0584777572435 -0.0616387170945 0.854 1.42345019045e-38
0.060058237169 -0.0616387170945 0.854 2.34972865407e-38
0.0616387170945 -0.0616387170945 0.854 2.35098323658e-38
0.06321919702 -0.0616387170945 0.854 2.3509809945e-38
0.00158418128364 -0.0601988887783 0.856 2.35000470986e-38
0.00316836256728 -0.0601988887783 0.856 2.35098071424e-38
0.00475254385092 -0.0601988887783 0.856 6.34095402378e-39
0.00633672513455 -0.0601988887783 0.856 8.35703015038e-39
0.00792090641819 -0.0601988887783 0.856 1.08365885466e-38
0.00950508770183 -0.0601988887783 0.856 1.03774110659e-38
0.0110633594785 -0.060058237169 0.854 9.91823358506e-39
0.012643839404 -0.060058237169 0.854 9.64272709659e-39
0.0141743509946 -0.059847259755 0.851 8.72437213501e-39
0.0157122653015 -0.0597066081457 0.849 7.16316870032e-39
0.0169984872549 -0.0587220468807 0.835 1.27038145465e-38
0.0184993879804 -0.0585813952714 0.833 1.06891495274e-38
0.0200410036455 -0.0585813952714 0.833 1.10622312306e-38
0.0215308002966 -0.0584407436621 0.831 1.12473371525e-38
0.0230687146034 -0.0584407436621 0.831 1.18005025239e-38
0.0246066289103 -0.0584407436621 0.831 1.24469383211e-38
0.0261445432172 -0.0584407436621 0.831 1.26316855106e-38
0.0276158330776 -0.0583000920528 0.829 1.30926566534e-38
0.0291500460264 -0.0583000920528 0.829 1.33706742688e-38
0.0306842589751 -0.0583000920528 0.829 1.2818943827e-38
0.0322184719239 -0.0583000920528 0.829 1.25412849441e-38
0.0337526848727 -0.0583000920528 0.829 1.30022560869e-38
0.0352868978214 -0.0583000920528 0.829 1.31870032764e-38
0.0368211107702 -0.0583000920528 0.829 1.33724679308e-38
0.0383553237189 -0.0583000920528 0.829 1.34621510325e-38
0.0398895366677 -0.0583000920528 0.829 1.36454632924e-38
0.0414237496164 -0.0583000920528 0.829 1.30001036925e-38
0.0430616005931 -0.0584407436621 0.831 1.3643310898e-38
0.0445995149 -0.0584407436621 0.831 1.43765599376e-38
0.0464705514394 -0.05886269849 0.837 1.13208772959e-38
0.0485932803324 -0.0595659565364 0.847 1.32243114468e-38
0.0503976924253 -0.059847259755 0.851 1.69946100624e-38
0.0519726203136 -0.059847259755 0.851 1.68134291775e-38
0.0535475482019 -0.059847259755 0.851 1.68177395715e-38
0.0553167973925 -0.060058237169 0.854 1.66348112674e-38
0.056897277318 -0.060058237169 0.854 1.62634923977e-38
0.0582723318667 -0.059847259755 0.851 1.37753244237e-38
0.059847259755 -0.059847259755 0.851 2.35019416542e-38
0.0616387170945 -0.060058237169 0.854 2.35098365697e-38
0.06321919702 -0.060058237169 0.854 2.35094652256e-38
0.00158418128364 -0.0586147074946 0.856 2.35011653348e-38
0.00316836256728 -0.0586147074946 0.856 2.35098225567e-38
0.00475254385092 -0.0586147074946 0.856 9.11072693721e-39
0.00633672513455 -0.0586147074946 0.856 8.35703015038e-39
0.00792090641819 -0.0586147074946 0.856 1.01019045774e-38
0.00950508770183 -0.0586147074946 0.856 1.06529175543e-38
0.0110633594785 -0.0584777572435 0.854 1.0469246562e-38
0.012643839404 -0.0584777572435 0.854 1.00100690812e-38
0.0141743509946 -0.0582723318667 0.851 9.45905610427e-39
0.0157122653015 -0.0581353816156 0.849 8.81620763117e-39
0.017079917134 -0.0574506303598 0.839 7.34683969264e-39
0.0185882205758 -0.0573136801086 0.837 1.2978621787e-38
0.0200891213013 -0.0571767298575 0.835 1.08749729142e-38
0.0215826193105 -0.0570397796063 0.833 1.1615396602e-38
0.0231242349755 -0.0570397796063 0.833 1.07867247421e-38
0.0246658506406 -0.0570397796063 0.833 1.19856084458e-38
0.0262074663056 -0.0570397796063 0.833 1.21728667622e-38
0.0277490819706 -0.0570397796063 0.833 1.24480229261e-38
0.029220371831 -0.0569028293552 0.831 1.20806725337e-38
0.0307582861379 -0.0569028293552 0.831 1.20810312661e-38
0.0322184719239 -0.056765879104 0.829 1.28175088974e-38
0.0337526848727 -0.056765879104 0.829 1.32802737022e-38
0.0352868978214 -0.056765879104 0.829 1.24472970535e-38
0.0368211107702 -0.056765879104 0.829 1.2724597204e-38
0.0384478576724 -0.0569028293552 0.831 1.27238797392e-38
0.0399857719793 -0.0569028293552 0.831 1.28149977705e-38
0.0415236862862 -0.0569028293552 0.831 1.30897867942e-38
0.043165238621 -0.0570397796063 0.833 1.33631408882e-38
0.0451362118302 -0.057587580611 0.841 1.01194824653e-38
0.046803673672 -0.0577245308621 0.843 1.45161068439e-38
0.0485932803324 -0.0579984313644 0.847 1.49713382682e-38
0.0503976924253 -0.0582723318667 0.851 1.55252211044e-38
0.0519726203136 -0.0582723318667 0.851 1.65382814214e-38
0.0535475482019 -0.0582723318667 0.851 1.5617415333e-38
0.0553167973925 -0.0584777572435 0.854 1.65429505479e-38
0.056897277318 -0.0584777572435 0.854 1.44181728968e-38
0.0582723318667 -0.0582723318667 0.851 1.34079824391e-38
0.059847259755 -0.0582723318667 0.851 2.35066051754e-38
0.0614221876433 -0.0582723318667 0.851 2.34147612715e-38
0.00158418128364 -0.057030526211 0.856 2.35000709207e-38
0.00316836256728 -0.057030526211 0.856 2.35062100093e-38
0.00475254385092 -0.057030526211 0.856 1.27077634055e-38
0.00633672513455 -0.057030526211 0.856 9.45905610427e-39
0.00792090641819 -0.057030526211 0.856 1.01019045774e-38
0.00950508770183 -0.057030526211 0.856 1.06529175543e-38
0.0110633594785 -0.056897277318 0.854 1.07447530505e-38
0.012643839404 -0.056897277318 0.854 1.0469246562e-38
0.0141743509946 -0.0566974039784 0.851 9.45905610427e-39
0.0157492788829 -0.0566974039784 0.851 9.55089160043e-39
0.0172427768921 -0.0564309061924 0.847 8.72437213501e-39
0.0186326368734 -0.0558979106203 0.839 7.62234618111e-39
0.0201372389571 -0.0557646617273 0.837 9.55987112099e-39
0.0216344383245 -0.0556314128343 0.835 1.1793009781e-38
0.0231797553476 -0.0556314128343 0.835 1.13380964514e-38
0.0247250723708 -0.0556314128343 0.835 1.25369801552e-38
0.0262074663056 -0.0554981639413 0.833 1.16157553344e-38
0.0277490819706 -0.0554981639413 0.833 1.14349542013e-38
0.0292906976357 -0.0554981639413 0.833 1.27242384716e-38
0.0308323133007 -0.0554981639413 0.833 1.13431187051e-38
0.0322962004448 -0.0553649150483 0.831 1.11580127832e-38
0.0338341147517 -0.0553649150483 0.831 1.18022961859e-38
0.0353720290586 -0.0553649150483 0.831 1.28157152353e-38
0.0369099433655 -0.0553649150483 0.831 1.23533091629e-38
0.0385403916259 -0.0554981639413 0.833 1.39198935837e-38
0.0401782426026 -0.0556314128343 0.835 1.39163062596e-38
0.0417235596257 -0.0556314128343 0.835 1.08624172799e-38
0.0434761527047 -0.0558979106203 0.839 9.7424547057e-39
0.0452435512162 -0.0561644084064 0.843 1.51582378522e-38
0.046803673672 -0.0561644084064 0.843 1.5798216466e-38
0.0485932803324 -0.0564309061924 0.847 1.71836508304e-38
0.0503976924253 -0.0566974039784 0.851 1.55223512451e-38
0.0519726203136 -0.0566974039784 0.851 1.5888975765e-38
0.0535475482019 -0.0566974039784 0.851 1.6356408295e-38
0.0553167973925 -0.056897277318 0.854 1.46940381177e-38
0.056897277318 -0.056897277318 0.854 1.48773503776e-38
0.0582723318667 -0.0566974039784 0.851 1.3958995416e-38
0.059847259755 -0.0566974039784 0.851 2.35066037741e-38
0.0614221876433 -0.0566974039784 0.851 2.3509462423e-38
0.0015804799255 -0.0553167973925 0.854 2.35004296531e-38
0.003160959851 -0.0553167973925 0.854 2.35076477415e-38
0.0047414397765 -0.0553167973925 0.854 1.71349655179e-38
0.00633672513455 -0.0554463449273 0.856 1.01019045774e-38
0.00792090641819 -0.0554463449273 0.856 1.03774110659e-38
0.00948287955299 -0.0553167973925 0.854 1.03774110659e-38
0.0110633594785 -0.0553167973925 0.854 1.07447530505e-38
0.012643839404 -0.0553167973925 0.854 1.06529175543e-38
0.0141743509946 -0.0551224760902 0.851 1.01937400735e-38
0.0157492788829 -0.0551224760902 0.851 1.01937400735e-38
0.0172834918317 -0.0549929285553 0.849 9.55089160043e-39
0.0187658857665 -0.0547338334855 0.845 9.64272709659e-39
0.0202815919245 -0.0546042859506 0.843 8.99987862348e-39
0.0217380763524 -0.0543451908809 0.839 7.62234618111e-39
0.0232352757197 -0.054215643346 0.837 9.00886515053e-39
0.024784294101 -0.054215643346 0.837 1.17890286921e-38
0.0263333124823 -0.054215643346 0.837 1.20699105615e-38
0.0278823308637 -0.054215643346 0.837 1.26284569189e-38
0.0293610234403 -0.0540860958111 0.835 1.26306093134e-38
0.0309063404635 -0.0540860958111 0.835 1.20781614068e-38
0.0323739289658 -0.0539565482763 0.833 1.24458621238e-38
0.0339155446308 -0.0539565482763 0.833 1.23525916981e-38
0.035542291533 -0.0540860958111 0.835 1.29021697454e-38
0.0370876085562 -0.0540860958111 0.835 1.24358176165e-38
0.0386329255794 -0.0540860958111 0.835 9.56882822077e-39
0.0402744779142 -0.054215643346 0.837 1.03838682492e-38
0.0418234962955 -0.054215643346 0.837 1.32243114468e-38
0.0435797907326 -0.0544747384158 0.841 1.44181728968e-38
0.0452435512162 -0.0546042859506 0.843 1.54283633545e-38
0.046803673672 -0.0546042859506 0.843 1.57042285754e-38
0.0485932803324 -0.0548633810204 0.847 1.56120343469e-38
0.0503976924253 -0.0551224760902 0.851 1.72733241231e-38
0.0519726203136 -0.0551224760902 0.851 1.52475622215e-38
0.053736317467 -0.0553167973925 0.854 1.50613801023e-38
0.0553167973925 -0.0553167973925 0.854 1.47855148814e-38
0.056897277318 -0.0553167973925 0.854 1.44181728968e-38
0.0584777572435 -0.0553167973925 0.854 1.4510008393e-38
0.060058237169 -0.0553167973925 0.854 2.35090910789e-38
0.0616387170945 -0.0553167973925 0.854 2.35091050919e-38
0.0015804799255 -0.053736317467 0.854 2.35018856022e-38
0.003160959851 -0.053736317467 0.854 2.35040576148e-38
0.0047414397765 -0.053736317467 0.854 2.03632601044e-38
0.006321919702 -0.053736317467 0.854 1.0469246562e-38
0.00792090641819 -0.0538621636437 0.856 1.24910638084e-38
0.00948287955299 -0.053736317467 0.854 1.05610820582e-38
0.0110633594785 -0.053736317467 0.854 1.0469246562e-38
0.0125994231063 -0.0535475482019 0.851 1.08365885466e-38
0.0141743509946 -0.0535475482019 0.851 1.06529175543e-38
0.0157492788829 -0.0535475482019 0.851 1.0469246562e-38
0.0172834918317 -0.0534217020251 0.849 1.00100690812e-38
0.0188547183618 -0.0534217020251 0.849 1.02855755697e-38
0.0203297095803 -0.0531700096716 0.845 1.03774110659e-38
0.0218935333942 -0.0531700096716 0.845 1.01019045774e-38
0.0233463164639 -0.0529183173182 0.841 9.36722060812e-39
0.0248435158313 -0.0527924711414 0.839 8.44886564654e-39
0.0263962355707 -0.0527924711414 0.839 8.44886564654e-39
0.0279489553102 -0.0527924711414 0.839 7.80601717343e-39
0.029431349245 -0.0526666249647 0.837 7.34683969264e-39
0.0309803676263 -0.0526666249647 0.837 8.54322067733e-39
0.0325293860076 -0.0526666249647 0.837 6.88766781704e-39
0.0340784043889 -0.0526666249647 0.837 7.25500419648e-39
0.0356274227702 -0.0526666249647 0.837 9.55089160043e-39
0.0371764411516 -0.0526666249647 0.837 1.1020259539e-38
0.0387254595329 -0.0526666249647 0.837 1.34083411715e-38
0.0403707132258 -0.0527924711414 0.839 1.35030465269e-38
0.0419234329653 -0.0527924711414 0.839 1.4510008393e-38
0.0436834287605 -0.0530441634949 0.843 1.53365278584e-38
0.0453508906023 -0.0531700096716 0.845 1.49691858738e-38
0.0470257551603 -0.0532958558484 0.847 1.58882653066e-38
0.0487080224347 -0.0534217020251 0.849 1.57046125312e-38
0.0503976924253 -0.0535475482019 0.851 1.5703869843e-38
0.0519726203136 -0.0535475482019 0.851 1.46940381177e-38
0.0535475482019 -0.0535475482019 0.851 1.40508309122e-38
0.0553167973925 -0.053736317467 0.854 1.65325781366e-38
0.056897277318 -0.053736317467 0.854 1.35916534314e-38
0.0584777572435 -0.053736317467 0.854 1.6073729961e-38
0.0015804799255 -0.0521558375415 0.854 2.34975682016e-38
0.003160959851 -0.0521558375415 0.854 2.35011583283e-38
0.0047414397765 -0.0521558375415 0.854 2.35011737426e-38
0.006321919702 -0.0521558375415 0.854 1.09284240428e-38
0.0079023996275 -0.0521558375415 0.854 1.13876015236e-38
0.00948287955299 -0.0521558375415 0.854 1.20343960532e-38
0.0110633594785 -0.0521558375415 0.854 1.02855755697e-38
0.0125994231063 -0.0519726203136 0.851 1.08365885466e-38
0.0141743509946 -0.0519726203136 0.851 1.14794370197e-38
0.0157492788829 -0.0519726203136 0.851 1.11120950351e-38
0.0172834918317 -0.051850475495 0.849 1.0469246562e-38
0.0188547183618 -0.051850475495 0.849 1.08365885466e-38
0.0203778272361 -0.0517283306764 0.847 1.07447530505e-38
0.0219453524082 -0.0517283306764 0.847 1.0469246562e-38
0.0234573572081 -0.0516061858578 0.845 1.0469246562e-38
0.0249619592917 -0.0514840410392 0.843 1.0469246562e-38
0.0264591586591 -0.0513618962206 0.841 1.07447530505e-38
0.0280155797567 -0.0513618962206 0.841 1.08365885466e-38
0.0295720008543 -0.0513618962206 0.841 1.08365885466e-38
0.0310543947891 -0.051239751402 0.839 1.15712725159e-38
0.0326071145285 -0.051239751402 0.839 1.15712725159e-38
0.034159834268 -0.051239751402 0.839 1.23059564852e-38
0.0357125540074 -0.051239751402 0.839 1.28569694621e-38
0.0372652737469 -0.051239751402 0.839 1.33161469429e-38
0.0389105274398 -0.0513618962206 0.841 1.38671599199e-38
0.040563183849 -0.0514840410392 0.843 1.42345019045e-38
0.0421233063048 -0.0514840410392 0.843 1.45100238072e-38
0.0437870667884 -0.0516061858578 0.845 1.51528568661e-38
0.0454582299883 -0.0517283306764 0.847 1.57957053392e-38
0.0470257551603 -0.0517283306764 0.847 1.53365278584e-38
0.0487080224347 -0.051850475495 0.849 1.60719292925e-38
0.0503976924253 -0.0519726203136 0.851 1.49691858738e-38
0.0519726203136 -0.0519726203136 0.851 1.35916534314e-38
0.0535475482019 -0.0519726203136 0.851 1.45100111956e-38
0.0553167973925 -0.0521558375415 0.854 1.72737361048e-38
0.056897277318 -0.0521558375415 0.854 1.32264638412e-38
0.0584777572435 -0.0521558375415 0.854 2.04973209272e-38
0.00316836256728 -0.0506938010764 0.856 2.35008009972e-38
0.00475254385092 -0.0506938010764 0.856 2.35047722771e-38
0.006321919702 -0.050575357616 0.854 7.62237280578e-39
0.0079023996275 -0.050575357616 0.854 1.15741521843e-38
0.00948287955299 -0.050575357616 0.854 1.1859693371e-38
0.0110633594785 -0.050575357616 0.854 1.11156823592e-38
0.0125994231063 -0.0503976924253 0.851 1.01019045774e-38
0.0141743509946 -0.0503976924253 0.851 1.12957660274e-38
0.0157492788829 -0.0503976924253 0.851 1.11120950351e-38
0.0173242067712 -0.0503976924253 0.851 1.07447530505e-38
0.0188547183618 -0.0502792489648 0.849 1.07447530505e-38
0.020425944892 -0.0502792489648 0.849 1.1020259539e-38
0.0219971714221 -0.0502792489648 0.849 1.11120950351e-38
0.0235683979523 -0.0502792489648 0.849 1.1020259539e-38
0.0251396244824 -0.0502792489648 0.849 1.1020259539e-38
0.0267108510126 -0.0502792489648 0.849 1.11120950351e-38
0.0281488286497 -0.0500423620439 0.845 1.16631080121e-38
0.0297126524636 -0.0500423620439 0.845 1.16631080121e-38
0.0312024491147 -0.0499239185834 0.843 1.23977919813e-38
0.0327625715704 -0.0499239185834 0.843 1.24896274775e-38
0.0343226940261 -0.0499239185834 0.843 1.29488049583e-38
0.0358828164819 -0.0499239185834 0.843 1.33161469429e-38
0.0374429389376 -0.0499239185834 0.843 1.38671599199e-38
0.0390030613933 -0.0499239185834 0.843 1.39590220407e-38
0.0406594191607 -0.0500423620439 0.845 1.42345019045e-38
0.0422232429745 -0.0500423620439 0.845 1.50610213699e-38
0.0437870667884 -0.0500423620439 0.845 1.51528568661e-38
0.0454582299883 -0.0501608055044 0.847 1.625488282e-38
0.0470257551603 -0.0501608055044 0.847 1.57957053392e-38
0.0487080224347 -0.0502792489648 0.849 1.5703869843e-38
0.0503976924253 -0.0503976924253 0.851 1.49691858738e-38
0.0519726203136 -0.0503976924253 0.851 1.46018438891e-38
0.0535475482019 -0.0503976924253 0.851 1.48773685945e-38
0.0553167973925 -0.050575357616 0.854 1.54312752528e-38
0.056897277318 -0.050575357616 0.854 1.32243114468e-38
0.0584777572435 -0.050575357616 0.854 2.34518984834e-38
0.00317576528356 -0.0492243618951 0.858 2.35004450674e-38
0.00476364792533 -0.0492243618951 0.858 2.35033317422e-38
0.00633672513455 -0.0491096197928 0.856 8.44886564654e-39
0.00792090641819 -0.0491096197928 0.856 8.72437213501e-39
0.00948287955299 -0.0489948776905 0.854 1.08423282652e-38
0.0110633594785 -0.0489948776905 0.854 1.12100289822e-38
0.012643839404 -0.0489948776905 0.854 1.03792047279e-38
0.0141743509946 -0.048822764537 0.851 1.11120950351e-38
0.0157492788829 -0.048822764537 0.851 1.09284240428e-38
0.0173242067712 -0.048822764537 0.851 1.1020259539e-38
0.0188991346595 -0.048822764537 0.851 1.15712725159e-38
0.020425944892 -0.0487080224347 0.849 1.14794370197e-38
0.0219971714221 -0.0487080224347 0.849 1.14794370197e-38
0.0235683979523 -0.0487080224347 0.849 1.15712725159e-38
0.0251396244824 -0.0487080224347 0.849 1.16631080121e-38
0.0267108510126 -0.0487080224347 0.849 1.14794370197e-38
0.0282154530962 -0.0485932803324 0.847 1.17549435082e-38
0.0297126524636 -0.04847853823 0.845 1.23059564852e-38
0.0312764762774 -0.04847853823 0.845 1.26732984698e-38
0.0328403000913 -0.04847853823 0.845 1.31324759506e-38
0.0344041239052 -0.04847853823 0.845 1.34079824391e-38
0.0358828164819 -0.0483637961277 0.843 1.37753244237e-38
0.0374429389376 -0.0483637961277 0.843 1.34998179352e-38
0.0390030613933 -0.0483637961277 0.843 1.46018438891e-38
0.0406594191607 -0.04847853823 0.845 1.47855148814e-38
0.0422232429745 -0.04847853823 0.845 1.51528568661e-38
0.0438907048163 -0.0485932803324 0.847 1.55201988507e-38
0.0454582299883 -0.0485932803324 0.847 1.56120343469e-38
0.0470257551603 -0.0485932803324 0.847 1.51528568661e-38
0.0487080224347 -0.0487080224347 0.849 1.46018438891e-38
0.0503976924253 -0.048822764537 0.851 1.37778355505e-38
0.0519726203136 -0.048822764537 0.851 1.39600716132e-38
0.0535475482019 -0.048822764537 0.851 1.49692138997e-38
0.0553167973925 -0.0489948776905 0.854 1.47855569204e-38
0.057030526211 -0.0491096197928 0.856 1.32243114468e-38
0.0586147074946 -0.0491096197928 0.856 2.3474296838e-38
0.00318316799983 -0.0477475199975 0.86 2.35032953085e-38
0.00477475199975 -0.0477475199975 0.86 2.35065435183e-38
0.00636633599967 -0.0477475199975 0.86 1.56404386667e-38
0.00792090641819 -0.0475254385092 0.856 1.02856540424e-38
0.00950508770183 -0.0475254385092 0.856 1.0469246562e-38
0.0110633594785 -0.047414397765 0.854 1.20390595745e-38
0.012643839404 -0.047414397765 0.854 1.07494165718e-38
0.0141743509946 -0.0472478366487 0.851 1.10231293982e-38
0.0157492788829 -0.0472478366487 0.851 1.1020259539e-38
0.0173242067712 -0.0472478366487 0.851 1.11120950351e-38
0.0188991346595 -0.0472478366487 0.851 1.15712725159e-38
0.020425944892 -0.0471367959045 0.849 1.19386145005e-38
0.0219971714221 -0.0471367959045 0.849 1.19386145005e-38
0.0235683979523 -0.0471367959045 0.849 1.20304499967e-38
0.0251396244824 -0.0471367959045 0.849 1.2214120989e-38
0.0267108510126 -0.0471367959045 0.849 1.23059564852e-38
0.0282154530962 -0.0470257551603 0.847 1.25814629736e-38
0.0297829782682 -0.0470257551603 0.847 1.30406404544e-38
0.0312764762774 -0.0469147144162 0.845 1.30406404544e-38
0.0328403000913 -0.0469147144162 0.845 1.35916534314e-38
0.0344041239052 -0.0469147144162 0.845 1.34998207378e-38
0.0359679477191 -0.0469147144162 0.845 1.38671599199e-38
0.0375317715329 -0.0469147144162 0.845 1.44181728968e-38
0.0390955953468 -0.0469147144162 0.845 1.42345019045e-38
0.0406594191607 -0.0469147144162 0.845 1.56120343469e-38
0.0422232429745 -0.0469147144162 0.845 1.51528568661e-38
