# .PCD v0.7 - Point Cloud Data file format
VERSION 0.7
FIELDS x y z rgb
SIZE 4 4 4 4
TYPE F F F F
COUNT 1 1 1 1
WIDTH 844
HEIGHT 1
VIEWPOINT 0 0 0 1 0 0 0
POINTS 844
DATA ascii
0.0366434455795 -0.0671796502291 0.825 1.337533779e-38
0.038170255812 -0.0671796502291 0.825 1.48461406582e-38
0.0396970660444 -0.0671796502291 0.825 1.63198133856e-38
0.0412238762769 -0.0671796502291 0.825 1.41082280973e-38
0.0427506865094 -0.0671796502291 0.825 1.41078693649e-38
0.0442774967419 -0.0671796502291 0.825 1.55804658951e-38
0.0458043069744 -0.0671796502291 0.825 1.54875542017e-38
0.0472163751045 -0.0670167904709 0.823 1.55793896978e-38
0.0487394839789 -0.0670167904709 0.823 1.40052718965e-38
0.0526444168159 -0.0701925557545 0.862 1.47991789428e-38
0.0541138559972 -0.0700296959964 0.86 1.78243455078e-38
0.0555758924622 -0.0698668362382 0.858 1.7546682421e-38
0.057163775104 -0.0698668362382 0.858 1.78218301771e-38
0.0587516577458 -0.0698668362382 0.858 1.55201988507e-38
0.00319057071611 -0.0685972703964 0.862 2.35098113463e-38
0.00478585607417 -0.0685972703964 0.862 7.71418167727e-39
0.00638114143223 -0.0685972703964 0.862 8.81620763117e-39
0.0153421294876 -0.0659711567966 0.829 1.15224849086e-38
0.0168763424363 -0.0659711567966 0.829 1.18923380201e-38
0.0183661390874 -0.0658119983966 0.827 1.23543853601e-38
0.019896650678 -0.0658119983966 0.827 1.28149977705e-38
0.0214271622687 -0.0658119983966 0.827 1.28149977705e-38
0.0229021534872 -0.0656528399966 0.825 1.21685619733e-38
0.0244289637197 -0.0656528399966 0.825 1.45677685144e-38
0.0259557739521 -0.0656528399966 0.825 1.44770050115e-38
0.0274825841846 -0.0656528399966 0.825 1.30951677803e-38
0.0290093944171 -0.0656528399966 0.825 1.29122142528e-38
0.0305362046496 -0.0656528399966 0.825 1.23594076138e-38
0.0320630148821 -0.0656528399966 0.825 1.24519605748e-38
0.0335898251145 -0.0656528399966 0.825 1.28214549538e-38
0.035116635347 -0.0656528399966 0.825 1.245124311e-38
0.0366434455795 -0.0656528399966 0.825 1.38355914681e-38
0.038170255812 -0.0656528399966 0.825 1.58584835104e-38
0.0396970660444 -0.0656528399966 0.825 1.7331438773e-38
0.0412238762769 -0.0656528399966 0.825 1.41064344352e-38
0.0427506865094 -0.0656528399966 0.825 1.41071519001e-38
0.0442774967419 -0.0656528399966 0.825 1.53042419418e-38
0.0458043069744 -0.0656528399966 0.825 1.57630606901e-38
0.0473311172068 -0.0656528399966 0.825 1.47464130491e-38
0.0511675749183 -0.0687564287964 0.864 1.32587497578e-38
0.0526444168159 -0.0685972703964 0.862 1.65408219755e-38
0.0539880098204 -0.0682789535964 0.858 1.83771521468e-38
0.0555758924622 -0.0682789535964 0.858 1.78236252404e-38
0.057163775104 -0.0682789535964 0.858 1.90253900138e-38
0.0586147074946 -0.0681197951965 0.856 1.56120343469e-38
0.0601988887783 -0.0681197951965 0.856 2.34833338118e-38
0.0617830700619 -0.0681197951965 0.856 2.35097973333e-38
0.00319057071611 -0.0670019850384 0.862 2.35098197541e-38
0.00477475199975 -0.0668465279965 0.86 7.71418167727e-39
0.00636633599967 -0.0668465279965 0.86 8.63253663885e-39
0.00793941320889 -0.0666910709547 0.858 1.0469246562e-38
0.00952729585067 -0.0666910709547 0.858 1.01937400735e-38
0.0111151784924 -0.0666910709547 0.858 9.45905610427e-39
0.0138412287621 -0.0645924008897 0.831 1.20591892269e-38
0.015379143069 -0.0645924008897 0.831 1.07842136152e-38
0.0168763424363 -0.0644369438478 0.829 1.23533091629e-38
0.0184105553851 -0.0644369438478 0.829 1.18001437915e-38
0.019896650678 -0.064281486806 0.827 1.22636260612e-38
0.0214271622687 -0.064281486806 0.827 1.32766863782e-38
0.0229576738593 -0.064281486806 0.827 1.29972730696e-38
0.0244289637197 -0.0641260297641 0.825 1.50280263963e-38
0.0259557739521 -0.0641260297641 0.825 1.44748526171e-38
0.0274825841846 -0.0641260297641 0.825 1.2724597204e-38
0.0290093944171 -0.0641260297641 0.825 1.44787986736e-38
0.0305362046496 -0.0641260297641 0.825 1.50298116505e-38
0.0320630148821 -0.0641260297641 0.825 1.37419623099e-38
0.0335898251145 -0.0641260297641 0.825 1.61379402592e-38
0.035116635347 -0.0641260297641 0.825 1.73343086322e-38
0.0367322781748 -0.064281486806 0.827 1.34628684973e-38
0.0382627897654 -0.064281486806 0.827 1.40153164039e-38
0.0397933013561 -0.064281486806 0.827 1.47514353028e-38
0.0413238129467 -0.064281486806 0.827 1.48436295313e-38
0.0428543245373 -0.064281486806 0.827 1.41064344352e-38
0.0443848361279 -0.064281486806 0.827 1.52116889808e-38
0.0458043069744 -0.0641260297641 0.825 1.42883117655e-38
0.0473311172068 -0.0641260297641 0.825 1.39155887948e-38
0.0510491314578 -0.0670019850384 0.862 1.41713650009e-38
0.0525222719973 -0.0668465279965 0.86 1.69049129477e-38
0.0539880098204 -0.0666910709547 0.858 1.80969737292e-38
0.0554463449273 -0.0665356139128 0.856 1.94809633549e-38
0.057030526211 -0.0665356139128 0.856 1.78250769856e-38
0.0586147074946 -0.0665356139128 0.856 1.57957053392e-38
0.0601988887783 -0.0665356139128 0.856 2.3489395829e-38
0.0617830700619 -0.0665356139128 0.856 2.35098113463e-38
0.00318316799983 -0.0652549439966 0.86 2.35098071424e-38
0.00476364792533 -0.0651031883129 0.858 7.2557216613e-39
0.00635153056711 -0.0651031883129 0.858 8.63253663885e-39
0.00793941320889 -0.0651031883129 0.858 1.08365885466e-38
0.00948287955299 -0.0647996769455 0.854 1.0469246562e-38
0.011024495218 -0.0645720434199 0.851 9.91823358506e-39
0.0125994231063 -0.0645720434199 0.851 8.99987862348e-39
0.0141743509946 -0.0645720434199 0.851 9.6484696177e-39
0.0154161566504 -0.0632062422665 0.833 1.07784738967e-38
0.0169577723154 -0.0632062422665 0.833 1.11519143323e-38
0.0184105553851 -0.062902730899 0.829 1.19841735162e-38
0.0199447683338 -0.062902730899 0.829 1.20788788716e-38
0.0214271622687 -0.0627509752153 0.827 1.25384150848e-38
0.0229576738593 -0.0627509752153 0.827 1.29064745343e-38
0.0244289637197 -0.0625992195316 0.825 1.32745339837e-38
0.0259557739521 -0.0625992195316 0.825 1.39209697809e-38
0.0274825841846 -0.0625992195316 0.825 1.3737657521e-38
0.0290093944171 -0.0625992195316 0.825 1.39224047105e-38
0.0305362046496 -0.0625992195316 0.825 1.34617923001e-38
0.032140743403 -0.0627509752153 0.827 1.27256860129e-38
0.0335898251145 -0.0625992195316 0.825 1.32781213078e-38
0.035116635347 -0.0625992195316 0.825 1.31844921496e-38
0.0367322781748 -0.0627509752153 0.827 1.41075106325e-38
0.0382627897654 -0.0627509752153 0.827 1.38309279468e-38
0.0397933013561 -0.0627509752153 0.827 1.32795562374e-38
0.0413238129467 -0.0627509752153 0.827 1.36461807572e-38
0.0429579625652 -0.062902730899 0.829 1.43833758533e-38
0.0443848361279 -0.0627509752153 0.827 1.40138814743e-38
0.0459153477185 -0.0627509752153 0.827 1.52088191215e-38
0.0474458593092 -0.0627509752153 0.827 1.32634132791e-38
0.0508122445369 -0.0651031883129 0.858 1.53576930704e-38
0.0524001271787 -0.0651031883129 0.858 1.85633258582e-38
0.0538621636437 -0.0649514326292 0.856 1.81931140143e-38
0.0554463449273 -0.0649514326292 0.856 1.69002424199e-38
0.057030526211 -0.0649514326292 0.856 1.98422405198e-38
0.0586147074946 -0.0649514326292 0.856 1.55201988507e-38
0.060058237169 -0.0647996769455 0.854 2.34944096749e-38
0.0616387170945 -0.0647996769455 0.854 2.35098281619e-38
0.06321919702 -0.0647996769455 0.854 2.35083806206e-38
0.00159158399992 -0.0636633599967 0.86 2.35033373474e-38
0.00318316799983 -0.0636633599967 0.86 2.35098127476e-38
0.00476364792533 -0.0635153056711 0.858 6.52175515684e-39
0.00635153056711 -0.0635153056711 0.858 8.63253663885e-39
0.00793941320889 -0.0635153056711 0.858 1.0469246562e-38
0.00948287955299 -0.06321919702 0.854 1.01019045774e-38
0.011024495218 -0.0629971155316 0.851 9.55089160043e-39
0.0125994231063 -0.0629971155316 0.851 9.64272709659e-39
0.0141410387714 -0.062849061206 0.849 7.98968816575e-39
0.0154531702318 -0.061812680927 0.835 1.19616056044e-38
0.0169984872549 -0.061812680927 0.835 1.16100156158e-38
0.0184993879804 -0.0616646266014 0.833 1.09693195372e-38
0.0199447683338 -0.0613685179503 0.829 1.20785201392e-38
0.0214789812826 -0.0613685179503 0.829 1.23543853601e-38
0.0230131942314 -0.0613685179503 0.829 1.25391325496e-38
0.0244881854499 -0.0612204636247 0.827 1.29986687628e-38
0.0260186970405 -0.0612204636247 0.827 1.31844921496e-38
0.0274825841846 -0.0610724092991 0.825 1.318305722e-38
0.0290093944171 -0.0610724092991 0.825 1.32766863782e-38
0.0305362046496 -0.0610724092991 0.825 1.30955265127e-38
0.032140743403 -0.0612204636247 0.827 1.2911496788e-38
0.0336712549936 -0.0612204636247 0.827 1.36472569544e-38
0.0352017665842 -0.0612204636247 0.827 1.38295000236e-38
0.0367322781748 -0.0612204636247 0.827 1.38302104819e-38
0.0383553237189 -0.0613685179503 0.829 1.36476156869e-38
0.0398895366677 -0.0613685179503 0.829 1.41075106325e-38
0.0414237496164 -0.0613685179503 0.829 1.32766863782e-38
0.0429579625652 -0.0613685179503 0.829 1.41057169704e-38
0.044492175514 -0.0613685179503 0.829 1.39202523161e-38
0.0460263884627 -0.0613685179503 0.829 1.44669605041e-38
0.0476753435138 -0.0615165722759 0.831 1.26019107208e-38
0.0506938010764 -0.0633672513455 0.856 1.73716294142e-38
0.0522779823601 -0.0633672513455 0.856 1.81952664087e-38
0.0538621636437 -0.0633672513455 0.856 1.93902124638e-38
0.0554463449273 -0.0633672513455 0.856 1.74573706634e-38
0.057030526211 -0.0633672513455 0.856 1.70817610178e-38
0.0586147074946 -0.0633672513455 0.856 1.46018438891e-38
0.060058237169 -0.06321919702 0.854 2.34987186677e-38
0.0616387170945 -0.06321919702 0.854 2.35091022893e-38
0.06321919702 -0.06321919702 0.854 2.35080106778e-38
0.00159158399992 -0.0620717759968 0.86 2.35018926087e-38
0.00318316799983 -0.0620717759968 0.86 2.35097889256e-38
0.00476364792533 -0.0619274230293 0.858 6.4360181116e-39
0.00635153056711 -0.0619274230293 0.858 8.54070114269e-39
0.00792090641819 -0.0617830700619 0.856 1.05610820582e-38
0.00948287955299 -0.0616387170945 0.854 1.01937400735e-38
0.011024495218 -0.0614221876433 0.851 9.73456259275e-39
0.0125994231063 -0.0614221876433 0.851 9.55089160043e-39
0.0141410387714 -0.0612778346759 0.849 9.36722060812e-39
0.0155271973945 -0.0605560698387 0.839 7.89785266959e-39
0.0170392021945 -0.0604117168713 0.837 1.28885645386e-38
0.0185438042781 -0.0602673639038 0.835 1.17965564674e-38
0.0200410036455 -0.0601230109364 0.833 1.07867247421e-38
0.0215308002966 -0.059978657969 0.831 1.1615396602e-38
0.0230687146034 -0.059978657969 0.831 1.29993862276e-38
0.0245474071801 -0.0598343050015 0.829 1.23547440925e-38
0.0260186970405 -0.0596899520341 0.827 1.28160739677e-38
0.0275492086311 -0.0596899520341 0.827 1.3184850882e-38
0.0290797202217 -0.0596899520341 0.827 1.32770451106e-38
0.0306102318124 -0.0596899520341 0.827 1.33731853956e-38
0.032140743403 -0.0596899520341 0.827 1.25452310006e-38
0.0336712549936 -0.0596899520341 0.827 1.33706742688e-38
0.0352868978214 -0.0598343050015 0.829 1.39209697809e-38
0.0368211107702 -0.0598343050015 0.829 1.35521928666e-38
0.0383553237189 -0.0598343050015 0.829 1.33695980715e-38
0.0399857719793 -0.059978657969 0.831 1.36454632924e-38
0.0415236862862 -0.059978657969 0.831 1.28146390381e-38
0.0430616005931 -0.059978657969 0.831 1.34596399057e-38
0.0445995149 -0.059978657969 0.831 1.48368136156e-38
0.0461374292069 -0.059978657969 0.831 1.33487915919e-38
0.0476753435138 -0.059978657969 0.831 1.5536341809e-38
0.050575357616 -0.0616387170945 0.854 1.72758352499e-38
0.0521558375415 -0.0616387170945 0.854 1.81952664087e-38
0.053736317467 -0.0616387170945 0.854 1.81048658422e-38
0.0553167973925 -0.0616387170945 0.854 1.74595342682e-38
0.056897277318 -0.0616387170945 0.854 1.66222248046e-38
0.0584777572435 -0.0616387170945 0.854 1.38671599199e-38
0.060058237169 -0.0616387170945 0.854 2.35041094629e-38
0.0616387170945 -0.0616387170945 0.854 2.35098211554e-38
0.06321919702 -0.0616387170945 0.854 2.35097931294e-38
0.00158788264178 -0.0603395403876 0.858 2.34996911688e-38
0.00317576528356 -0.0603395403876 0.858 2.35097805178e-38
0.00476364792533 -0.0603395403876 0.858 1.04961514925e-38
0.00635153056711 -0.0603395403876 0.858 8.72437213501e-39
0.00792090641819 -0.0601988887783 0.856 1.06529175543e-38
0.00948287955299 -0.060058237169 0.854 1.03774110659e-38
0.0110633594785 -0.060058237169 0.854 1.01937400735e-38
0.0125994231063 -0.059847259755 0.851 1.01019045774e-38
0.0141410387714 -0.0597066081457 0.849 9.64272709659e-39
0.0156382381387 -0.0594253049271 0.845 9.1835496158e-39
0.017079917134 -0.0590033500993 0.839 7.71418167727e-39
0.0185882205758 -0.05886269849 0.837 1.20627611367e-38
0.0200891213013 -0.0587220468807 0.835 1.14292144828e-38
0.0215826193105 -0.0585813952714 0.833 1.09689608048e-38
0.0231242349755 -0.0585813952714 0.833 1.20778026744e-38
0.0246066289103 -0.0584407436621 0.831 1.18012199887e-38
0.0260816201289 -0.0583000920528 0.829 1.28157152353e-38
0.0276158330776 -0.0583000920528 0.829 1.28160739677e-38
0.0291500460264 -0.0583000920528 0.829 1.26324029754e-38
0.0306842589751 -0.0583000920528 0.829 1.20817487309e-38
0.0322184719239 -0.0583000920528 0.829 1.23594118177e-38
0.0337526848727 -0.0583000920528 0.829 1.26345553699e-38
0.0353720290586 -0.0584407436621 0.831 1.33678044095e-38
0.0369099433655 -0.0584407436621 0.831 1.33678044095e-38
0.0385403916259 -0.0585813952714 0.833 1.24469383211e-38
0.0400820072909 -0.0585813952714 0.833 1.21707143678e-38
0.041623622956 -0.0585813952714 0.833 1.27220860771e-38
0.043165238621 -0.0585813952714 0.833 1.40996185195e-38
0.0448141936721 -0.0587220468807 0.835 1.10421422158e-38
0.0464705514394 -0.05886269849 0.837 1.52493558835e-38
0.0487080224347 -0.0597066081457 0.849 1.75466852236e-38
0.0503976924253 -0.059847259755 0.851 1.77346539983e-38
0.0519726203136 -0.059847259755 0.851 1.72718891934e-38
0.0535475482019 -0.059847259755 0.851 1.88409847411e-38
0.0553167973925 -0.060058237169 0.854 1.77353714631e-38
0.056897277318 -0.060058237169 0.854 1.5703869843e-38
0.0582723318667 -0.059847259755 0.851 1.34079824391e-38
0.059847259755 -0.059847259755 0.851 2.35058891119e-38
0.0616387170945 -0.060058237169 0.854 2.35098351684e-38
0.06321919702 -0.060058237169 0.854 2.35098113463e-38
0.00158788264178 -0.0587516577458 0.858 2.35000765259e-38
0.00317576528356 -0.0587516577458 0.858 2.35054757289e-38
0.00476364792533 -0.0587516577458 0.858 1.4001020357e-38
0.00635153056711 -0.0587516577458 0.858 9.27538511196e-39
0.00792090641819 -0.0586147074946 0.856 9.55089160043e-39
0.00948287955299 -0.0584777572435 0.854 1.05610820582e-38
0.0110633594785 -0.0584777572435 0.854 1.0469246562e-38
0.0125994231063 -0.0582723318667 0.851 1.01019045774e-38
0.0141743509946 -0.0582723318667 0.851 9.91823358506e-39
0.0157122653015 -0.0581353816156 0.849 9.55089160043e-39
0.0171613470131 -0.0577245308621 0.843 9.55089160043e-39
0.0186326368734 -0.0574506303598 0.839 7.53051068496e-39
0.0201372389571 -0.0573136801086 0.837 1.095031793e-38
0.0216344383245 -0.0571767298575 0.835 1.29914941147e-38
0.0231797553476 -0.0571767298575 0.835 1.17075908305e-38
0.0247250723708 -0.0571767298575 0.835 1.22614736667e-38
0.0262074663056 -0.0570397796063 0.833 1.17086670277e-38
0.0277490819706 -0.0570397796063 0.833 1.17101019574e-38
0.0292906976357 -0.0570397796063 0.833 1.22654197232e-38
0.0307582861379 -0.0569028293552 0.831 1.17129718166e-38
0.0322962004448 -0.0569028293552 0.831 1.18051660452e-38
0.0338341147517 -0.0569028293552 0.831 1.16186251936e-38
0.0354571602958 -0.0570397796063 0.833 1.25391325496e-38
0.0369987759609 -0.0570397796063 0.833 1.29093443935e-38
0.0386329255794 -0.0571767298575 0.835 1.22614736667e-38
0.0401782426026 -0.0571767298575 0.835 1.35500404722e-38
0.0417235596257 -0.0571767298575 0.835 1.33606297614e-38
0.0433725146768 -0.0573136801086 0.837 1.05797361433e-38
0.0450288724442 -0.0574506303598 0.839 1.40569293631e-38
0.046803673672 -0.0577245308621 0.843 1.59854747824e-38
0.0487080224347 -0.0581353816156 0.849 1.63503056402e-38
0.0503976924253 -0.0582723318667 0.851 1.68087656562e-38
0.0519726203136 -0.0582723318667 0.851 1.81023547153e-38
0.0535475482019 -0.0582723318667 0.851 1.73630072248e-38
0.0553167973925 -0.0584777572435 0.854 1.71746727112e-38
0.056897277318 -0.0584777572435 0.854 1.46018438891e-38
0.0582723318667 -0.0582723318667 0.851 1.35916534314e-38
0.059847259755 -0.0582723318667 0.851 2.35069583027e-38
0.0614221876433 -0.0582723318667 0.851 2.35087295439e-38
0.00158788264178 -0.057163775104 0.858 2.34997332078e-38
0.00317576528356 -0.057163775104 0.858 2.35076337285e-38
0.00476364792533 -0.057163775104 0.858 1.80598014849e-38
0.00635153056711 -0.057163775104 0.858 9.91823358506e-39
0.00792090641819 -0.057030526211 0.856 9.55089160043e-39
0.00948287955299 -0.056897277318 0.854 1.08365885466e-38
0.0110633594785 -0.056897277318 0.854 1.07447530505e-38
0.012643839404 -0.056897277318 0.854 1.03774110659e-38
0.0141743509946 -0.0566974039784 0.851 1.00100690812e-38
0.0157492788829 -0.0566974039784 0.851 9.91823358506e-39
0.0172834918317 -0.0565641550854 0.849 9.91823358506e-39
0.0187214694688 -0.0561644084064 0.843 9.45905610427e-39
0.0202334742687 -0.0560311595134 0.841 8.54070114269e-39
0.0216862573384 -0.0557646617273 0.837 8.54070114269e-39
0.0232352757197 -0.0557646617273 0.837 1.17840064384e-38
0.0247250723708 -0.0556314128343 0.835 1.35468118805e-38
0.026270389394 -0.0556314128343 0.835 1.21653333817e-38
0.0278157064172 -0.0556314128343 0.835 1.24440684618e-38
0.0293610234403 -0.0556314128343 0.835 1.25391325496e-38
0.0308323133007 -0.0554981639413 0.833 1.20806725337e-38
0.0323739289658 -0.0554981639413 0.833 1.17104606898e-38
0.0339155446308 -0.0554981639413 0.833 1.21703556354e-38
0.035542291533 -0.0556314128343 0.835 1.32763276457e-38
0.0370876085562 -0.0556314128343 0.835 1.30890693294e-38
0.0386329255794 -0.0556314128343 0.835 1.29897004527e-38
0.0402744779142 -0.0557646617273 0.837 1.0947078128e-38
0.0418234962955 -0.0557646617273 0.837 1.07447530505e-38
0.0434761527047 -0.0558979106203 0.839 1.43274135979e-38
0.0452435512162 -0.0561644084064 0.843 1.5524862372e-38
0.0469147144162 -0.0562976572994 0.845 1.57060222375e-38
0.0487080224347 -0.0565641550854 0.849 1.64446522632e-38
0.0503976924253 -0.0566974039784 0.851 1.67190825545e-38
0.0519726203136 -0.0566974039784 0.851 1.71786187676e-38
0.0535475482019 -0.0566974039784 0.851 1.71789775001e-38
0.0553167973925 -0.056897277318 0.854 1.54283633545e-38
0.056897277318 -0.056897277318 0.854 1.64414783222e-38
0.0582723318667 -0.0566974039784 0.851 1.40508309122e-38
0.059847259755 -0.0566974039784 0.851 2.35073170351e-38
0.0614221876433 -0.0566974039784 0.851 2.35098141489e-38
0.00318316799983 -0.0557054399971 0.86 2.35065547287e-38
0.00476364792533 -0.0555758924622 0.858 2.0639846994e-38
0.00635153056711 -0.0555758924622 0.858 1.09284240428e-38
0.00792090641819 -0.0554463449273 0.856 1.09284240428e-38
0.00948287955299 -0.0553167973925 0.854 1.02855783723e-38
0.0110633594785 -0.0553167973925 0.854 1.08365885466e-38
0.012643839404 -0.0553167973925 0.854 1.06529175543e-38
0.0141743509946 -0.0551224760902 0.851 1.0469246562e-38
0.0157492788829 -0.0551224760902 0.851 1.01937400735e-38
0.0172834918317 -0.0549929285553 0.849 1.01019045774e-38
0.0188103020641 -0.0548633810204 0.847 9.82639808891e-39
0.0203297095803 -0.0547338334855 0.845 9.91823358506e-39
0.0217898953663 -0.0544747384158 0.841 9.45905610427e-39
0.0233463164639 -0.0544747384158 0.841 8.72437213501e-39
0.0248435158313 -0.0543451908809 0.839 8.0815236619e-39
0.0263962355707 -0.0543451908809 0.839 8.72437213501e-39
0.0279489553102 -0.0543451908809 0.839 1.2053424285e-38
0.029431349245 -0.054215643346 0.837 1.26155425523e-38
0.0309063404635 -0.0540860958111 0.835 1.17875881572e-38
0.0324516574867 -0.0540860958111 0.835 1.16943177315e-38
0.0339969745099 -0.0540860958111 0.835 1.04007286723e-38
0.0356274227702 -0.054215643346 0.837 8.91952256434e-39
0.0371764411516 -0.054215643346 0.837 9.45905610427e-39
0.0388179934863 -0.0543451908809 0.839 1.14794370197e-38
0.0403707132258 -0.0543451908809 0.839 1.42345019045e-38
0.042023369635 -0.0544747384158 0.841 1.46936793853e-38
0.0436834287605 -0.0546042859506 0.843 1.53365278584e-38
0.0453508906023 -0.0547338334855 0.845 1.52475622215e-38
0.0470257551603 -0.0548633810204 0.847 1.62581114116e-38
0.0487080224347 -0.0549929285553 0.849 1.62548926291e-38
0.0503976924253 -0.0551224760902 0.851 1.69006011523e-38
0.0519726203136 -0.0551224760902 0.851 1.67140603008e-38
0.0535475482019 -0.0551224760902 0.851 1.60712118276e-38
0.0553167973925 -0.0553167973925 0.854 1.61630627381e-38
0.056897277318 -0.0553167973925 0.854 1.31324759506e-38
0.0584777572435 -0.0553167973925 0.854 1.44181728968e-38
0.060058237169 -0.0553167973925 0.854 2.35090770659e-38
0.0616387170945 -0.0553167973925 0.854 2.35087309452e-38
0.00318316799983 -0.0541138559972 0.86 2.35022373281e-38
0.00476364792533 -0.0539880098204 0.858 2.30351509188e-38
0.00635153056711 -0.0539880098204 0.858 1.23059564852e-38
0.00792090641819 -0.0538621636437 0.856 1.24006660445e-38
0.00948287955299 -0.053736317467 0.854 1.07472641773e-38
0.0110633594785 -0.053736317467 0.854 1.06529175543e-38
0.0125994231063 -0.0535475482019 0.851 1.06529175543e-38
0.0141743509946 -0.0535475482019 0.851 1.08365885466e-38
0.0157492788829 -0.0535475482019 0.851 1.06529175543e-38
0.0173242067712 -0.0535475482019 0.851 1.0469246562e-38
0.0188547183618 -0.0534217020251 0.849 1.0469246562e-38
0.020425944892 -0.0534217020251 0.849 1.01937400735e-38
0.0219971714221 -0.0534217020251 0.849 1.02855755697e-38
0.0234573572081 -0.0531700096716 0.845 1.06529175543e-38
0.025021181022 -0.0531700096716 0.845 1.06529175543e-38
0.0265220817475 -0.0530441634949 0.843 1.03774110659e-38
0.0280822042032 -0.0530441634949 0.843 1.05610820582e-38
0.0295720008543 -0.0529183173182 0.841 1.03774110659e-38
0.0310543947891 -0.0527924711414 0.839 1.02855755697e-38
0.0326071145285 -0.0527924711414 0.839 1.1020259539e-38
0.034159834268 -0.0527924711414 0.839 1.2214120989e-38
0.0357125540074 -0.0527924711414 0.839 1.30406404544e-38
0.0373541063422 -0.0529183173182 0.841 1.34998179352e-38
0.0390030613933 -0.0530441634949 0.843 1.36834889275e-38
0.040563183849 -0.0530441634949 0.843 1.46018438891e-38
0.0421233063048 -0.0530441634949 0.843 1.47855148814e-38
0.0437870667884 -0.0531700096716 0.845 1.54283633545e-38
0.0454582299883 -0.0532958558484 0.847 1.5703869843e-38
0.0471367959045 -0.0534217020251 0.849 1.60712118276e-38
0.0487080224347 -0.0534217020251 0.849 1.63467183161e-38
0.0503976924253 -0.0535475482019 0.851 1.625488282e-38
0.0519726203136 -0.0535475482019 0.851 1.52446923622e-38
0.0535475482019 -0.0535475482019 0.851 1.52446965661e-38
0.0553167973925 -0.053736317467 0.854 1.616344249e-38
0.056897277318 -0.053736317467 0.854 1.41426664083e-38
0.0584777572435 -0.053736317467 0.854 1.72722717479e-38
0.060058237169 -0.053736317467 0.854 2.35098057411e-38
0.00317576528356 -0.0524001271787 0.858 2.35011597296e-38
0.00476364792533 -0.0524001271787 0.858 2.35036960798e-38
0.00635153056711 -0.0524001271787 0.858 8.35703015038e-39
0.00792090641819 -0.0522779823601 0.856 1.12039305313e-38
0.00948287955299 -0.0521558375415 0.854 1.07476229097e-38
0.0110633594785 -0.0521558375415 0.854 1.16631080121e-38
0.0125994231063 -0.0519726203136 0.851 1.06529175543e-38
0.0141743509946 -0.0519726203136 0.851 1.1020259539e-38
0.0157492788829 -0.0519726203136 0.851 1.1020259539e-38
0.0173242067712 -0.0519726203136 0.851 1.1020259539e-38
0.0188547183618 -0.051850475495 0.849 1.08365885466e-38
0.020425944892 -0.051850475495 0.849 1.09284240428e-38
0.0219971714221 -0.051850475495 0.849 1.12957660274e-38
0.0235128775802 -0.0517283306764 0.847 1.12039305313e-38
0.025021181022 -0.0516061858578 0.845 1.1020259539e-38
0.0265850048358 -0.0516061858578 0.845 1.13876015236e-38
0.0281488286497 -0.0516061858578 0.845 1.13876015236e-38
0.0297126524636 -0.0516061858578 0.845 1.13876015236e-38
0.0312024491147 -0.0514840410392 0.843 1.17549435082e-38
0.0327625715704 -0.0514840410392 0.843 1.23977919813e-38
0.0343226940261 -0.0514840410392 0.843 1.31324759506e-38
0.0358828164819 -0.0514840410392 0.843 1.34079824391e-38
0.0374429389376 -0.0514840410392 0.843 1.41426664083e-38
0.0390955953468 -0.0516061858578 0.845 1.40508309122e-38
0.0406594191607 -0.0516061858578 0.845 1.43263374006e-38
0.0422232429745 -0.0516061858578 0.845 1.49691858738e-38
0.0438907048163 -0.0517283306764 0.847 1.56120343469e-38
0.0454582299883 -0.0517283306764 0.847 1.61630473238e-38
0.0471367959045 -0.051850475495 0.849 1.56120343469e-38
0.0487080224347 -0.051850475495 0.849 1.55202296793e-38
0.0503976924253 -0.0519726203136 0.851 1.50610213699e-38
0.0519726203136 -0.0519726203136 0.851 1.50610213699e-38
0.0535475482019 -0.0519726203136 0.851 1.46936877931e-38
0.0553167973925 -0.0521558375415 0.854 1.66247961873e-38
0.056897277318 -0.0521558375415 0.854 1.36834889275e-38
0.0584777572435 -0.0521558375415 0.854 2.32631898231e-38
0.060058237169 -0.0521558375415 0.854 2.35098085437e-38
0.00476364792533 -0.0508122445369 0.858 2.35062058054e-38
0.00635153056711 -0.0508122445369 0.858 8.26519465422e-39
0.00792090641819 -0.0506938010764 0.856 1.1020259539e-38
0.00948287955299 -0.050575357616 0.854 1.05639519174e-38
0.0110633594785 -0.050575357616 0.854 1.18467790044e-38
0.0125994231063 -0.0503976924253 0.851 1.14826656114e-38
0.0141743509946 -0.0503976924253 0.851 1.08365885466e-38
0.0157492788829 -0.0503976924253 0.851 1.11120950351e-38
0.0173242067712 -0.0503976924253 0.851 1.11120950351e-38
0.0188991346595 -0.0503976924253 0.851 1.11120950351e-38
0.020425944892 -0.0502792489648 0.849 1.11120950351e-38
0.0219971714221 -0.0502792489648 0.849 1.12957660274e-38
0.0235683979523 -0.0502792489648 0.849 1.16631080121e-38
0.0251396244824 -0.0502792489648 0.849 1.14794370197e-38
0.0267108510126 -0.0502792489648 0.849 1.15712725159e-38
0.0282154530962 -0.0501608055044 0.847 1.23059564852e-38
0.0297829782682 -0.0501608055044 0.847 1.2214120989e-38
0.0313505034402 -0.0501608055044 0.847 1.24896274775e-38
0.0328403000913 -0.0500423620439 0.845 1.30406404544e-38
0.0344041239052 -0.0500423620439 0.845 1.32243114468e-38
0.0359679477191 -0.0500423620439 0.845 1.37753244237e-38
0.0375317715329 -0.0500423620439 0.845 1.44181728968e-38
0.0391881293003 -0.0501608055044 0.847 1.44181728968e-38
0.0407556544723 -0.0501608055044 0.847 1.46018438891e-38
0.0423231796443 -0.0501608055044 0.847 1.58875408353e-38
0.0438907048163 -0.0501608055044 0.847 1.48773503776e-38
0.0454582299883 -0.0501608055044 0.847 1.60712118276e-38
0.0471367959045 -0.0502792489648 0.849 1.56120343469e-38
0.0487080224347 -0.0502792489648 0.849 1.48773503776e-38
0.0503976924253 -0.0503976924253 0.851 1.46936793853e-38
0.0519726203136 -0.0503976924253 0.851 1.44181742981e-38
0.0535475482019 -0.0503976924253 0.851 1.50610367842e-38
0.0551224760902 -0.0503976924253 0.851 1.46940605385e-38
0.056897277318 -0.050575357616 0.854 1.41426664083e-38
0.0584777572435 -0.050575357616 0.854 2.34673435951e-38
0.00477475199975 -0.0493391039974 0.86 2.35044037356e-38
0.00636633599967 -0.0493391039974 0.86 1.49047135327e-38
0.00792090641819 -0.0491096197928 0.856 9.45905610427e-39
0.00948287955299 -0.0489948776905 0.854 1.12975596895e-38
0.0110633594785 -0.0489948776905 0.854 1.16631080121e-38
0.012643839404 -0.0489948776905 0.854 1.21237204225e-38
0.0141743509946 -0.048822764537 0.851 1.14855354707e-38
0.0157492788829 -0.048822764537 0.851 1.11120950351e-38
0.0173242067712 -0.048822764537 0.851 1.12039305313e-38
0.0188991346595 -0.048822764537 0.851 1.16631080121e-38
0.020425944892 -0.0487080224347 0.849 1.14794370197e-38
0.0219971714221 -0.0487080224347 0.849 1.18467790044e-38
0.0235683979523 -0.0487080224347 0.849 1.21222854929e-38
0.0251396244824 -0.0487080224347 0.849 1.23059564852e-38
0.0267108510126 -0.0487080224347 0.849 1.2214120989e-38
0.0282820775427 -0.0487080224347 0.849 1.25814629736e-38
0.0298533040729 -0.0487080224347 0.849 1.28569694621e-38
0.031424530603 -0.0487080224347 0.849 1.34998179352e-38
0.0329180286122 -0.0485932803324 0.847 1.34998179352e-38
0.0344855537843 -0.0485932803324 0.847 1.34998179352e-38
0.0359679477191 -0.04847853823 0.845 1.46936793853e-38
0.0375317715329 -0.04847853823 0.845 1.43263374006e-38
0.0391881293003 -0.0485932803324 0.847 1.46018438891e-38
0.0407556544723 -0.0485932803324 0.847 1.48773503776e-38
0.0423231796443 -0.0485932803324 0.847 1.56127518117e-38
0.0438907048163 -0.0485932803324 0.847 1.54283633545e-38
0.0454582299883 -0.0485932803324 0.847 1.47855148814e-38
0.0471367959045 -0.0487080224347 0.849 1.46936793853e-38
0.0487080224347 -0.0487080224347 0.849 1.40508309122e-38
0.0503976924253 -0.048822764537 0.851 1.34998207378e-38
0.0519726203136 -0.048822764537 0.851 1.50610423894e-38
0.0535475482019 -0.048822764537 0.851 1.49756444584e-38
0.0551224760902 -0.048822764537 0.851 1.36881524488e-38
0.056897277318 -0.0489948776905 0.854 1.5703869843e-38
0.0584777572435 -0.0489948776905 0.854 2.3471404558e-38
0.00792090641819 -0.0475254385092 0.856 9.55089160043e-39
0.00948287955299 -0.047414397765 0.854 1.09284240428e-38
0.0110633594785 -0.047414397765 0.854 1.17549435082e-38
0.012643839404 -0.047414397765 0.854 1.16631080121e-38
0.0141743509946 -0.0472478366487 0.851 1.15755773048e-38
0.0157492788829 -0.0472478366487 0.851 1.13883189884e-38
0.0173242067712 -0.0472478366487 0.851 1.2214120989e-38
0.0188991346595 -0.0472478366487 0.851 1.12957660274e-38
0.0204740625478 -0.0472478366487 0.851 1.16631080121e-38
0.0220489904361 -0.0472478366487 0.851 1.20304499967e-38
0.0235683979523 -0.0471367959045 0.849 1.23977919813e-38
0.0251396244824 -0.0471367959045 0.849 1.26732984698e-38
0.0267108510126 -0.0471367959045 0.849 1.26732984698e-38
0.0282820775427 -0.0471367959045 0.849 1.28569694621e-38
0.0298533040729 -0.0471367959045 0.849 1.32243114468e-38
0.031424530603 -0.0471367959045 0.849 1.34079824391e-38
0.0329180286122 -0.0470257551603 0.847 1.42345019045e-38
0.0344855537843 -0.0470257551603 0.847 1.3958995416e-38
0.0360530789563 -0.0470257551603 0.847 1.49691858738e-38
0.0376206041283 -0.0470257551603 0.847 1.43263374006e-38
0.0391881293003 -0.0470257551603 0.847 1.48773503776e-38
0.0406594191607 -0.0469147144162 0.845 1.52446923622e-38
0.0422232429745 -0.0469147144162 0.845 1.47855148814e-38
0.0438907048163 -0.0470257551603 0.847 1.46018438891e-38
0.0454582299883 -0.0470257551603 0.847 1.38671599199e-38
0.0471367959045 -0.0471367959045 0.849 1.43263374006e-38
0.0487080224347 -0.0471367959045 0.849 1.32250289116e-38
0.0503976924253 -0.0472478366487 0.851 1.34998179352e-38
0.0519726203136 -0.0472478366487 0.851 1.66262157026e-38
0.0535475482019 -0.0472478366487 0.851 1.4702288963e-38
0.0553167973925 -0.047414397765 0.854 1.26732984698e-38
0.056897277318 -0.047414397765 0.854 2.16976619814e-38
0.0584777572435 -0.047414397765 0.854 2.34810693135e-38
0.00793941320889 -0.0460485966116 0.858 1.75754328616e-38
0.00948287955299 -0.0458339178395 0.854 9.91828122921e-39
0.0110633594785 -0.0458339178395 0.854 1.17549435082e-38
0.012643839404 -0.0458339178395 0.854 1.18467804057e-38
0.0141743509946 -0.0456729087604 0.851 1.18467790044e-38
0.0157492788829 -0.0456729087604 0.851 1.20340373208e-38
0.0173242067712 -0.0456729087604 0.851 1.12957716326e-38
0.0188991346595 -0.0456729087604 0.851 1.14794370197e-38
0.0204740625478 -0.0456729087604 0.851 1.17549435082e-38
0.0219971714221 -0.0455655693744 0.849 1.18467790044e-38
0.0235683979523 -0.0455655693744 0.849 1.23977919813e-38
0.0251396244824 -0.0455655693744 0.849 1.29488049583e-38
0.0267108510126 -0.0455655693744 0.849 1.29488049583e-38
0.0282820775427 -0.0455655693744 0.849 1.28569694621e-38
0.0298533040729 -0.0455655693744 0.849 1.34079824391e-38
0.0313505034402 -0.0454582299883 0.847 1.34998179352e-38
0.0329180286122 -0.0454582299883 0.847 1.37753244237e-38
0.0344855537843 -0.0454582299883 0.847 1.46954730473e-38
0.0360530789563 -0.0454582299883 0.847 1.46990603714e-38
0.0376206041283 -0.0454582299883 0.847 1.34998179352e-38
0.0391881293003 -0.0454582299883 0.847 1.47855232892e-38
0.0406594191607 -0.0453508906023 0.845 1.40508309122e-38
0.0422232429745 -0.0453508906023 0.845 1.55262973016e-38
0.0438907048163 -0.0454582299883 0.847 1.29488231752e-38
0.0454582299883 -0.0454582299883 0.847 1.31324829571e-38
0.0471367959045 -0.0455655693744 0.849 1.50660968729e-38
0.0487080224347 -0.0455655693744 0.849 1.26732984698e-38
0.0503976924253 -0.0456729087604 0.851 1.41426902304e-38
0.0519726203136 -0.0456729087604 0.851 1.41462537324e-38
0.0535475482019 -0.0456729087604 0.851 1.37857276635e-38
0.0553167973925 -0.0458339178395 0.854 1.6907083559e-38
0.056897277318 -0.0458339178395 0.854 1.92260321318e-38
0.0584777572435 -0.0458339178395 0.854 2.34943760437e-38
0.00793941320889 -0.0444607139698 0.858 1.71130351969e-38
0.00950508770183 -0.0443570759419 0.856 1.46227218349e-38
0.0110633594785 -0.044253437914 0.854 9.55089160043e-39
0.012643839404 -0.044253437914 0.854 1.21222995058e-38
0.0142243193295 -0.044253437914 0.854 1.20304499967e-38
0.015804799255 -0.044253437914 0.854 1.23142073305e-38
0.0173242067712 -0.0440979808721 0.851 1.12039305313e-38
0.0188991346595 -0.0440979808721 0.851 1.23988681785e-38
0.0204740625478 -0.0440979808721 0.851 1.23059564852e-38
0.0219971714221 -0.0439943428442 0.849 1.17560197054e-38
0.0235683979523 -0.0439943428442 0.849 1.23059564852e-38
0.0251396244824 -0.0439943428442 0.849 1.40522812561e-38
0.0266479279242 -0.0438907048163 0.847 1.28569694621e-38
0.0282154530962 -0.0438907048163 0.847 1.33193755346e-38
0.0298533040729 -0.0439943428442 0.849 1.26732984698e-38
0.0313505034402 -0.0438907048163 0.847 1.2765133966e-38
0.0329180286122 -0.0438907048163 0.847 1.32243114468e-38
0.0344855537843 -0.0438907048163 0.847 1.30406404544e-38
0.0360530789563 -0.0438907048163 0.847 1.30406404544e-38
0.0376206041283 -0.0438907048163 0.847 1.4147688662e-38
0.0391881293003 -0.0438907048163 0.847 1.38682361171e-38
0.0407556544723 -0.0438907048163 0.847 1.35916534314e-38
0.0423231796443 -0.0438907048163 0.847 1.31357045423e-38
0.0438907048163 -0.0438907048163 0.847 1.42377445091e-38
0.0455655693744 -0.0439943428442 0.849 1.34083411715e-38
0.0472478366487 -0.0440979808721 0.851 1.43281366679e-38
0.048822764537 -0.0440979808721 0.851 1.24896274775e-38
0.0503976924253 -0.0440979808721 0.851 1.52450609037e-38
0.0519726203136 -0.0440979808721 0.851 1.34165920168e-38
0.053736317467 -0.044253437914 0.854 1.51621839086e-38
0.0553167973925 -0.044253437914 0.854 2.01436920493e-38
0.056897277318 -0.044253437914 0.854 2.00564556147e-38
0.00952729585067 -0.042872831328 0.858 1.59156116462e-38
0.0110892689855 -0.0427728946582 0.856 1.26011946573e-38
0.012643839404 -0.0426729579885 0.854 1.07447530505e-38
0.0142243193295 -0.0426729579885 0.854 1.22141364033e-38
0.015804799255 -0.0426729579885 0.854 1.13876015236e-38
0.0173852791805 -0.0426729579885 0.854 1.17549435082e-38
0.0188991346595 -0.0425230529838 0.851 1.12039305313e-38
0.0204740625478 -0.0425230529838 0.851 1.17549435082e-38
0.0219971714221 -0.0424231163141 0.849 1.26732984698e-38
0.0235683979523 -0.0424231163141 0.849 1.32264792555e-38
0.0251396244824 -0.0424231163141 0.849 1.29498965698e-38
0.0266479279242 -0.0423231796443 0.847 1.2859480589e-38
0.0282154530962 -0.0423231796443 0.847 1.29520335499e-38
0.0298533040729 -0.0424231163141 0.849 1.32279155864e-38
0.031424530603 -0.0424231163141 0.849 1.26732984698e-38
0.0329957571332 -0.0424231163141 0.849 1.38675186523e-38
0.0345669836633 -0.0424231163141 0.849 1.28569694621e-38
0.0361382101935 -0.0424231163141 0.849 1.30420753841e-38
0.0377094367236 -0.0424231163141 0.849 1.32278987708e-38
0.0392806632538 -0.0424231163141 0.849 1.44192687122e-38
0.0407556544723 -0.0423231796443 0.847 1.35923708962e-38
0.0423231796443 -0.0423231796443 0.847 1.24907036747e-38
0.0439943428442 -0.0424231163141 0.849 1.36834889275e-38
0.0455655693744 -0.0424231163141 0.849 1.38671599199e-38
0.0472478366487 -0.0425230529838 0.851 1.38707472439e-38
0.048822764537 -0.0425230529838 0.851 1.34998179352e-38
0.0503976924253 -0.0425230529838 0.851 1.41430251407e-38
0.0521558375415 -0.0426729579885 0.854 1.41501997889e-38
0.053736317467 -0.0426729579885 0.854 1.87603890599e-38
0.0554463449273 -0.0427728946582 0.856 1.86728597539e-38
0.057030526211 -0.0427728946582 0.856 2.14397614068e-38
0.0095495039995 -0.0413811839978 0.86 1.3428077059e-38
0.0110892689855 -0.0411887133746 0.856 1.43489655682e-38
0.012643839404 -0.041092478063 0.854 1.34202129721e-38
0.0142243193295 -0.041092478063 0.854 1.05610820582e-38
0.015804799255 -0.041092478063 0.854 1.13876015236e-38
0.0173852791805 -0.041092478063 0.854 1.12039305313e-38
0.018965759106 -0.041092478063 0.854 1.20326023911e-38
0.0204740625478 -0.0409481250955 0.851 1.17549435082e-38
0.0220489904361 -0.0409481250955 0.851 1.26732984698e-38
0.0236239183244 -0.0409481250955 0.851 1.24921428082e-38
0.0251988462126 -0.0409481250955 0.851 1.24899946177e-38
0.0267108510126 -0.0408518897839 0.849 1.2674374667e-38
0.0282820775427 -0.0408518897839 0.849 1.31324759506e-38
0.0298533040729 -0.0408518897839 0.849 1.31324759506e-38
0.031424530603 -0.0408518897839 0.849 1.25814629736e-38
0.0329957571332 -0.0408518897839 0.849 1.41426664083e-38
0.0345669836633 -0.0408518897839 0.849 1.37753244237e-38
0.0361382101935 -0.0408518897839 0.849 1.35005354e-38
0.0377094367236 -0.0408518897839 0.849 1.24896274775e-38
0.0392806632538 -0.0408518897839 0.849 1.58976385921e-38
0.0408518897839 -0.0408518897839 0.849 1.34108522983e-38
0.0424231163141 -0.0408518897839 0.849 1.37807054098e-38
0.0439943428442 -0.0408518897839 0.849 1.40565706307e-38
0.0456729087604 -0.0409481250955 0.851 1.32243114468e-38
0.0472478366487 -0.0409481250955 0.851 1.37771180857e-38
0.0489948776905 -0.041092478063 0.854 1.32243184532e-38
0.050575357616 -0.041092478063 0.854 1.47952132681e-38
0.0522779823601 -0.0411887133746 0.856 1.71051220645e-38
0.0538621636437 -0.0411887133746 0.856 1.81210928784e-38
0.0557054399971 -0.0413811839978 0.86 1.85824073393e-38
0.057297023997 -0.0413811839978 0.86 2.00550487111e-38
0.00957171214834 -0.0398821339514 0.862 1.72084930496e-38
0.0111151784924 -0.0396970660444 0.858 1.45322498022e-38
0.0126734502691 -0.039604532091 0.856 1.3513812703e-38
0.0142576315527 -0.039604532091 0.856 1.40687675325e-38
0.0158418128364 -0.039604532091 0.856 1.16631080121e-38
0.0173852791805 -0.0395119981375 0.854 1.12957660274e-38
0.018965759106 -0.0395119981375 0.854 1.23977919813e-38
0.0204740625478 -0.0393731972073 0.851 1.23059564852e-38
0.0220489904361 -0.0393731972073 0.851 1.30406404544e-38
0.0236239183244 -0.0393731972073 0.851 1.16638464964e-38
0.0251988462126 -0.0393731972073 0.851 1.19386145005e-38
0.0267108510126 -0.0392806632538 0.849 1.34108522983e-38
0.0282820775427 -0.0392806632538 0.849 1.30406404544e-38
0.0298533040729 -0.0392806632538 0.849 1.34079824391e-38
0.031424530603 -0.0392806632538 0.849 1.27651465776e-38
0.0329957571332 -0.0392806632538 0.849 1.45107258578e-38
0.0346484135424 -0.0393731972073 0.851 1.23977919813e-38
0.0362233414307 -0.0393731972073 0.851 1.43295659923e-38
0.037798269319 -0.0393731972073 0.851 1.25828979033e-38
0.0393731972073 -0.0393731972073 0.851 1.3685641322e-38
0.0409481250955 -0.0393731972073 0.851 1.51578875276e-38
0.0425230529838 -0.0393731972073 0.851 1.23988905993e-38
0.0440979808721 -0.0393731972073 0.851 1.31324759506e-38
0.0458339178395 -0.0395119981375 0.854 1.44199819731e-38
0.047414397765 -0.0395119981375 0.854 1.25814629736e-38
0.0492243618951 -0.0396970660444 0.858 1.71837307044e-38
0.0509306879973 -0.0397895999979 0.86 1.63664850323e-38
0.0525222719973 -0.0397895999979 0.86 1.69228789953e-38
0.0541138559972 -0.0397895999979 0.86 1.71994672862e-38
0.055834987532 -0.0398821339514 0.862 1.8674249842e-38
0.05743027289 -0.0398821339514 0.862 2.07922283929e-38
0.0111410879994 -0.038198015998 0.86 1.53598959116e-38
0.0127030611342 -0.0381091834027 0.858 1.40688067689e-38
0.014290943776 -0.0381091834027 0.858 1.17614006915e-38
0.0158418128364 -0.0380203508073 0.856 1.44311250985e-38
0.01742599412 -0.0380203508073 0.856 1.28684488991e-38
0.018965759106 -0.037931518212 0.854 1.15712767198e-38
0.0205462390315 -0.037931518212 0.854 1.24896274775e-38
0.0220489904361 -0.037798269319 0.851 1.19386145005e-38
0.0236239183244 -0.037798269319 0.851 1.20304499967e-38
0.0251988462126 -0.037798269319 0.851 1.21222854929e-38
0.0267737741009 -0.037798269319 0.851 1.38711059763e-38
0.0283487019892 -0.037798269319 0.851 1.30420753841e-38
0.0299236298775 -0.037798269319 0.851 1.2674374667e-38
0.0314985577658 -0.037798269319 0.851 1.34126459604e-38
0.0330734856541 -0.037798269319 0.851 1.35934540999e-38
0.0346484135424 -0.037798269319 0.851 1.33204587383e-38
0.0362233414307 -0.037798269319 0.851 1.32257463764e-38
0.037931518212 -0.037931518212 0.854 1.3778194283e-38
0.0395119981375 -0.037931518212 0.854 1.30406404544e-38
0.041092478063 -0.037931518212 0.854 1.48838369882e-38
0.0426729579885 -0.037931518212 0.854 1.34090586363e-38
0.0443570759419 -0.0380203508073 0.856 1.25814629736e-38
0.0459412572255 -0.0380203508073 0.856 1.55299322698e-38
0.0476364792533 -0.0381091834027 0.858 1.46165519178e-38
0.0493391039974 -0.038198015998 0.86 1.6733475291e-38
0.0509306879973 -0.038198015998 0.86 1.71058283189e-38
0.0525222719973 -0.038198015998 0.86 1.71994827005e-38
0.0542397021739 -0.0382868485934 0.862 1.69239776133e-38
0.055834987532 -0.0382868485934 0.862 1.95036195485e-38
0.05743027289 -0.0382868485934 0.862 2.13457931344e-38
0.0143242559993 -0.0366064319981 0.86 1.21348467323e-38
0.0159158399992 -0.0366064319981 0.86 1.39651429124e-38
0.0174667090596 -0.0365213007609 0.858 1.30525038472e-38
0.0190101754037 -0.0364361695237 0.856 1.32325791077e-38
0.0205462390315 -0.0363510382865 0.854 1.38782806245e-38
0.022126718957 -0.0363510382865 0.854 1.12957716326e-38
0.0237071988825 -0.0363510382865 0.854 1.17549435082e-38
0.025287678808 -0.0363510382865 0.854 1.32264638412e-38
0.0267737741009 -0.0362233414307 0.851 1.28569694621e-38
0.0283487019892 -0.0362233414307 0.851 1.32271855099e-38
0.0300291185845 -0.0363510382865 0.854 1.35080898001e-38
0.03160959851 -0.0363510382865 0.854 1.31396505987e-38
0.0331900784355 -0.0363510382865 0.854 1.41512914004e-38
0.034770558361 -0.0363510382865 0.854 1.23977919813e-38
0.0363510382865 -0.0363510382865 0.854 1.35916534314e-38
0.037931518212 -0.0363510382865 0.854 1.30406404544e-38
0.039604532091 -0.0364361695237 0.856 1.34079824391e-38
0.0412849486862 -0.0365213007609 0.858 1.4332794584e-38
0.042872831328 -0.0365213007609 0.858 1.48913549544e-38
0.0445643519977 -0.0366064319981 0.86 1.55363544207e-38
0.0462632753836 -0.0366915632353 0.862 1.50760965388e-38
0.0478585607417 -0.0366915632353 0.862 1.59969794428e-38
0.0495685882021 -0.0367766944725 0.864 1.60877275313e-38
0.0510491314578 -0.0366915632353 0.862 1.69214440657e-38
0.0526444168159 -0.0366915632353 0.862 1.75689910925e-38
0.0542397021739 -0.0366915632353 0.862 1.78466569819e-38
0.055834987532 -0.0366915632353 0.862 1.77526410654e-38
0.05743027289 -0.0366915632353 0.862 2.1806730646e-38
0.0145740976737 -0.0356255720912 0.875 1.57308224177e-38
0.0160824011154 -0.035381282454 0.869 1.24074777563e-38
0.0175481389386 -0.0350962778772 0.862 1.34162599091e-38
0.019099007999 -0.0350148479982 0.86 1.36013602258e-38
0.0206905919989 -0.0350148479982 0.86 1.33226293496e-38
0.0222303569849 -0.0349334181191 0.858 1.38779274973e-38
0.0238182396267 -0.0349334181191 0.858 1.36946096322e-38
0.0254061222684 -0.0349334181191 0.858 1.3695327097e-38
0.0268681587335 -0.034770558361 0.854 1.35059163861e-38
0.028448638659 -0.034770558361 0.854 1.41516347185e-38
0.0300291185845 -0.034770558361 0.854 1.32296924329e-38
0.03160959851 -0.034770558361 0.854 1.23059564852e-38
0.0331900784355 -0.034770558361 0.854 1.31324759506e-38
0.034770558361 -0.034770558361 0.854 1.41498410565e-38
0.0364361695237 -0.03485198824 0.856 1.3966887529e-38
0.0380203508073 -0.03485198824 0.856 1.5441286129e-38
0.0396970660444 -0.0349334181191 0.858 1.4614040791e-38
0.0413811839978 -0.0350148479982 0.86 1.46154757206e-38
0.0429727679978 -0.0350148479982 0.86 1.4524755658e-38
0.0445643519977 -0.0350148479982 0.86 1.49835505843e-38
0.0462632753836 -0.0350962778772 0.862 1.47977145859e-38
0.0479696014859 -0.0351777077563 0.864 1.61792042951e-38
0.0497407013555 -0.0352998525749 0.867 1.60866611432e-38
0.0511675749183 -0.0351777077563 0.864 1.73791950246e-38
0.0527665616345 -0.0351777077563 0.864 1.6736715093e-38
0.0545543176158 -0.0352998525749 0.867 1.80292685926e-38
0.0561588563692 -0.0352998525749 0.867 1.73831606993e-38
0.0130287806505 -0.0342005492075 0.88 1.49000289919e-38
0.0145740976737 -0.0340062279052 0.875 1.47148796297e-38
0.0161564282782 -0.0339284993843 0.873 1.5545694075e-38
0.0177313561665 -0.0338507708634 0.871 1.24050030632e-38
0.0191878405943 -0.0335787210401 0.864 1.34180801958e-38
0.0207387096547 -0.0335009925192 0.862 1.36910517354e-38
0.0222821759988 -0.0334232639983 0.86 1.39697685986e-38
0.0238737599988 -0.0334232639983 0.86 1.34155158196e-38
0.0254653439987 -0.0334232639983 0.86 1.37832165366e-38
0.0269310818219 -0.0332678069564 0.856 1.40580055603e-38
0.0285152631055 -0.0332678069564 0.856 1.44257062773e-38
0.0300994443891 -0.0332678069564 0.856 1.42438289471e-38
0.0316836256728 -0.0332678069564 0.856 1.46161931854e-38
0.0332678069564 -0.0332678069564 0.856 1.44300292831e-38
0.03485198824 -0.0332678069564 0.856 1.49795891136e-38
0.0364361695237 -0.0332678069564 0.856 1.41531088845e-38
0.0381091834027 -0.0333455354773 0.858 1.47984292481e-38
0.0397895999979 -0.0334232639983 0.86 1.46136820585e-38
0.0413811839978 -0.0334232639983 0.86 1.47977145859e-38
0.0430727046675 -0.0335009925192 0.862 1.51668502325e-38
0.0446679900256 -0.0335009925192 0.862 1.4613689065e-38
0.0463706147697 -0.0335787210401 0.864 1.61824440971e-38
0.0481361626021 -0.0336953138215 0.867 1.57207526869e-38
0.0497407013555 -0.0336953138215 0.867 1.67327466158e-38
0.051345240109 -0.0336953138215 0.867 1.67316928393e-38
0.0529497788624 -0.0336953138215 0.867 1.75629052533e-38
0.0546801637925 -0.0337730423424 0.869 1.83984070419e-38
0.056288403904 -0.0337730423424 0.869 1.92302920791e-38
0.0114260925761 -0.032645978789 0.882 1.51794226824e-38
0.0130287806505 -0.0325719516262 0.88 1.48982297247e-38
0.0145740976737 -0.0323868837192 0.875 1.44393787465e-38
0.0161564282782 -0.0323128565565 0.873 1.48971212976e-38
0.0177313561665 -0.0322388293937 0.871 1.43464656518e-38
0.0192988813385 -0.0321648022309 0.869 1.56401303811e-38
0.0207868273105 -0.0319797343239 0.864 1.49035378433e-38
0.0223339950128 -0.0319057071611 0.862 1.24982370553e-38
0.0239292803708 -0.0319057071611 0.862 1.40540735168e-38
0.0255245657289 -0.0319057071611 0.862 1.47934168035e-38
0.0270569279986 -0.0318316799983 0.86 1.41509172537e-38
0.028581887552 -0.0317576528356 0.858 1.41512759861e-38
0.0301697701938 -0.0317576528356 0.858 1.46104548682e-38
0.0317576528356 -0.0317576528356 0.858 1.41512759861e-38
0.0333455354773 -0.0317576528356 0.858 1.41516445276e-38
0.0349334181191 -0.0317576528356 0.858 1.50710658773e-38
0.0365213007609 -0.0317576528356 0.858 1.38746933004e-38
0.038198015998 -0.0318316799983 0.86 1.45200585055e-38
0.0398821339514 -0.0319057071611 0.862 1.4979957655e-38
0.0414774193095 -0.0319057071611 0.862 1.5075393087e-38
0.0431726413373 -0.0319797343239 0.864 1.58118637118e-38
0.0447716280535 -0.0319797343239 0.864 1.58143678321e-38
0.0465316238487 -0.0320907750681 0.867 1.51690376594e-38
0.0482472033463 -0.0321648022309 0.869 1.71991197642e-38
0.0498554434579 -0.0321648022309 0.869 1.63664850323e-38
0.0514636835694 -0.0321648022309 0.869 1.68238912718e-38
0.053071923681 -0.0321648022309 0.869 1.85788466399e-38
0.0548060099692 -0.0322388293937 0.871 1.83994608183e-38
0.0564179514389 -0.0322388293937 0.871 1.77534019704e-38
0.0114001830692 -0.0309433540449 0.88 1.49932545762e-38
0.0130287806505 -0.0309433540449 0.88 1.51773179321e-38
0.0145740976737 -0.0307675395333 0.875 1.33323081181e-38
0.0161564282782 -0.0306972137286 0.873 1.45287059184e-38
0.0177720711061 -0.0306972137286 0.873 1.35134623784e-38
0.0193432976362 -0.030626887924 0.871 1.48034585083e-38
0.0209552391059 -0.030626887924 0.871 1.49006932074e-38
0.0225671805756 -0.030626887924 0.871 1.59134130089e-38
