# .PCD v0.7 - Point Cloud Data file format
VERSION 0.7
FIELDS x y z rgb
SIZE 4 4 4 4
TYPE F F F F
COUNT 1 1 1 1
WIDTH 844
HEIGHT 1
VIEWPOINT 0 0 0 1 0 0 0
POINTS 844
DATA ascii
0.0454582299883 -0.0517283306764 0.847 1.33182993373e-38
0.0470257551603 -0.0517283306764 0.847 1.42366542989e-38
0.0487080224347 -0.051850475495 0.849 1.50610213699e-38
0.0502792489648 -0.051850475495 0.849 1.35916534314e-38
0.0519726203136 -0.0519726203136 0.851 1.38671599199e-38
0.0535475482019 -0.0519726203136 0.851 1.70879015077e-38
0.0553167973925 -0.0521558375415 0.854 1.44242713477e-38
0.056897277318 -0.0521558375415 0.854 1.40508309122e-38
0.0584777572435 -0.0521558375415 0.854 2.3487546115e-38
0.00159528535806 -0.0510491314578 0.862 2.35022345255e-38
0.00319057071611 -0.0510491314578 0.862 2.35062282262e-38
0.00477475199975 -0.0509306879973 0.86 1.27967192333e-38
0.00636633599967 -0.0509306879973 0.86 1.05610820582e-38
0.00792090641819 -0.0506938010764 0.856 1.18467790044e-38
0.00948287955299 -0.050575357616 0.854 1.20390595745e-38
0.0110633594785 -0.050575357616 0.854 1.07447530505e-38
0.0125994231063 -0.0503976924253 0.851 1.1020259539e-38
0.0141743509946 -0.0503976924253 0.851 1.08365885466e-38
0.0157122653015 -0.0502792489648 0.849 1.07447530505e-38
0.0172834918317 -0.0502792489648 0.849 1.07447530505e-38
0.0188547183618 -0.0502792489648 0.849 1.07447530505e-38
0.0203778272361 -0.0501608055044 0.847 1.0469246562e-38
0.0219453524082 -0.0501608055044 0.847 1.09284240428e-38
0.0235128775802 -0.0501608055044 0.847 1.08365885466e-38
0.025021181022 -0.0500423620439 0.845 1.11120950351e-38
0.0265850048358 -0.0500423620439 0.845 1.11120950351e-38
0.0281488286497 -0.0500423620439 0.845 1.13876015236e-38
0.0296423266589 -0.0499239185834 0.843 1.16631080121e-38
0.0312024491147 -0.0499239185834 0.843 1.25814629736e-38
0.0327625715704 -0.0499239185834 0.843 1.20304499967e-38
0.0343226940261 -0.0499239185834 0.843 1.30406404544e-38
0.0358828164819 -0.0499239185834 0.843 1.3958995416e-38
0.0374429389376 -0.0499239185834 0.843 1.33161469429e-38
0.0390030613933 -0.0499239185834 0.843 1.42345019045e-38
0.0406594191607 -0.0500423620439 0.845 1.41426664083e-38
0.0422232429745 -0.0500423620439 0.845 1.42345019045e-38
0.0438907048163 -0.0501608055044 0.847 1.40508309122e-38
0.0454582299883 -0.0501608055044 0.847 1.33161469429e-38
0.0470257551603 -0.0501608055044 0.847 1.53401151825e-38
0.0487080224347 -0.0502792489648 0.849 1.52446923622e-38
0.0502792489648 -0.0502792489648 0.849 1.3958995416e-38
0.051850475495 -0.0502792489648 0.849 1.54373316647e-38
0.0534217020251 -0.0502792489648 0.849 1.42441876795e-38
0.0553167973925 -0.050575357616 0.854 1.46129701989e-38
0.056897277318 -0.050575357616 0.854 1.41426664083e-38
0.0584777572435 -0.050575357616 0.854 2.3488311224e-38
0.00159528535806 -0.0494538460997 0.862 2.35007869842e-38
0.00319057071611 -0.0494538460997 0.862 2.35065687417e-38
0.00477475199975 -0.0493391039974 0.86 1.75937758585e-38
0.00636633599967 -0.0493391039974 0.86 1.09284478649e-38
0.00792090641819 -0.0491096197928 0.856 1.24003031082e-38
0.00948287955299 -0.0489948776905 0.854 1.09338050289e-38
0.0110633594785 -0.0489948776905 0.854 1.05610820582e-38
0.0125994231063 -0.048822764537 0.851 1.15712725159e-38
0.0141743509946 -0.048822764537 0.851 1.1020259539e-38
0.0157122653015 -0.0487080224347 0.849 1.09284240428e-38
0.0172834918317 -0.0487080224347 0.849 1.09284240428e-38
0.0188547183618 -0.0487080224347 0.849 1.12957660274e-38
0.0203778272361 -0.0485932803324 0.847 1.07447530505e-38
0.0219453524082 -0.0485932803324 0.847 1.09284240428e-38
0.0235128775802 -0.0485932803324 0.847 1.13876015236e-38
0.0250804027522 -0.0485932803324 0.847 1.16631080121e-38
0.0266479279242 -0.0485932803324 0.847 1.14794370197e-38
0.0281488286497 -0.04847853823 0.845 1.2214120989e-38
0.0297126524636 -0.04847853823 0.845 1.26732984698e-38
0.0312024491147 -0.0483637961277 0.843 1.2765133966e-38
0.0327625715704 -0.0483637961277 0.843 1.31324759506e-38
0.0343226940261 -0.0483637961277 0.843 1.33161469429e-38
0.0358828164819 -0.0483637961277 0.843 1.43263374006e-38
0.0374429389376 -0.0483637961277 0.843 1.40508309122e-38
0.0390955953468 -0.04847853823 0.845 1.41426664083e-38
0.0406594191607 -0.04847853823 0.845 1.34998179352e-38
0.0422232429745 -0.04847853823 0.845 1.42345019045e-38
0.0438907048163 -0.0485932803324 0.847 1.42345019045e-38
0.0454582299883 -0.0485932803324 0.847 1.48773503776e-38
0.0470257551603 -0.0485932803324 0.847 1.52446923622e-38
0.0487080224347 -0.0487080224347 0.849 1.51528568661e-38
0.0502792489648 -0.0487080224347 0.849 1.45103671254e-38
0.051850475495 -0.0487080224347 0.849 1.45239989568e-38
0.0534217020251 -0.0487080224347 0.849 1.44310872635e-38
0.0553167973925 -0.0489948776905 0.854 1.28605567862e-38
0.056897277318 -0.0489948776905 0.854 1.69953317311e-38
0.0584777572435 -0.0489948776905 0.854 2.34976410692e-38
0.00319057071611 -0.0478585607417 0.862 2.35079798492e-38
0.00478585607417 -0.0478585607417 0.862 1.96245810332e-38
0.00638114143223 -0.0478585607417 0.862 9.45906311077e-39
0.00792090641819 -0.0475254385092 0.856 1.13876015236e-38
0.00948287955299 -0.047414397765 0.854 1.14869886172e-38
0.0110633594785 -0.047414397765 0.854 1.12128988414e-38
0.0125994231063 -0.0472478366487 0.851 1.11120950351e-38
0.0141743509946 -0.0472478366487 0.851 1.13876015236e-38
0.0157492788829 -0.0472478366487 0.851 1.11120950351e-38
0.0173242067712 -0.0472478366487 0.851 1.11120950351e-38
0.0188547183618 -0.0471367959045 0.849 1.13876015236e-38
0.020425944892 -0.0471367959045 0.849 1.15712725159e-38
0.0219971714221 -0.0471367959045 0.849 1.16631080121e-38
0.0235683979523 -0.0471367959045 0.849 1.20304527993e-38
0.0250804027522 -0.0470257551603 0.847 1.23059564852e-38
0.0266479279242 -0.0470257551603 0.847 1.23059564852e-38
0.0281488286497 -0.0469147144162 0.845 1.25814629736e-38
0.0297126524636 -0.0469147144162 0.845 1.32243114468e-38
0.0312764762774 -0.0469147144162 0.845 1.34079824391e-38
0.0328403000913 -0.0469147144162 0.845 1.37753244237e-38
0.0344041239052 -0.0469147144162 0.845 1.37753244237e-38
0.0359679477191 -0.0469147144162 0.845 1.40508309122e-38
0.0375317715329 -0.0469147144162 0.845 1.41426664083e-38
0.0390955953468 -0.0469147144162 0.845 1.30406404544e-38
0.0406594191607 -0.0469147144162 0.845 1.24896274775e-38
0.0422232429745 -0.0469147144162 0.845 1.46936793853e-38
0.0437870667884 -0.0469147144162 0.845 1.44181728968e-38
0.0454582299883 -0.0470257551603 0.847 1.46936793853e-38
0.0470257551603 -0.0470257551603 0.847 1.40508309122e-38
0.0487080224347 -0.0471367959045 0.849 1.41426664083e-38
0.0502792489648 -0.0471367959045 0.849 1.48870361526e-38
0.051850475495 -0.0471367959045 0.849 1.41541458454e-38
0.0534217020251 -0.0471367959045 0.849 1.50707295657e-38
0.0553167973925 -0.047414397765 0.854 1.33161469429e-38
0.056897277318 -0.047414397765 0.854 2.20647209037e-38
0.0584777572435 -0.047414397765 0.854 2.35012410049e-38
0.00639594686478 -0.0463706147697 0.864 1.62800277196e-38
0.00792090641819 -0.0459412572255 0.856 1.07448062998e-38
0.00948287955299 -0.0458339178395 0.854 1.13980047634e-38
0.0110633594785 -0.0458339178395 0.854 1.05711265656e-38
0.0125994231063 -0.0456729087604 0.851 1.07454705153e-38
0.0141743509946 -0.0456729087604 0.851 1.12039305313e-38
0.0157492788829 -0.0456729087604 0.851 1.15716312483e-38
0.0173242067712 -0.0456729087604 0.851 1.14794370197e-38
0.0188991346595 -0.0456729087604 0.851 1.12957660274e-38
0.020425944892 -0.0455655693744 0.849 1.15712725159e-38
0.0219971714221 -0.0455655693744 0.849 1.19386145005e-38
0.0235683979523 -0.0455655693744 0.849 1.25814629736e-38
0.0251396244824 -0.0455655693744 0.849 1.26732984698e-38
0.0266479279242 -0.0454582299883 0.847 1.24896274775e-38
0.0281488286497 -0.0453508906023 0.845 1.26732984698e-38
0.0297126524636 -0.0453508906023 0.845 1.37753244237e-38
0.0312764762774 -0.0453508906023 0.845 1.37753244237e-38
0.0328403000913 -0.0453508906023 0.845 1.36834889275e-38
0.0344041239052 -0.0453508906023 0.845 1.40508309122e-38
0.0359679477191 -0.0453508906023 0.845 1.46018438891e-38
0.0375317715329 -0.0453508906023 0.845 1.49691858738e-38
0.0390955953468 -0.0453508906023 0.845 1.39590066264e-38
0.0406594191607 -0.0453508906023 0.845 1.41426664083e-38
0.0422232429745 -0.0453508906023 0.845 1.44181728968e-38
0.0437870667884 -0.0453508906023 0.845 1.42345019045e-38
0.0454582299883 -0.0454582299883 0.847 1.43274135979e-38
0.0470257551603 -0.0454582299883 0.847 1.34079824391e-38
0.0487080224347 -0.0455655693744 0.849 1.46972779197e-38
0.0502792489648 -0.0455655693744 0.849 1.33222453938e-38
0.051850475495 -0.0455655693744 0.849 1.47887448744e-38
0.0535475482019 -0.0456729087604 0.851 1.44182023241e-38
0.0553167973925 -0.0458339178395 0.854 1.9208046466e-38
0.056897277318 -0.0458339178395 0.854 2.28209624485e-38
0.0584777572435 -0.0458339178395 0.854 2.35062674625e-38
0.00792090641819 -0.0443570759419 0.856 1.25000517368e-38
0.00950508770183 -0.0443570759419 0.856 1.00118627433e-38
0.0110633594785 -0.044253437914 0.854 1.07573156912e-38
0.0125994231063 -0.0440979808721 0.851 1.08419695327e-38
0.0141743509946 -0.0440979808721 0.851 1.16631080121e-38
0.0157492788829 -0.0440979808721 0.851 1.18507250609e-38
0.0173242067712 -0.0440979808721 0.851 1.09284240428e-38
0.0188991346595 -0.0440979808721 0.851 1.20304499967e-38
0.0204740625478 -0.0440979808721 0.851 1.17549435082e-38
0.0219971714221 -0.0439943428442 0.849 1.18467790044e-38
0.0235683979523 -0.0439943428442 0.849 1.24896274775e-38
0.0251396244824 -0.0439943428442 0.849 1.33161469429e-38
0.0266479279242 -0.0438907048163 0.847 1.32257463764e-38
0.0281488286497 -0.0437870667884 0.845 1.32243114468e-38
0.0297126524636 -0.0437870667884 0.845 1.25814825918e-38
0.0312764762774 -0.0437870667884 0.845 1.34998179352e-38
0.0328403000913 -0.0437870667884 0.845 1.32243114468e-38
0.0344041239052 -0.0437870667884 0.845 1.46018593034e-38
0.0359679477191 -0.0437870667884 0.845 1.35916618392e-38
0.0375317715329 -0.0437870667884 0.845 1.43266961331e-38
0.0390955953468 -0.0437870667884 0.845 1.46018438891e-38
0.0406594191607 -0.0437870667884 0.845 1.4510008393e-38
0.0422232429745 -0.0437870667884 0.845 1.33161469429e-38
0.0438907048163 -0.0438907048163 0.847 1.36834889275e-38
0.0454582299883 -0.0438907048163 0.847 1.42409590878e-38
0.0471367959045 -0.0439943428442 0.849 1.43281422731e-38
0.0487080224347 -0.0439943428442 0.849 1.39625827401e-38
0.0502792489648 -0.0439943428442 0.849 1.38703885115e-38
0.0519726203136 -0.0440979808721 0.851 1.46936891944e-38
0.0535475482019 -0.0440979808721 0.851 1.46936793853e-38
0.0553167973925 -0.044253437914 0.854 2.19728587829e-38
0.057030526211 -0.0443570759419 0.856 2.34781784348e-38
0.0586147074946 -0.0443570759419 0.856 2.35098253593e-38
0.00793941320889 -0.042872831328 0.858 1.7113420554e-38
0.00950508770183 -0.0427728946582 0.856 1.01984035948e-38
0.0110633594785 -0.0426729579885 0.854 1.10224455646e-38
0.012643839404 -0.0426729579885 0.854 1.07530038958e-38
0.0141743509946 -0.0425230529838 0.851 1.06529175543e-38
0.0157492788829 -0.0425230529838 0.851 1.17549435082e-38
0.0173242067712 -0.0425230529838 0.851 1.15712725159e-38
0.0188991346595 -0.0425230529838 0.851 1.18471377368e-38
0.0204740625478 -0.0425230529838 0.851 1.13876015236e-38
0.0220489904361 -0.0425230529838 0.851 1.2214120989e-38
0.0235683979523 -0.0424231163141 0.849 1.27655053101e-38
0.0251396244824 -0.0424231163141 0.849 1.19386145005e-38
0.0266479279242 -0.0423231796443 0.847 1.27694387548e-38
0.0282154530962 -0.0423231796443 0.847 1.23977919813e-38
0.0297126524636 -0.0422232429745 0.845 1.2765133966e-38
0.0312764762774 -0.0422232429745 0.845 1.34079824391e-38
0.0328403000913 -0.0422232429745 0.845 1.20304499967e-38
0.0344041239052 -0.0422232429745 0.845 1.5345531201e-38
0.0359679477191 -0.0422232429745 0.845 1.34137263615e-38
0.0375317715329 -0.0422232429745 0.845 1.30442277785e-38
0.0391881293003 -0.0423231796443 0.847 1.33161469429e-38
0.0407556544723 -0.0423231796443 0.847 1.3958995416e-38
0.0423231796443 -0.0423231796443 0.847 1.33161469429e-38
0.0439943428442 -0.0424231163141 0.849 1.38682627417e-38
0.0455655693744 -0.0424231163141 0.849 1.31357045423e-38
0.0472478366487 -0.0425230529838 0.851 1.42366725158e-38
0.048822764537 -0.0425230529838 0.851 1.37792704802e-38
0.0503976924253 -0.0425230529838 0.851 1.38703885115e-38
0.0521558375415 -0.0426729579885 0.854 1.36835113483e-38
0.053736317467 -0.0426729579885 0.854 1.91215415092e-38
0.0554463449273 -0.0427728946582 0.856 2.34685332975e-38
0.057030526211 -0.0427728946582 0.856 2.31028770749e-38
0.0586147074946 -0.0427728946582 0.856 2.35047820861e-38
0.00950508770183 -0.0411887133746 0.856 1.56393120228e-38
0.0110633594785 -0.041092478063 0.854 1.01019045774e-38
0.012643839404 -0.041092478063 0.854 1.11142586399e-38
0.0142243193295 -0.041092478063 0.854 1.18510837933e-38
0.015804799255 -0.041092478063 0.854 1.12957870469e-38
0.0173242067712 -0.0409481250955 0.851 1.15712725159e-38
0.0188991346595 -0.0409481250955 0.851 1.23992591408e-38
0.0204740625478 -0.0409481250955 0.851 1.14794370197e-38
0.0220489904361 -0.0409481250955 0.851 1.28569694621e-38
0.0235683979523 -0.0408518897839 0.849 1.29488049583e-38
0.0251396244824 -0.0408518897839 0.849 1.21226442253e-38
0.0266479279242 -0.0407556544723 0.847 1.23109787389e-38
0.0282154530962 -0.0407556544723 0.847 1.22169908483e-38
0.0297829782682 -0.0407556544723 0.847 1.26754508642e-38
0.0312764762774 -0.0406594191607 0.845 1.29488049583e-38
0.0328403000913 -0.0406594191607 0.845 1.33193755346e-38
0.0344041239052 -0.0406594191607 0.845 1.31371394719e-38
0.0359679477191 -0.0406594191607 0.845 1.20315261939e-38
0.0375317715329 -0.0406594191607 0.845 1.28612784549e-38
0.0391881293003 -0.0407556544723 0.847 1.33175818725e-38
0.0407556544723 -0.0407556544723 0.847 1.44239126153e-38
0.0423231796443 -0.0407556544723 0.847 1.47969943185e-38
0.0439943428442 -0.0408518897839 0.849 1.35027354386e-38
0.0455655693744 -0.0408518897839 0.849 1.33161469429e-38
0.0472478366487 -0.0409481250955 0.851 1.46969247925e-38
0.0489948776905 -0.041092478063 0.854 1.32275400384e-38
0.050575357616 -0.041092478063 0.854 1.23977989878e-38
0.0522779823601 -0.0411887133746 0.856 1.89378887338e-38
0.0538621636437 -0.0411887133746 0.856 2.01515253078e-38
0.0554463449273 -0.0411887133746 0.856 2.27359120395e-38
0.057163775104 -0.0412849486862 0.858 2.34702512894e-38
0.0587516577458 -0.0412849486862 0.858 2.35065715443e-38
0.0110892689855 -0.039604532091 0.856 1.4346818779e-38
0.012643839404 -0.0395119981375 0.854 1.13036763573e-38
0.0142243193295 -0.0395119981375 0.854 1.05610820582e-38
0.015804799255 -0.0395119981375 0.854 1.15712725159e-38
0.0173242067712 -0.0393731972073 0.851 1.14794370197e-38
0.0188991346595 -0.0393731972073 0.851 1.15712725159e-38
0.0204740625478 -0.0393731972073 0.851 1.17549435082e-38
0.0220489904361 -0.0393731972073 0.851 1.27651367686e-38
0.0235683979523 -0.0392806632538 0.849 1.23063152176e-38
0.0251396244824 -0.0392806632538 0.849 1.20311674615e-38
0.0266479279242 -0.0391881293003 0.847 1.25825391709e-38
0.0282154530962 -0.0391881293003 0.847 1.2765133966e-38
0.0297829782682 -0.0391881293003 0.847 1.29488049583e-38
0.0312764762774 -0.0390955953468 0.845 1.28569820738e-38
0.0328403000913 -0.0390955953468 0.845 1.30406404544e-38
0.0344041239052 -0.0390955953468 0.845 1.37785530154e-38
0.0360530789563 -0.0391881293003 0.847 1.23063152176e-38
0.0376206041283 -0.0391881293003 0.847 1.49803318017e-38
0.0391881293003 -0.0391881293003 0.847 1.30420753841e-38
0.0408518897839 -0.0392806632538 0.849 1.41455362676e-38
0.0424231163141 -0.0392806632538 0.849 1.28576869269e-38
0.0440979808721 -0.0393731972073 0.851 1.46043662264e-38
0.0456729087604 -0.0393731972073 0.851 1.41430251407e-38
0.047414397765 -0.0395119981375 0.854 1.37771180857e-38
0.0491096197928 -0.039604532091 0.856 1.31324885623e-38
0.0506938010764 -0.039604532091 0.856 1.62682133723e-38
0.0524001271787 -0.0396970660444 0.858 1.78394823338e-38
0.0538621636437 -0.039604532091 0.856 2.34785511802e-38
0.0554463449273 -0.039604532091 0.856 2.32040452188e-38
0.057163775104 -0.0396970660444 0.858 2.34777552427e-38
0.0587516577458 -0.0396970660444 0.858 2.35068980468e-38
0.0110892689855 -0.0380203508073 0.856 1.41645869202e-38
0.012643839404 -0.037931518212 0.854 1.37046863694e-38
0.0142243193295 -0.037931518212 0.854 1.29624367897e-38
0.015804799255 -0.037931518212 0.854 1.08365885466e-38
0.0173852791805 -0.037931518212 0.854 1.22162747848e-38
0.018965759106 -0.037931518212 0.854 1.07447530505e-38
0.0204740625478 -0.037798269319 0.851 1.23059564852e-38
0.0220489904361 -0.037798269319 0.851 1.25814629736e-38
0.0236239183244 -0.037798269319 0.851 1.23059564852e-38
0.0251988462126 -0.037798269319 0.851 1.35023290621e-38
0.0267108510126 -0.0377094367236 0.849 1.2765133966e-38
0.0282820775427 -0.0377094367236 0.849 1.35012528649e-38
0.0298533040729 -0.0377094367236 0.849 1.34097761011e-38
0.0313505034402 -0.0376206041283 0.847 1.3960789078e-38
0.0329180286122 -0.0376206041283 0.847 1.44217602209e-38
0.0344855537843 -0.0376206041283 0.847 1.2214120989e-38
0.0360530789563 -0.0376206041283 0.847 1.37760446911e-38
0.0376206041283 -0.0376206041283 0.847 1.40576468279e-38
0.0392806632538 -0.0377094367236 0.849 1.51618658139e-38
0.0409481250955 -0.037798269319 0.851 1.30406404544e-38
0.0426729579885 -0.037931518212 0.854 1.276872129e-38
0.044253437914 -0.037931518212 0.854 1.49745878793e-38
0.0459412572255 -0.0380203508073 0.856 1.24896274775e-38
0.0475254385092 -0.0380203508073 0.856 1.48841662933e-38
0.0493391039974 -0.038198015998 0.86 1.60880722508e-38
0.0510491314578 -0.0382868485934 0.862 1.66473360731e-38
0.0526444168159 -0.0382868485934 0.862 2.34831684586e-38
0.0539880098204 -0.0381091834027 0.858 2.31108112268e-38
0.0555758924622 -0.0381091834027 0.858 2.06179320873e-38
0.057163775104 -0.0381091834027 0.858 2.34813944148e-38
0.0587516577458 -0.0381091834027 0.858 2.3509786123e-38
0.0130287806505 -0.0374577443701 0.88 1.33319830169e-38
0.0142576315527 -0.0364361695237 0.856 1.31471909858e-38
0.0158418128364 -0.0364361695237 0.856 1.3331575239e-38
0.0173852791805 -0.0363510382865 0.854 1.22245242288e-38
0.018965759106 -0.0363510382865 0.854 1.08365885466e-38
0.0205462390315 -0.0363510382865 0.854 1.30409991868e-38
0.022126718957 -0.0363510382865 0.854 1.15712725159e-38
0.0237071988825 -0.0363510382865 0.854 1.18478552016e-38
0.025287678808 -0.0363510382865 0.854 1.34079824391e-38
0.0267737741009 -0.0362233414307 0.851 1.38707472439e-38
0.0282820775427 -0.0361382101935 0.849 1.24914211395e-38
0.0298533040729 -0.0361382101935 0.849 1.33168644077e-38
0.031424530603 -0.0361382101935 0.849 1.34998179352e-38
0.0329957571332 -0.0361382101935 0.849 1.36849238572e-38
0.0345669836633 -0.0361382101935 0.849 1.2765133966e-38
0.0361382101935 -0.0361382101935 0.849 1.41437426056e-38
0.0377094367236 -0.0361382101935 0.849 1.31331934154e-38
0.0393731972073 -0.0362233414307 0.851 1.51615028776e-38
0.041092478063 -0.0363510382865 0.854 1.36856665454e-38
0.0427728946582 -0.0364361695237 0.856 1.34079824391e-38
0.0443570759419 -0.0364361695237 0.856 1.39622240077e-38
0.0460485966116 -0.0365213007609 0.858 1.62714181418e-38
0.0477475199975 -0.0366064319981 0.86 1.38793736373e-38
0.0494538460997 -0.0366915632353 0.862 1.87570819955e-38
0.0511675749183 -0.0367766944725 0.864 2.34781924478e-38
0.0527665616345 -0.0367766944725 0.864 2.30203924434e-38
0.0542397021739 -0.0366915632353 0.862 2.18168073833e-38
0.0557054399971 -0.0366064319981 0.86 2.33830835184e-38
0.057297023997 -0.0366064319981 0.86 2.34795418982e-38
0.0588886079969 -0.0366064319981 0.86 2.35097707087e-38
0.00977158548786 -0.0358291467888 0.88 1.5178350689e-38
0.0114001830692 -0.0358291467888 0.88 1.50840447037e-38
0.0130287806505 -0.0358291467888 0.88 1.37897185615e-38
0.0145074732272 -0.035462712333 0.871 1.33280173422e-38
0.0159528535806 -0.0350962778772 0.862 1.32340168399e-38
0.0174667090596 -0.0349334181191 0.858 1.28630861299e-38
0.0190545917013 -0.0349334181191 0.858 1.39726412605e-38
0.0205943566873 -0.03485198824 0.856 1.36024154036e-38
0.0221785379709 -0.03485198824 0.856 1.20315261939e-38
0.0237627192546 -0.03485198824 0.856 1.24896274775e-38
0.0253469005382 -0.03485198824 0.856 1.29488049583e-38
0.0268681587335 -0.034770558361 0.854 1.37753244237e-38
0.0283487019892 -0.0346484135424 0.851 1.31324759506e-38
0.0299236298775 -0.0346484135424 0.851 1.37792872958e-38
0.0314985577658 -0.0346484135424 0.851 1.2856973666e-38
0.0330734856541 -0.0346484135424 0.851 1.32243114468e-38
0.0346484135424 -0.0346484135424 0.851 1.40508351161e-38
0.0362233414307 -0.0346484135424 0.851 1.31324759506e-38
0.037931518212 -0.034770558361 0.854 1.38671599199e-38
0.0395119981375 -0.034770558361 0.854 1.31324787532e-38
0.0411887133746 -0.03485198824 0.856 1.50678723181e-38
0.0427728946582 -0.03485198824 0.856 1.47973670638e-38
0.0444607139698 -0.0349334181191 0.858 1.45247248294e-38
0.0460485966116 -0.0349334181191 0.858 1.32264638412e-38
0.0477475199975 -0.0350148479982 0.86 1.95936403631e-38
0.0495685882021 -0.0351777077563 0.864 2.29246599362e-38
0.0511675749183 -0.0351777077563 0.864 2.32018942257e-38
0.0527665616345 -0.0351777077563 0.864 2.16359936385e-38
0.0545543176158 -0.0352998525749 0.867 2.11682163891e-38
0.0561588563692 -0.0352998525749 0.867 2.34792392177e-38
0.0577633951226 -0.0352998525749 0.867 2.29270575579e-38
0.00977158548786 -0.0342005492075 0.88 1.48099423163e-38
0.0114001830692 -0.0342005492075 0.88 1.44386640842e-38
0.0129991697854 -0.0341228206866 0.878 1.28659475814e-38
0.0145074732272 -0.0338507708634 0.871 1.66477060159e-38
0.0160824011154 -0.0337730423424 0.869 1.22148384538e-38
0.0176499262875 -0.0336953138215 0.867 1.27720045323e-38
0.0191434242967 -0.0335009925192 0.862 1.28620169392e-38
0.0207387096547 -0.0335009925192 0.862 1.36888839266e-38
0.0223339950128 -0.0335009925192 0.862 1.4150918655e-38
0.0239292803708 -0.0335009925192 0.862 1.387612823e-38
0.0254653439987 -0.0334232639983 0.86 1.43356644432e-38
0.0269310818219 -0.0332678069564 0.856 1.41530696481e-38
0.028448638659 -0.0331900784355 0.854 1.36910223081e-38
0.0300291185845 -0.0331900784355 0.854 1.33208104642e-38
0.03160959851 -0.0331900784355 0.854 1.45211304989e-38
0.0331900784355 -0.0331900784355 0.854 1.37835752691e-38
0.034770558361 -0.0331900784355 0.854 1.42427527498e-38
0.0363510382865 -0.0331900784355 0.854 1.45225780402e-38
0.0380203508073 -0.0332678069564 0.856 1.54423581223e-38
0.0396970660444 -0.0333455354773 0.858 1.44296607416e-38
0.0412849486862 -0.0333455354773 0.858 1.48906332857e-38
0.042872831328 -0.0333455354773 0.858 1.33240488649e-38
0.0444607139698 -0.0333455354773 0.858 1.47019302306e-38
0.0461559359976 -0.0334232639983 0.86 2.20933746547e-38
0.0478585607417 -0.0335009925192 0.862 2.20023280896e-38
0.0497407013555 -0.0336953138215 0.867 2.23717664167e-38
0.051345240109 -0.0336953138215 0.867 1.96026857447e-38
0.0529497788624 -0.0336953138215 0.867 2.05214414777e-38
0.0546801637925 -0.0337730423424 0.869 2.34770223636e-38
0.0564179514389 -0.0338507708634 0.871 2.34809614135e-38
0.0580298929086 -0.0338507708634 0.871 2.28369680796e-38
0.00840208297631 -0.0336083319052 0.908 1.77569598672e-38
0.00974937733903 -0.0324979244634 0.878 1.49946853019e-38
0.0113742735622 -0.0324979244634 0.878 1.40688039663e-38
0.0129991697854 -0.0324979244634 0.878 1.12064416581e-38
0.0145074732272 -0.0322388293937 0.871 2.22677270122e-38
0.0160824011154 -0.0321648022309 0.869 1.78592896876e-38
0.0176499262875 -0.0320907750681 0.867 1.0386379376e-38
0.0191878405943 -0.0319797343239 0.864 1.29488049583e-38
0.0207868273105 -0.0319797343239 0.864 1.44282174042e-38
0.0223858140267 -0.0319797343239 0.864 1.37818026265e-38
0.0239292803708 -0.0319057071611 0.862 1.38757694976e-38
0.0255245657289 -0.0319057071611 0.862 1.41527109157e-38
0.0269940049102 -0.0317576528356 0.858 1.41501997889e-38
0.0285152631055 -0.0316836256728 0.856 1.42431170874e-38
0.0300994443891 -0.0316836256728 0.856 1.45189781044e-38
0.0316836256728 -0.0316836256728 0.856 1.49785283306e-38
0.0332678069564 -0.0316836256728 0.856 1.42456226091e-38
0.03485198824 -0.0316836256728 0.856 1.44300110662e-38
0.0364361695237 -0.0316836256728 0.856 1.48884808913e-38
0.0381091834027 -0.0317576528356 0.858 1.49817513171e-38
0.0397895999979 -0.0318316799983 0.86 1.45186221746e-38
0.0413811839978 -0.0318316799983 0.86 1.37864451283e-38
0.0429727679978 -0.0318316799983 0.86 1.67259096806e-38
0.0446679900256 -0.0319057071611 0.862 2.32937521426e-38
0.0463706147697 -0.0319797343239 0.864 2.05311300552e-38
0.0481361626021 -0.0320907750681 0.867 1.904627917e-38
0.0498554434579 -0.0321648022309 0.869 2.09801915624e-38
0.0514636835694 -0.0321648022309 0.869 2.04323903616e-38
0.053071923681 -0.0321648022309 0.869 2.34806517266e-38
0.0548060099692 -0.0322388293937 0.871 2.27422963553e-38
0.0564179514389 -0.0322388293937 0.871 2.16362668917e-38
0.00840208297631 -0.03192791531 0.908 1.77530320277e-38
0.0100824995716 -0.03192791531 0.908 1.55485807498e-38
0.0113742735622 -0.0308730282403 0.878 1.4532324071e-38
0.0128955317575 -0.030626887924 0.871 1.15770220435e-38
0.0144741610039 -0.0305565621193 0.869 2.02430174858e-38
0.0160824011154 -0.0305565621193 0.869 1.8230551104e-38
0.017690641227 -0.0305565621193 0.869 1.9796432073e-38
0.0192544650409 -0.0304862363147 0.867 1.63862503471e-38
0.0208590037943 -0.0304862363147 0.867 1.18593346386e-38
0.0224635425477 -0.0304862363147 0.867 1.18467790044e-38
0.0240680813011 -0.0304862363147 0.867 1.32243114468e-38
0.0255837874591 -0.0303807476077 0.864 1.40565706307e-38
0.0270569279986 -0.0302400959984 0.86 1.38739758356e-38
0.0286485119985 -0.0302400959984 0.86 1.36906859965e-38
0.0301697701938 -0.0301697701938 0.858 1.43328310177e-38
0.0317576528356 -0.0301697701938 0.858 1.48870767902e-38
0.0333455354773 -0.0301697701938 0.858 1.38707640595e-38
0.0349334181191 -0.0301697701938 0.858 1.40580055603e-38
0.0365213007609 -0.0301697701938 0.858 1.45175417735e-38
0.038198015998 -0.0302400959984 0.86 1.30406404544e-38
0.0398821339514 -0.0303104218031 0.862 1.34998179352e-38
0.0414774193095 -0.0303104218031 0.862 1.9129855413e-38
0.0431726413373 -0.0303807476077 0.864 2.34803294279e-38
0.0447716280535 -0.0303807476077 0.864 1.95144557895e-38
0.0465316238487 -0.0304862363147 0.867 1.9599447344e-38
0.0482472033463 -0.0305565621193 0.869 2.17206713021e-38
0.0499701855602 -0.030626887924 0.871 2.18156961536e-38
0.0517005704903 -0.0306972137286 0.873 2.29275115786e-38
0.0533162133182 -0.0306972137286 0.873 2.20033089985e-38
0.0552464715878 -0.0308730282403 0.878 2.21901959708e-38
0.056871367811 -0.0308730282403 0.878 2.17320176158e-38
0.00840208297631 -0.0302474987147 0.908 1.75693316081e-38
0.0100824995716 -0.0302474987147 0.908 1.5455324337e-38
0.0117629161668 -0.0302474987147 0.908 1.42578797668e-38
0.0128955317575 -0.0290149464543 0.871 1.27762546706e-38
0.0144741610039 -0.0289483220078 0.869 1.91373761819e-38
0.0160824011154 -0.0289483220078 0.869 1.83234670013e-38
0.017690641227 -0.0289483220078 0.869 1.85056932549e-38
0.0192988813385 -0.0289483220078 0.869 1.86000622987e-38
0.0209071214501 -0.0289483220078 0.869 1.91528619312e-38
0.0225153615616 -0.0289483220078 0.869 1.95209241832e-38
0.0240680813011 -0.0288816975613 0.867 1.69379990057e-38
0.0256726200545 -0.0288816975613 0.867 1.41645701046e-38
0.0272771588079 -0.0288816975613 0.867 1.31464665145e-38
0.028715136445 -0.028715136445 0.862 1.37814228746e-38
0.0303104218031 -0.028715136445 0.862 1.29488049583e-38
0.0319057071611 -0.028715136445 0.862 1.35916534314e-38
0.0334232639983 -0.0286485119985 0.86 1.42352193693e-38
0.0350148479982 -0.0286485119985 0.86 1.516258468e-38
0.0366915632353 -0.028715136445 0.862 1.61824665179e-38
0.0383756811887 -0.0287817608915 0.864 1.87693517649e-38
0.0399746679049 -0.0287817608915 0.864 2.27455781963e-38
0.0415736546211 -0.0287817608915 0.864 2.17321745612e-38
0.0433225463419 -0.0288816975613 0.867 1.95162130178e-38
0.0449270850953 -0.0288816975613 0.867 1.96945156357e-38
0.0466389632348 -0.0289483220078 0.869 1.70118418296e-38
0.0483582440905 -0.0290149464543 0.871 2.26317997675e-38
0.0501996697648 -0.0291481953473 0.875 2.2370359513e-38
0.0519966791415 -0.0292481320171 0.878 2.11760888838e-38
0.0536215753646 -0.0292481320171 0.878 2.19110951518e-38
0.0552464715878 -0.0292481320171 0.878 1.95136220169e-38
0.056871367811 -0.0292481320171 0.878 2.27397796233e-38
0.00840208297631 -0.0285670821194 0.908 1.69243251353e-38
0.0100824995716 -0.0285670821194 0.908 1.59170185498e-38
0.0117629161668 -0.0285670821194 0.908 1.46248672229e-38
0.0134433327621 -0.0285670821194 0.908 1.30560799609e-38
0.0146240660085 -0.0276232357939 0.878 1.83972916083e-38
0.0161564282782 -0.027465928073 0.873 1.87833591443e-38
0.0177313561665 -0.0274030049846 0.871 1.86904418457e-38
0.0193432976362 -0.0274030049846 0.871 1.80457913028e-38
0.0209552391059 -0.0274030049846 0.871 1.8505327516e-38
0.0225153615616 -0.0273400818963 0.869 1.8690794973e-38
0.0241236016732 -0.0273400818963 0.869 1.9519472438e-38
0.0257318417847 -0.0273400818963 0.869 1.98886333081e-38
0.0273400818963 -0.0273400818963 0.869 2.00744665039e-38
0.0288816975613 -0.0272771588079 0.867 2.0811675613e-38
0.0304862363147 -0.0272771588079 0.867 2.10889701583e-38
0.0320907750681 -0.0272771588079 0.867 2.09027796314e-38
0.0336953138215 -0.0272771588079 0.867 2.13626843861e-38
0.0352998525749 -0.0272771588079 0.867 2.11804231e-38
0.0369043913283 -0.0272771588079 0.867 2.06265528755e-38
0.0385977626771 -0.0273400818963 0.869 2.08102168613e-38
0.0402060027886 -0.0273400818963 0.869 2.0900946733e-38
0.0418142429001 -0.0273400818963 0.869 1.96109688199e-38
0.0435224196815 -0.0274030049846 0.871 1.60017060225e-38
0.0451343611511 -0.0274030049846 0.871 1.57092508291e-38
0.0469609813929 -0.0275288511614 0.875 1.86580312136e-38
0.0487468866951 -0.0276232357939 0.878 1.92148511714e-38
0.0504865250206 -0.0276861588823 0.88 2.21805718529e-38
0.0521151226019 -0.0276861588823 0.88 2.34801290423e-38
0.0537437201832 -0.0276861588823 0.88 1.68489436857e-38
0.0553723177646 -0.0276861588823 0.88 2.34905547028e-38
0.0570009153459 -0.0276861588823 0.88 2.01618374632e-38
0.00840208297631 -0.0268866655242 0.908 1.73885627049e-38
0.0100824995716 -0.0268866655242 0.908 1.45315379426e-38
0.0116981423994 -0.0267386111986 0.903 1.41606492715e-38
0.0132952784365 -0.026590556873 0.898 1.33294214433e-38
0.0148405954597 -0.0263832808172 0.891 1.71947981597e-38
0.0162489622317 -0.0259983395707 0.878 1.96134729403e-38
0.0178738584549 -0.0259983395707 0.878 1.86918613611e-38
0.0194321302315 -0.0259095069754 0.875 1.8044740329e-38
0.0210033567617 -0.0258502852452 0.873 1.86900943237e-38
0.0226189995895 -0.0258502852452 0.873 1.85982644328e-38
0.0242346424173 -0.0258502852452 0.873 1.94269264835e-38
0.0258502852452 -0.0258502852452 0.873 1.91503437978e-38
0.027465928073 -0.0258502852452 0.873 1.97024385772e-38
0.0290815709008 -0.0258502852452 0.873 2.03481989485e-38
0.0306972137286 -0.0258502852452 0.873 1.91506997277e-38
0.0323128565565 -0.0258502852452 0.873 2.07147814294e-38
0.0339284993843 -0.0258502852452 0.873 2.03445835985e-38
0.0355441422121 -0.0258502852452 0.873 2.0624738194e-38
0.0372449162771 -0.0259095069754 0.875 2.02570598977e-38
0.0388642604631 -0.0259095069754 0.875 2.09016936251e-38
0.0404836046491 -0.0259095069754 0.875 2.17310927588e-38
0.042102948835 -0.0259095069754 0.875 2.15484867533e-38
0.0438721980256 -0.0259983395707 0.878 1.86857881335e-38
0.0456007322767 -0.026057561301 0.88 2.0712920505e-38
0.047229329858 -0.026057561301 0.88 2.11716916093e-38
0.0488579274393 -0.026057561301 0.88 2.27425583982e-38
0.0506012671229 -0.0261167830312 0.882 2.30216522107e-38
0.0522335660624 -0.0261167830312 0.882 1.55549958942e-38
0.0538658650018 -0.0261167830312 0.882 1.47356510769e-38
0.0554981639413 -0.0261167830312 0.882 2.15537752537e-38
0.0571304628807 -0.0261167830312 0.882 2.18227685069e-38
0.00840208297631 -0.0252062489289 0.908 1.55435542922e-38
0.0100602914227 -0.0251507285568 0.906 1.58212047673e-38
0.0116722328924 -0.0250119276266 0.901 1.50808259211e-38
0.0132952784365 -0.0249286470685 0.898 1.39740621771e-38
0.0148405954597 -0.0247343257662 0.891 1.62710524029e-38
0.016415523348 -0.024623285022 0.887 1.94290816806e-38
0.0179552883339 -0.0244844840917 0.882 1.83212893835e-38
0.0194987546781 -0.0243734433476 0.878 1.81351212773e-38
0.0211236509012 -0.0243734433476 0.878 1.8505327516e-38
0.0226708186035 -0.0242901627894 0.875 1.91510472497e-38
0.0242901627894 -0.0242901627894 0.875 1.99804225614e-38
0.0259095069754 -0.0242901627894 0.875 1.87830186288e-38
0.0275288511614 -0.0242901627894 0.875 1.89666742068e-38
0.0292481320171 -0.0243734433476 0.878 2.11775714576e-38
0.0307675395333 -0.0242901627894 0.875 1.97971229131e-38
0.0323868837192 -0.0242901627894 0.875 1.97960691367e-38
0.0340062279052 -0.0242901627894 0.875 2.00722986952e-38
0.0356255720912 -0.0242901627894 0.875 2.07201708233e-38
0.0373726131329 -0.0243734433476 0.878 1.8325249453e-38
0.0389975093561 -0.0243734433476 0.878 1.70272981517e-38
0.0406224055793 -0.0243734433476 0.878 1.61003448227e-38
0.0422473018025 -0.0243734433476 0.878 1.44426045355e-38
0.0439721346954 -0.0244289637197 0.88 2.03523439894e-38
0.0456007322767 -0.0244289637197 0.88 2.05367128283e-38
0.0474976783231 -0.0245677646499 0.885 1.9245634896e-38
0.0492465700439 -0.024623285022 0.887 1.85131033212e-38
0.0508881223787 -0.024623285022 0.887 2.21940649558e-38
0.052648118174 -0.0246788053941 0.889 1.31651205996e-38
0.0542933718669 -0.0246788053941 0.889 2.01744925896e-38
0.0559386255599 -0.0246788053941 0.889 1.79563506257e-38
0.0575838792528 -0.0246788053941 0.889 2.33922774376e-38
0.00672166638105 -0.0235258323337 0.908 2.3308848331e-38
0.00840208297631 -0.0235258323337 0.908 1.68332267222e-38
0.0100602914227 -0.0234740133197 0.906 1.60077400137e-38
0.0116722328924 -0.0233444657848 0.901 1.44347404485e-38
0.0132952784365 -0.0232667372639 0.898 1.36978494342e-38
0.0148905637946 -0.023163099236 0.894 1.56260487328e-38
0.0164895505108 -0.0230853707151 0.891 1.96127722911e-38
0.0180570756828 -0.0229817326872 0.887 1.82294594925e-38
0.0196542117199 -0.0229299136732 0.885 1.9149640346e-38
0.021171768557 -0.0228003661383 0.88 1.86897538082e-38
0.0228003661383 -0.0228003661383 0.88 1.96095226799e-38
0.0243734433476 -0.0227485471244 0.878 1.94262076174e-38
0.0259983395707 -0.0227485471244 0.878 1.86908075846e-38
0.0276232357939 -0.0227485471244 0.878 1.95209269858e-38
0.0293147564636 -0.0228003661383 0.88 1.99801030653e-38
0.0309433540449 -0.0228003661383 0.88 1.84102606256e-38
0.0325719516262 -0.0228003661383 0.88 1.51837078531e-38
0.0341228206866 -0.0227485471244 0.878 1.72145886979e-38
0.0357477169098 -0.0227485471244 0.878 1.60181937003e-38
0.0373726131329 -0.0227485471244 0.878 1.6016769981e-38
0.0389975093561 -0.0227485471244 0.878 1.28806892412e-38
0.0406224055793 -0.0227485471244 0.878 1.19536812616e-38
0.0422473018025 -0.0227485471244 0.878 2.05396653642e-38
0.0439721346954 -0.0228003661383 0.88 1.77744732955e-38
0.0458598273464 -0.0229299136732 0.885 1.62932671875e-38
0.0476050177091 -0.0229817326872 0.887 1.90562353956e-38
0.0492465700439 -0.0229817326872 0.887 1.13255408172e-38
0.0510028644811 -0.0230335517011 0.889 2.10009966407e-38
0.052648118174 -0.0230335517011 0.889 1.73117084906e-38
0.0542933718669 -0.0230335517011 0.889 2.34869547671e-38
0.0559386255599 -0.0230335517011 0.889 1.83183116243e-38
0.0575838792528 -0.0230335517011 0.889 2.34887624421e-38
0.00840208297631 -0.0218454157384 0.908 1.59126969454e-38
0.0100602914227 -0.0217972980826 0.906 1.54539048217e-38
0.0116722328924 -0.0216770039431 0.901 1.56357569286e-38
0.0132952784365 -0.0216048274593 0.898 1.3698942447e-38
0.0149238760178 -0.0215567098035 0.896 1.44260650098e-38
0.0165820844643 -0.0215567098035 0.896 1.97957314238e-38
0.0181385055618 -0.021436415664 0.891 1.8505327516e-38
0.0197430443153 -0.0213882980082 0.889 1.84131346887e-38
0.0212920626966 -0.0212920626966 0.885 1.88730394434e-38
0.0228521851523 -0.0212198862128 0.882 1.90570663656e-38
0.0244844840917 -0.0212198862128 0.882 1.942621042e-38
0.026057561301 -0.021171768557 0.88 1.95212745078e-38
0.0276861588823 -0.021171768557 0.88 2.01680956621e-38
0.0293813809101 -0.0212198862128 0.882 1.90635389632e-38
0.0310136798495 -0.0212198862128 0.882 1.55517827168e-38
0.0325719516262 -0.021171768557 0.88 2.18232729744e-38
0.0342005492075 -0.021171768557 0.88 1.92482861527e-38
0.0358291467888 -0.021171768557 0.88 1.41732847798e-38
0.0374577443701 -0.021171768557 0.88 1.48145722064e-38
0.0390863419515 -0.021171768557 0.88 1.13155355462e-38
0.0407149395328 -0.021171768557 0.88 2.05414982626e-38
0.0423435371141 -0.021171768557 0.88 1.51966222197e-38
0.0440720713651 -0.0212198862128 0.882 1.57447653374e-38
0.0458598273464 -0.0212920626966 0.885 2.26554032389e-38
0.0476050177091 -0.0213401803524 0.887 1.98906357636e-38
0.0492465700439 -0.0213401803524 0.887 1.67571081896e-38
0.0510028644811 -0.0213882980082 0.889 2.04420565184e-38
0.052648118174 -0.0213882980082 0.889 1.94282296911e-38
0.0542933718669 -0.0213882980082 0.889 2.04398704928e-38
0.0559386255599 -0.0213882980082 0.889 2.03530488425e-38
0.00840208297631 -0.0201649991431 0.908 1.63740254193e-38
0.0100602914227 -0.0201205828455 0.906 1.60056310595e-38
0.0116722328924 -0.0200095421013 0.901 1.48989177623e-38
0.0132952784365 -0.0199429176548 0.898 1.3607102747e-38
0.0149238760178 -0.0198985013571 0.896 1.34119284955e-38
0.0165820844643 -0.0198985013571 0.896 1.99804800146e-38
0.0181995779711 -0.0198540850594 0.894 1.82298098172e-38
0.0197874606129 -0.0197874606129 0.891 1.91510654666e-38
0.0213401803524 -0.0196986280176 0.887 1.84127787589e-38
0.0229817326872 -0.0196986280176 0.887 1.91499710525e-38
0.0245677646499 -0.0196542117199 0.885 2.03503121066e-38
0.0261167830312 -0.0195875872734 0.882 1.43568744968e-38
0.0277490819706 -0.0195875872734 0.882 1.36117424462e-38
0.0293813809101 -0.0195875872734 0.882 1.28763410121e-38
0.0310136798495 -0.0195875872734 0.882 1.31550760922e-38
0.032645978789 -0.0195875872734 0.882 1.62807129546e-38
0.0342782777284 -0.0195875872734 0.882 1.7572148218e-38
0.0359105766679 -0.0195875872734 0.882 1.41627554231e-38
0.0375428756073 -0.0195875872734 0.882 1.15910280217e-38
0.0391751745468 -0.0195875872734 0.882 1.70323638456e-38
0.0408074734862 -0.0195875872734 0.882 2.20125491606e-38
0.0424397724257 -0.0195875872734 0.882 1.15095705419e-38
0.0443219130396 -0.0196986280176 0.887 1.57537742852e-38
0.0459634653743 -0.0196986280176 0.887 1.73109910258e-38
0.0477123570952 -0.0197430443153 0.889 1.85080810675e-38
0.0493576107881 -0.0197430443153 0.889 2.16451959656e-38
0.0510028644811 -0.0197430443153 0.889 1.72126983463e-38
0.0527665616345 -0.0197874606129 0.891 1.78602691952e-38
0.0544155166855 -0.0197874606129 0.891 2.14575929297e-38
0.0560644717366 -0.0197874606129 0.891 1.8879727841e-38
0.006773485395 -0.0186270848362 0.915 2.35008052011e-38
0.008420589767 -0.0185252974874 0.91 1.42535511558e-38
0.0100824995716 -0.0184845825479 0.908 1.67435716464e-38
0.0116981423994 -0.018382795199 0.903 1.50854347918e-38
0.0133396947342 -0.0183420802595 0.901 1.34219884172e-38
0.0149571882411 -0.0182810078502 0.898 1.29509573527e-38
0.0165820844643 -0.0182402929107 0.896 2.145308215e-38
0.0182402929107 -0.0182402929107 0.896 1.80450724367e-38
0.0198540850594 -0.0181995779711 0.894 1.83209516706e-38
0.0213882980082 -0.0180977906223 0.889 1.90592229639e-38
0.0230335517011 -0.0180977906223 0.889 1.89673622444e-38
0.024623285022 -0.0180570756828 0.887 1.96120408133e-38
0.0262648373568 -0.0180570756828 0.887 2.13637381625e-38
0.0279063896916 -0.0180570756828 0.887 2.05365334621e-38
0.0294813175799 -0.0180163607432 0.885 1.50976793377e-38
0.0311191685565 -0.0180163607432 0.885 1.11293268023e-38
0.0327570195332 -0.0180163607432 0.885 1.48120919081e-38
0.0343948705098 -0.0180163607432 0.885 1.39815955576e-38
0.0360327214865 -0.0180163607432 0.885 1.24200333906e-38
0.0376705724632 -0.0180163607432 0.885 1.14105603976e-38
0.0393084234398 -0.0180163607432 0.885 2.20133058617e-38
0.04103880837 -0.0180570756828 0.887 2.21915454212e-38
0.0426803607048 -0.0180570756828 0.887 1.69418553791e-38
0.0444218497093 -0.0180977906223 0.889 1.39059030198e-38
0.0460671034023 -0.0180977906223 0.889 2.05393178422e-38
0.0477123570952 -0.0180977906223 0.889 1.87839462884e-38
0.0494686515323 -0.0181385055618 0.891 1.51894475716e-38
0.0511176065834 -0.0181385055618 0.891 1.46370094741e-38
0.0529442268251 -0.0181995779711 0.894 2.19165251833e-38
0.0545987339134 -0.0181995779711 0.894 2.11784851042e-38
0.006773485395 -0.0169337134875 0.915 2.35047736783e-38
0.00844834995305 -0.0168966999061 0.913 1.4441179415e-38
0.0101047077204 -0.016841179534 0.91 1.66524325956e-38
0.0117370066599 -0.0167671523712 0.906 1.46255300371e-38
0.0133693055993 -0.0167116319991 0.903 1.37943456491e-38
0.015007156576 -0.0166746184177 0.901 1.20329611235e-38
0.0166190980456 -0.0166190980456 0.898 2.09895872686e-38
0.0182810078502 -0.0166190980456 0.898 1.86907907691e-38
0.0198985013571 -0.0165820844643 0.896 1.87829906028e-38
0.0215567098035 -0.0165820844643 0.896 1.89666587925e-38
0.023163099236 -0.0165450708829 0.894 1.95173088332e-38
0.0247343257662 -0.0164895505108 0.891 1.90574222954e-38
0.0263832808172 -0.0164895505108 0.891 1.97024217616e-38
0.0279693127799 -0.0164525369294 0.889 1.40784533075e-38
0.0295479420264 -0.016415523348 0.887 1.4074507251e-38
0.0311894943612 -0.016415523348 0.887 1.76716165869e-38
0.0329050738588 -0.0164525369294 0.889 1.20534088707e-38
0.0345503275517 -0.0164525369294 0.889 1.22360471061e-38
0.0361955812446 -0.0164525369294 0.889 8.92813214211e-39
0.0378408349376 -0.0164525369294 0.889 1.92532621636e-38
0.0394860886305 -0.0164525369294 0.889 2.11806374987e-38
0.0411313423234 -0.0164525369294 0.889 1.79563506257e-38
0.042872831328 -0.0164895505108 0.891 1.6938268055e-38
0.0445217863791 -0.0164895505108 0.891 1.73030989128e-38
0.0461707414302 -0.0164895505108 0.891 1.82297047198e-38
0.0478196964812 -0.0164895505108 0.891 1.51011993995e-38
0.0496352126486 -0.0165450708829 0.894 1.82347269735e-38
0.0514044618392 -0.0165820844643 0.896 2.08173060302e-38
0.0530626702856 -0.0165820844643 0.896 1.98924294256e-38
0.054720878732 -0.0165820844643 0.896 2.21022420714e-38
0.0101047077204 -0.0151570615806 0.91 1.68335588299e-38
0.0117370066599 -0.0150904371341 0.906 1.47173557241e-38
0.013413721897 -0.0150904371341 0.906 1.49010407294e-38
0.0150404687992 -0.0150404687992 0.903 1.35973931499e-38
0.0167116319991 -0.0150404687992 0.903 2.08066407476e-38
0.0183420802595 -0.015007156576 0.901 1.7584834173e-38
0.0199429176548 -0.0149571882411 0.898 1.87822899536e-38
0.0216048274593 -0.0149571882411 0.898 1.90577740213e-38
0.02321491825 -0.0149238760178 0.896 2.0256324216e-38
0.0248731266964 -0.0149238760178 0.896 1.89684314351e-38
0.0264721134126 -0.0148905637946 0.894 1.97024091499e-38
0.0281266205009 -0.0148905637946 0.894 1.9699902227e-38
0.0296811909194 -0.0148405954597 0.891 1.9792774684e-38
0.0313301459705 -0.0148405954597 0.891 1.76718758271e-38
0.0329791010215 -0.0148405954597 0.891 1.55514323922e-38
0.0348223773749 -0.0149238760178 0.896 1.05786599461e-38
0.0364805858214 -0.0149238760178 0.896 1.15106621534e-38
0.0381387942678 -0.0149238760178 0.896 2.07276887895e-38
0.0397970027142 -0.0149238760178 0.896 1.88786516438e-38
0.0414552111606 -0.0149238760178 0.896 1.22438957788e-38
0.0431134196071 -0.0149238760178 0.896 2.1646653316e-38
0.0447716280535 -0.0149238760178 0.896 1.36250155452e-38
0.0464298364999 -0.0149238760178 0.896 1.51004889412e-38
0.0480880449463 -0.0149238760178 0.896 1.78620040027e-38
0.0497462533928 -0.0149238760178 0.896 2.15494410376e-38
0.0518060591973 -0.0150404687992 0.903 1.41767543948e-38
0.0536548875879 -0.0150904371341 0.906 1.32609343821e-38
0.055331602825 -0.0150904371341 0.906 2.17399237417e-38
0.0101047077204 -0.0134729436272 0.91 1.60027051483e-38
0.0117370066599 -0.013413721897 0.906 1.56389771124e-38
0.013413721897 -0.013413721897 0.906 1.40691570935e-38
0.0150904371341 -0.013413721897 0.906 1.21273077466e-38
0.0167116319991 -0.0133693055993 0.903 2.06176027822e-38
0.018382795199 -0.0133693055993 0.903 1.94294446169e-38
0.0200095421013 -0.0133396947342 0.901 1.81383400599e-38
0.0216048274593 -0.0132952784365 0.898 1.89670217288e-38
0.0232667372639 -0.0132952784365 0.898 1.89666714042e-38
0.0249286470685 -0.0132952784365 0.898 1.96131226157e-38
0.0265313351428 -0.0132656675714 0.896 1.56457986334e-38
0.0281895435892 -0.0132656675714 0.896 1.56206439246e-38
0.0298477520357 -0.0132656675714 0.896 1.88481691983e-38
0.0315059604821 -0.0132656675714 0.896 1.90433098185e-38
0.0331641689285 -0.0132656675714 0.896 2.11684686228e-38
0.0348223773749 -0.0132656675714 0.896 7.16747348921e-39
0.0364805858214 -0.0132656675714 0.896 1.86083187492e-38
0.0381387942678 -0.0132656675714 0.896 2.09072834046e-38
0.0397970027142 -0.0132656675714 0.896 1.47288351612e-38
0.0414552111606 -0.0132656675714 0.896 1.43604169793e-38
0.0431134196071 -0.0132656675714 0.896 1.63904836698e-38
0.0447716280535 -0.0132656675714 0.896 1.71255263714e-38
0.0464298364999 -0.0132656675714 0.896 2.18285516657e-38
0.0480880449463 -0.0132656675714 0.896 1.89686934779e-38
0.0498572941369 -0.0132952784365 0.898 2.080970819e-38
0.0518060591973 -0.0133693055993 0.903 1.44529699403e-38
0.0536548875879 -0.013413721897 0.906 2.01765861295e-38
0.055331602825 -0.013413721897 0.906 1.84176987178e-38
0.0100602914227 -0.0117370066599 0.906 1.4438620644e-38
0.0117370066599 -0.0117370066599 0.906 1.57268805651e-38
0.013413721897 -0.0117370066599 0.906 1.49900343923e-38
0.0150904371341 -0.0117370066599 0.906 1.16681302658e-38
0.0168041659526 -0.0117629161668 0.908 2.03370305998e-38
0.0184438676083 -0.0117370066599 0.906 1.84138381406e-38
0.020053958399 -0.0116981423994 0.903 1.85967972733e-38
0.0216770039431 -0.0116722328924 0.901 1.93343623122e-38
0.0233444657848 -0.0116722328924 0.901 1.91517871353e-38
0.0250119276266 -0.0116722328924 0.901 1.87826528899e-38
0.026590556873 -0.011633368632 0.898 1.79480997804e-38
0.0282524666776 -0.011633368632 0.898 1.7934491771e-38
0.0299143764822 -0.011633368632 0.898 1.82092569726e-38
0.0315762862867 -0.011633368632 0.898 1.89475282659e-38
0.0332381960913 -0.011633368632 0.898 1.76639837141e-38
0.0349001058959 -0.011633368632 0.898 7.90682097976e-39
0.0365620157004 -0.011633368632 0.898 2.0633363186e-38
0.038223925505 -0.011633368632 0.898 2.09019024185e-38
0.0398858353096 -0.011633368632 0.898 1.85091572647e-38
0.0415477451141 -0.011633368632 0.898 1.99857054566e-38
0.0432096549187 -0.011633368632 0.898 1.44561985319e-38
0.0448715647232 -0.011633368632 0.898 2.22870060765e-38
0.0465334745278 -0.011633368632 0.898 1.63822328244e-38
0.0486247418765 -0.0117370066599 0.906 1.5650059982e-38
0.0503014571137 -0.0117370066599 0.906 2.2649690145e-38
0.0519781723508 -0.0117370066599 0.906 2.02583364806e-38
0.0537733310484 -0.0117629161668 0.908 2.00753829531e-38
0.0554537476436 -0.0117629161668 0.908 1.7585421317e-38
0.0103823095809 -0.0103823095809 0.935 1.48070430297e-38
0.0117629161668 -0.0100824995716 0.908 1.55435570948e-38
0.0134433327621 -0.0100824995716 0.908 1.45319331087e-38
0.0151237493574 -0.0100824995716 0.908 1.1484100541e-38
0.0168041659526 -0.0100824995716 0.908 2.11682738423e-38
0.0185252974874 -0.0101047077204 0.91 1.81383372573e-38
0.0201649991431 -0.0100824995716 0.908 1.88730142201e-38
0.0217972980826 -0.0100602914227 0.906 1.66610421734e-38
0.0233962847988 -0.0100269791995 0.903 1.73957387543e-38
0.0250674479987 -0.0100269791995 0.903 1.81325148622e-38
0.0267386111986 -0.0100269791995 0.903 1.71158405964e-38
0.0283468513102 -0.0100047710506 0.901 1.87696306233e-38
0.0300143131519 -0.0100047710506 0.901 1.72033909219e-38
0.0316817749937 -0.0100047710506 0.901 1.80306124379e-38
0.0333492368355 -0.0100047710506 0.901 1.3614253573e-38
0.0350166986772 -0.0100047710506 0.901 8.83270932188e-39
0.036684160519 -0.0100047710506 0.901 2.0819807348e-38
