# .PCD v0.7 - Point Cloud Data file format
VERSION 0.7
FIELDS x y z rgb
SIZE 4 4 4 4
TYPE F F F F
COUNT 1 1 1 1
WIDTH 848
HEIGHT 1
VIEWPOINT 0 0 0 1 0 0 0
POINTS 848
DATA ascii
0.00829104223213 -0.121049216589 0.896 8.63253663885e-39
0.00994925067855 -0.121049216589 0.896 9.27538511196e-39
0.011633368632 -0.121319415733 0.898 8.81620763117e-39
0.0133396947342 -0.121724714449 0.901 8.81620763117e-39
0.0150404687992 -0.121994913594 0.903 8.90804312733e-39
0.0167116319991 -0.121994913594 0.903 8.81620763117e-39
0.018382795199 -0.121994913594 0.903 9.36722060812e-39
0.0201205828455 -0.12240021231 0.906 9.45905610427e-39
0.0217972980826 -0.12240021231 0.906 1.01019045774e-38
0.0234740133197 -0.12240021231 0.906 1.00100690812e-38
0.0251507285568 -0.12240021231 0.906 1.01937400735e-38
0.026827443794 -0.12240021231 0.906 9.73456259275e-39
0.0286300052078 -0.122940610598 0.91 1.27748561747e-38
-0.0287873129287 -0.12192273711 0.915 2.05277501234e-38
-0.0270347198498 -0.121656239324 0.913 2.01600438011e-38
-0.0253450498591 -0.121656239324 0.913 2.20968863086e-38
-0.0236553798685 -0.121656239324 0.913 7.07527926064e-39
-0.0220138275337 -0.12192273711 0.915 9.3722526709e-39
-0.0202760398873 -0.121656239324 0.913 6.33844289694e-39
-0.0184845825479 -0.120989994859 0.908 7.07133320417e-39
-0.0168041659526 -0.120989994859 0.908 7.16316870032e-39
-0.0150904371341 -0.120723497073 0.906 7.07133320417e-39
-0.0133693055993 -0.120323750394 0.903 7.16316870032e-39
-0.0116722328924 -0.120057252608 0.901 7.53051068496e-39
-0.0100047710506 -0.120057252608 0.901 7.89785266959e-39
-0.00833730920887 -0.120057252608 0.901 7.80601717343e-39
-0.00666984736709 -0.120057252608 0.901 8.17335915806e-39
-0.00498572941369 -0.119657505929 0.898 8.26519465422e-39
-0.00332381960913 -0.119657505929 0.898 8.26519465422e-39
-0.00166190980456 -0.119657505929 0.898 8.54070114269e-39
0.0 -0.119657505929 0.898 8.63253663885e-39
0.00166190980456 -0.119657505929 0.898 8.72437213501e-39
0.00331641689285 -0.119391008143 0.896 8.72437213501e-39
0.00497462533928 -0.119391008143 0.896 8.81620763117e-39
0.0066328337857 -0.119391008143 0.896 8.81620763117e-39
0.00829104223213 -0.119391008143 0.896 8.72437213501e-39
0.00994925067855 -0.119391008143 0.896 9.1835496158e-39
0.0116722328924 -0.120057252608 0.901 9.09171411964e-39
0.0133396947342 -0.120057252608 0.901 8.90804312733e-39
0.0150404687992 -0.120323750394 0.903 9.27538511196e-39
0.0167116319991 -0.120323750394 0.903 9.09171411964e-39
0.0184438676083 -0.120723497073 0.906 9.55089160043e-39
0.0201205828455 -0.120723497073 0.906 9.91823358506e-39
0.0217972980826 -0.120723497073 0.906 9.91823358506e-39
0.0234740133197 -0.120723497073 0.906 9.73456259275e-39
0.0251507285568 -0.120723497073 0.906 9.82639808891e-39
0.0268866655242 -0.120989994859 0.908 8.0815236619e-39
0.0287243898404 -0.121656239324 0.913 1.95133431585e-38
0.030414059831 -0.121656239324 0.913 1.26011946573e-38
-0.0287873129287 -0.120229365761 0.915 1.92356072042e-38
-0.02709394158 -0.120229365761 0.915 1.8866454742e-38
-0.0254005702312 -0.120229365761 0.915 2.10809253038e-38
-0.0237071988825 -0.120229365761 0.915 7.81211562435e-39
-0.0220138275337 -0.120229365761 0.915 5.96930725027e-39
-0.0202760398873 -0.119966569333 0.913 9.55992857423e-39
-0.0185252974874 -0.119572374691 0.91 9.01136786959e-39
-0.0168041659526 -0.119309578264 0.908 7.25500419648e-39
-0.0150904371341 -0.119046781836 0.906 7.25500419648e-39
-0.013413721897 -0.119046781836 0.906 7.34683969264e-39
-0.0116981423994 -0.118652587194 0.903 7.62234618111e-39
-0.0100269791995 -0.118652587194 0.903 7.71418167727e-39
-0.00835581599956 -0.118652587194 0.903 7.71418167727e-39
-0.00666984736709 -0.118389790766 0.901 7.71418167727e-39
-0.00500238552532 -0.118389790766 0.901 8.26519465422e-39
-0.00333492368355 -0.118389790766 0.901 8.72437213501e-39
-0.00166190980456 -0.117995596124 0.898 8.35703015038e-39
0.0 -0.117995596124 0.898 8.54070114269e-39
0.00166190980456 -0.117995596124 0.898 8.72437213501e-39
0.00332381960913 -0.117995596124 0.898 8.72437213501e-39
0.00498572941369 -0.117995596124 0.898 8.99987862348e-39
0.00664763921826 -0.117995596124 0.898 8.99987862348e-39
0.00830954902282 -0.117995596124 0.898 8.72437213501e-39
0.00997145882739 -0.117995596124 0.898 9.09171411964e-39
0.0116722328924 -0.118389790766 0.901 9.1835496158e-39
0.0133693055993 -0.118652587194 0.903 8.99987862348e-39
0.0150404687992 -0.118652587194 0.903 8.81620763117e-39
0.0167671523712 -0.119046781836 0.906 8.90804312733e-39
0.0184438676083 -0.119046781836 0.906 9.55089160043e-39
0.0201205828455 -0.119046781836 0.906 9.73456259275e-39
0.0217972980826 -0.119046781836 0.906 9.45905610427e-39
0.0234740133197 -0.119046781836 0.906 9.36722060812e-39
0.0251507285568 -0.119046781836 0.906 8.44886564654e-39
0.0268866655242 -0.119309578264 0.908 1.58158714254e-38
0.0286300052078 -0.119572374691 0.91 1.46356894509e-38
0.0303141231612 -0.119572374691 0.91 1.49017441813e-38
-0.0287873129287 -0.118535994412 0.915 1.89597251677e-38
-0.02709394158 -0.118535994412 0.915 1.87742605134e-38
-0.0254005702312 -0.118535994412 0.915 2.09894849738e-38
-0.0237071988825 -0.118535994412 0.915 7.07563799305e-39
-0.0220138275337 -0.118535994412 0.915 9.37260860071e-39
-0.0202760398873 -0.118276899343 0.913 6.15297824259e-39
-0.0185252974874 -0.117888256738 0.91 1.0017256341e-38
-0.0168041659526 -0.117629161668 0.908 6.88766221185e-39
-0.0151237493574 -0.117629161668 0.908 6.97949770801e-39
-0.013413721897 -0.117370066599 0.906 7.25500419648e-39
-0.0116981423994 -0.116981423994 0.903 7.62234618111e-39
-0.0100269791995 -0.116981423994 0.903 7.62234618111e-39
-0.00835581599956 -0.116981423994 0.903 7.62234618111e-39
-0.00668465279965 -0.116981423994 0.903 8.0815236619e-39
-0.00500238552532 -0.116722328924 0.901 8.26519465422e-39
-0.00333492368355 -0.116722328924 0.901 8.63253663885e-39
-0.00166190980456 -0.11633368632 0.898 8.35703015038e-39
0.0 -0.11633368632 0.898 8.63253663885e-39
0.00166190980456 -0.11633368632 0.898 8.81620763117e-39
0.00332381960913 -0.11633368632 0.898 8.63253663885e-39
0.00498572941369 -0.11633368632 0.898 8.81620763117e-39
0.00664763921826 -0.11633368632 0.898 8.90804312733e-39
0.00830954902282 -0.11633368632 0.898 8.72437213501e-39
0.00997145882739 -0.11633368632 0.898 9.09171411964e-39
0.0116722328924 -0.116722328924 0.901 9.45905610427e-39
0.0133693055993 -0.116981423994 0.903 9.36722060812e-39
0.0150404687992 -0.116981423994 0.903 9.36722060812e-39
0.0167671523712 -0.117370066599 0.906 9.27538511196e-39
0.0184438676083 -0.117370066599 0.906 9.36722060812e-39
0.0201205828455 -0.117370066599 0.906 8.44886564654e-39
0.0218454157384 -0.117629161668 0.908 8.0815236619e-39
0.0235258323337 -0.117629161668 0.908 8.44886564654e-39
0.0252062489289 -0.117629161668 0.908 1.77677778914e-38
0.0268866655242 -0.117629161668 0.908 1.7218218061e-38
0.0286300052078 -0.117888256738 0.91 1.131658652e-38
0.0303141231612 -0.117888256738 0.91 1.7110552096e-38
-0.0287873129287 -0.116842623064 0.915 1.93274272861e-38
-0.02709394158 -0.116842623064 0.915 1.88678966781e-38
-0.0254005702312 -0.116842623064 0.915 2.1267872532e-38
-0.0237071988825 -0.116842623064 0.915 6.89376066277e-39
-0.0220138275337 -0.116842623064 0.915 6.24481373874e-39
-0.020320456185 -0.116842623064 0.915 7.71418167727e-39
-0.0185863698967 -0.116587229352 0.913 7.53051068496e-39
-0.0168041659526 -0.115948745073 0.908 7.34683969264e-39
-0.0151237493574 -0.115948745073 0.908 6.97949770801e-39
-0.013413721897 -0.115693351361 0.906 7.34683969264e-39
-0.0117370066599 -0.115693351361 0.906 7.62234618111e-39
-0.0100602914227 -0.115693351361 0.906 7.71418167727e-39
-0.00835581599956 -0.115310260794 0.903 7.89785266959e-39
-0.00668465279965 -0.115310260794 0.903 7.71418167727e-39
-0.00501348959974 -0.115310260794 0.903 8.26519465422e-39
-0.00333492368355 -0.115054867082 0.901 8.63253663885e-39
-0.00166746184177 -0.115054867082 0.901 8.63253663885e-39
0.0 -0.115054867082 0.901 8.81620763117e-39
0.00166746184177 -0.115054867082 0.901 8.81620763117e-39
0.00332381960913 -0.114671776515 0.898 8.54070114269e-39
0.00498572941369 -0.114671776515 0.898 8.44886564654e-39
0.00664763921826 -0.114671776515 0.898 8.17335915806e-39
0.00833730920887 -0.115054867082 0.901 8.17335915806e-39
0.0100047710506 -0.115054867082 0.901 8.44886564654e-39
0.0116981423994 -0.115310260794 0.903 8.26519465422e-39
0.0133693055993 -0.115310260794 0.903 8.72437213501e-39
0.0150904371341 -0.115693351361 0.906 7.80601717343e-39
0.0167671523712 -0.115693351361 0.906 8.17335915806e-39
0.0184438676083 -0.115693351361 0.906 9.36722060812e-39
0.0201205828455 -0.115693351361 0.906 1.59130654869e-38
0.0218454157384 -0.115948745073 0.908 1.6576032402e-38
0.0235258323337 -0.115948745073 0.908 1.70370469851e-38
0.0252062489289 -0.115948745073 0.908 1.63906083853e-38
0.0269458872544 -0.116204138785 0.91 1.55601246465e-38
0.0287243898404 -0.116587229352 0.913 9.74927062143e-39
0.030414059831 -0.116587229352 0.913 2.0141483603e-38
-0.0271827741753 -0.115526790245 0.918 1.80388815001e-38
-0.0254005702312 -0.115149251715 0.915 2.18213616033e-38
-0.0237071988825 -0.115149251715 0.915 7.54019645994e-39
-0.0220138275337 -0.115149251715 0.915 6.42848473106e-39
-0.020320456185 -0.115149251715 0.915 6.79583091959e-39
-0.0185863698967 -0.114897559361 0.913 8.26519465422e-39
-0.016841179534 -0.114520020831 0.91 8.63256466482e-39
-0.0151237493574 -0.114268328478 0.908 7.34683969264e-39
-0.0134433327621 -0.114268328478 0.908 7.53051068496e-39
-0.0117370066599 -0.114016636124 0.906 7.62234618111e-39
-0.0100602914227 -0.114016636124 0.906 7.71418167727e-39
-0.00838357618561 -0.114016636124 0.906 7.71418167727e-39
-0.00670686094849 -0.114016636124 0.906 8.17335915806e-39
-0.00501348959974 -0.113639097594 0.903 8.17335915806e-39
-0.00334232639983 -0.113639097594 0.903 8.72437213501e-39
-0.00167116319991 -0.113639097594 0.903 8.81620763117e-39
0.0 -0.113639097594 0.903 8.90804312733e-39
0.00166746184177 -0.113387405241 0.901 8.90804312733e-39
0.00333492368355 -0.113387405241 0.901 8.54070114269e-39
0.00500238552532 -0.113387405241 0.901 1.07479816421e-38
0.00666984736709 -0.113387405241 0.901 1.07447530505e-38
0.00835581599956 -0.113639097594 0.903 9.73563878997e-39
0.0100269791995 -0.113639097594 0.903 1.18564843975e-38
0.0116981423994 -0.113639097594 0.903 1.33359486915e-38
0.013413721897 -0.114016636124 0.906 1.4174281103e-38
0.0150904371341 -0.114016636124 0.906 1.49125916327e-38
0.0167671523712 -0.114016636124 0.906 1.72207403982e-38
0.0184845825479 -0.114268328478 0.908 1.74965986126e-38
0.0201649991431 -0.114268328478 0.908 1.60221944074e-38
0.0218454157384 -0.114268328478 0.908 1.54693751567e-38
0.0235258323337 -0.114268328478 0.908 1.56530405438e-38
0.025261769301 -0.114520020831 0.91 1.58356381415e-38
0.0270347198498 -0.114897559361 0.913 1.65753555749e-38
0.0287873129287 -0.115149251715 0.915 7.43939265361e-39
0.0304806842775 -0.115149251715 0.915 2.08801486612e-38
-0.0254005702312 -0.113455880366 0.915 2.12671088243e-38
-0.0237071988825 -0.113455880366 0.915 7.44549110453e-39
-0.0220138275337 -0.113455880366 0.915 8.0815236619e-39
-0.020320456185 -0.113455880366 0.915 6.61215572338e-39
-0.0185863698967 -0.113207889371 0.913 9.5548460647e-39
-0.0168966999061 -0.113207889371 0.913 7.07133320417e-39
-0.0151237493574 -0.112587911883 0.908 7.98968816575e-39
-0.0134433327621 -0.112587911883 0.908 1.07512242468e-38
-0.0117629161668 -0.112587911883 0.908 9.46479582278e-39
-0.0100602914227 -0.112339920887 0.906 7.80601717343e-39
-0.00838357618561 -0.112339920887 0.906 8.17335915806e-39
-0.00670686094849 -0.112339920887 0.906 8.17335915806e-39
-0.00503014571137 -0.112339920887 0.906 8.17335915806e-39
-0.00334232639983 -0.111967934394 0.903 8.54070114269e-39
-0.00167116319991 -0.111967934394 0.903 8.90804312733e-39
0.0 -0.111967934394 0.903 8.81620763117e-39
0.00167116319991 -0.111967934394 0.903 9.09171411964e-39
0.00334232639983 -0.111967934394 0.903 7.71418167727e-39
0.00501348959974 -0.111967934394 0.903 1.78624944572e-38
0.00668465279965 -0.111967934394 0.903 1.57470522565e-38
0.00835581599956 -0.111967934394 0.903 1.51946043499e-38
0.0100269791995 -0.111967934394 0.903 1.61151131072e-38
0.0117370066599 -0.112339920887 0.906 1.56534118879e-38
0.013413721897 -0.112339920887 0.906 1.53771977437e-38
0.0150904371341 -0.112339920887 0.906 1.52846321711e-38
0.0167671523712 -0.112339920887 0.906 1.50069564726e-38
0.0184845825479 -0.112587911883 0.908 1.53761019283e-38
0.0201649991431 -0.112587911883 0.908 1.57448858491e-38
0.0218454157384 -0.112587911883 0.908 1.56530405438e-38
0.0235776513476 -0.112835902878 0.91 1.60211027959e-38
0.025261769301 -0.112835902878 0.91 1.61118943247e-38
0.0270347198498 -0.113207889371 0.913 1.6665397409e-38
0.0287243898404 -0.113207889371 0.913 7.43975138602e-39
0.030414059831 -0.113207889371 0.913 2.10602197177e-38
-0.0254005702312 -0.111762509017 0.915 2.07099973964e-38
-0.0237071988825 -0.111762509017 0.915 6.6132319206e-39
-0.0220860040175 -0.112128943473 0.918 7.16316870032e-39
-0.020320456185 -0.111762509017 0.915 6.88766221185e-39
-0.0186270848362 -0.111762509017 0.915 7.4386751888e-39
-0.0169337134875 -0.111762509017 0.915 7.62234618111e-39
-0.0152070299155 -0.11151821938 0.913 8.0815236619e-39
-0.0134433327621 -0.110907495287 0.908 8.63253663885e-39
-0.0117629161668 -0.110907495287 0.908 7.80601717343e-39
-0.0100824995716 -0.110907495287 0.908 8.17335915806e-39
-0.00840208297631 -0.110907495287 0.908 7.98968816575e-39
-0.00672166638105 -0.110907495287 0.908 8.26519465422e-39
-0.00503014571137 -0.11066320565 0.906 8.35703015038e-39
-0.00335343047424 -0.11066320565 0.906 8.35703015038e-39
-0.00167671523712 -0.11066320565 0.906 8.63253663885e-39
0.0 -0.11066320565 0.906 8.99987862348e-39
0.00167671523712 -0.11066320565 0.906 8.90804312733e-39
0.00335343047424 -0.11066320565 0.906 7.34683969264e-39
0.00503014571137 -0.11066320565 0.906 1.64813718882e-38
0.00668465279965 -0.110296771194 0.903 1.42729983759e-38
0.00835581599956 -0.110296771194 0.903 1.46396130866e-38
0.0100269791995 -0.110296771194 0.903 1.46374620935e-38
0.0117370066599 -0.11066320565 0.906 1.54686506854e-38
0.013413721897 -0.11066320565 0.906 1.50073362244e-38
0.0150904371341 -0.11066320565 0.906 1.50073208102e-38
0.0167671523712 -0.11066320565 0.906 1.53753830622e-38
0.0184845825479 -0.110907495287 0.908 1.56516168246e-38
0.0201649991431 -0.110907495287 0.908 1.53768474191e-38
0.0218935333942 -0.111151784924 0.91 1.59278351727e-38
0.0235776513476 -0.111151784924 0.91 1.6019300726e-38
0.0253450498591 -0.11151821938 0.913 1.62044122532e-38
0.0270347198498 -0.11151821938 0.913 1.62054968582e-38
0.0287243898404 -0.11151821938 0.913 1.35317815532e-38
0.030414059831 -0.11151821938 0.913 1.92360752379e-38
-0.0255393711615 -0.110670608366 0.92 2.00657392171e-38
-0.0238367464174 -0.110670608366 0.92 6.97949770801e-39
-0.0221341216733 -0.110670608366 0.92 6.97949770801e-39
-0.0203870806315 -0.110430020087 0.918 7.4386751888e-39
-0.0186881572455 -0.110430020087 0.918 7.62234618111e-39
-0.0169337134875 -0.110069137669 0.915 8.26519465422e-39
-0.0152403421387 -0.110069137669 0.915 8.17336616455e-39
-0.0135173599249 -0.10982854939 0.913 7.98968816575e-39
-0.0117888256738 -0.109467666971 0.91 9.64631442066e-39
-0.0101047077204 -0.109467666971 0.91 7.80601717343e-39
-0.008420589767 -0.109467666971 0.91 8.17335915806e-39
-0.00672166638105 -0.109227078692 0.908 8.26519465422e-39
-0.00504124978578 -0.109227078692 0.908 7.98968816575e-39
-0.00335343047424 -0.108986490413 0.906 8.35703015038e-39
-0.00167671523712 -0.108986490413 0.906 8.54070114269e-39
0.0 -0.108986490413 0.906 8.99987862348e-39
0.00167671523712 -0.108986490413 0.906 8.90804312733e-39
0.00335343047424 -0.108986490413 0.906 6.97949770801e-39
0.00503014571137 -0.108986490413 0.906 1.67586832491e-38
0.00670686094849 -0.108986490413 0.906 1.44591720873e-38
0.00838357618561 -0.108986490413 0.906 1.44552162217e-38
0.0100602914227 -0.108986490413 0.906 1.50069676829e-38
0.0117370066599 -0.108986490413 0.906 1.55586953221e-38
0.0134433327621 -0.109227078692 0.908 1.49147706518e-38
0.0151237493574 -0.109227078692 0.908 1.50073067972e-38
0.0168041659526 -0.109227078692 0.908 1.53753802596e-38
0.0185252974874 -0.109467666971 0.91 1.53753802596e-38
0.0202094154408 -0.109467666971 0.91 1.53750271324e-38
0.0219657098779 -0.10982854939 0.913 1.62054968582e-38
0.0237071988825 -0.110069137669 0.915 1.68508662672e-38
0.0254005702312 -0.110069137669 0.915 1.22432651945e-38
0.02709394158 -0.110069137669 0.915 9.6592287873e-39
0.0287873129287 -0.110069137669 0.915 1.3529592725e-38
-0.0256226517196 -0.109323314004 0.923 2.10820547504e-38
-0.0239144749383 -0.109323314004 0.923 7.81355055397e-39
-0.0221341216733 -0.108967983622 0.92 6.3366492349e-39
-0.0204314969292 -0.108967983622 0.92 6.79582671569e-39
-0.0186881572455 -0.108731096701 0.918 9.64774935029e-39
-0.0169892338596 -0.108731096701 0.918 7.53051068496e-39
-0.0152403421387 -0.10837576632 0.915 7.34683969264e-39
-0.0135173599249 -0.108138879399 0.913 8.90804452862e-39
-0.0118276899343 -0.108138879399 0.913 7.80603679161e-39
-0.0101047077204 -0.107783549018 0.91 7.98968816575e-39
-0.008420589767 -0.107783549018 0.91 7.98968816575e-39
-0.00672166638105 -0.107546662097 0.908 8.26519465422e-39
-0.00504124978578 -0.107546662097 0.908 7.98968816575e-39
-0.00336083319052 -0.107546662097 0.908 8.72437213501e-39
-0.00168041659526 -0.107546662097 0.908 8.35703015038e-39
0.0 -0.107309775176 0.906 8.81620763117e-39
0.00167671523712 -0.107309775176 0.906 8.81620763117e-39
0.00335343047424 -0.107309775176 0.906 7.34683969264e-39
0.00503014571137 -0.107309775176 0.906 1.6207326954e-38
0.00670686094849 -0.107309775176 0.906 1.42726256305e-38
0.00838357618561 -0.107309775176 0.906 1.47314555893e-38
0.0100602914227 -0.107309775176 0.906 1.48225750219e-38
0.0117629161668 -0.107546662097 0.908 1.5561591806e-38
0.0134433327621 -0.107546662097 0.908 1.51013465358e-38
0.0151237493574 -0.107546662097 0.908 1.47321758567e-38
0.0168041659526 -0.107546662097 0.908 1.51917120699e-38
0.0185252974874 -0.107783549018 0.91 1.53753802596e-38
0.0202760398873 -0.108138879399 0.913 1.61129452985e-38
0.0219657098779 -0.108138879399 0.913 1.57456075178e-38
0.0237071988825 -0.10837576632 0.915 1.66704378796e-38
0.0254838507894 -0.108731096701 0.918 9.47989761633e-39
0.0271827741753 -0.108731096701 0.918 7.99184056019e-39
0.0288816975613 -0.108731096701 0.918 1.42736037368e-38
0.0305806209472 -0.108731096701 0.918 1.98824115429e-38
-0.0256781720917 -0.107848322785 0.925 2.19121699477e-38
-0.0239662939522 -0.107848322785 0.925 7.62952082925e-39
-0.022206298157 -0.107615137222 0.923 7.16316870032e-39
-0.0204314969292 -0.107265358878 0.92 6.52032022722e-39
-0.0187288721851 -0.107265358878 0.92 6.97949770801e-39
-0.0169892338596 -0.107032173315 0.918 7.4386751888e-39
-0.0152903104736 -0.107032173315 0.918 9.46443709038e-39
-0.01354697079 -0.106682394971 0.915 8.91019552177e-39
-0.0118276899343 -0.106449209408 0.913 7.80601717343e-39
-0.0101380199437 -0.106449209408 0.913 7.98968816575e-39
-0.00844834995305 -0.106449209408 0.913 8.17335915806e-39
-0.0067364718136 -0.106099431064 0.91 8.26519465422e-39
-0.0050523538602 -0.106099431064 0.91 8.26519465422e-39
-0.00336083319052 -0.105866245501 0.908 8.54070114269e-39
-0.00168041659526 -0.105866245501 0.908 8.35703015038e-39
0.0 -0.105866245501 0.908 9.09171411964e-39
0.00168041659526 -0.105866245501 0.908 9.36722060812e-39
0.00336083319052 -0.105866245501 0.908 7.25500419648e-39
0.00504124978578 -0.105866245501 0.908 1.68512348087e-38
0.00672166638105 -0.105866245501 0.908 1.45488663994e-38
0.00840208297631 -0.105866245501 0.908 1.48240057477e-38
0.0100824995716 -0.105866245501 0.908 1.509951644e-38
0.0117629161668 -0.105866245501 0.908 1.48247274164e-38
0.0134433327621 -0.105866245501 0.908 1.49165755242e-38
0.0151237493574 -0.105866245501 0.908 1.49151111673e-38
0.0168041659526 -0.105866245501 0.908 1.50998695672e-38
0.0185252974874 -0.106099431064 0.91 1.58360024791e-38
0.0202760398873 -0.106449209408 0.913 1.4180802746e-38
0.0220138275337 -0.106682394971 0.915 9.19182708583e-39
0.0237071988825 -0.106682394971 0.915 1.04897503611e-38
0.0254838507894 -0.107032173315 0.918 8.72975312111e-39
0.0271827741753 -0.107032173315 0.918 1.55453591646e-38
0.0288816975613 -0.107032173315 0.918 9.02355496234e-39
0.0305806209472 -0.107032173315 0.918 2.07175952367e-38
-0.0256781720917 -0.106136444646 0.925 2.13571786844e-38
-0.0239662939522 -0.106136444646 0.925 8.63971128699e-39
-0.022206298157 -0.105906960441 0.923 7.16316870032e-39
-0.0204314969292 -0.105562734134 0.92 7.98968816575e-39
-0.0187288721851 -0.105562734134 0.92 7.25500419648e-39
-0.0169892338596 -0.105333249929 0.918 7.25500419648e-39
-0.0152903104736 -0.105333249929 0.918 7.25500419648e-39
-0.01354697079 -0.104989023622 0.915 7.62234618111e-39
-0.0118276899343 -0.104759539418 0.913 8.0815236619e-39
-0.0101380199437 -0.104759539418 0.913 8.26519465422e-39
-0.00844834995305 -0.104759539418 0.913 7.98968816575e-39
-0.0067364718136 -0.104415313111 0.91 8.26519465422e-39
-0.0050523538602 -0.104415313111 0.91 8.17335915806e-39
-0.0033682359068 -0.104415313111 0.91 8.44886564654e-39
-0.0016841179534 -0.104415313111 0.91 8.72437213501e-39
0.0 -0.104185828906 0.908 9.09171411964e-39
0.00168041659526 -0.104185828906 0.908 8.99987862348e-39
0.00336083319052 -0.104185828906 0.908 7.62234618111e-39
0.00504124978578 -0.104185828906 0.908 1.72189257167e-38
0.00672166638105 -0.104185828906 0.908 1.43641150059e-38
0.00840208297631 -0.104185828906 0.908 1.48225624102e-38
0.0100824995716 -0.104185828906 0.908 1.55583421949e-38
0.0117629161668 -0.104185828906 0.908 1.48229253465e-38
0.0134433327621 -0.104185828906 0.908 1.51917120699e-38
0.0151237493574 -0.104185828906 0.908 1.51909889999e-38
0.016841179534 -0.104415313111 0.91 1.50073208102e-38
0.0185863698967 -0.104759539418 0.913 1.65750024476e-38
0.020320456185 -0.104989023622 0.915 1.54708128889e-38
0.0220138275337 -0.104989023622 0.915 1.27028042103e-38
0.0237071988825 -0.104989023622 0.915 1.21466792965e-38
0.0254838507894 -0.105333249929 0.918 6.70399121953e-39
0.0271827741753 -0.105333249929 0.918 1.82244778765e-38
0.0288816975613 -0.105333249929 0.918 5.05202848591e-39
-0.0256781720917 -0.104424566506 0.925 2.11749930684e-38
-0.0239662939522 -0.104424566506 0.925 7.44297997768e-39
-0.0222544158128 -0.104424566506 0.925 7.4386751888e-39
-0.0204981213757 -0.10419878366 0.923 6.88766221185e-39
-0.0187288721851 -0.10386010939 0.92 9.46372943465e-39
-0.0169892338596 -0.103634326543 0.918 6.88766221185e-39
-0.0152903104736 -0.103634326543 0.918 7.34683969264e-39
-0.01354697079 -0.103295652274 0.915 7.34683969264e-39
-0.0118276899343 -0.103069869427 0.913 7.62234618111e-39
-0.0101380199437 -0.103069869427 0.913 8.26519465422e-39
-0.00844834995305 -0.103069869427 0.913 8.17335915806e-39
-0.0067364718136 -0.102731195157 0.91 8.26519465422e-39
-0.0050523538602 -0.102731195157 0.91 8.35703015038e-39
-0.0033682359068 -0.102731195157 0.91 8.35703015038e-39
-0.0016841179534 -0.102731195157 0.91 9.45905610427e-39
0.0 -0.102731195157 0.91 9.36722060812e-39
0.0016841179534 -0.102731195157 0.91 9.55089160043e-39
0.00336083319052 -0.102505412311 0.908 7.25500419648e-39
0.00504124978578 -0.102505412311 0.908 1.7311475875e-38
0.00672166638105 -0.102505412311 0.908 1.43637646813e-38
0.00840208297631 -0.102505412311 0.908 1.49144077155e-38
0.0100824995716 -0.102505412311 0.908 1.5375029935e-38
0.0117629161668 -0.102505412311 0.908 1.52831874323e-38
0.0134729436272 -0.102731195157 0.91 1.51920862166e-38
0.0151570615806 -0.102731195157 0.91 1.51917120699e-38
0.0168966999061 -0.103069869427 0.913 1.45492195266e-38
0.0185863698967 -0.103069869427 0.913 1.58377877334e-38
0.020320456185 -0.103295652274 0.915 1.44523099287e-38
0.0220138275337 -0.103295652274 0.915 1.77724624322e-38
0.0237071988825 -0.103295652274 0.915 9.28578835176e-39
0.0254838507894 -0.103634326543 0.918 7.80673463824e-39
0.0271827741753 -0.103634326543 0.918 1.35396372324e-38
0.0288816975613 -0.103634326543 0.918 1.39902051354e-38
-0.0256781720917 -0.102712688367 0.925 2.08979955984e-38
-0.0239662939522 -0.102712688367 0.925 8.91593524028e-39
-0.0222544158128 -0.102712688367 0.925 7.80601717343e-39
-0.0205425376733 -0.102712688367 0.925 7.16567982717e-39
-0.0187899445944 -0.102490606878 0.923 7.89821140199e-39
-0.017026247441 -0.102157484646 0.92 7.07133320417e-39
-0.0152903104736 -0.101935403157 0.918 9.36866394553e-39
-0.01354697079 -0.101602280925 0.915 8.54070114269e-39
-0.0118276899343 -0.101380199437 0.913 8.0815236619e-39
-0.0101380199437 -0.101380199437 0.913 8.26519465422e-39
-0.00844834995305 -0.101380199437 0.913 8.26519465422e-39
-0.0067364718136 -0.101047077204 0.91 8.26519465422e-39
-0.0050523538602 -0.101047077204 0.91 8.26519465422e-39
-0.0033682359068 -0.101047077204 0.91 8.63253663885e-39
-0.0016841179534 -0.101047077204 0.91 9.1835496158e-39
0.0 -0.101380199437 0.913 9.45905610427e-39
0.0016841179534 -0.101047077204 0.91 9.36722060812e-39
0.0033682359068 -0.101047077204 0.91 7.34683969264e-39
0.0050523538602 -0.101047077204 0.91 1.65767905045e-38
0.0067364718136 -0.101047077204 0.91 1.39957052319e-38
0.008420589767 -0.101047077204 0.91 1.47318255321e-38
0.0101047077204 -0.101047077204 0.91 1.48250805436e-38
0.0117888256738 -0.101047077204 0.91 1.51917120699e-38
0.0134729436272 -0.101047077204 0.91 1.50998695672e-38
0.0152070299155 -0.101380199437 0.913 1.52831846297e-38
0.0168966999061 -0.101380199437 0.913 1.61136669672e-38
0.0186270848362 -0.101602280925 0.915 1.6209829673e-38
0.020320456185 -0.101602280925 0.915 6.61394938541e-39
0.0220138275337 -0.101602280925 0.915 1.61910662866e-38
0.0237849274034 -0.101935403157 0.918 9.74101977607e-39
0.0254838507894 -0.101935403157 0.918 1.1316238998e-38
0.0271827741753 -0.101935403157 0.918 8.29245831714e-39
0.0288816975613 -0.101935403157 0.918 1.22485593001e-38
0.0307471820635 -0.102490606878 0.923 2.14500945817e-38
-0.0256781720917 -0.101000810227 0.925 2.02515205649e-38
-0.0239662939522 -0.101000810227 0.925 1.02059369754e-38
-0.0222544158128 -0.101000810227 0.925 6.88766221185e-39
-0.0205425376733 -0.101000810227 0.925 7.16317850941e-39
-0.0187899445944 -0.100782430097 0.923 7.80709337065e-39
-0.017026247441 -0.100454859902 0.92 8.44886564654e-39
-0.0152903104736 -0.100236479772 0.918 8.0815236619e-39
-0.01354697079 -0.0999089095762 0.915 8.17335915806e-39
-0.0118535994412 -0.0999089095762 0.915 9.27538511196e-39
-0.0101380199437 -0.099690529446 0.913 7.98968816575e-39
-0.00844834995305 -0.099690529446 0.913 8.26519465422e-39
-0.00675867996244 -0.099690529446 0.913 8.26519465422e-39
-0.00506900997183 -0.099690529446 0.913 8.54070114269e-39
-0.00337933998122 -0.099690529446 0.913 8.54070114269e-39
-0.00168966999061 -0.099690529446 0.913 8.90804312733e-39
0.0 -0.099690529446 0.913 8.99987862348e-39
0.00168966999061 -0.099690529446 0.913 9.45905610427e-39
0.00337933998122 -0.099690529446 0.913 7.80601717343e-39
0.0050523538602 -0.0993629592506 0.91 1.69452451201e-38
0.0067364718136 -0.0993629592506 0.91 1.40882694032e-38
0.00844834995305 -0.099690529446 0.913 1.49158300334e-38
0.0101380199437 -0.099690529446 0.913 1.48247274164e-38
0.0118276899343 -0.099690529446 0.913 1.50073208102e-38
0.0135173599249 -0.099690529446 0.913 1.53750425467e-38
0.0152070299155 -0.099690529446 0.913 1.5467944431e-38
0.0168966999061 -0.099690529446 0.913 1.62073115397e-38
0.0186270848362 -0.0999089095762 0.915 8.83271072318e-39
0.020320456185 -0.0999089095762 0.915 1.09485130576e-38
0.0220138275337 -0.0999089095762 0.915 1.22252416936e-38
0.0237849274034 -0.100236479772 0.918 7.89892886681e-39
0.0254838507894 -0.100236479772 0.918 1.7858160241e-38
0.0271827741753 -0.100236479772 0.918 5.33757948178e-39
0.0288816975613 -0.100236479772 0.918 9.58174258742e-39
0.0307471820635 -0.100782430097 0.923 1.91520197508e-38
-0.0257614526498 -0.099610950246 0.928 2.08947333756e-38
-0.0240440224732 -0.099610950246 0.928 1.11268030638e-38
-0.0223265922965 -0.099610950246 0.928 7.25500419648e-39
-0.0205425376733 -0.0992889320879 0.925 7.4386751888e-39
-0.0187899445944 -0.0990742533158 0.923 8.44958311135e-39
-0.0170817678131 -0.0990742533158 0.923 7.62234618111e-39
-0.0153236226969 -0.0987522351576 0.92 7.71418167727e-39
-0.01354697079 -0.0982155382274 0.915 1.13983929231e-38
-0.0118535994412 -0.0982155382274 0.915 7.16316870032e-39
-0.0101380199437 -0.0980008594554 0.913 8.35703015038e-39
-0.00844834995305 -0.0980008594554 0.913 8.26519465422e-39
-0.00675867996244 -0.0980008594554 0.913 8.26519465422e-39
-0.00506900997183 -0.0980008594554 0.913 8.81620763117e-39
-0.00337933998122 -0.0980008594554 0.913 8.63253663885e-39
-0.00168966999061 -0.0980008594554 0.913 8.81620763117e-39
0.0 -0.0980008594554 0.913 9.1835496158e-39
0.00168966999061 -0.0980008594554 0.913 8.99987862348e-39
0.00337933998122 -0.0980008594554 0.913 8.54070114269e-39
0.00506900997183 -0.0980008594554 0.913 1.62998729085e-38
0.00675867996244 -0.0980008594554 0.913 1.48229281491e-38
0.00844834995305 -0.0980008594554 0.913 1.49169258488e-38
0.0101380199437 -0.0980008594554 0.913 1.51942484201e-38
0.0118276899343 -0.0980008594554 0.913 1.52853356229e-38
0.0135173599249 -0.0980008594554 0.913 1.55608435127e-38
0.0152403421387 -0.0982155382274 0.915 1.33506763384e-38
0.0169337134875 -0.0982155382274 0.915 1.06680277557e-38
0.0186270848362 -0.0982155382274 0.915 7.25500419648e-39
0.020320456185 -0.0982155382274 0.915 1.07540800931e-38
0.0220860040175 -0.0985375563856 0.918 1.25936598755e-38
0.0237849274034 -0.0985375563856 0.918 4.49993931174e-39
0.0255393711615 -0.0987522351576 0.92 1.87854821115e-38
0.0272419959056 -0.0987522351576 0.92 6.25557571095e-39
0.0291019283706 -0.0992889320879 0.925 1.13244814356e-38
-0.0258169730219 -0.0981044974833 0.93 2.12642403663e-38
-0.0240958414871 -0.0981044974833 0.93 1.00197548562e-38
-0.0223265922965 -0.0978935200693 0.928 7.4386751888e-39
-0.0206091621199 -0.0978935200693 0.928 7.89785266959e-39
-0.0188306595339 -0.0975770539484 0.925 6.88766221185e-39
-0.0170817678131 -0.0973660765345 0.923 7.62234618111e-39
-0.0153236226969 -0.0970496104135 0.92 7.25500419648e-39
-0.01354697079 -0.0965221668787 0.915 8.81620763117e-39
-0.0118535994412 -0.0965221668787 0.915 8.26519465422e-39
-0.0101602280925 -0.0965221668787 0.915 8.35703015038e-39
-0.00846685674374 -0.0965221668787 0.915 8.17335915806e-39
-0.00675867996244 -0.0963111894648 0.913 8.26519465422e-39
-0.00506900997183 -0.0963111894648 0.913 8.35703015038e-39
-0.00337933998122 -0.0963111894648 0.913 8.63253663885e-39
-0.00168966999061 -0.0963111894648 0.913 8.99987862348e-39
0.0 -0.0965221668787 0.915 9.1835496158e-39
0.00168966999061 -0.0963111894648 0.913 8.54070114269e-39
0.00337933998122 -0.0963111894648 0.913 9.64704729975e-39
0.00508011404625 -0.0965221668787 0.915 1.59328728407e-38
0.006773485395 -0.0965221668787 0.915 1.50076711348e-38
0.00846685674374 -0.0965221668787 0.915 1.49154769062e-38
0.0101602280925 -0.0965221668787 0.915 1.50066005428e-38
0.0118535994412 -0.0965221668787 0.915 1.53764522529e-38
0.01354697079 -0.0965221668787 0.915 1.54697282839e-38
0.0152403421387 -0.0965221668787 0.915 1.43655639486e-38
0.0169337134875 -0.0965221668787 0.915 1.16882809377e-38
0.0186881572455 -0.0968386329996 0.918 1.05765075517e-38
0.0203870806315 -0.0968386329996 0.918 8.72939438871e-39
0.0220860040175 -0.0968386329996 0.918 9.371525397e-39
0.0237849274034 -0.0968386329996 0.918 4.95911679253e-39
0.0255393711615 -0.0970496104135 0.92 1.67657401881e-38
0.0273900502311 -0.0975770539484 0.925 1.51937523605e-38
0.0291963130031 -0.0978935200693 0.928 1.46413044539e-38
-0.0258169730219 -0.0963833659485 0.93 2.13575318116e-38
-0.0240958414871 -0.0963833659485 0.93 1.13126264506e-38
-0.0223747099523 -0.0963833659485 0.93 7.34683969264e-39
-0.0206091621199 -0.0961760898927 0.928 8.35918254482e-39
-0.0188306595339 -0.095865175809 0.925 6.79582671569e-39
-0.0171187813945 -0.095865175809 0.925 8.54070394529e-39
-0.0153236226969 -0.0953469856695 0.92 7.71420409805e-39
-0.0135913870877 -0.0951397096136 0.918 8.72437213501e-39
-0.0118535994412 -0.0948287955299 0.915 8.35703015038e-39
-0.0101602280925 -0.0948287955299 0.915 8.26519465422e-39
-0.00846685674374 -0.0948287955299 0.915 8.17335915806e-39
-0.006773485395 -0.0948287955299 0.915 8.26519465422e-39
-0.00508011404625 -0.0948287955299 0.915 8.35703015038e-39
-0.0033867426975 -0.0948287955299 0.915 8.54070114269e-39
-0.00169337134875 -0.0948287955299 0.915 8.90804312733e-39
0.0 -0.0948287955299 0.915 8.99987862348e-39
0.00169337134875 -0.0948287955299 0.915 8.54070114269e-39
0.0033867426975 -0.0948287955299 0.915 1.0567921796e-38
0.00508011404625 -0.0948287955299 0.915 1.59325197134e-38
0.006773485395 -0.0948287955299 0.915 1.48225596076e-38
0.00846685674374 -0.0948287955299 0.915 1.52828315025e-38
0.0101602280925 -0.0948287955299 0.915 1.50069676829e-38
0.0118535994412 -0.0948287955299 0.915 1.53761019283e-38
0.01354697079 -0.0948287955299 0.915 1.51917120699e-38
0.0152403421387 -0.0948287955299 0.915 1.6390620997e-38
0.0169892338596 -0.0951397096136 0.918 1.74044057853e-38
0.0186881572455 -0.0951397096136 0.918 1.15089497667e-38
0.0203870806315 -0.0951397096136 0.918 6.52713614295e-39
0.0220860040175 -0.0951397096136 0.918 6.24481373874e-39
0.0238367464174 -0.0953469856695 0.92 8.09733871637e-39
0.0257614526498 -0.0961760898927 0.928 1.57519399855e-38
0.0274788828265 -0.0961760898927 0.928 1.38951410476e-38
-0.024173570008 -0.0949675964602 0.933 1.06683430478e-38
-0.0223747099523 -0.0946622344137 0.93 6.70399121953e-39
-0.0206091621199 -0.094458659716 0.928 7.62234618111e-39
-0.0188306595339 -0.0941532976695 0.925 7.89785266959e-39
-0.0171187813945 -0.0941532976695 0.925 7.89785266959e-39
-0.0153735910318 -0.0939497229719 0.923 7.62234618111e-39
-0.0135913870877 -0.0934407862277 0.918 1.056612393e-38
-0.0118924637017 -0.0934407862277 0.918 8.0815236619e-39
-0.0101602280925 -0.0931354241812 0.915 8.35703015038e-39
-0.00846685674374 -0.0931354241812 0.915 8.26519465422e-39
-0.006773485395 -0.0931354241812 0.915 8.35703015038e-39
-0.00508011404625 -0.0931354241812 0.915 8.35703015038e-39
-0.0033867426975 -0.0931354241812 0.915 8.81620763117e-39
-0.00169337134875 -0.0931354241812 0.915 8.81620763117e-39
0.0 -0.0931354241812 0.915 8.99987862348e-39
0.00169337134875 -0.0931354241812 0.915 8.44886564654e-39
0.0033867426975 -0.0931354241812 0.915 1.21338083701e-38
0.00508011404625 -0.0931354241812 0.915 1.60247153433e-38
0.006773485395 -0.0931354241812 0.915 1.4733233837e-38
0.00849461692979 -0.0934407862277 0.918 1.52857041644e-38
0.0101935403157 -0.0934407862277 0.918 1.45485286864e-38
0.0118924637017 -0.0934407862277 0.918 1.66679169436e-38
0.0135913870877 -0.0934407862277 0.918 1.50083900009e-38
0.0152903104736 -0.0934407862277 0.918 1.61150962917e-38
0.0169892338596 -0.0934407862277 0.918 1.3353557408e-38
0.0186881572455 -0.0934407862277 0.918 4.68361030406e-39
0.0203870806315 -0.0934407862277 0.918 1.38998367987e-38
0.0221341216733 -0.0936443609254 0.92 5.41829427332e-39
0.0238367464174 -0.0936443609254 0.92 1.42679410897e-38
0.0257614526498 -0.094458659716 0.928 1.44612207856e-38
0.0274788828265 -0.094458659716 0.928 1.5097253343e-38
-0.024173570008 -0.0932409128882 0.933 1.11285967258e-38
-0.0223747099523 -0.0929411028789 0.93 6.06114274643e-39
-0.0206091621199 -0.0927412295394 0.928 7.07133320417e-39
-0.0188917319432 -0.0927412295394 0.928 7.16316870032e-39
-0.0171187813945 -0.0924414195301 0.925 7.4386751888e-39
-0.0153735910318 -0.0922415461905 0.923 8.63253663885e-39
-0.0136209979528 -0.0919417361813 0.92 1.13061972932e-38
-0.0118924637017 -0.0917418628417 0.918 7.4386751888e-39
-0.0101935403157 -0.0917418628417 0.918 8.81620763117e-39
-0.00849461692979 -0.0917418628417 0.918 8.26519465422e-39
-0.006773485395 -0.0914420528324 0.915 8.35703015038e-39
-0.00508011404625 -0.0914420528324 0.915 8.63253663885e-39
-0.0033867426975 -0.0914420528324 0.915 8.99987862348e-39
-0.00169337134875 -0.0914420528324 0.915 8.90804312733e-39
0.0 -0.0914420528324 0.915 8.99987862348e-39
0.00169892338596 -0.0917418628417 0.918 8.44886564654e-39
0.00339784677192 -0.0917418628417 0.918 1.27798980466e-38
0.00509677015787 -0.0917418628417 0.918 1.5933235777e-38
0.00679569354383 -0.0917418628417 0.918 1.47314359711e-38
0.00849461692979 -0.0917418628417 0.918 1.500695367e-38
0.0101935403157 -0.0917418628417 0.918 1.57448914543e-38
0.0118924637017 -0.0917418628417 0.918 1.51909889999e-38
0.0135913870877 -0.0917418628417 0.918 1.61147445657e-38
0.0152903104736 -0.0917418628417 0.918 1.54697436982e-38
0.0169892338596 -0.0917418628417 0.918 6.15800049628e-39
0.0187288721851 -0.0919417361813 0.92 1.60196356364e-38
0.0204314969292 -0.0919417361813 0.92 1.59314477201e-38
0.0221341216733 -0.0919417361813 0.92 4.31626831943e-39
0.0239662939522 -0.0924414195301 0.925 1.80511666837e-38
0.0257614526498 -0.0927412295394 0.928 7.27258208442e-39
0.0274788828265 -0.0927412295394 0.928 1.63948403067e-38
-0.024173570008 -0.0915142293162 0.933 1.19587035153e-38
-0.0223747099523 -0.0912199713441 0.93 7.25715659092e-39
-0.0206535784175 -0.0912199713441 0.93 7.16316870032e-39
-0.0188917319432 -0.0910237993627 0.928 7.16316870032e-39
-0.0171743017665 -0.0910237993627 0.928 7.34683969264e-39
-0.015406903255 -0.0907295413906 0.925 7.71418167727e-39
-0.0136654142505 -0.0905333694092 0.923 7.71418167727e-39
-0.0119183732087 -0.0902391114372 0.92 8.35703015038e-39
-0.0101935403157 -0.0900429394558 0.918 8.26519465422e-39
-0.00849461692979 -0.0900429394558 0.918 8.54070114269e-39
-0.00679569354383 -0.0900429394558 0.918 8.54070114269e-39
-0.00508011404625 -0.0897486814837 0.915 8.63253663885e-39
-0.0033867426975 -0.0897486814837 0.915 8.99987862348e-39
-0.00169892338596 -0.0900429394558 0.918 8.99987862348e-39
0.0 -0.0900429394558 0.918 8.90804312733e-39
0.00169892338596 -0.0900429394558 0.918 8.0815236619e-39
0.00339784677192 -0.0900429394558 0.918 1.37018543452e-38
0.00509677015787 -0.0900429394558 0.918 1.5840321281e-38
0.00679569354383 -0.0900429394558 0.918 1.49154741036e-38
0.00849461692979 -0.0900429394558 0.918 1.509951644e-38
0.0101935403157 -0.0900429394558 0.918 1.52867845655e-38
0.0118924637017 -0.0900429394558 0.918 1.52849852983e-38
0.0135913870877 -0.0900429394558 0.918 1.53753984765e-38
0.0152903104736 -0.0900429394558 0.918 1.60214685348e-38
0.017026247441 -0.0902391114372 0.92 1.64828040152e-38
0.0187288721851 -0.0902391114372 0.92 1.51016702358e-38
0.0204314969292 -0.0902391114372 0.92 9.75070555106e-39
0.0221341216733 -0.0902391114372 0.92 1.92854541932e-39
0.0240440224732 -0.0910237993627 0.928 1.81469902753e-38
0.0257614526498 -0.0910237993627 0.928 5.05956186645e-39
0.0274788828265 -0.0910237993627 0.928 1.19805861921e-38
-0.024225389022 -0.0899800163674 0.935 6.24481373874e-39
-0.022446886436 -0.0897875457442 0.933 1.0293117358e-38
-0.0206535784175 -0.0894988398093 0.93 6.88768042873e-39
-0.0188917319432 -0.089306369186 0.928 7.53051068496e-39
-0.0171743017665 -0.089306369186 0.928 7.53051068496e-39
-0.015406903255 -0.0890176632512 0.925 7.53051068496e-39
-0.0136950251156 -0.0890176632512 0.925 7.71418167727e-39
-0.0119572374691 -0.0888251926279 0.923 8.17335915806e-39
-0.0102490606878 -0.0888251926279 0.923 8.35703015038e-39
-0.00851312372049 -0.0885364866931 0.92 8.35703015038e-39
-0.00679569354383 -0.0883440160698 0.918 8.63253663885e-39
-0.00509677015787 -0.0883440160698 0.918 8.54070114269e-39
-0.00339784677192 -0.0883440160698 0.918 8.54070114269e-39
-0.00169892338596 -0.0883440160698 0.918 8.90804312733e-39
0.0 -0.0883440160698 0.918 8.99987862348e-39
0.00169892338596 -0.0883440160698 0.918 8.0815236619e-39
0.00339784677192 -0.0883440160698 0.918 1.51773431554e-38
0.00509677015787 -0.0883440160698 0.918 1.57485011991e-38
0.00679569354383 -0.0883440160698 0.918 1.54686745075e-38
0.00851312372049 -0.0885364866931 0.92 1.48257994097e-38
0.0101935403157 -0.0883440160698 0.918 1.50094718033e-38
0.0118924637017 -0.0883440160698 0.918 1.52849824957e-38
0.0135913870877 -0.0883440160698 0.918 1.56523258816e-38
0.0152903104736 -0.0883440160698 0.918 1.63891622453e-38
0.017026247441 -0.0885364866931 0.92 1.41725238747e-38
0.0187288721851 -0.0885364866931 0.92 1.41695713388e-38
0.0204314969292 -0.0885364866931 0.92 1.82268628865e-38
0.0222544158128 -0.0890176632512 0.925 2.47955839627e-39
0.0240440224732 -0.089306369186 0.928 1.81497592411e-38
0.0257614526498 -0.089306369186 0.928 3.58158435016e-39
0.0274788828265 -0.089306369186 0.928 9.30733051305e-39
-0.024173570008 -0.0880608621722 0.933 5.6938007618e-39
-0.022446886436 -0.0880608621722 0.933 7.71418167727e-39
-0.0206535784175 -0.0877777082745 0.93 9.65241707547e-39
-0.0189324468827 -0.0877777082745 0.93 7.34683969264e-39
-0.0171743017665 -0.0875889390094 0.928 7.80601717343e-39
-0.0154568715899 -0.0875889390094 0.928 7.34683969264e-39
-0.0136950251156 -0.0873057851117 0.925 7.80601717343e-39
-0.0119831469761 -0.0873057851117 0.925 8.17335915806e-39
-0.0102712688367 -0.0873057851117 0.925 7.80601717343e-39
-0.00854088390653 -0.0871170158466 0.923 8.54070114269e-39
-0.00679569354383 -0.0866450926839 0.918 8.81620763117e-39
-0.00509677015787 -0.0866450926839 0.918 8.81620763117e-39
-0.00339784677192 -0.0866450926839 0.918 8.81620763117e-39
-0.00169892338596 -0.0866450926839 0.918 9.36722060812e-39
0.0 -0.0866450926839 0.918 9.1835496158e-39
0.00169892338596 -0.0866450926839 0.918 8.26519465422e-39
0.00339784677192 -0.0866450926839 0.918 1.50847887932e-38
0.00509677015787 -0.0866450926839 0.918 1.55626581942e-38
0.00681049897639 -0.086833861949 0.92 1.5282115439e-38
0.00851312372049 -0.086833861949 0.92 1.46414151565e-38
0.0102157484646 -0.086833861949 0.92 1.51020331721e-38
0.0119183732087 -0.086833861949 0.92 1.53760991257e-38
0.0136209979528 -0.086833861949 0.92 1.64824536906e-38
0.0153236226969 -0.086833861949 0.92 1.27002608536e-38
0.0170817678131 -0.0871170158466 0.923 1.34086999039e-38
0.0187899445944 -0.0871170158466 0.923 1.42441876795e-38
0.0204981213757 -0.0871170158466 0.923 1.6829216206e-38
0.0222544158128 -0.0873057851117 0.925 5.14278778485e-39
0.0240440224732 -0.0875889390094 0.928 1.70434004723e-38
0.0257614526498 -0.0875889390094 0.928 8.64473354068e-39
0.0275381045567 -0.0877777082745 0.93 1.63909194736e-38
0.029510928445 -0.0885327853349 0.938 1.64866323626e-38
0.0312468654123 -0.0885327853349 0.938 1.73038163776e-38
-0.02590025358 -0.0863341786002 0.933 2.34943354061e-38
-0.024173570008 -0.0863341786002 0.933 5.87747175411e-39
-0.022446886436 -0.0863341786002 0.933 8.54070114269e-39
-0.0206535784175 -0.0860565767397 0.93 7.4386751888e-39
-0.0189324468827 -0.0860565767397 0.93 1.13097649991e-38
-0.0172113153479 -0.0860565767397 0.93 7.34756416395e-39
-0.0154568715899 -0.0858715088327 0.928 7.62234618111e-39
-0.0137394414132 -0.0858715088327 0.928 8.0815236619e-39
-0.0119831469761 -0.0855939069723 0.925 8.26519465422e-39
-0.0102712688367 -0.0855939069723 0.925 8.44886564654e-39
-0.00855939069723 -0.0855939069723 0.925 8.17335915806e-39
-0.00681049897639 -0.0851312372049 0.92 8.90804312733e-39
-0.00510787423229 -0.0851312372049 0.92 8.72437213501e-39
-0.00340524948819 -0.0851312372049 0.92 8.99987862348e-39
-0.00169892338596 -0.0849461692979 0.918 8.90804312733e-39
0.0 -0.0849461692979 0.918 9.36722060812e-39
0.00169892338596 -0.0849461692979 0.918 8.44886564654e-39
0.00339784677192 -0.0849461692979 0.918 1.6373366809e-38
0.00509677015787 -0.0849461692979 0.918 1.67612013824e-38
0.00681049897639 -0.0851312372049 0.92 1.50977171728e-38
0.00854088390653 -0.0854088390653 0.923 1.51917176751e-38
0.0102490606878 -0.0854088390653 0.923 1.56537594099e-38
0.0119572374691 -0.0854088390653 0.923 1.56526762062e-38
0.0136654142505 -0.0854088390653 0.923 1.64817081998e-38
0.0153735910318 -0.0854088390653 0.923 1.15920972124e-38
0.0171187813945 -0.0855939069723 0.925 1.39622240077e-38
0.0188306595339 -0.0855939069723 0.925 1.47959181212e-38
0.0205425376733 -0.0855939069723 0.925 1.37860863959e-38
0.0222544158128 -0.0855939069723 0.925 1.03914016297e-38
0.0240958414871 -0.0860565767397 0.93 1.62121936635e-38
0.0258169730219 -0.0860565767397 0.93 1.74013915923e-38
0.0275381045567 -0.0860565767397 0.93 1.54667477221e-38
0.0294165438124 -0.0865192465071 0.935 1.93382887505e-38
0.0312468654123 -0.0867968483676 0.938 2.34932227751e-38
-0.0276861588823 -0.084788861577 0.935 2.3486757184e-38
-0.02590025358 -0.0846074950282 0.933 2.34907326677e-38
-0.024173570008 -0.0846074950282 0.933 6.52032022722e-39
-0.0224950040919 -0.084788861577 0.935 8.63289537126e-39
-0.020720202864 -0.0846074950282 0.933 7.80602417992e-39
-0.018993519292 -0.0846074950282 0.933 7.25500419648e-39
-0.0172113153479 -0.0843354452049 0.93 7.34683969264e-39
-0.0154901838131 -0.0843354452049 0.93 7.62234618111e-39
-0.0137394414132 -0.0841540786561 0.928 8.0815236619e-39
-0.0120220112366 -0.0841540786561 0.928 8.35703015038e-39
-0.0103045810599 -0.0841540786561 0.928 8.35703015038e-39
-0.00855939069723 -0.0838820288328 0.925 8.54070114269e-39
-0.00683270712523 -0.083700662284 0.923 8.63253663885e-39
-0.00510787423229 -0.0834286124608 0.92 8.54070114269e-39
-0.00340524948819 -0.0834286124608 0.92 8.99987862348e-39
-0.0017026247441 -0.0834286124608 0.92 8.90804312733e-39
0.0 -0.0834286124608 0.92 8.99987862348e-39
0.0017026247441 -0.0834286124608 0.92 8.26519465422e-39
0.00340524948819 -0.0834286124608 0.92 1.60982218555e-38
0.00510787423229 -0.0834286124608 0.92 1.62076800812e-38
0.00684751255778 -0.0838820288328 0.925 1.47296759402e-38
0.00855939069723 -0.0838820288328 0.925 1.55579918703e-38
0.0102712688367 -0.0838820288328 0.925 1.54682947556e-38
0.0119831469761 -0.0838820288328 0.925 1.5653046149e-38
0.0136950251156 -0.0838820288328 0.925 1.64828040152e-38
0.015406903255 -0.0838820288328 0.925 1.09460019307e-38
0.0171187813945 -0.0838820288328 0.925 1.44303697986e-38
0.0188306595339 -0.0838820288328 0.925 1.48895472794e-38
0.0206091621199 -0.0841540786561 0.928 1.2044799293e-38
0.0223265922965 -0.0841540786561 0.928 1.26109168661e-38
0.024173570008 -0.0846074950282 0.933 1.57487113939e-38
0.0259557739521 -0.084788861577 0.935 1.52809243353e-38
0.0276861588823 -0.084788861577 0.935 1.52809243353e-38
0.0294165438124 -0.084788861577 0.935 1.98907534726e-38
0.0311469287426 -0.084788861577 0.935 2.34892809225e-38
-0.0276861588823 -0.0830584766468 0.935 2.21949505765e-38
-0.02590025358 -0.0828808114561 0.933 2.34932536037e-38
-0.024173570008 -0.0828808114561 0.933 7.90251619088e-39
-0.0224950040919 -0.0830584766468 0.935 8.08224112672e-39
-0.020720202864 -0.0828808114561 0.933 7.6223573915e-39
-0.018993519292 -0.0828808114561 0.933 7.89785266959e-39
-0.0172113153479 -0.0826143136701 0.93 7.4386751888e-39
-0.0154901838131 -0.0826143136701 0.93 7.62234618111e-39
-0.0137394414132 -0.0824366484794 0.928 7.62234618111e-39
-0.0120220112366 -0.0824366484794 0.928 8.17335915806e-39
-0.0103045810599 -0.0824366484794 0.928 8.72437213501e-39
-0.00855939069723 -0.0821701506934 0.925 8.81620763117e-39
-0.00684751255778 -0.0821701506934 0.925 8.81620763117e-39
-0.00512453034392 -0.0819924855027 0.923 8.72437213501e-39
-0.00341635356261 -0.0819924855027 0.923 8.72437213501e-39
-0.0017026247441 -0.0817259877167 0.92 8.99987862348e-39
0.0 -0.0817259877167 0.92 9.09171411964e-39
0.0017026247441 -0.0817259877167 0.92 8.35703015038e-39
0.00342375627889 -0.0821701506934 0.925 1.68357868945e-38
0.00513563441834 -0.0821701506934 0.925 1.56563055692e-38
0.00684751255778 -0.0821701506934 0.925 1.50076711348e-38
0.00855939069723 -0.0821701506934 0.925 1.54686506854e-38
0.0102712688367 -0.0821701506934 0.925 1.54693751567e-38
0.0119831469761 -0.0821701506934 0.925 1.54693933736e-38
0.0136950251156 -0.0821701506934 0.925 1.6021821662e-38
0.015406903255 -0.0821701506934 0.925 1.24172097741e-38
0.0171187813945 -0.0821701506934 0.925 1.41623966907e-38
0.0188306595339 -0.0821701506934 0.925 1.68382461733e-38
0.0206091621199 -0.0824366484794 0.928 5.97002471508e-39
