# .PCD v0.7 - Point Cloud Data file format
VERSION 0.7
FIELDS x y z rgb
SIZE 4 4 4 4
TYPE F F F F
COUNT 1 1 1 1
WIDTH 839
HEIGHT 1
VIEWPOINT 0 0 0 1 0 0 0
POINTS 839
DATA ascii
0.0190342342316 -0.0622938574851 0.935 3.69171519907e-39
0.0207646191617 -0.0622938574851 0.935 8.74876593868e-39
0.0224950040919 -0.0622938574851 0.935 1.28932014352e-38
0.0243031175429 -0.0624937308247 0.938 1.60278052064e-38
0.0260390545103 -0.0624937308247 0.938 1.78637976648e-38
0.0277749914776 -0.0624937308247 0.938 1.66652726934e-38
0.029510928445 -0.0624937308247 0.938 1.4638793327e-38
0.0312468654123 -0.0624937308247 0.938 1.85988501755e-38
0.0329828023797 -0.0624937308247 0.938 2.34899815718e-38
0.035088875161 -0.0631599752897 0.948 2.33009225868e-38
-0.0228077688546 -0.0614055315317 0.948 1.78657132398e-38
-0.0210533250966 -0.0614055315317 0.948 7.4386751888e-39
-0.0192988813385 -0.0614055315317 0.948 9.18606074265e-39
-0.0175074239991 -0.0612759839968 0.946 1.03838808609e-38
-0.0157067132643 -0.0610816626945 0.943 1.38109510359e-38
-0.0139171066039 -0.0608873413922 0.94 1.34417901658e-38
-0.0121515587715 -0.0607577938573 0.938 1.32566912504e-38
-0.0104156218041 -0.0607577938573 0.938 1.30722719647e-38
-0.00867968483676 -0.0607577938573 0.938 1.28853527625e-38
-0.00692153972057 -0.060563472555 0.935 1.30675453849e-38
-0.00519115479043 -0.060563472555 0.935 1.35292339926e-38
-0.00346076986028 -0.060563472555 0.935 1.44497413486e-38
-0.00173038493014 -0.060563472555 0.935 1.73088554469e-38
0.0 -0.0604339250201 0.933 2.29588740395e-39
0.001726683572 -0.0604339250201 0.933 1.44645152383e-38
0.00345336714401 -0.0604339250201 0.933 1.46380758622e-38
0.00518005071601 -0.0604339250201 0.933 1.50057765793e-38
0.00688452613918 -0.0602396037178 0.93 1.3716492309e-38
0.00860565767397 -0.0602396037178 0.93 1.0126298381e-38
0.0103267892088 -0.0602396037178 0.93 9.20937834909e-39
0.0120479207436 -0.0602396037178 0.93 8.47038959095e-39
0.013813468576 -0.0604339250201 0.933 1.05826060026e-38
0.0155734643713 -0.060563472555 0.935 1.14116365949e-38
0.0173038493014 -0.060563472555 0.935 1.24315128276e-38
0.0190953066409 -0.0607577938573 0.938 1.44637319125e-38
0.0207646191617 -0.060563472555 0.935 1.64855477576e-38
0.0224950040919 -0.060563472555 0.935 1.67581843868e-38
0.0243031175429 -0.0607577938573 0.938 1.70358432697e-38
0.0260945748824 -0.0608873413922 0.94 1.5099047005e-38
0.0277749914776 -0.0607577938573 0.938 1.43614931765e-38
0.029510928445 -0.0607577938573 0.938 1.83247688076e-38
0.0313134898588 -0.0608873413922 0.94 1.77687335769e-38
0.0333344314029 -0.0614055315317 0.948 2.34903361003e-38
0.035088875161 -0.0614055315317 0.948 2.33016316439e-38
-0.0229521218221 -0.0600286263038 0.954 1.80501129073e-38
-0.0211199495431 -0.0598398570387 0.951 7.89785266959e-39
-0.0192988813385 -0.0596510877736 0.948 8.72437213501e-39
-0.0175444375805 -0.0596510877736 0.948 1.01073009778e-38
-0.0157566815992 -0.0595252415969 0.946 1.38109440294e-38
-0.0139615229016 -0.0593364723318 0.943 1.32573947022e-38
-0.0122163325389 -0.0593364723318 0.943 1.35329194075e-38
-0.0104378299529 -0.0591477030667 0.94 1.39013445959e-38
-0.00869819162745 -0.0591477030667 0.94 1.00244407983e-38
-0.00694374786941 -0.0590218568899 0.938 9.09853003537e-39
-0.00520781090205 -0.0590218568899 0.938 8.54321226954e-39
-0.0034718739347 -0.0590218568899 0.938 1.0103339507e-38
-0.00173038493014 -0.0588330876248 0.935 1.69347227699e-38
0.0 -0.0588330876248 0.935 2.57139389242e-39
0.001726683572 -0.0587072414481 0.933 1.52017313539e-38
0.00345336714401 -0.0587072414481 0.933 1.46384345946e-38
0.00518005071601 -0.0587072414481 0.933 1.51908825012e-38
0.00690673428801 -0.0587072414481 0.933 1.55585832182e-38
0.00863341786002 -0.0587072414481 0.933 1.5099047005e-38
0.010360101432 -0.0587072414481 0.933 1.51029930615e-38
0.012086785004 -0.0587072414481 0.933 1.5193393628e-38
0.013813468576 -0.0587072414481 0.933 1.62982894412e-38
0.0155734643713 -0.0588330876248 0.935 1.64808842363e-38
0.0173593696735 -0.0590218568899 0.938 1.67560319924e-38
0.0190953066409 -0.0590218568899 0.938 1.59295125269e-38
0.0208312436082 -0.0590218568899 0.938 1.59302299917e-38
0.0225671805756 -0.0590218568899 0.938 1.4731346288e-38
0.0243031175429 -0.0590218568899 0.938 1.48213881221e-38
0.0261778554405 -0.0593364723318 0.943 1.59302299917e-38
0.0279230458032 -0.0593364723318 0.943 1.56525711088e-38
0.0297626207984 -0.0595252415969 0.946 1.87843050208e-38
0.0315133631984 -0.0595252415969 0.946 1.66624028342e-38
0.0332641055983 -0.0595252415969 0.946 2.34903501133e-38
0.0350148479982 -0.0595252415969 0.946 2.31161655882e-38
-0.0247176696545 -0.0582630784714 0.954 2.34885564512e-38
-0.0229521218221 -0.0582630784714 0.954 1.68504584894e-38
-0.0211865739896 -0.0582630784714 0.954 8.90804312733e-39
-0.0193599537478 -0.0580798612435 0.951 9.09171411964e-39
-0.0175444375805 -0.0578966440156 0.948 1.09352637806e-38
-0.0157899938224 -0.0578966440156 0.948 1.39964086837e-38
-0.0140059391993 -0.057774499197 0.946 1.32573947022e-38
-0.0122163325389 -0.0575912819691 0.943 1.37176511828e-38
-0.0104711421762 -0.0575912819691 0.943 1.47310800413e-38
-0.00869819162745 -0.0574080647412 0.94 1.27942711649e-38
-0.00695855330196 -0.0574080647412 0.94 1.25190953829e-38
-0.00520781090205 -0.0572859199226 0.938 1.43633541009e-38
-0.0034718739347 -0.0572859199226 0.938 1.49157543633e-38
-0.00173593696735 -0.0572859199226 0.938 1.62035995001e-38
0.0 -0.0571027026947 0.935 1.56120343469e-39
0.00173038493014 -0.0571027026947 0.935 1.39121023642e-38
0.00346076986028 -0.0571027026947 0.935 1.46413044539e-38
0.00519115479043 -0.0571027026947 0.935 1.53745534935e-38
0.00692153972057 -0.0571027026947 0.935 1.54674651869e-38
0.00865192465071 -0.0571027026947 0.935 1.59262839353e-38
0.0103823095809 -0.0571027026947 0.935 1.54663889897e-38
0.012112694511 -0.0571027026947 0.935 1.5376705888e-38
0.0138430794411 -0.0571027026947 0.935 1.5193393628e-38
0.0155734643713 -0.0571027026947 0.935 1.46409457215e-38
0.0173593696735 -0.0572859199226 0.938 1.46398695242e-38
0.0190953066409 -0.0572859199226 0.938 1.35346149787e-38
0.0208312436082 -0.0572859199226 0.938 1.38990871041e-38
0.0226874747151 -0.0575912819691 0.943 1.53763471555e-38
0.0244326650778 -0.0575912819691 0.943 1.57494288587e-38
0.0261778554405 -0.0575912819691 0.943 1.50097226357e-38
0.0280118783985 -0.057774499197 0.946 1.50061353117e-38
0.0297626207984 -0.057774499197 0.946 1.93378347298e-38
0.0315133631984 -0.057774499197 0.946 1.55578657534e-38
0.0332641055983 -0.057774499197 0.946 2.34903417055e-38
0.0350148479982 -0.057774499197 0.946 2.29307149469e-38
-0.0247176696545 -0.0564975306389 0.954 2.34892963368e-38
-0.0229521218221 -0.0564975306389 0.954 1.57451969373e-38
-0.0211865739896 -0.0564975306389 0.954 8.81620763117e-39
-0.0193599537478 -0.0563198654482 0.951 8.90804312733e-39
-0.0175444375805 -0.0561422002575 0.948 1.18572158753e-38
-0.0157899938224 -0.0561422002575 0.948 1.39964142889e-38
-0.0140059391993 -0.0560237567971 0.946 1.33495903321e-38
-0.0122163325389 -0.0558460916064 0.943 1.35339857957e-38
-0.0104711421762 -0.0558460916064 0.943 1.39024011749e-38
-0.00869819162745 -0.0556684264157 0.94 1.51924337386e-38
-0.00695855330196 -0.0556684264157 0.94 1.48229099323e-38
-0.00520781090205 -0.0555499829552 0.938 1.44530386039e-38
-0.0034718739347 -0.0555499829552 0.938 1.56518900778e-38
-0.00173593696735 -0.0555499829552 0.938 1.60207342544e-38
0.0 -0.0555499829552 0.938 2.93873587706e-39
0.00173038493014 -0.0553723177646 0.935 1.12398808434e-38
0.00346076986028 -0.0553723177646 0.935 1.47363685417e-38
0.00519115479043 -0.0553723177646 0.935 1.55564308238e-38
0.00692153972057 -0.0553723177646 0.935 1.54663889897e-38
0.00865192465071 -0.0553723177646 0.935 1.28813632658e-38
0.0103823095809 -0.0553723177646 0.935 1.3897293442e-38
0.012112694511 -0.0553723177646 0.935 1.40849104908e-38
0.0138430794411 -0.0553723177646 0.935 1.23368074722e-38
0.0156234327062 -0.0555499829552 0.938 1.34409858205e-38
0.0173593696735 -0.0555499829552 0.938 1.49171696748e-38
0.0190953066409 -0.0555499829552 0.938 1.44612207856e-38
0.0208756599059 -0.0556684264157 0.94 1.3720079633e-38
0.0226874747151 -0.0558460916064 0.943 1.47309875556e-38
0.0245103935987 -0.0560237567971 0.946 1.46380758622e-38
0.0263166563707 -0.0561422002575 0.948 1.66670663555e-38
0.0280711001288 -0.0561422002575 0.948 1.72191555296e-38
0.0298255438868 -0.0561422002575 0.948 1.84162455713e-38
0.0315133631984 -0.0560237567971 0.946 1.39937924595e-38
0.0332641055983 -0.0560237567971 0.946 2.34907158522e-38
0.0350148479982 -0.0560237567971 0.946 2.31172529958e-38
-0.0230002394779 -0.0548467249088 0.956 1.64827773905e-38
-0.0211865739896 -0.0547319828065 0.954 9.09171411964e-39
-0.0193599537478 -0.054559869653 0.951 8.35703015038e-39
-0.0175999579526 -0.054559869653 0.951 1.23192758271e-38
-0.0157899938224 -0.0543877564995 0.948 1.37191015267e-38
-0.0140059391993 -0.0542730143972 0.946 1.33510294656e-38
-0.0122551967994 -0.0542730143972 0.946 1.36269030943e-38
-0.0105044543995 -0.0542730143972 0.946 1.40857358556e-38
-0.0087259518135 -0.0541009012437 0.943 1.39027669138e-38
-0.0069807614508 -0.0541009012437 0.943 1.29821768812e-38
-0.00521891497647 -0.0539287880902 0.94 1.21539029901e-38
-0.00347927665098 -0.0539287880902 0.94 1.15038826715e-38
-0.00173593696735 -0.0538140459879 0.938 1.04825196611e-38
0.0 -0.0538140459879 0.938 5.8821352754e-39
0.00173593696735 -0.0538140459879 0.938 4.51213761487e-39
0.0034718739347 -0.0538140459879 0.938 1.47399726813e-38
0.00519115479043 -0.0536419328344 0.935 1.52816418001e-38
0.00692153972057 -0.0536419328344 0.935 1.54663889897e-38
0.00865192465071 -0.0536419328344 0.935 1.51912412336e-38
0.0104156218041 -0.0538140459879 0.938 1.54681826517e-38
0.012112694511 -0.0536419328344 0.935 1.33509439864e-38
0.0138430794411 -0.0536419328344 0.935 1.37225907599e-38
0.0156234327062 -0.0538140459879 0.938 1.4365439233e-38
0.0173593696735 -0.0538140459879 0.938 1.22435370464e-38
0.0191360215804 -0.0539287880902 0.94 1.46405869891e-38
0.0208756599059 -0.0539287880902 0.94 1.42707338776e-38
0.0227596511988 -0.0542730143972 0.946 1.63901249374e-38
0.0245103935987 -0.0542730143972 0.946 1.71258851038e-38
0.0263166563707 -0.0543877564995 0.948 1.75872149791e-38
0.0280711001288 -0.0543877564995 0.948 1.66641964962e-38
0.0298255438868 -0.0543877564995 0.948 1.81385908923e-38
0.0315133631984 -0.0542730143972 0.946 1.48221055869e-38
0.0332641055983 -0.0542730143972 0.946 2.33059644587e-38
-0.0230002394779 -0.0530774757182 0.956 1.42711640762e-38
-0.0211865739896 -0.052966434974 0.954 9.1835496158e-39
-0.0194210261571 -0.052966434974 0.954 8.0815236619e-39
-0.0175999579526 -0.0527998738577 0.951 1.25018692209e-38
-0.0157899938224 -0.0526333127414 0.948 1.38116474812e-38
-0.0140355500644 -0.0526333127414 0.948 1.31655746203e-38
-0.0122551967994 -0.0525222719973 0.946 1.39017103348e-38
-0.0105044543995 -0.0525222719973 0.946 1.39942632958e-38
-0.0087259518135 -0.052355710881 0.943 1.46403291501e-38
-0.0069807614508 -0.052355710881 0.943 8.00618985646e-39
-0.00521891497647 -0.0521891497647 0.94 8.56366001673e-39
-0.00347927665098 -0.0521891497647 0.94 7.72817224114e-39
-0.00173593696735 -0.0520781090205 0.938 1.3715473565e-38
0.0 -0.0520781090205 0.938 1.40907875366e-38
0.00173593696735 -0.0520781090205 0.938 1.56120343469e-39
0.0034718739347 -0.0520781090205 0.938 1.4836115769e-38
0.00520781090205 -0.0520781090205 0.938 1.50994057374e-38
0.00694374786941 -0.0520781090205 0.938 1.53741947611e-38
0.00867968483676 -0.0520781090205 0.938 1.54663889897e-38
0.0104156218041 -0.0520781090205 0.938 1.60188368962e-38
0.0121515587715 -0.0520781090205 0.938 1.33484328595e-38
0.0138874957388 -0.0520781090205 0.938 1.36275266721e-38
0.0156234327062 -0.0520781090205 0.938 1.51937523605e-38
0.0173963832549 -0.0521891497647 0.94 1.473313995e-38
0.0191360215804 -0.0521891497647 0.94 1.62071714099e-38
0.0209422843524 -0.052355710881 0.943 1.70315384808e-38
0.0227596511988 -0.0525222719973 0.946 1.70318972132e-38
0.0245622126127 -0.0526333127414 0.948 1.76765393484e-38
0.0263166563707 -0.0526333127414 0.948 1.42682227507e-38
0.0280711001288 -0.0526333127414 0.948 1.60184781638e-38
0.0298255438868 -0.0526333127414 0.948 1.79538394989e-38
0.0315799876449 -0.0526333127414 0.948 1.53695312398e-38
0.0333344314029 -0.0526333127414 0.948 2.33963804395e-38
0.0353109566493 -0.052966434974 0.954 2.29321218505e-38
-0.0230002394779 -0.0513082265276 0.956 1.47317680788e-38
-0.0212309902873 -0.0513082265276 0.956 9.09171411964e-39
-0.0194210261571 -0.0512008871415 0.954 8.54070114269e-39
-0.0175999579526 -0.0510398780625 0.951 1.30561219999e-38
-0.0158399621573 -0.0510398780625 0.951 1.35361578083e-38
-0.0140355500644 -0.0508788689834 0.948 1.38091461634e-38
-0.0122551967994 -0.0507715295974 0.946 1.39006285324e-38
-0.0105044543995 -0.0507715295974 0.946 1.45467168075e-38
-0.00875371199954 -0.0507715295974 0.946 1.56559132057e-38
-0.0069807614508 -0.0506105205183 0.943 8.00730529004e-39
-0.0052355710881 -0.0506105205183 0.943 8.1023301415e-39
-0.00347927665098 -0.0504495114392 0.94 7.45876420358e-39
-0.00173963832549 -0.0504495114392 0.94 7.17823546141e-39
0.0 -0.0503421720532 0.938 1.22507901672e-38
0.00173593696735 -0.0503421720532 0.938 4.5917748079e-40
0.0034718739347 -0.0503421720532 0.938 1.50148738089e-38
0.00520781090205 -0.0503421720532 0.938 1.53770646204e-38
0.00694374786941 -0.0503421720532 0.938 1.54671064545e-38
0.00867968483676 -0.0503421720532 0.938 1.55589419506e-38
0.0104156218041 -0.0503421720532 0.938 1.62043015506e-38
0.0121515587715 -0.0503421720532 0.938 1.62968545116e-38
0.0138874957388 -0.0503421720532 0.938 1.59270014001e-38
0.0156567449294 -0.0504495114392 0.94 1.69407791819e-38
0.0173963832549 -0.0504495114392 0.94 1.69407791819e-38
0.0191970939897 -0.0506105205183 0.943 1.71240914418e-38
0.0210089087989 -0.0507715295974 0.946 1.59291537945e-38
0.0227596511988 -0.0507715295974 0.946 1.57451240698e-38
0.0245622126127 -0.0508788689834 0.948 1.73074037017e-38
0.0263166563707 -0.0508788689834 0.948 1.56475488551e-38
0.0281599327241 -0.0510398780625 0.951 1.48213881221e-38
0.0299199285194 -0.0510398780625 0.951 1.84169630362e-38
0.0316799243146 -0.0510398780625 0.951 1.83155034221e-38
0.0334399201099 -0.0510398780625 0.951 2.34881907123e-38
0.0353109566493 -0.0512008871415 0.954 2.34860355153e-38
-0.0230724159616 -0.0496944343788 0.959 1.41789502295e-38
-0.0212976147338 -0.0496944343788 0.959 8.72437213501e-39
-0.0194210261571 -0.0494353393091 0.954 8.26519465422e-39
-0.0175999579526 -0.0492798822672 0.951 1.32394314572e-38
-0.0158399621573 -0.0492798822672 0.951 1.42719249813e-38
-0.0140355500644 -0.0491244252253 0.948 1.38102055451e-38
-0.0122811063063 -0.0491244252253 0.948 1.35329194075e-38
-0.0105044543995 -0.0490207871974 0.946 1.39942436776e-38
-0.00875371199954 -0.0490207871974 0.946 1.5287500629e-38
-0.00700296959964 -0.0490207871974 0.946 1.37201973421e-38
-0.0052355710881 -0.0488653301556 0.943 5.33722074937e-39
-0.0034903807254 -0.0488653301556 0.943 7.18146405307e-39
-0.00173963832549 -0.0487098731137 0.94 7.36656997502e-39
0.0 -0.0486062350858 0.938 6.3524334608e-39
0.00173593696735 -0.0486062350858 0.938 1.93428513783e-39
0.0034718739347 -0.0486062350858 0.938 1.16047145038e-38
0.00520781090205 -0.0486062350858 0.938 1.50107988329e-38
0.00694374786941 -0.0486062350858 0.938 1.55585832182e-38
0.00867968483676 -0.0486062350858 0.938 1.55589419506e-38
0.0104378299529 -0.0487098731137 0.94 1.49139410831e-38
0.0121774682784 -0.0487098731137 0.94 1.5836959566e-38
0.0139171066039 -0.0487098731137 0.94 1.53770646204e-38
0.0156567449294 -0.0487098731137 0.94 1.39008807661e-38
0.017451903627 -0.0488653301556 0.943 1.34391921585e-38
0.019258166399 -0.0490207871974 0.946 1.53734772963e-38
0.0210089087989 -0.0490207871974 0.946 1.42700164128e-38
0.0228077688546 -0.0491244252253 0.948 1.5193393628e-38
0.0245622126127 -0.0491244252253 0.948 1.89665536952e-38
0.0263999369289 -0.0492798822672 0.951 1.90594555794e-38
0.0281599327241 -0.0492798822672 0.951 1.00208310534e-38
0.0299199285194 -0.0492798822672 0.951 1.58409056224e-38
0.0316799243146 -0.0492798822672 0.951 1.91488598228e-38
0.0336157346215 -0.049538977337 0.956 2.34889151836e-38
0.0353849838121 -0.049538977337 0.956 2.34838859234e-38
-0.0230724159616 -0.047919633151 0.959 1.40853294791e-38
-0.0212976147338 -0.047919633151 0.959 9.1835496158e-39
-0.0194617410967 -0.0477697281463 0.956 8.0815236619e-39
-0.0175999579526 -0.0475198864719 0.951 1.47149202674e-38
-0.0158399621573 -0.0475198864719 0.951 1.37183952723e-38
-0.0140355500644 -0.0473699814673 0.948 1.36254807763e-38
-0.0122811063063 -0.0473699814673 0.948 1.39027935385e-38
-0.0105266625483 -0.0473699814673 0.948 1.4547061527e-38
-0.00875371199954 -0.0472700447975 0.946 1.39949625437e-38
-0.00700296959964 -0.0472700447975 0.946 1.60196776753e-38
-0.0052355710881 -0.0471201397929 0.943 1.04025741824e-38
-0.0034903807254 -0.0471201397929 0.943 6.89376066277e-39
-0.00173963832549 -0.0469702347883 0.94 7.18182278548e-39
0.0 -0.0469702347883 0.94 9.664251041e-39
0.00173963832549 -0.0469702347883 0.94 5.61236850544e-39
0.00347927665098 -0.0469702347883 0.94 3.32042715796e-39
0.00521891497647 -0.0469702347883 0.94 1.52924079762e-38
0.00695855330196 -0.0469702347883 0.94 1.54663889897e-38
0.00869819162745 -0.0469702347883 0.94 1.59273601325e-38
0.0104711421762 -0.0471201397929 0.943 1.33448455355e-38
0.0122163325389 -0.0471201397929 0.943 1.48217468545e-38
0.0139615229016 -0.0471201397929 0.943 1.27923976289e-38
0.0157067132643 -0.0471201397929 0.943 1.35303101898e-38
0.017451903627 -0.0471201397929 0.943 1.33473566623e-38
0.019258166399 -0.0472700447975 0.946 1.61124660544e-38
0.0210089087989 -0.0472700447975 0.946 1.63904836698e-38
0.0228077688546 -0.0473699814673 0.948 1.62057364802e-38
0.0245622126127 -0.0473699814673 0.948 1.51804792614e-38
0.0263999369289 -0.0475198864719 0.951 1.33394645494e-38
0.0282487653195 -0.0476697914766 0.954 1.02041433133e-38
0.0300143131519 -0.0476697914766 0.954 9.00848820125e-39
0.0317798609844 -0.0476697914766 0.954 2.08098483198e-38
0.0336157346215 -0.0477697281463 0.956 2.34900180055e-38
0.0353849838121 -0.0477697281463 0.956 2.34842684779e-38
-0.0230724159616 -0.0461448319232 0.959 1.27034670244e-38
-0.0212976147338 -0.0461448319232 0.959 1.02855755697e-38
-0.0194617410967 -0.0460004789557 0.956 7.98968816575e-39
-0.0176554783247 -0.0459042436441 0.954 1.47149202674e-38
-0.0158399621573 -0.0457598906767 0.951 1.36272800435e-38
-0.0140799663621 -0.0457598906767 0.951 1.39027669138e-38
-0.0122811063063 -0.0456155377093 0.948 1.37176539854e-38
-0.0105266625483 -0.0456155377093 0.948 1.43619514011e-38
-0.00875371199954 -0.0455193023976 0.946 1.4363026197e-38
-0.00700296959964 -0.0455193023976 0.946 1.4916222397e-38
-0.00525222719973 -0.0455193023976 0.946 1.65750024476e-38
-0.00350148479982 -0.0455193023976 0.946 8.27706505351e-39
-0.0017451903627 -0.0453749494302 0.943 1.0030158096e-38
0.0 -0.0453749494302 0.943 1.12215084192e-38
0.0017451903627 -0.0453749494302 0.943 6.3366492349e-39
0.0034903807254 -0.0453749494302 0.943 1.56479075875e-39
0.0052355710881 -0.0453749494302 0.943 1.55683446633e-38
0.0069807614508 -0.0453749494302 0.943 1.5284152927e-38
0.0087259518135 -0.0453749494302 0.943 1.56511361792e-38
0.0104711421762 -0.0453749494302 0.943 1.54663889897e-38
0.0122163325389 -0.0453749494302 0.943 1.58351659039e-38
0.0139615229016 -0.0453749494302 0.943 1.62035840858e-38
0.0157566815992 -0.0455193023976 0.946 1.6112107322e-38
0.0175074239991 -0.0455193023976 0.946 1.66634790314e-38
0.019258166399 -0.0455193023976 0.946 1.7123373977e-38
0.0210089087989 -0.0455193023976 0.946 1.77687335769e-38
0.0228077688546 -0.0456155377093 0.948 1.85066461379e-38
0.0246399411336 -0.0457598906767 0.951 1.08451981244e-38
0.026483217487 -0.0459042436441 0.954 1.13076041969e-38
0.0282487653195 -0.0459042436441 0.954 9.56344723467e-39
0.0300143131519 -0.0459042436441 0.954 1.01123078172e-38
0.0318464854309 -0.0460004789557 0.956 2.21005843353e-38
0.0337212233285 -0.0461448319232 0.959 2.34918144702e-38
0.0354960245563 -0.0461448319232 0.959 2.31147334612e-38
-0.0231445924453 -0.0445088316256 0.962 1.2518715631e-38
-0.0212976147338 -0.0443700306954 0.959 1.07451117829e-38
-0.0194617410967 -0.0442312297651 0.956 7.80601717343e-39
-0.0176554783247 -0.0441386958117 0.954 1.53602896764e-38
-0.0158899304922 -0.0441386958117 0.954 1.35357836616e-38
-0.0140799663621 -0.0439998948814 0.951 1.35336200568e-38
-0.0122811063063 -0.0438610939512 0.948 1.39020508503e-38
-0.0105266625483 -0.0438610939512 0.948 1.45459923362e-38
-0.00877221879024 -0.0438610939512 0.948 1.40860861802e-38
-0.00701777503219 -0.0438610939512 0.948 1.46367432274e-38
-0.00525222719973 -0.0437685599977 0.946 1.60210999933e-38
-0.00350148479982 -0.0437685599977 0.946 1.06705164617e-38
-0.00175074239991 -0.0437685599977 0.946 1.23210232463e-38
0.0 -0.0437685599977 0.946 1.09456431983e-38
0.00175074239991 -0.0437685599977 0.946 9.1939528556e-39
0.00350148479982 -0.0437685599977 0.946 9.01422791976e-39
0.00525222719973 -0.0437685599977 0.946 8.64652860402e-39
0.00700296959964 -0.0437685599977 0.946 1.56586695598e-38
0.00875371199954 -0.0437685599977 0.946 1.58351659039e-38
0.0105044543995 -0.0437685599977 0.946 1.62954195819e-38
0.0122551967994 -0.0437685599977 0.946 1.62017904237e-38
0.0140059391993 -0.0437685599977 0.946 1.65702086056e-38
0.0157566815992 -0.0437685599977 0.946 1.55600181479e-38
0.0175074239991 -0.0437685599977 0.946 1.51894475716e-38
0.019258166399 -0.0437685599977 0.946 1.71240914418e-38
0.0210089087989 -0.0437685599977 0.946 1.8228987255e-38
0.0228077688546 -0.0438610939512 0.948 1.73066862369e-38
0.0246399411336 -0.0439998948814 0.951 1.09449257335e-38
0.026483217487 -0.0441386958117 0.954 1.16825005815e-38
0.0282487653195 -0.0441386958117 0.954 9.28542961935e-39
0.0300143131519 -0.0441386958117 0.954 1.35213558926e-38
0.0318464854309 -0.0442312297651 0.956 2.24686634029e-38
0.0337212233285 -0.0443700306954 0.959 2.34896536679e-38
0.0354960245563 -0.0443700306954 0.959 2.34863844386e-38
-0.0249249457103 -0.0427284783606 0.962 2.34871299294e-38
-0.0231445924453 -0.0427284783606 0.962 1.23350404348e-38
-0.0212976147338 -0.0425952294675 0.959 9.36722060812e-39
-0.0194617410967 -0.0424619805745 0.956 7.71418167727e-39
-0.0176924919061 -0.0424619805745 0.956 1.58201930298e-38
-0.0158899304922 -0.0423731479792 0.954 1.32584751033e-38
-0.0140799663621 -0.0422398990862 0.951 1.39013291816e-38
-0.0123199705668 -0.0422398990862 0.951 1.38094810738e-38
-0.0105266625483 -0.0421066501932 0.948 1.51924337386e-38
-0.00877221879024 -0.0421066501932 0.948 1.39949653463e-38
-0.00701777503219 -0.0421066501932 0.948 1.4639610284e-38
-0.00526333127414 -0.0421066501932 0.948 1.51931371904e-38
-0.00350148479982 -0.0420178175978 0.946 1.14091927303e-38
-0.00175074239991 -0.0420178175978 0.946 1.42606935741e-38
0.0 -0.0420178175978 0.946 1.1126085599e-38
0.00175074239991 -0.0420178175978 0.946 1.02963375419e-38
0.00350148479982 -0.0420178175978 0.946 1.03853031788e-38
0.00525222719973 -0.0420178175978 0.946 5.96930725027e-39
0.00700296959964 -0.0420178175978 0.946 1.52928129515e-38
0.00875371199954 -0.0420178175978 0.946 1.57472764642e-38
0.0105044543995 -0.0420178175978 0.946 1.61092374628e-38
0.0122551967994 -0.0420178175978 0.946 1.64783731094e-38
0.0140059391993 -0.0420178175978 0.946 1.6850019883e-38
0.0157566815992 -0.0420178175978 0.946 1.17800547767e-38
0.0175074239991 -0.0420178175978 0.946 1.34366810316e-38
0.0192988813385 -0.0421066501932 0.948 1.73981630007e-38
0.0210533250966 -0.0421066501932 0.948 1.00179611942e-38
0.0228799453383 -0.0422398990862 0.951 1.27715911493e-38
0.0246399411336 -0.0422398990862 0.951 1.22309814121e-38
0.026483217487 -0.0423731479792 0.954 1.29710561766e-38
0.0283079870497 -0.0424619805745 0.956 1.0113748352e-38
0.0300772362403 -0.0424619805745 0.956 1.45333344072e-38
0.0319464221007 -0.0425952294675 0.959 2.34839209559e-38
0.0337212233285 -0.0425952294675 0.959 2.34875012735e-38
0.0356070653005 -0.0427284783606 0.962 2.34853334648e-38
-0.0230724159616 -0.0408204282397 0.959 1.2334684505e-38
-0.0212976147338 -0.0408204282397 0.959 9.64272709659e-39
-0.019522813506 -0.0408204282397 0.959 7.16316870032e-39
-0.0176924919061 -0.0406927313839 0.956 1.6190420288e-38
-0.0159232427154 -0.0406927313839 0.956 1.38116474812e-38
-0.0141243826597 -0.0406076001467 0.954 1.37169379219e-38
-0.0123199705668 -0.0404799032909 0.951 1.40856980206e-38
-0.0105599747715 -0.0404799032909 0.951 1.41775587401e-38
-0.00877221879024 -0.0403522064351 0.948 1.44541680505e-38
-0.00701777503219 -0.0403522064351 0.948 1.48240113528e-38
-0.00526333127414 -0.0403522064351 0.948 1.43630233944e-38
-0.00350148479982 -0.0402670751979 0.946 1.63913146397e-38
-0.00175074239991 -0.0402670751979 0.946 1.01195076887e-38
0.0 -0.0402670751979 0.946 1.30506891657e-38
0.00175444375805 -0.0403522064351 0.948 1.08365885466e-38
0.0035088875161 -0.0403522064351 0.948 8.44994184376e-39
0.00525222719973 -0.0402670751979 0.946 7.0785078523e-39
0.00700296959964 -0.0402670751979 0.946 6.43781177364e-39
0.00875371199954 -0.0402670751979 0.946 1.58448783036e-38
0.0105044543995 -0.0402670751979 0.946 1.5285946589e-38
0.0122811063063 -0.0403522064351 0.948 1.49186046044e-38
0.0140355500644 -0.0403522064351 0.948 1.243187156e-38
0.0157899938224 -0.0403522064351 0.948 1.04922054361e-38
0.0175444375805 -0.0403522064351 0.948 1.76772820366e-38
0.0192988813385 -0.0403522064351 0.948 1.71258851038e-38
0.0210533250966 -0.0403522064351 0.948 1.68457150941e-38
0.0228799453383 -0.0404799032909 0.951 1.16756636463e-38
0.0247176696545 -0.0406076001467 0.954 1.14023095523e-38
0.0265387378591 -0.0406927313839 0.956 1.04818021963e-38
0.0283079870497 -0.0406927313839 0.956 1.22367211306e-38
0.0300772362403 -0.0406927313839 0.956 1.36164059675e-38
0.0319464221007 -0.0408204282397 0.959 2.34839559884e-38
0.0338267120354 -0.0409481250955 0.962 2.34874886618e-38
-0.0230724159616 -0.0390456270119 0.959 1.15045679064e-38
-0.0212976147338 -0.0390456270119 0.959 1.01937400735e-38
-0.019522813506 -0.0390456270119 0.959 6.9795089184e-39
-0.0176924919061 -0.0389234821933 0.956 1.58212776348e-38
-0.0159232427154 -0.0389234821933 0.956 1.39031172385e-38
-0.0141243826597 -0.0388420523143 0.954 1.40857134348e-38
-0.0123199705668 -0.0387199074957 0.951 1.37187357878e-38
-0.0105599747715 -0.0387199074957 0.951 1.50091214787e-38
-0.00879997897629 -0.0387199074957 0.951 1.39942436776e-38
-0.00703998318103 -0.0387199074957 0.951 1.4822209283e-38
-0.00526333127414 -0.0385977626771 0.948 1.53753830622e-38
-0.0035088875161 -0.0385977626771 0.948 1.64831753593e-38
-0.00175444375805 -0.0385977626771 0.948 1.38091307492e-38
0.0 -0.0385977626771 0.948 1.0478932337e-38
0.00175444375805 -0.0385977626771 0.948 1.16634667445e-38
0.0035088875161 -0.0385977626771 0.948 6.42848473106e-39
0.00526333127414 -0.0385977626771 0.948 1.00215751429e-38
0.00701777503219 -0.0385977626771 0.948 6.52032022722e-39
0.00877221879024 -0.0385977626771 0.948 1.23421982674e-38
0.0105266625483 -0.0385977626771 0.948 1.09589162974e-38
0.0122811063063 -0.0385977626771 0.948 9.7636199177e-39
0.0140355500644 -0.0385977626771 0.948 7.355090538e-39
0.0157899938224 -0.0385977626771 0.948 1.34366964459e-38
0.0175444375805 -0.0385977626771 0.948 1.32479877856e-38
0.0193599537478 -0.0387199074957 0.951 1.12118226442e-38
0.0211199495431 -0.0387199074957 0.951 1.43464264154e-38
0.0229521218221 -0.0388420523143 0.954 1.0480725999e-38
0.0247694886685 -0.0389234821933 0.956 1.05765075517e-38
0.0265387378591 -0.0389234821933 0.956 1.38029580294e-38
0.0283079870497 -0.0389234821933 0.956 1.3159385085e-38
0.0300772362403 -0.0389234821933 0.956 1.5277697145e-38
0.0319464221007 -0.0390456270119 0.959 2.34900138016e-38
0.0338267120354 -0.0391677718305 0.962 2.33020141984e-38
-0.0231445924453 -0.0373874185655 0.962 1.16889423506e-38
-0.0213642391803 -0.0373874185655 0.962 9.55089160043e-39
-0.019522813506 -0.0372708257841 0.959 7.07134301325e-39
-0.0177480122781 -0.0372708257841 0.959 1.66495907623e-38
-0.0159232427154 -0.0371542330027 0.956 1.36261842281e-38
-0.0141539935248 -0.0371542330027 0.956 1.40853603076e-38
-0.0123588348273 -0.0370765044818 0.954 1.39024137866e-38
-0.0105599747715 -0.0369599117004 0.951 1.42704970581e-38
-0.00879997897629 -0.0369599117004 0.951 1.46396130866e-38
-0.00703998318103 -0.0369599117004 0.951 1.52824657636e-38
-0.00527998738577 -0.0369599117004 0.951 1.50055187403e-38
-0.00351999159051 -0.0369599117004 0.951 1.54668303987e-38
-0.00175444375805 -0.036843318919 0.948 1.51927868658e-38
0.0 -0.036843318919 0.948 1.53756338946e-38
0.00175444375805 -0.036843318919 0.948 1.23321803846e-38
0.0035088875161 -0.036843318919 0.948 6.97949770801e-39
0.00526333127414 -0.036843318919 0.948 1.13105132925e-38
0.00701777503219 -0.036843318919 0.948 1.40870628853e-38
0.00877221879024 -0.036843318919 0.948 1.03142895765e-38
0.0105266625483 -0.036843318919 0.948 7.92117027603e-39
0.0122811063063 -0.036843318919 0.948 9.84899823054e-39
0.0140799663621 -0.0369599117004 0.951 1.36210694887e-38
0.0158399621573 -0.0369599117004 0.951 1.27859404456e-38
0.0175999579526 -0.0369599117004 0.951 1.20491040819e-38
0.0193599537478 -0.0369599117004 0.951 1.20494628143e-38
0.0211865739896 -0.0370765044818 0.954 9.28399468972e-39
0.0230002394779 -0.0371542330027 0.956 6.98129137004e-39
0.0247694886685 -0.0371542330027 0.956 1.08573950262e-38
0.0265387378591 -0.0371542330027 0.956 1.45401517242e-38
0.028396819645 -0.0372708257841 0.959 1.35263641333e-38
0.0301716208728 -0.0372708257841 0.959 1.79513830227e-38
0.0319464221007 -0.0372708257841 0.959 2.3487869815e-38
0.0338267120354 -0.0373874185655 0.962 2.31161992194e-38
-0.0231445924453 -0.0356070653005 0.962 1.07669944597e-38
-0.0213642391803 -0.0356070653005 0.962 1.00100690812e-38
-0.019522813506 -0.0354960245563 0.959 7.16316870032e-39
-0.0177480122781 -0.0354960245563 0.959 1.67421451246e-38
-0.0159732110503 -0.0354960245563 0.959 1.43619514011e-38
-0.0141539935248 -0.0353849838121 0.956 1.3809486679e-38
-0.0123847443342 -0.0353849838121 0.956 1.43623073309e-38
-0.0105932869948 -0.0353109566493 0.954 1.47314555893e-38
-0.00882773916233 -0.0353109566493 0.954 1.39024137866e-38
-0.00706219132986 -0.0353109566493 0.954 1.50048152885e-38
-0.0052966434974 -0.0353109566493 0.954 1.5282115439e-38
-0.00351999159051 -0.0351999159051 0.951 1.50998695672e-38
-0.00175999579526 -0.0351999159051 0.951 1.44573840304e-38
0.0 -0.0351999159051 0.951 9.46587202e-39
0.00175999579526 -0.0351999159051 0.951 1.81404658297e-38
0.0035088875161 -0.035088875161 0.948 9.19971499488e-39
0.00526333127414 -0.035088875161 0.948 1.29883285815e-38
0.00701777503219 -0.035088875161 0.948 8.56545367877e-39
0.00877221879024 -0.035088875161 0.948 7.54808857289e-39
0.0105266625483 -0.035088875161 0.948 1.11382839021e-38
0.0123199705668 -0.0351999159051 0.951 1.3070062117e-38
0.0140799663621 -0.0351999159051 0.951 1.40781001803e-38
0.0158399621573 -0.0351999159051 0.951 1.26072917069e-38
0.0176554783247 -0.0353109566493 0.954 9.65851132249e-39
0.0194210261571 -0.0353109566493 0.954 7.44513237212e-39
0.0212309902873 -0.0353849838121 0.956 6.89591305721e-39
0.0230002394779 -0.0353849838121 0.956 6.52821234017e-39
0.0248472171894 -0.0354960245563 0.959 1.04907705064e-38
0.0266220184172 -0.0354960245563 0.959 1.27906432032e-38
0.028396819645 -0.0354960245563 0.959 1.26980510059e-38
0.0301716208728 -0.0354960245563 0.959 1.8873699455e-38
0.0320463587704 -0.0356070653005 0.962 2.3487132732e-38
0.0338267120354 -0.0356070653005 0.962 2.34846075921e-38
-0.0233370630686 -0.034108015254 0.97 1.0490411774e-38
-0.021541904371 -0.034108015254 0.97 8.81620763117e-39
-0.0195838859153 -0.0338267120354 0.962 7.07133320417e-39
-0.0178035326502 -0.0338267120354 0.962 1.73871614064e-38
-0.0159732110503 -0.0337212233285 0.959 1.33506763384e-38
-0.0141984098225 -0.0337212233285 0.959 1.39023955697e-38
-0.0123847443342 -0.0336157346215 0.956 1.40867952373e-38
-0.0106154951436 -0.0336157346215 0.956 1.45484894501e-38
-0.00882773916233 -0.0335454088169 0.954 1.42715718541e-38
-0.00706219132986 -0.0335454088169 0.954 1.46392599594e-38
-0.0052966434974 -0.0335454088169 0.954 1.49140517857e-38
-0.00353109566493 -0.0335454088169 0.954 1.54700968254e-38
-0.00175999579526 -0.0334399201099 0.951 1.52871376927e-38
0.0 -0.0334399201099 0.951 1.61179675522e-38
0.00175999579526 -0.0334399201099 0.951 1.04919461958e-38
0.0035088875161 -0.0333344314029 0.948 7.6374129422e-39
0.00526333127414 -0.0333344314029 0.948 7.08962855692e-39
0.00701777503219 -0.0333344314029 0.948 5.2450265208e-39
0.00877221879024 -0.0333344314029 0.948 1.03175111617e-38
0.0105266625483 -0.0333344314029 0.948 1.17818484387e-38
0.0123199705668 -0.0334399201099 0.951 1.25125863515e-38
0.0140799663621 -0.0334399201099 0.951 1.12265306729e-38
0.0158899304922 -0.0335454088169 0.954 7.53230995218e-39
0.0176554783247 -0.0335454088169 0.954 5.88177654299e-39
0.0194210261571 -0.0335454088169 0.954 4.96342158141e-39
0.0212309902873 -0.0336157346215 0.956 8.55614345177e-39
0.0230002394779 -0.0336157346215 0.956 6.89663052202e-39
0.0248472171894 -0.0337212233285 0.959 8.09444503504e-39
0.0266220184172 -0.0337212233285 0.959 8.37140186743e-39
0.028396819645 -0.0337212233285 0.959 1.32544505741e-38
0.0301716208728 -0.0337212233285 0.959 1.96123939405e-38
0.0320463587704 -0.0338267120354 0.962 2.34849985544e-38
0.0338970378401 -0.0338970378401 0.964 2.34827957132e-38
-0.0232648865848 -0.0322129198867 0.967 1.04896943092e-38
-0.0214752799245 -0.0322129198867 0.967 8.99987862348e-39
-0.0196856732641 -0.0322129198867 0.967 7.07133320417e-39
-0.0178405462316 -0.0321129832169 0.964 1.68357868945e-38
-0.0160231793852 -0.0320463587704 0.962 1.3259196772e-38
-0.0141984098225 -0.0319464221007 0.959 1.36265345528e-38
-0.0124236085947 -0.0319464221007 0.959 1.43644681332e-38
-0.0106488073669 -0.0319464221007 0.959 1.43641023943e-38
-0.00884624595303 -0.0318464854309 0.956 1.39946094165e-38
-0.00707699676242 -0.0318464854309 0.956 1.44545029608e-38
-0.0052966434974 -0.0317798609844 0.954 1.51909861973e-38
-0.00353109566493 -0.0317798609844 0.954 1.53761019283e-38
-0.00176554783247 -0.0317798609844 0.954 1.58374556256e-38
0.0 -0.0316799243146 0.951 1.28911359213e-38
0.00175999579526 -0.0316799243146 0.951 5.69631188864e-39
0.00351999159051 -0.0316799243146 0.951 7.73357284542e-39
0.00527998738577 -0.0316799243146 0.951 1.21567574351e-38
0.00703998318103 -0.0316799243146 0.951 6.98667235614e-39
0.00879997897629 -0.0316799243146 0.951 1.1139358698e-38
0.0105599747715 -0.0316799243146 0.951 1.23346550777e-38
0.0123199705668 -0.0316799243146 0.951 1.27898977124e-38
0.0141243826597 -0.0317798609844 0.954 1.22410273208e-38
0.0158899304922 -0.0317798609844 0.954 6.43099585791e-39
0.0176554783247 -0.0317798609844 0.954 5.51192343151e-39
0.0194617410967 -0.0318464854309 0.956 1.92854541932e-39
0.0212309902873 -0.0318464854309 0.956 1.68532975201e-38
0.0230724159616 -0.0319464221007 0.959 2.47955839627e-39
0.0248472171894 -0.0319464221007 0.959 6.52965707889e-39
0.0266220184172 -0.0319464221007 0.959 5.23463589269e-39
0.028396819645 -0.0319464221007 0.959 1.46341956668e-38
0.0301716208728 -0.0319464221007 0.959 1.80497177411e-38
0.0321129832169 -0.0321129832169 0.964 2.34839069429e-38
0.0338970378401 -0.0321129832169 0.964 2.33923979493e-38
-0.0232648865848 -0.0304233132263 0.967 5.97253584193e-39
-0.0214752799245 -0.0304233132263 0.967 8.81620763117e-39
-0.0197467456734 -0.0305176978589 0.97 7.34683969264e-39
-0.0178960666037 -0.0304233132263 0.967 1.6651744558e-38
-0.0160564916085 -0.0303289285938 0.964 1.34435908343e-38
-0.0142428261202 -0.0302660055054 0.962 1.34414426438e-38
-0.0124624728552 -0.0302660055054 0.962 1.46396256983e-38
-0.0106488073669 -0.0301716208728 0.959 1.42719067644e-38
-0.00887400613907 -0.0301716208728 0.959 1.40871595749e-38
-0.00707699676242 -0.0300772362403 0.956 1.51005884333e-38
-0.00530774757182 -0.0300772362403 0.956 1.49154769062e-38
-0.00353849838121 -0.0300772362403 0.956 1.50076739374e-38
-0.00176924919061 -0.0300772362403 0.956 1.54682975582e-38
0.0 -0.0300772362403 0.956 1.45499383927e-38
0.00176554783247 -0.0300143131519 0.954 8.18340366545e-39
0.00353109566493 -0.0300143131519 0.954 1.0761986219e-38
0.0052966434974 -0.0300143131519 0.954 7.71418167727e-39
0.00706219132986 -0.0300143131519 0.954 1.0103339507e-38
0.00882773916233 -0.0300143131519 0.954 1.18754832021e-38
0.0105932869948 -0.0300143131519 0.954 1.32558798986e-38
0.0123588348273 -0.0300143131519 0.954 1.28813632658e-38
0.0141539935248 -0.0300772362403 0.956 1.4629469087e-38
0.0159232427154 -0.0300772362403 0.956 6.34131275619e-39
0.0176924919061 -0.0300772362403 0.956 2.66322938858e-39
0.0194617410967 -0.0300772362403 0.956 1.27002874782e-38
0.0212976147338 -0.0301716208728 0.959 2.01734836547e-38
0.0230724159616 -0.0301716208728 0.959 1.362688768e-38
0.0248472171894 -0.0301716208728 0.959 5.78563625795e-39
0.0267052989754 -0.0302660055054 0.962 7.4390339212e-39
0.0284856522404 -0.0302660055054 0.962 1.80484103296e-38
0.0303289285938 -0.0303289285938 0.964 8.45460536505e-39
0.0321129832169 -0.0303289285938 0.964 2.34857174205e-38
0.0338970378401 -0.0303289285938 0.964 2.3208379435e-38
-0.0252099502871 -0.0288113717566 0.973 2.3026503506e-38
-0.0233370630686 -0.0287225391613 0.97 5.88070034577e-39
-0.021541904371 -0.0287225391613 0.97 9.27898504771e-39
-0.0198078180827 -0.0288113717566 0.973 6.70399121953e-39
-0.0178960666037 -0.028633706566 0.967 1.7208865795e-38
-0.0160564916085 -0.0285448739706 0.964 1.37219727873e-38
-0.0142428261202 -0.0284856522404 0.962 1.38105530671e-38
-0.0124624728552 -0.0284856522404 0.962 1.37190987241e-38
-0.0106488073669 -0.028396819645 0.959 1.44552162217e-38
-0.00887400613907 -0.028396819645 0.959 1.47300136532e-38
-0.00709920491126 -0.028396819645 0.959 1.50062530207e-38
-0.00532440368344 -0.028396819645 0.959 1.5653046149e-38
-0.00354960245563 -0.028396819645 0.959 1.51920679997e-38
-0.00176924919061 -0.0283079870497 0.956 1.56537594099e-38
0.0 -0.0283079870497 0.956 1.61140172918e-38
0.00176554783247 -0.0282487653195 0.954 1.53753956739e-38
0.00353109566493 -0.0282487653195 0.954 1.37169351193e-38
0.00530774757182 -0.0283079870497 0.956 1.10349675676e-38
0.00706219132986 -0.0282487653195 0.954 1.25133122241e-38
0.00882773916233 -0.0282487653195 0.954 1.4451921769e-38
0.0105932869948 -0.0282487653195 0.954 1.15931551927e-38
0.0123588348273 -0.0282487653195 0.954 1.25104339571e-38
0.0141539935248 -0.0283079870497 0.956 1.45387097881e-38
0.0159232427154 -0.0283079870497 0.956 4.77544580022e-39
0.0176924919061 -0.0283079870497 0.956 1.19386145005e-39
0.0194617410967 -0.0283079870497 0.956 1.79514825149e-38
0.0212976147338 -0.028396819645 0.959 1.79583194501e-38
0.0230724159616 -0.028396819645 0.959 1.89677854365e-38
0.0249249457103 -0.0284856522404 0.962 1.94305460375e-38
0.0267052989754 -0.0284856522404 0.962 1.77771581833e-38
0.0285448739706 -0.0285448739706 0.964 8.36061747445e-39
0.0303289285938 -0.0285448739706 0.964 1.34998179352e-38
0.0321129832169 -0.0285448739706 0.964 2.34889348018e-38
-0.0252099502871 -0.0270106610218 0.973 2.23804278425e-38
-0.0233370630686 -0.0269273804637 0.97 5.32789370679e-39
-0.021541904371 -0.0269273804637 0.97 6.79582671569e-39
-0.0198078180827 -0.0270106610218 0.973 9.27717877399e-39
-0.0178960666037 -0.0268440999056 0.967 6.97949770801e-39
-0.0160564916085 -0.0267608193474 0.964 1.29703653364e-38
-0.0142428261202 -0.0267052989754 0.962 1.51913673505e-38
-0.0124624728552 -0.0267052989754 0.962 1.47307325193e-38
-0.0106488073669 -0.0266220184172 0.959 1.47318255321e-38
-0.00887400613907 -0.0266220184172 0.959 1.49147580401e-38
-0.00709920491126 -0.0266220184172 0.959 1.50066005428e-38
-0.00532440368344 -0.0266220184172 0.959 1.47328821111e-38
-0.00354960245563 -0.0266220184172 0.959 1.55604749712e-38
-0.00177480122781 -0.0266220184172 0.959 1.53771809281e-38
0.0 -0.0265387378591 0.956 1.54690402464e-38
0.00176924919061 -0.0265387378591 0.956 1.50048180911e-38
0.00353849838121 -0.0265387378591 0.956 1.44516317002e-38
0.00530774757182 -0.0265387378591 0.956 1.49136608234e-38
0.00707699676242 -0.0265387378591 0.956 9.55093784328e-39
0.00884624595303 -0.0265387378591 0.956 1.60142686633e-38
0.0106154951436 -0.0265387378591 0.956 9.11041584895e-39
0.0123847443342 -0.0265387378591 0.956 7.81570294841e-39
0.0141539935248 -0.0265387378591 0.956 8.91808903602e-39
0.0159232427154 -0.0265387378591 0.956 7.4386751888e-39
0.0176924919061 -0.0265387378591 0.956 1.26916512758e-38
0.019522813506 -0.0266220184172 0.959 1.79562118972e-38
0.0212976147338 -0.0266220184172 0.959 1.85096645348e-38
0.0231445924453 -0.0267052989754 0.962 1.99833470713e-38
0.0249249457103 -0.0267052989754 0.962 1.49107895628e-38
0.0267608193474 -0.0267608193474 0.964 9.46084976631e-39
0.0285448739706 -0.0267608193474 0.964 1.22151971862e-38
0.0303289285938 -0.0267608193474 0.964 1.54344674107e-38
0.0322129198867 -0.0268440999056 0.967 2.34878515981e-38
-0.0252099502871 -0.0252099502871 0.973 2.09049278219e-38
-0.0233370630686 -0.0251322217661 0.97 6.6186129067e-39
-0.021541904371 -0.0251322217661 0.97 9.36973874146e-39
-0.0198078180827 -0.0252099502871 0.973 7.62234618111e-39
-0.0178960666037 -0.0250544932452 0.967 8.72437213501e-39
-0.0161064599433 -0.0250544932452 0.967 7.4386751888e-39
-0.0142724369853 -0.0249767647243 0.964 8.0815236619e-39
-0.0124624728552 -0.0249249457103 0.962 1.36135641342e-38
-0.0106821195901 -0.0249249457103 0.962 1.56541153397e-38
-0.00887400613907 -0.0248472171894 0.959 1.56541153397e-38
-0.00709920491126 -0.0248472171894 0.959 1.5472245016e-38
-0.00532440368344 -0.0248472171894 0.959 1.57474053837e-38
-0.00354960245563 -0.0248472171894 0.959 1.56541097345e-38
-0.00177480122781 -0.0248472171894 0.959 1.54693751567e-38
0.0 -0.0248472171894 0.959 1.57459578424e-38
0.00176924919061 -0.0247694886685 0.956 1.58385037969e-38
0.00353849838121 -0.0247694886685 0.956 1.62987588762e-38
0.00530774757182 -0.0247694886685 0.956 1.67590335737e-38
0.00707699676242 -0.0247694886685 0.956 8.63433030089e-39
0.00884624595303 -0.0247694886685 0.956 1.31533118575e-38
0.0106154951436 -0.0247694886685 0.956 1.18740791011e-38
0.0123847443342 -0.0247694886685 0.956 4.04076603485e-39
0.0141539935248 -0.0247694886685 0.956 1.4258646277e-38
0.0159732110503 -0.0248472171894 0.959 1.96203098755e-38
0.0177480122781 -0.0248472171894 0.959 1.94344962978e-38
0.019522813506 -0.0248472171894 0.959 1.90628200971e-38
0.0213642391803 -0.0249249457103 0.962 1.50069284466e-38
0.0231445924453 -0.0249249457103 0.962 9.36722060812e-39
0.0249767647243 -0.0249767647243 0.964 1.06529175543e-38
0.0267608193474 -0.0249767647243 0.964 1.39643820073e-38
0.0285448739706 -0.0249767647243 0.964 1.26751103487e-38
0.0303289285938 -0.0249767647243 0.964 1.66340867961e-38
0.0322129198867 -0.0250544932452 0.967 2.34874956683e-38
-0.0252099502871 -0.0234092395523 0.973 1.9153217861e-38
-0.0234092395523 -0.0234092395523 0.973 5.60268273045e-39
-0.0216085288175 -0.0234092395523 0.973 7.4386751888e-39
-0.0198485330222 -0.0234573572081 0.975 8.35703015038e-39
-0.0179515869758 -0.0233370630686 0.97 7.89785266959e-39
-0.0161064599433 -0.0232648865848 0.967 8.35703015038e-39
-0.0142724369853 -0.0231927101011 0.964 8.63253663885e-39
-0.0124883823621 -0.0231927101011 0.964 7.71418167727e-39
-0.0106821195901 -0.0231445924453 0.962 6.97949770801e-39
-0.00890176632512 -0.0231445924453 0.962 8.17335915806e-39
-0.00709920491126 -0.0230724159616 0.959 1.4343964334e-38
-0.00532440368344 -0.0230724159616 0.959 1.52820734001e-38
-0.00354960245563 -0.0230724159616 0.959 1.55601400608e-38
-0.00177480122781 -0.0230724159616 0.959 1.66679169436e-38
0.0 -0.0230724159616 0.959 1.69445010306e-38
0.00177480122781 -0.0230724159616 0.959 1.71288922903e-38
0.00354960245563 -0.0230724159616 0.959 1.72218095889e-38
0.00532440368344 -0.0230724159616 0.959 1.74062078551e-38
0.00707699676242 -0.0230002394779 0.956 1.81444889576e-38
0.00884624595303 -0.0230002394779 0.956 1.7406573594e-38
0.0106488073669 -0.0230724159616 0.959 1.88798889903e-38
0.0124236085947 -0.0230724159616 0.959 1.74062022499e-38
0.0141984098225 -0.0230724159616 0.959 1.72214410474e-38
0.0159732110503 -0.0230724159616 0.959 1.52810140184e-38
0.0177480122781 -0.0230724159616 0.959 9.27717877399e-39
0.0195838859153 -0.0231445924453 0.962 1.06529175543e-38
0.021408655478 -0.0231927101011 0.964 9.36722060812e-39
0.0231927101011 -0.0231927101011 0.964 1.21222854929e-38
0.0250544932452 -0.0232648865848 0.967 1.26761795394e-38
0.0268440999056 -0.0232648865848 0.967 1.3136064676e-38
0.028633706566 -0.0232648865848 0.967 1.3042464945e-38
0.0304233132263 -0.0232648865848 0.967 1.59905194569e-38
0.0323128565565 -0.0233370630686 0.97 2.3487118719e-38
-0.025261769301 -0.0216529451152 0.975 1.82348544916e-38
-0.0234573572081 -0.0216529451152 0.975 6.43530064679e-39
-0.0216529451152 -0.0216529451152 0.975 9.18534327783e-39
-0.0198485330222 -0.0216529451152 0.975 7.62234618111e-39
-0.0179515869758 -0.021541904371 0.97 8.17335915806e-39
-0.0161064599433 -0.0214752799245 0.967 8.0815236619e-39
-0.014316853283 -0.0214752799245 0.967 8.44886564654e-39
-0.0124883823621 -0.021408655478 0.964 8.63253663885e-39
-0.010704327739 -0.021408655478 0.964 8.54070114269e-39
-0.00890176632512 -0.0213642391803 0.962 8.81620763117e-39
-0.00712141306009 -0.0213642391803 0.962 8.54070114269e-39
-0.00534105979507 -0.0213642391803 0.962 8.35703015038e-39
-0.00356070653005 -0.0213642391803 0.962 8.17335915806e-39
-0.00177480122781 -0.0212976147338 0.959 8.54070114269e-39
0.0 -0.0212976147338 0.959 8.81620763117e-39
0.00177480122781 -0.0212976147338 0.959 9.73456259275e-39
0.00354960245563 -0.0212976147338 0.959 1.03774110659e-38
0.00532440368344 -0.0212976147338 0.959 1.05610820582e-38
0.00709920491126 -0.0212976147338 0.959 1.02855755697e-38
0.00887400613907 -0.0212976147338 0.959 9.55089160043e-39
0.0106488073669 -0.0212976147338 0.959 9.73456259275e-39
0.0124236085947 -0.0212976147338 0.959 9.55089160043e-39
0.0141984098225 -0.0212976147338 0.959 9.45905610427e-39
0.0159732110503 -0.0212976147338 0.959 9.82639808891e-39
0.0177480122781 -0.0212976147338 0.959 1.1020259539e-38
0.0195838859153 -0.0213642391803 0.962 1.17549435082e-38
0.021408655478 -0.021408655478 0.964 1.19386145005e-38
0.0232648865848 -0.0214752799245 0.967 1.2214120989e-38
0.0250544932452 -0.0214752799245 0.967 1.22169908483e-38
0.0269273804637 -0.021541904371 0.97 1.39636757529e-38
0.0287225391613 -0.021541904371 0.97 1.40630614452e-38
0.0305176978589 -0.021541904371 0.97 1.61759827099e-38
0.0323128565565 -0.021541904371 0.97 2.34853222544e-38
-0.0253394978219 -0.0199096054315 0.978 1.69441156735e-38
-0.0234573572081 -0.0198485330222 0.975 5.97181837712e-39
-0.0216529451152 -0.0198485330222 0.975 7.98968816575e-39
-0.0199096054315 -0.0199096054315 0.978 8.35774761519e-39
-0.0180071073479 -0.0198078180827 0.973 8.26519465422e-39
-0.0161064599433 -0.0196856732641 0.967 8.54070114269e-39
-0.014316853283 -0.0196856732641 0.967 8.17335915806e-39
-0.0124883823621 -0.0196246008548 0.964 8.35703015038e-39
-0.010704327739 -0.0196246008548 0.964 8.54070114269e-39
-0.00890176632512 -0.0195838859153 0.962 8.90804312733e-39
-0.00712141306009 -0.0195838859153 0.962 8.99987862348e-39
-0.00534105979507 -0.0195838859153 0.962 9.27538511196e-39
-0.00356070653005 -0.0195838859153 0.962 9.73456259275e-39
-0.00177480122781 -0.019522813506 0.959 1.01019045774e-38
0.0 -0.019522813506 0.959 9.91823358506e-39
0.00177480122781 -0.019522813506 0.959 9.82639808891e-39
0.00354960245563 -0.019522813506 0.959 1.02855755697e-38
0.00532440368344 -0.019522813506 0.959 1.01019045774e-38
0.00709920491126 -0.019522813506 0.959 1.02855755697e-38
0.00887400613907 -0.019522813506 0.959 1.07447530505e-38
0.0106488073669 -0.019522813506 0.959 1.08365885466e-38
0.0124236085947 -0.019522813506 0.959 1.07447530505e-38
0.0141984098225 -0.019522813506 0.959 1.11120950351e-38
