# .PCD v0.7 - Point Cloud Data file format
VERSION 0.7
FIELDS x y z rgb
SIZE 4 4 4 4
TYPE F F F F
COUNT 1 1 1 1
WIDTH 853
HEIGHT 1
VIEWPOINT 0 0 0 1 0 0 0
POINTS 853
DATA ascii
0.023163099236 -0.135669581239 0.894 1.02855755697e-38
0.0248176063243 -0.135669581239 0.894 1.01937400735e-38
0.0264721134126 -0.135669581239 0.894 1.03774110659e-38
0.0281895435892 -0.135973092607 0.896 1.07447530505e-38
0.0298477520357 -0.135973092607 0.896 1.06529175543e-38
0.0315059604821 -0.135973092607 0.896 9.73456259275e-39
0.0331641689285 -0.135973092607 0.896 2.34730819123e-38
-0.0234740133197 -0.135813934207 0.906 2.20951290804e-38
-0.0217972980826 -0.135813934207 0.906 5.6938007618e-39
-0.020053958399 -0.135364219193 0.903 5.78563625795e-39
-0.0183420802595 -0.135064409184 0.901 6.70399121953e-39
-0.0166190980456 -0.13461469417 0.898 6.97949770801e-39
-0.0149238760178 -0.13431488416 0.896 7.07133320417e-39
-0.0132656675714 -0.13431488416 0.896 6.97949770801e-39
-0.011607459125 -0.13431488416 0.896 6.97949770801e-39
-0.00992704252972 -0.134015074151 0.894 7.53051068496e-39
-0.00827253544143 -0.134015074151 0.894 7.62234618111e-39
-0.00659582020431 -0.133565359137 0.891 7.80601717343e-39
-0.00494686515323 -0.133565359137 0.891 7.71418167727e-39
-0.00329050738588 -0.133265549128 0.889 8.26519465422e-39
-0.00164525369294 -0.133265549128 0.889 8.26519465422e-39
0.0 -0.133265549128 0.889 8.35703015038e-39
0.00164525369294 -0.133265549128 0.889 8.54070114269e-39
0.00329050738588 -0.133265549128 0.889 8.81620763117e-39
0.00493576107881 -0.133265549128 0.889 8.35703015038e-39
0.00658101477175 -0.133265549128 0.889 8.63253663885e-39
0.00822626846469 -0.133265549128 0.889 8.90804312733e-39
0.00987152215763 -0.133265549128 0.889 8.72437213501e-39
0.0115167758506 -0.133265549128 0.889 8.63253663885e-39
0.0131620295435 -0.133265549128 0.889 8.90804312733e-39
0.0148072832364 -0.133265549128 0.889 9.55089160043e-39
0.0164525369294 -0.133265549128 0.889 9.82639808891e-39
0.0180977906223 -0.133265549128 0.889 9.55089160043e-39
0.0197874606129 -0.133565359137 0.891 9.45905610427e-39
0.021436415664 -0.133565359137 0.891 9.64272709659e-39
0.023163099236 -0.134015074151 0.894 1.03774110659e-38
0.0248176063243 -0.134015074151 0.894 1.0469246562e-38
0.0264721134126 -0.134015074151 0.894 1.01937400735e-38
0.0281895435892 -0.13431488416 0.896 1.06529175543e-38
0.0298477520357 -0.13431488416 0.896 1.08365885466e-38
0.0315059604821 -0.13431488416 0.896 9.55089160043e-39
0.0331641689285 -0.13431488416 0.896 2.34755524015e-38
-0.0235258323337 -0.134433327621 0.908 2.26475797895e-38
-0.0217972980826 -0.13413721897 0.906 5.87747175411e-39
-0.020053958399 -0.133693055993 0.903 5.23462328101e-39
-0.0183420802595 -0.133396947342 0.901 6.79582671569e-39
-0.0166190980456 -0.132952784365 0.898 6.79582671569e-39
-0.0149238760178 -0.132656675714 0.896 7.4386751888e-39
-0.0132656675714 -0.132656675714 0.896 7.16316870032e-39
-0.011607459125 -0.132656675714 0.896 7.16316870032e-39
-0.00992704252972 -0.132360567063 0.894 7.62234618111e-39
-0.00827253544143 -0.132360567063 0.894 7.62234618111e-39
-0.00659582020431 -0.131916404086 0.891 7.62234618111e-39
-0.00494686515323 -0.131916404086 0.891 7.80601717343e-39
-0.00329791010215 -0.131916404086 0.891 8.26519465422e-39
-0.00164895505108 -0.131916404086 0.891 8.17335915806e-39
0.0 -0.131620295435 0.889 8.26519465422e-39
0.00164525369294 -0.131620295435 0.889 8.26519465422e-39
0.00329050738588 -0.131620295435 0.889 8.35703015038e-39
0.00493576107881 -0.131620295435 0.889 8.35703015038e-39
0.00658101477175 -0.131620295435 0.889 8.35703015038e-39
0.00822626846469 -0.131620295435 0.889 8.81620763117e-39
0.00987152215763 -0.131620295435 0.889 8.99987862348e-39
0.0115167758506 -0.131620295435 0.889 8.63253663885e-39
0.0131620295435 -0.131620295435 0.889 8.99987862348e-39
0.0148072832364 -0.131620295435 0.889 9.45905610427e-39
0.0164525369294 -0.131620295435 0.889 9.73456259275e-39
0.0181385055618 -0.131916404086 0.891 9.82639808891e-39
0.0197874606129 -0.131916404086 0.891 9.45905610427e-39
0.021436415664 -0.131916404086 0.891 9.45905610427e-39
0.023163099236 -0.132360567063 0.894 9.82639808891e-39
0.0248176063243 -0.132360567063 0.894 1.01937400735e-38
0.0265313351428 -0.132656675714 0.896 1.08365885466e-38
0.0281895435892 -0.132656675714 0.896 1.06529175543e-38
0.0298477520357 -0.132656675714 0.896 1.08365885466e-38
0.0315059604821 -0.132656675714 0.896 9.27538511196e-39
0.0331641689285 -0.132656675714 0.896 2.3198627799e-38
-0.0235258323337 -0.132752911026 0.908 2.2187309296e-38
-0.0217972980826 -0.132460503733 0.906 6.1536957074e-39
-0.0201205828455 -0.132460503733 0.906 5.32645877716e-39
-0.0183420802595 -0.1317294855 0.901 6.42848473106e-39
-0.0166190980456 -0.131290874561 0.898 6.88766221185e-39
-0.0149571882411 -0.131290874561 0.898 7.25500419648e-39
-0.0132656675714 -0.130998467268 0.896 6.88766221185e-39
-0.011607459125 -0.130998467268 0.896 7.07133320417e-39
-0.00992704252972 -0.130706059975 0.894 7.53051068496e-39
-0.00827253544143 -0.130706059975 0.894 7.62234618111e-39
-0.00661802835314 -0.130706059975 0.894 7.71418167727e-39
-0.00494686515323 -0.130267449035 0.891 7.98968816575e-39
-0.00329791010215 -0.130267449035 0.891 8.26519465422e-39
-0.00164895505108 -0.130267449035 0.891 8.26519465422e-39
0.0 -0.130267449035 0.891 8.35703015038e-39
0.00164525369294 -0.129975041742 0.889 8.63253663885e-39
0.00329050738588 -0.129975041742 0.889 8.54070114269e-39
0.00493576107881 -0.129975041742 0.889 8.54070114269e-39
0.00658101477175 -0.129975041742 0.889 8.72437213501e-39
0.00822626846469 -0.129975041742 0.889 8.44886564654e-39
0.00987152215763 -0.129975041742 0.889 8.81620763117e-39
0.0115167758506 -0.129975041742 0.889 8.90804312733e-39
0.0131620295435 -0.129975041742 0.889 8.90804312733e-39
0.0148072832364 -0.129975041742 0.889 9.36722060812e-39
0.0164895505108 -0.130267449035 0.891 9.73456259275e-39
0.0181385055618 -0.130267449035 0.891 9.45905610427e-39
0.0197874606129 -0.130267449035 0.891 9.27538511196e-39
0.0215085921477 -0.130706059975 0.894 9.55089160043e-39
0.023163099236 -0.130706059975 0.894 9.73456259275e-39
0.0248731266964 -0.130998467268 0.896 1.06529175543e-38
0.0265313351428 -0.130998467268 0.896 1.06529175543e-38
0.0281895435892 -0.130998467268 0.896 1.11120950351e-38
0.0298477520357 -0.130998467268 0.896 1.09284240428e-38
0.0315762862867 -0.131290874561 0.898 8.90804312733e-39
0.0332381960913 -0.131290874561 0.898 2.2646877739e-38
-0.0254005702312 -0.132082965202 0.915 1.97898501741e-38
-0.0237071988825 -0.132082965202 0.915 2.20036593231e-38
-0.0218454157384 -0.13107249443 0.908 6.24481373874e-39
-0.0201205828455 -0.130783788496 0.906 5.32645877716e-39
-0.018382795199 -0.130350729593 0.903 6.42848473106e-39
-0.0166746184177 -0.130062023658 0.901 6.52032022722e-39
-0.0149571882411 -0.129628964756 0.898 7.16316870032e-39
-0.0132656675714 -0.129340258821 0.896 7.16316870032e-39
-0.011607459125 -0.129340258821 0.896 7.25500419648e-39
-0.00992704252972 -0.129051552886 0.894 7.71418167727e-39
-0.00827253544143 -0.129051552886 0.894 7.53051068496e-39
-0.00661802835314 -0.129051552886 0.894 7.62234618111e-39
-0.00496352126486 -0.129051552886 0.894 7.89785266959e-39
-0.00330901417657 -0.129051552886 0.894 7.89785266959e-39
-0.00164895505108 -0.128618493984 0.891 8.26519465422e-39
0.0 -0.128618493984 0.891 7.89785266959e-39
0.00164525369294 -0.128329788049 0.889 8.35703015038e-39
0.00329050738588 -0.128329788049 0.889 8.35703015038e-39
0.00493576107881 -0.128329788049 0.889 8.44886564654e-39
0.00658101477175 -0.128329788049 0.889 8.54070114269e-39
0.00822626846469 -0.128329788049 0.889 8.26519465422e-39
0.00989373030646 -0.128618493984 0.891 8.44886564654e-39
0.0115426853575 -0.128618493984 0.891 8.72437213501e-39
0.0131916404086 -0.128618493984 0.891 8.72437213501e-39
0.0148405954597 -0.128618493984 0.891 8.81620763117e-39
0.0165450708829 -0.129051552886 0.894 9.64272709659e-39
0.0181995779711 -0.129051552886 0.894 9.82639808891e-39
0.0198540850594 -0.129051552886 0.894 9.91823358506e-39
0.0215085921477 -0.129051552886 0.894 9.45905610427e-39
0.023163099236 -0.129051552886 0.894 9.73456259275e-39
0.0248731266964 -0.129340258821 0.896 1.0469246562e-38
0.0265313351428 -0.129340258821 0.896 1.09284240428e-38
0.0282524666776 -0.129628964756 0.898 1.0469246562e-38
0.0299143764822 -0.129628964756 0.898 1.05610820582e-38
0.0315762862867 -0.129628964756 0.898 8.44886564654e-39
0.0332381960913 -0.129628964756 0.898 2.21905168681e-38
0.0349001058959 -0.129628964756 0.898 2.01586411014e-38
-0.0254005702312 -0.130389593854 0.915 2.04359258376e-38
-0.0237071988825 -0.130389593854 0.915 2.26490441464e-38
-0.0220138275337 -0.130389593854 0.915 6.06114274643e-39
-0.0201649991431 -0.129392077835 0.908 5.51012976948e-39
-0.018382795199 -0.128679566393 0.903 6.52032022722e-39
-0.0166746184177 -0.128394561817 0.901 6.97949770801e-39
-0.015007156576 -0.128394561817 0.901 7.07133320417e-39
-0.0132952784365 -0.127967054951 0.898 6.97949770801e-39
-0.011607459125 -0.127682050375 0.896 7.16316870032e-39
-0.00994925067855 -0.127682050375 0.896 7.98968816575e-39
-0.00829104223213 -0.127682050375 0.896 7.71418167727e-39
-0.00661802835314 -0.127397045798 0.894 7.62234618111e-39
-0.00496352126486 -0.127397045798 0.894 7.80601717343e-39
-0.00330901417657 -0.127397045798 0.894 7.71418167727e-39
-0.00165450708829 -0.127397045798 0.894 8.26519465422e-39
0.0 -0.127397045798 0.894 7.98968816575e-39
0.00164895505108 -0.126969538933 0.891 8.17335915806e-39
0.00329791010215 -0.126969538933 0.891 8.63253663885e-39
0.00494686515323 -0.126969538933 0.891 8.44886564654e-39
0.00659582020431 -0.126969538933 0.891 8.63253663885e-39
0.00824477525538 -0.126969538933 0.891 8.81620763117e-39
0.00992704252972 -0.127397045798 0.894 8.81620763117e-39
0.011581549618 -0.127397045798 0.894 9.45905610427e-39
0.0132360567063 -0.127397045798 0.894 8.63253663885e-39
0.0148905637946 -0.127397045798 0.894 8.81620763117e-39
0.0165820844643 -0.127682050375 0.896 9.45905610427e-39
0.0182402929107 -0.127682050375 0.896 9.73456259275e-39
0.0198985013571 -0.127682050375 0.896 9.91823358506e-39
0.0215567098035 -0.127682050375 0.896 9.73456259275e-39
0.02321491825 -0.127682050375 0.896 1.01937400735e-38
0.0248731266964 -0.127682050375 0.896 1.0469246562e-38
0.026590556873 -0.127967054951 0.898 1.06529175543e-38
0.0282524666776 -0.127967054951 0.898 1.07447530505e-38
0.0299143764822 -0.127967054951 0.898 1.0469246562e-38
0.0315762862867 -0.127967054951 0.898 7.62234618111e-39
0.0332381960913 -0.127967054951 0.898 2.33908901522e-38
0.0349001058959 -0.127967054951 0.898 2.09880234195e-38
-0.0253450498591 -0.128414919286 0.913 1.93302971453e-38
-0.0236553798685 -0.128414919286 0.913 2.15444412047e-38
-0.0220138275337 -0.128696222505 0.915 6.61251445578e-39
-0.0202094154408 -0.127992964458 0.91 5.51012976948e-39
-0.0184845825479 -0.12771166124 0.908 6.52032022722e-39
-0.0167116319991 -0.127008403193 0.903 6.79582671569e-39
-0.015007156576 -0.126727099975 0.901 6.97949770801e-39
-0.0132952784365 -0.126305145147 0.898 7.16316870032e-39
-0.011633368632 -0.126305145147 0.898 7.07133320417e-39
-0.00994925067855 -0.126023841928 0.896 7.34683969264e-39
-0.00829104223213 -0.126023841928 0.896 7.34683969264e-39
-0.0066328337857 -0.126023841928 0.896 7.07133320417e-39
-0.00497462533928 -0.126023841928 0.896 7.62234618111e-39
-0.00331641689285 -0.126023841928 0.896 7.71418167727e-39
-0.00165820844643 -0.126023841928 0.896 7.98968816575e-39
0.0 -0.12574253871 0.894 7.80601717343e-39
0.00165450708829 -0.12574253871 0.894 8.0815236619e-39
0.00330901417657 -0.12574253871 0.894 8.44886564654e-39
0.00496352126486 -0.12574253871 0.894 8.54070114269e-39
0.00661802835314 -0.12574253871 0.894 8.35703015038e-39
0.00827253544143 -0.12574253871 0.894 8.81620763117e-39
0.00992704252972 -0.12574253871 0.894 8.72437213501e-39
0.011607459125 -0.126023841928 0.896 8.81620763117e-39
0.0132656675714 -0.126023841928 0.896 8.54070114269e-39
0.0149238760178 -0.126023841928 0.896 8.99987862348e-39
0.0165820844643 -0.126023841928 0.896 9.45905610427e-39
0.0182402929107 -0.126023841928 0.896 9.64272709659e-39
0.0198985013571 -0.126023841928 0.896 9.73456259275e-39
0.0216048274593 -0.126305145147 0.898 9.91823358506e-39
0.0232667372639 -0.126305145147 0.898 9.82639808891e-39
0.0249286470685 -0.126305145147 0.898 1.01019045774e-38
0.026590556873 -0.126305145147 0.898 1.01937400735e-38
0.0283468513102 -0.126727099975 0.901 1.0469246562e-38
0.0300143131519 -0.126727099975 0.901 9.73456259275e-39
0.0316817749937 -0.126727099975 0.901 1.02873762382e-38
0.0332381960913 -0.126305145147 0.898 2.1360463328e-38
0.0349001058959 -0.126305145147 0.898 2.11709517237e-38
-0.0253450498591 -0.126725249296 0.913 1.92377764142e-38
-0.0235776513476 -0.126308846505 0.91 2.21898162189e-38
-0.0218935333942 -0.126308846505 0.91 6.3366492349e-39
-0.0202094154408 -0.126308846505 0.91 6.42848473106e-39
-0.0184845825479 -0.126031244645 0.908 6.61215572338e-39
-0.0167116319991 -0.125337239993 0.903 7.07133320417e-39
-0.0150404687992 -0.125337239993 0.903 7.07133320417e-39
-0.0132952784365 -0.124643235342 0.898 7.07133320417e-39
-0.011633368632 -0.124643235342 0.898 7.25500419648e-39
-0.00997145882739 -0.124643235342 0.898 7.62234618111e-39
-0.00829104223213 -0.124365633482 0.896 7.53051068496e-39
-0.0066328337857 -0.124365633482 0.896 7.62234618111e-39
-0.00497462533928 -0.124365633482 0.896 7.71418167727e-39
-0.00331641689285 -0.124365633482 0.896 7.71418167727e-39
-0.00165820844643 -0.124365633482 0.896 8.17335915806e-39
0.0 -0.124365633482 0.896 7.80601717343e-39
0.00165820844643 -0.124365633482 0.896 8.17335915806e-39
0.00331641689285 -0.124365633482 0.896 8.63253663885e-39
0.00497462533928 -0.124365633482 0.896 8.63253663885e-39
0.0066328337857 -0.124365633482 0.896 8.81620763117e-39
0.00829104223213 -0.124365633482 0.896 8.99987862348e-39
0.00994925067855 -0.124365633482 0.896 8.99987862348e-39
0.011607459125 -0.124365633482 0.896 9.1835496158e-39
0.0132656675714 -0.124365633482 0.896 8.72437213501e-39
0.0149238760178 -0.124365633482 0.896 8.81620763117e-39
0.0166190980456 -0.124643235342 0.898 8.99987862348e-39
0.0182810078502 -0.124643235342 0.898 9.27538511196e-39
0.0199429176548 -0.124643235342 0.898 9.36722060812e-39
0.0216770039431 -0.125059638133 0.901 9.82639808891e-39
0.0233444657848 -0.125059638133 0.901 9.91823358506e-39
0.0250119276266 -0.125059638133 0.901 9.82639808891e-39
0.0266793894684 -0.125059638133 0.901 1.01019045774e-38
0.0283468513102 -0.125059638133 0.901 9.64272709659e-39
0.0300143131519 -0.125059638133 0.901 8.17335915806e-39
0.0316817749937 -0.125059638133 0.901 1.8028998142e-38
0.0334232639983 -0.125337239993 0.903 2.09923996746e-38
-0.0253450498591 -0.125035579305 0.913 1.98806445055e-38
-0.0235776513476 -0.124624728552 0.91 2.26479203051e-38
-0.0218935333942 -0.124624728552 0.91 6.42848473106e-39
-0.0202094154408 -0.124624728552 0.91 6.15297824259e-39
-0.0184845825479 -0.124350828049 0.908 6.70399121953e-39
-0.0168041659526 -0.124350828049 0.908 7.07133320417e-39
-0.0150404687992 -0.123666076794 0.903 6.97949770801e-39
-0.0133396947342 -0.123392176291 0.901 7.34683969264e-39
-0.0116722328924 -0.123392176291 0.901 7.16316870032e-39
-0.00997145882739 -0.122981325538 0.898 7.62234618111e-39
-0.00830954902282 -0.122981325538 0.898 7.53051068496e-39
-0.0066328337857 -0.122707425035 0.896 7.62234618111e-39
-0.00497462533928 -0.122707425035 0.896 7.80601717343e-39
-0.00331641689285 -0.122707425035 0.896 7.98968816575e-39
-0.00165820844643 -0.122707425035 0.896 8.35703015038e-39
0.0 -0.122707425035 0.896 8.35703015038e-39
0.00165820844643 -0.122707425035 0.896 8.54070114269e-39
0.00331641689285 -0.122707425035 0.896 8.63253663885e-39
0.00497462533928 -0.122707425035 0.896 8.81620763117e-39
0.0066328337857 -0.122707425035 0.896 8.99987862348e-39
0.00829104223213 -0.122707425035 0.896 8.90804312733e-39
0.00994925067855 -0.122707425035 0.896 8.99987862348e-39
0.011633368632 -0.122981325538 0.898 8.99987862348e-39
0.0132952784365 -0.122981325538 0.898 9.45905610427e-39
0.0149571882411 -0.122981325538 0.898 9.36722060812e-39
0.0166746184177 -0.123392176291 0.901 9.36722060812e-39
0.0182810078502 -0.122981325538 0.898 8.81620763117e-39
0.0199429176548 -0.122981325538 0.898 9.45905610427e-39
0.0216770039431 -0.123392176291 0.901 9.73456259275e-39
0.0233444657848 -0.123392176291 0.901 1.01019045774e-38
0.0250119276266 -0.123392176291 0.901 1.00100690812e-38
0.0266793894684 -0.123392176291 0.901 9.55089160043e-39
0.0284097743985 -0.123666076794 0.903 8.17335915806e-39
0.0300809375984 -0.123666076794 0.903 1.93329161722e-38
0.0317521007983 -0.123666076794 0.903 1.32508982825e-38
0.0335343047424 -0.124076927547 0.906 2.25593498343e-38
-0.0252062489289 -0.122670411454 0.908 2.034050582e-38
-0.0235258323337 -0.122670411454 0.908 2.26475699805e-38
-0.0218935333942 -0.122940610598 0.91 8.45496409745e-39
-0.0202094154408 -0.122940610598 0.91 6.52032022722e-39
-0.0184845825479 -0.122670411454 0.908 7.07133320417e-39
-0.0168041659526 -0.122670411454 0.908 7.16316870032e-39
-0.0150904371341 -0.12240021231 0.906 7.07133320417e-39
-0.0133693055993 -0.121994913594 0.903 7.16316870032e-39
-0.0116722328924 -0.121724714449 0.901 7.34683969264e-39
-0.0100047710506 -0.121724714449 0.901 7.71418167727e-39
-0.00830954902282 -0.121319415733 0.898 7.62234618111e-39
-0.00664763921826 -0.121319415733 0.898 7.62234618111e-39
-0.00498572941369 -0.121319415733 0.898 7.80601717343e-39
-0.00332381960913 -0.121319415733 0.898 7.98968816575e-39
-0.00166190980456 -0.121319415733 0.898 8.35703015038e-39
0.0 -0.121319415733 0.898 8.26519465422e-39
0.00165820844643 -0.121049216589 0.896 8.63253663885e-39
0.00331641689285 -0.121049216589 0.896 8.63253663885e-39
0.00497462533928 -0.121049216589 0.896 8.72437213501e-39
0.0066328337857 -0.121049216589 0.896 8.35703015038e-39
0.00829104223213 -0.121049216589 0.896 8.81620763117e-39
0.00994925067855 -0.121049216589 0.896 8.90804312733e-39
0.011633368632 -0.121319415733 0.898 8.81620763117e-39
0.0132952784365 -0.121319415733 0.898 9.45905610427e-39
0.015007156576 -0.121724714449 0.901 9.36722060812e-39
0.0167116319991 -0.121994913594 0.903 9.27538511196e-39
0.018382795199 -0.121994913594 0.903 8.72437213501e-39
0.020053958399 -0.121994913594 0.903 9.36722060812e-39
0.0217251215989 -0.121994913594 0.903 9.82639808891e-39
0.0233962847988 -0.121994913594 0.903 1.01019045774e-38
0.0250674479987 -0.121994913594 0.903 9.91823358506e-39
0.026827443794 -0.12240021231 0.906 8.0815236619e-39
0.0285041590311 -0.12240021231 0.906 1.87765095974e-38
0.0301808742682 -0.12240021231 0.906 1.35293222744e-38
0.0318575895053 -0.12240021231 0.906 1.73017648767e-38
-0.0252062489289 -0.120989994859 0.908 1.98820331923e-38
-0.0235258323337 -0.120989994859 0.908 2.20958031049e-38
-0.0218935333942 -0.121256492645 0.91 6.70470868435e-39
-0.0202094154408 -0.121256492645 0.91 6.24481373874e-39
-0.0184845825479 -0.120989994859 0.908 6.70399121953e-39
-0.0168041659526 -0.120989994859 0.908 6.79582671569e-39
-0.0151237493574 -0.120989994859 0.908 7.07133320417e-39
-0.0133693055993 -0.120323750394 0.903 7.25500419648e-39
-0.0116981423994 -0.120323750394 0.903 7.34683969264e-39
-0.0100047710506 -0.120057252608 0.901 7.53051068496e-39
-0.00833730920887 -0.120057252608 0.901 7.71418167727e-39
-0.00664763921826 -0.119657505929 0.898 7.71418167727e-39
-0.00498572941369 -0.119657505929 0.898 7.80601717343e-39
-0.00332381960913 -0.119657505929 0.898 8.26519465422e-39
-0.00166190980456 -0.119657505929 0.898 8.35703015038e-39
0.0 -0.119657505929 0.898 8.26519465422e-39
0.00165820844643 -0.119391008143 0.896 8.72437213501e-39
0.00331641689285 -0.119391008143 0.896 8.81620763117e-39
0.00497462533928 -0.119391008143 0.896 8.72437213501e-39
0.0066328337857 -0.119391008143 0.896 8.63253663885e-39
0.00830954902282 -0.119657505929 0.898 8.54070114269e-39
0.00997145882739 -0.119657505929 0.898 8.90804312733e-39
0.011633368632 -0.119657505929 0.898 9.64272709659e-39
0.0132952784365 -0.119657505929 0.898 9.45905610427e-39
0.015007156576 -0.120057252608 0.901 9.36722060812e-39
0.0167116319991 -0.120323750394 0.903 9.27538511196e-39
0.018382795199 -0.120323750394 0.903 8.90804312733e-39
0.0201205828455 -0.120723497073 0.906 9.36722060812e-39
0.0217972980826 -0.120723497073 0.906 9.73456259275e-39
0.0234740133197 -0.120723497073 0.906 1.01019045774e-38
0.0251507285568 -0.120723497073 0.906 7.62234618111e-39
0.026827443794 -0.120723497073 0.906 1.79435245409e-38
0.0285041590311 -0.120723497073 0.906 1.68515851333e-38
0.0302474987147 -0.120989994859 0.908 1.41725238747e-38
0.03192791531 -0.120989994859 0.908 1.78546009429e-38
-0.025261769301 -0.119572374691 0.91 1.84962583124e-38
-0.0235776513476 -0.119572374691 0.91 2.10809827571e-38
-0.0219657098779 -0.119966569333 0.913 6.61215572338e-39
-0.0202760398873 -0.119966569333 0.913 6.3366492349e-39
-0.0185252974874 -0.119572374691 0.91 6.79582671569e-39
-0.016841179534 -0.119572374691 0.91 7.07133320417e-39
-0.0151237493574 -0.119309578264 0.908 7.16316870032e-39
-0.0134433327621 -0.119309578264 0.908 7.53051068496e-39
-0.0116981423994 -0.118652587194 0.903 7.34683969264e-39
-0.0100269791995 -0.118652587194 0.903 7.62234618111e-39
-0.00833730920887 -0.118389790766 0.901 7.71418167727e-39
-0.00666984736709 -0.118389790766 0.901 7.71418167727e-39
-0.00498572941369 -0.117995596124 0.898 7.98968816575e-39
-0.00332381960913 -0.117995596124 0.898 8.26519465422e-39
-0.00166190980456 -0.117995596124 0.898 8.54070114269e-39
0.0 -0.117995596124 0.898 8.26519465422e-39
0.00166190980456 -0.117995596124 0.898 8.44886564654e-39
0.00331641689285 -0.117732799696 0.896 8.54070114269e-39
0.00497462533928 -0.117732799696 0.896 9.09171411964e-39
0.00664763921826 -0.117995596124 0.898 8.99987862348e-39
0.00830954902282 -0.117995596124 0.898 8.99987862348e-39
0.00997145882739 -0.117995596124 0.898 8.99987862348e-39
0.011633368632 -0.117995596124 0.898 9.55089160043e-39
0.0132952784365 -0.117995596124 0.898 9.45905610427e-39
0.0150404687992 -0.118652587194 0.903 9.45905610427e-39
0.0167116319991 -0.118652587194 0.903 9.36722060812e-39
0.0184438676083 -0.119046781836 0.906 8.90804312733e-39
0.0201205828455 -0.119046781836 0.906 9.55089160043e-39
0.0217972980826 -0.119046781836 0.906 9.91823358506e-39
0.0234740133197 -0.119046781836 0.906 8.35703015038e-39
0.0251507285568 -0.119046781836 0.906 1.71073291096e-38
0.026827443794 -0.119046781836 0.906 1.74047589125e-38
0.0285670821194 -0.119309578264 0.908 1.38969837551e-38
0.0302474987147 -0.119309578264 0.908 1.59252876121e-38
0.03192791531 -0.119309578264 0.908 1.70248080443e-38
-0.0253450498591 -0.118276899343 0.913 1.86813572278e-38
-0.0236553798685 -0.118276899343 0.913 2.0896941822e-38
-0.0219657098779 -0.118276899343 0.913 6.52032022722e-39
-0.0202760398873 -0.118276899343 0.913 7.4386751888e-39
-0.0185252974874 -0.117888256738 0.91 6.97949770801e-39
-0.016841179534 -0.117888256738 0.91 7.16316870032e-39
-0.0151237493574 -0.117629161668 0.908 7.07133320417e-39
-0.0134433327621 -0.117629161668 0.908 7.16316870032e-39
-0.0117370066599 -0.117370066599 0.906 7.34683969264e-39
-0.0100269791995 -0.116981423994 0.903 7.53051068496e-39
-0.00835581599956 -0.116981423994 0.903 7.71418167727e-39
-0.00666984736709 -0.116722328924 0.901 7.71418167727e-39
-0.00500238552532 -0.116722328924 0.901 7.71418167727e-39
-0.00332381960913 -0.11633368632 0.898 8.17335915806e-39
-0.00166190980456 -0.11633368632 0.898 8.54070114269e-39
0.0 -0.11633368632 0.898 8.35703015038e-39
0.00166190980456 -0.11633368632 0.898 8.72437213501e-39
0.00332381960913 -0.11633368632 0.898 8.72437213501e-39
0.00498572941369 -0.11633368632 0.898 8.72437213501e-39
0.00664763921826 -0.11633368632 0.898 8.63253663885e-39
0.00830954902282 -0.11633368632 0.898 8.99987862348e-39
0.00997145882739 -0.11633368632 0.898 8.90804312733e-39
0.011633368632 -0.11633368632 0.898 8.99987862348e-39
0.0132952784365 -0.11633368632 0.898 8.99987862348e-39
0.0150404687992 -0.116981423994 0.903 9.36722060812e-39
0.0167671523712 -0.117370066599 0.906 8.90804312733e-39
0.0184438676083 -0.117370066599 0.906 9.09171411964e-39
0.0201205828455 -0.117370066599 0.906 9.36722060812e-39
0.0217972980826 -0.117370066599 0.906 8.54070114269e-39
0.0234740133197 -0.117370066599 0.906 1.32369133238e-38
0.0251507285568 -0.117370066599 0.906 1.85993980832e-38
0.0268866655242 -0.117629161668 0.908 1.35271390514e-38
0.0285670821194 -0.117629161668 0.908 1.57365901622e-38
0.0302474987147 -0.117629161668 0.908 1.2695220383e-38
0.0319982411146 -0.117888256738 0.91 1.89554862399e-38
-0.0237849274034 -0.117225713631 0.918 2.108309031e-38
-0.0220138275337 -0.116842623064 0.915 6.42848473106e-39
-0.0202760398873 -0.116587229352 0.913 6.70399121953e-39
-0.0185252974874 -0.116204138785 0.91 8.44886704783e-39
-0.016841179534 -0.116204138785 0.91 6.88766221185e-39
-0.0151237493574 -0.115948745073 0.908 6.97949770801e-39
-0.0134433327621 -0.115948745073 0.908 7.34683969264e-39
-0.0117370066599 -0.115693351361 0.906 7.53051068496e-39
-0.0100602914227 -0.115693351361 0.906 7.4386751888e-39
-0.00835581599956 -0.115310260794 0.903 7.80601717343e-39
-0.00666984736709 -0.115054867082 0.901 7.89785266959e-39
-0.00500238552532 -0.115054867082 0.901 7.80601717343e-39
-0.00333492368355 -0.115054867082 0.901 7.89785266959e-39
-0.00166746184177 -0.115054867082 0.901 7.80601717343e-39
0.0 -0.114671776515 0.898 8.17335915806e-39
0.00166190980456 -0.114671776515 0.898 8.54070114269e-39
0.00332381960913 -0.114671776515 0.898 8.54070114269e-39
0.00498572941369 -0.114671776515 0.898 8.54070114269e-39
0.00664763921826 -0.114671776515 0.898 8.81620763117e-39
0.00830954902282 -0.114671776515 0.898 8.81620763117e-39
0.00997145882739 -0.114671776515 0.898 8.63253663885e-39
0.011633368632 -0.114671776515 0.898 8.90804312733e-39
0.0133396947342 -0.115054867082 0.901 8.72437213501e-39
0.0150404687992 -0.115310260794 0.903 8.44886564654e-39
0.0167671523712 -0.115693351361 0.906 7.4386751888e-39
0.0184438676083 -0.115693351361 0.906 7.4386751888e-39
0.0201649991431 -0.115948745073 0.908 8.35703015038e-39
0.0218454157384 -0.115948745073 0.908 1.64597918918e-38
0.0235258323337 -0.115948745073 0.908 1.77692674717e-38
0.0252062489289 -0.115948745073 0.908 1.48192791679e-38
0.0269458872544 -0.116204138785 0.91 1.50904920779e-38
0.0286300052078 -0.116204138785 0.91 1.29635704402e-38
0.0303141231612 -0.116204138785 0.91 9.09172813263e-39
0.0319982411146 -0.116204138785 0.91 2.2539629361e-38
-0.0255393711615 -0.115778482599 0.92 1.90522879378e-38
-0.0237849274034 -0.115526790245 0.918 2.11746049088e-38
-0.0220138275337 -0.115149251715 0.915 6.88873840907e-39
-0.020320456185 -0.115149251715 0.915 7.16316870032e-39
-0.0185863698967 -0.114897559361 0.913 7.80601717343e-39
-0.016841179534 -0.114520020831 0.91 7.4386751888e-39
-0.0151570615806 -0.114520020831 0.91 7.07133320417e-39
-0.0134729436272 -0.114520020831 0.91 7.53051068496e-39
-0.0117629161668 -0.114268328478 0.908 7.62234618111e-39
-0.0100602914227 -0.114016636124 0.906 7.53051068496e-39
-0.00838357618561 -0.114016636124 0.906 7.80601717343e-39
-0.00668465279965 -0.113639097594 0.903 7.62234618111e-39
-0.00501348959974 -0.113639097594 0.903 7.4386751888e-39
-0.00334232639983 -0.113639097594 0.903 1.44447513248e-38
-0.00166746184177 -0.113387405241 0.901 1.01141014792e-38
0.0 -0.113387405241 0.901 8.63397156848e-39
0.00166746184177 -0.113387405241 0.901 8.63253663885e-39
0.00332381960913 -0.11300986671 0.898 9.1835496158e-39
0.00498572941369 -0.11300986671 0.898 9.09171411964e-39
0.00664763921826 -0.11300986671 0.898 8.81620763117e-39
0.00830954902282 -0.11300986671 0.898 8.72437213501e-39
0.00997145882739 -0.11300986671 0.898 9.09171411964e-39
0.0116722328924 -0.113387405241 0.901 9.27538511196e-39
0.0133396947342 -0.113387405241 0.901 1.19425619583e-38
0.0150404687992 -0.113639097594 0.903 1.31494050373e-38
0.0167671523712 -0.114016636124 0.906 1.44515868587e-38
0.0184438676083 -0.114016636124 0.906 1.63888063155e-38
0.0201649991431 -0.114268328478 0.908 1.67601139748e-38
0.0218454157384 -0.114268328478 0.908 1.61133110374e-38
0.0235258323337 -0.114268328478 0.908 1.61136487503e-38
0.025261769301 -0.114520020831 0.91 1.30675607992e-38
0.0269458872544 -0.114520020831 0.91 1.50876180148e-38
0.0287243898404 -0.114897559361 0.913 1.39816305901e-38
0.030414059831 -0.114897559361 0.913 9.91970354715e-39
0.0321037298216 -0.114897559361 0.913 2.13529775916e-38
-0.0273900502311 -0.114695835343 0.925 1.88693246012e-38
-0.0255393711615 -0.114075857855 0.92 1.91451898221e-38
-0.0238367464174 -0.114075857855 0.92 2.13604184864e-38
-0.0220860040175 -0.113827866859 0.918 6.24481373874e-39
-0.020320456185 -0.113455880366 0.915 7.62234618111e-39
-0.0185863698967 -0.113207889371 0.913 7.34683969264e-39
-0.0168966999061 -0.113207889371 0.913 7.25500419648e-39
-0.0151570615806 -0.112835902878 0.91 7.34683969264e-39
-0.0134729436272 -0.112835902878 0.91 7.25500419648e-39
-0.0117629161668 -0.112587911883 0.908 7.62234618111e-39
-0.0100602914227 -0.112339920887 0.906 7.62234618111e-39
-0.00838357618561 -0.112339920887 0.906 7.71418167727e-39
-0.00670686094849 -0.112339920887 0.906 7.71418167727e-39
-0.00503014571137 -0.112339920887 0.906 6.88766221185e-39
-0.00334232639983 -0.111967934394 0.903 1.77634871155e-38
-0.00167116319991 -0.111967934394 0.903 1.48272441484e-38
0.0 -0.111719943399 0.901 1.45492321383e-38
0.00166746184177 -0.111719943399 0.901 1.59332231653e-38
0.00333492368355 -0.111719943399 0.901 1.54700940228e-38
0.00500238552532 -0.111719943399 0.901 1.56537594099e-38
0.00666984736709 -0.111719943399 0.901 1.60225475346e-38
0.00833730920887 -0.111719943399 0.901 1.59303519047e-38
0.0100047710506 -0.111719943399 0.901 1.61147501709e-38
0.0116722328924 -0.111719943399 0.901 1.62984281697e-38
0.0133396947342 -0.111719943399 0.901 1.6392053124e-38
0.0150404687992 -0.111967934394 0.903 1.56537650151e-38
0.0167116319991 -0.111967934394 0.903 1.52849852983e-38
0.0184438676083 -0.112339920887 0.906 1.58378059502e-38
0.0201205828455 -0.112339920887 0.906 1.53764494503e-38
0.0218454157384 -0.112587911883 0.908 1.56537650151e-38
0.0235258323337 -0.112587911883 0.908 1.44537967064e-38
0.025261769301 -0.112835902878 0.91 1.51840791972e-38
0.0270347198498 -0.113207889371 0.913 1.20305200616e-38
0.0287243898404 -0.113207889371 0.913 1.62775390135e-38
0.030414059831 -0.113207889371 0.913 1.40821205056e-38
0.0321037298216 -0.113207889371 0.913 2.02523557388e-38
-0.0273900502311 -0.112983957203 0.925 1.8126748519e-38
-0.0256226517196 -0.112739667566 0.923 1.84040486695e-38
-0.0239144749383 -0.112739667566 0.923 2.00653608665e-38
-0.0221341216733 -0.11237323311 0.92 6.42848473106e-39
-0.0203870806315 -0.112128943473 0.918 7.34683969264e-39
-0.0186270848362 -0.111762509017 0.915 7.62234618111e-39
-0.0169337134875 -0.111762509017 0.915 7.07133320417e-39
-0.0152070299155 -0.11151821938 0.913 7.07133320417e-39
-0.0134729436272 -0.111151784924 0.91 7.62234618111e-39
-0.0117629161668 -0.110907495287 0.908 7.53051068496e-39
-0.0100824995716 -0.110907495287 0.908 7.62234618111e-39
-0.00840208297631 -0.110907495287 0.908 7.71418167727e-39
-0.00670686094849 -0.11066320565 0.906 8.17335915806e-39
-0.00503014571137 -0.11066320565 0.906 7.07133320417e-39
-0.00335343047424 -0.11066320565 0.906 1.68433286828e-38
-0.00167671523712 -0.11066320565 0.906 1.37194518513e-38
0.0 -0.11066320565 0.906 1.40860917854e-38
0.00167116319991 -0.110296771194 0.903 1.3810946832e-38
0.00334232639983 -0.110296771194 0.903 1.43637520696e-38
0.00501348959974 -0.110296771194 0.903 1.4271909567e-38
0.00666984736709 -0.110052481557 0.901 1.4363401745e-38
0.00833730920887 -0.110052481557 0.901 1.46396130866e-38
0.0100047710506 -0.110052481557 0.901 1.45477803931e-38
0.0116722328924 -0.110052481557 0.901 1.47321758567e-38
0.0133396947342 -0.110052481557 0.901 1.4824730219e-38
0.0150404687992 -0.110296771194 0.903 1.48229281491e-38
0.0167116319991 -0.110296771194 0.903 1.48232784738e-38
0.0184438676083 -0.11066320565 0.906 1.51902659299e-38
0.0201205828455 -0.11066320565 0.906 1.55611994425e-38
0.0218454157384 -0.110907495287 0.908 1.64820767413e-38
0.0235776513476 -0.111151784924 0.91 1.29768491444e-38
0.0253450498591 -0.11151821938 0.913 1.12039305313e-38
0.0270347198498 -0.11151821938 0.913 1.19386145005e-38
0.0287243898404 -0.11151821938 0.913 2.0788355204e-38
0.030414059831 -0.11151821938 0.913 1.40864393074e-38
0.0321037298216 -0.11151821938 0.913 2.02523753569e-38
-0.0273900502311 -0.111272079064 0.925 1.8773901781e-38
-0.0256226517196 -0.111031490785 0.923 1.85895133239e-38
-0.0239144749383 -0.111031490785 0.923 1.98845527269e-38
-0.0221341216733 -0.110670608366 0.92 6.06114274643e-39
-0.0204314969292 -0.110670608366 0.92 7.34683969264e-39
-0.0186881572455 -0.110430020087 0.918 7.34683969264e-39
-0.0169892338596 -0.110430020087 0.918 7.25500419648e-39
-0.0152403421387 -0.110069137669 0.915 7.16316870032e-39
-0.0134729436272 -0.109467666971 0.91 7.16316870032e-39
-0.0117888256738 -0.109467666971 0.91 7.71418167727e-39
-0.0100824995716 -0.109227078692 0.908 7.71418167727e-39
-0.00840208297631 -0.109227078692 0.908 7.71418167727e-39
-0.00672166638105 -0.109227078692 0.908 8.17335915806e-39
-0.00504124978578 -0.109227078692 0.908 6.61215572338e-39
-0.00336083319052 -0.109227078692 0.908 1.67529295176e-38
-0.00167671523712 -0.108986490413 0.906 1.39038501175e-38
0.0 -0.108986490413 0.906 1.41786391412e-38
0.00167671523712 -0.108986490413 0.906 1.42704970581e-38
0.00335343047424 -0.108986490413 0.906 1.42697571726e-38
0.00501348959974 -0.108625607994 0.903 1.44545183751e-38
0.00668465279965 -0.108625607994 0.903 1.45463608777e-38
0.00835581599956 -0.108625607994 0.903 1.44548686997e-38
0.0100269791995 -0.108625607994 0.903 1.46392599594e-38
0.0116981423994 -0.108625607994 0.903 1.46389096348e-38
0.0133693055993 -0.108625607994 0.903 1.57466865176e-38
0.0150904371341 -0.108986490413 0.906 1.4363749267e-38
0.0167671523712 -0.108986490413 0.906 1.46396130866e-38
0.0184845825479 -0.109227078692 0.908 1.51906330701e-38
0.0201649991431 -0.109227078692 0.908 1.52831846297e-38
0.0218935333942 -0.109467666971 0.91 1.63888119207e-38
0.0235776513476 -0.109467666971 0.91 1.54661339533e-38
0.0253450498591 -0.10982854939 0.913 1.14794370197e-38
0.02709394158 -0.110069137669 0.915 1.32243114468e-38
0.0287873129287 -0.110069137669 0.915 1.87531569585e-38
0.0304806842775 -0.110069137669 0.915 1.22342898778e-38
0.0321740556262 -0.110069137669 0.915 2.08980558542e-38
-0.0273900502311 -0.109560200925 0.925 1.98816674534e-38
-0.0256226517196 -0.109323314004 0.923 1.96983551935e-38
-0.0239144749383 -0.109323314004 0.923 2.1085245507e-38
-0.022206298157 -0.109323314004 0.923 6.42848473106e-39
-0.0204981213757 -0.109323314004 0.923 6.42848473106e-39
-0.0187288721851 -0.108967983622 0.92 7.34683969264e-39
-0.0169892338596 -0.108731096701 0.918 7.16316870032e-39
-0.0152403421387 -0.10837576632 0.915 7.25500419648e-39
-0.0135173599249 -0.108138879399 0.913 7.34683969264e-39
-0.0117888256738 -0.107783549018 0.91 7.62234618111e-39
-0.0101047077204 -0.107783549018 0.91 7.71418167727e-39
-0.008420589767 -0.107783549018 0.91 7.71418167727e-39
-0.00672166638105 -0.107546662097 0.908 8.17335915806e-39
-0.00504124978578 -0.107546662097 0.908 6.79582671569e-39
-0.00336083319052 -0.107546662097 0.908 1.63845155396e-38
-0.00168041659526 -0.107546662097 0.908 1.36269058968e-38
0.0 -0.107309775176 0.906 1.40860483452e-38
0.00167671523712 -0.107309775176 0.906 1.39942590919e-38
0.00335343047424 -0.107309775176 0.906 1.44552064126e-38
0.00503014571137 -0.107309775176 0.906 1.45477831957e-38
0.00668465279965 -0.106954444794 0.903 1.43626730698e-38
0.00835581599956 -0.106954444794 0.903 1.49133259131e-38
0.0100602914227 -0.107309775176 0.906 1.44548686997e-38
0.0117370066599 -0.107309775176 0.906 1.51906358727e-38
0.013413721897 -0.107309775176 0.906 1.54672381765e-38
0.0150904371341 -0.107309775176 0.906 1.45477831957e-38
0.0167671523712 -0.107309775176 0.906 1.51910114207e-38
0.0184845825479 -0.107546662097 0.908 1.50076739374e-38
0.0201649991431 -0.107546662097 0.908 1.57463109696e-38
0.0218935333942 -0.107783549018 0.91 1.56530559581e-38
0.0236553798685 -0.108138879399 0.913 1.53779011955e-38
0.0254005702312 -0.10837576632 0.915 1.57405558368e-38
0.02709394158 -0.10837576632 0.915 1.25018271819e-38
0.0287873129287 -0.10837576632 0.915 1.36949795749e-38
0.0304806842775 -0.10837576632 0.915 1.47202620171e-38
0.0321740556262 -0.10837576632 0.915 1.97945038863e-38
-0.0256781720917 -0.107848322785 0.925 1.98849002489e-38
-0.0239662939522 -0.107848322785 0.925 2.18207001904e-38
-0.022206298157 -0.107615137222 0.923 6.15297824259e-39
-0.0204981213757 -0.107615137222 0.923 6.24481373874e-39
-0.0187288721851 -0.107265358878 0.92 6.97949770801e-39
-0.0169892338596 -0.107032173315 0.918 7.25500419648e-39
-0.0152903104736 -0.107032173315 0.918 7.07133320417e-39
-0.0135173599249 -0.106449209408 0.913 7.34683969264e-39
-0.0118276899343 -0.106449209408 0.913 7.62234618111e-39
-0.0101047077204 -0.106099431064 0.91 7.80601717343e-39
-0.008420589767 -0.106099431064 0.91 7.89785266959e-39
-0.00672166638105 -0.105866245501 0.908 8.26519465422e-39
-0.00504124978578 -0.105866245501 0.908 7.07133320417e-39
-0.00336083319052 -0.105866245501 0.908 1.72135671513e-38
-0.00168041659526 -0.105866245501 0.908 1.39024404113e-38
0.0 -0.105866245501 0.908 1.42690523194e-38
0.00167671523712 -0.105633059939 0.906 1.41783014283e-38
0.00335343047424 -0.105633059939 0.906 1.45470643296e-38
0.00503014571137 -0.105633059939 0.906 1.41790202944e-38
0.00670686094849 -0.105633059939 0.906 1.45477831957e-38
0.00838357618561 -0.105633059939 0.906 1.48233022958e-38
0.0100602914227 -0.105633059939 0.906 1.47314752075e-38
0.0117370066599 -0.105633059939 0.906 1.61129635154e-38
0.013413721897 -0.105633059939 0.906 1.50062474155e-38
0.0150904371341 -0.105633059939 0.906 1.51917176751e-38
0.0168041659526 -0.105866245501 0.908 1.47307269141e-38
0.0184845825479 -0.105866245501 0.908 1.6022169184e-38
0.0202094154408 -0.106099431064 0.91 8.18777851926e-39
0.0219657098779 -0.106449209408 0.913 1.09506710572e-38
0.0237071988825 -0.106682394971 0.915 5.79245217368e-39
0.0254005702312 -0.106682394971 0.915 1.60217880308e-38
0.02709394158 -0.106682394971 0.915 1.67578256544e-38
0.0287873129287 -0.106682394971 0.915 1.61095961952e-38
0.0304806842775 -0.106682394971 0.915 1.36196345591e-38
0.0321740556262 -0.106682394971 0.915 2.01632793993e-38
-0.0256781720917 -0.106136444646 0.925 1.93277846172e-38
-0.0239662939522 -0.106136444646 0.925 2.15433902308e-38
-0.022206298157 -0.105906960441 0.923 6.70399121953e-39
-0.0204981213757 -0.105906960441 0.923 6.79582671569e-39
-0.0187899445944 -0.105906960441 0.923 7.4386751888e-39
-0.017026247441 -0.105562734134 0.92 7.62234618111e-39
-0.0152903104736 -0.105333249929 0.918 7.07133320417e-39
-0.01354697079 -0.104989023622 0.915 7.53051068496e-39
-0.0118276899343 -0.104759539418 0.913 7.71418167727e-39
-0.0101380199437 -0.104759539418 0.913 7.80601717343e-39
-0.008420589767 -0.104415313111 0.91 8.0815236619e-39
-0.0067364718136 -0.104415313111 0.91 8.26519465422e-39
-0.0050523538602 -0.104415313111 0.91 6.88766221185e-39
-0.00336083319052 -0.104185828906 0.908 1.62969862336e-38
-0.00168041659526 -0.104185828906 0.908 1.36254835789e-38
0.0 -0.104185828906 0.908 1.44534491843e-38
0.00168041659526 -0.104185828906 0.908 1.39935402258e-38
0.00336083319052 -0.104185828906 0.908 1.41768524857e-38
0.00503014571137 -0.103956344702 0.906 1.46360131509e-38
0.00670686094849 -0.103956344702 0.906 1.53750271324e-38
0.00838357618561 -0.103956344702 0.906 1.48232812763e-38
0.0100602914227 -0.103956344702 0.906 1.48218533532e-38
0.0117629161668 -0.104185828906 0.908 1.51906386753e-38
0.0134433327621 -0.104185828906 0.908 1.26152917199e-38
0.0151237493574 -0.104185828906 0.908 1.10460882723e-38
0.0168041659526 -0.104185828906 0.908 1.5288185864e-38
0.0185252974874 -0.104415313111 0.91 1.620797015e-38
0.0202760398873 -0.104759539418 0.913 9.75403083231e-39
0.0219657098779 -0.104759539418 0.913 6.79941403976e-39
0.0237071988825 -0.104989023622 0.915 1.43644134825e-38
0.0254005702312 -0.104989023622 0.915 1.55621705423e-38
0.02709394158 -0.104989023622 0.915 1.60170432342e-38
0.0287873129287 -0.104989023622 0.915 1.63843852188e-38
0.0304806842775 -0.104989023622 0.915 1.05797361433e-38
0.0321740556262 -0.104989023622 0.915 2.04420397028e-38
-0.0256781720917 -0.104424566506 0.925 2.0068208305e-38
-0.0239662939522 -0.104424566506 0.925 2.0897664892e-38
-0.0222544158128 -0.104424566506 0.925 6.42848473106e-39
-0.0205425376733 -0.104424566506 0.925 7.34683969264e-39
-0.0187899445944 -0.10419878366 0.923 7.98968816575e-39
-0.017026247441 -0.10386010939 0.92 7.34683969264e-39
-0.0152903104736 -0.103634326543 0.918 7.07133320417e-39
-0.01354697079 -0.103295652274 0.915 7.53051068496e-39
-0.0118276899343 -0.103069869427 0.913 7.71418167727e-39
-0.0101380199437 -0.103069869427 0.913 8.17335915806e-39
-0.008420589767 -0.102731195157 0.91 8.54070114269e-39
-0.0067364718136 -0.102731195157 0.91 8.17335915806e-39
-0.0050523538602 -0.102731195157 0.91 6.97949770801e-39
-0.0033682359068 -0.102731195157 0.91 1.57445355245e-38
-0.0016841179534 -0.102731195157 0.91 1.43641206111e-38
0.0 -0.102505412311 0.908 1.3902063462e-38
0.00168041659526 -0.102505412311 0.908 1.45459951388e-38
0.00336083319052 -0.102505412311 0.908 1.51899324208e-38
0.00504124978578 -0.102505412311 0.908 1.47300136532e-38
0.00672166638105 -0.102505412311 0.908 1.52831874323e-38
0.00840208297631 -0.102505412311 0.908 1.49147580401e-38
0.0100824995716 -0.102505412311 0.908 1.49147706518e-38
0.0117629161668 -0.102505412311 0.908 1.51917120699e-38
0.0134433327621 -0.102505412311 0.908 1.22450504487e-38
0.0151237493574 -0.102505412311 0.908 1.04007286723e-38
0.016841179534 -0.102731195157 0.91 5.87747175411e-39
0.0185863698967 -0.103069869427 0.913 9.19215919356e-39
0.0202760398873 -0.103069869427 0.913 1.01058506339e-38
0.0219657098779 -0.103069869427 0.913 4.86728129637e-39
0.0237071988825 -0.103295652274 0.915 1.64870835807e-38
0.0254005702312 -0.103295652274 0.915 1.4363645571e-38
0.02709394158 -0.103295652274 0.915 1.49207569988e-38
0.0287873129287 -0.103295652274 0.915 1.55636054719e-38
0.0304806842775 -0.103295652274 0.915 6.89591305721e-39
0.0321740556262 -0.103295652274 0.915 2.14608397383e-38
-0.0257614526498 -0.103045810599 0.928 1.78512420305e-38
-0.0240440224732 -0.103045810599 0.928 2.04341910301e-38
-0.0222544158128 -0.102712688367 0.925 6.70399121953e-39
-0.0205425376733 -0.102712688367 0.925 6.70399121953e-39
-0.0188306595339 -0.102712688367 0.925 7.98968816575e-39
-0.017026247441 -0.102157484646 0.92 6.79582671569e-39
-0.0152903104736 -0.101935403157 0.918 7.07133320417e-39
-0.01354697079 -0.101602280925 0.915 7.62234618111e-39
-0.0118276899343 -0.101380199437 0.913 7.71418167727e-39
-0.0101380199437 -0.101380199437 0.913 7.80601717343e-39
-0.00844834995305 -0.101380199437 0.913 7.89785266959e-39
-0.0067364718136 -0.101047077204 0.91 8.0815236619e-39
-0.0050523538602 -0.101047077204 0.91 6.79582671569e-39
-0.0033682359068 -0.101047077204 0.91 1.62037088013e-38
-0.0016841179534 -0.101047077204 0.91 1.39034941877e-38
0.0 -0.101047077204 0.91 1.39034941877e-38
0.00168041659526 -0.100824995716 0.908 1.41793608099e-38
0.00336083319052 -0.100824995716 0.908 1.47296577234e-38
0.00504124978578 -0.100824995716 0.908 1.53768249983e-38
0.00672166638105 -0.100824995716 0.908 1.42715536372e-38
0.00840208297631 -0.100824995716 0.908 1.50980674974e-38
0.0100824995716 -0.100824995716 0.908 1.57456103204e-38
0.0117629161668 -0.100824995716 0.908 1.31641298816e-38
0.0134729436272 -0.101047077204 0.91 1.46389068322e-38
0.0151570615806 -0.101047077204 0.91 1.70374225331e-38
0.0168966999061 -0.101380199437 0.913 1.18780027368e-38
0.0185863698967 -0.101380199437 0.913 9.75076300429e-39
0.0202760398873 -0.101380199437 0.913 5.32645877716e-39
0.0220138275337 -0.101602280925 0.915 1.5834973926e-38
0.0237071988825 -0.101602280925 0.915 1.32641307439e-38
0.0254838507894 -0.101935403157 0.918 5.97002471508e-39
0.0271827741753 -0.101935403157 0.918 1.34349139943e-38
0.0288816975613 -0.101935403157 0.918 1.30736438359e-38
0.0304806842775 -0.101602280925 0.915 1.11282379934e-38
0.0321740556262 -0.101602280925 0.915 2.12742932815e-38
-0.0240440224732 -0.101328380423 0.928 2.00700902488e-38
-0.0222544158128 -0.101000810227 0.925 6.79582671569e-39
-0.0205425376733 -0.101000810227 0.925 7.07133320417e-39
-0.0188306595339 -0.101000810227 0.925 7.98968816575e-39
-0.017026247441 -0.100454859902 0.92 7.16316870032e-39
-0.0152903104736 -0.100236479772 0.918 7.25500419648e-39
-0.01354697079 -0.0999089095762 0.915 7.62234618111e-39
-0.0118535994412 -0.0999089095762 0.915 7.71418167727e-39
-0.0101380199437 -0.099690529446 0.913 7.80601717343e-39
-0.00844834995305 -0.099690529446 0.913 7.62234618111e-39
-0.0067364718136 -0.0993629592506 0.91 8.35703015038e-39
-0.0050523538602 -0.0993629592506 0.91 6.61215572338e-39
-0.00337933998122 -0.099690529446 0.913 1.60222000126e-38
-0.00168966999061 -0.099690529446 0.913 1.39034941877e-38
0.0 -0.0993629592506 0.91 1.43633737191e-38
0.0016841179534 -0.0993629592506 0.91 1.39949891684e-38
0.0033682359068 -0.0993629592506 0.91 1.47289388572e-38
0.0050523538602 -0.0993629592506 0.91 1.51895652806e-38
0.0067364718136 -0.0993629592506 0.91 1.50073208102e-38
0.008420589767 -0.0993629592506 0.91 1.49144049129e-38
0.0101047077204 -0.0993629592506 0.91 1.55597771245e-38
0.0117888256738 -0.0993629592506 0.91 1.40886071162e-38
0.0134729436272 -0.0993629592506 0.91 9.36937300256e-39
0.0151570615806 -0.0993629592506 0.91 1.70309135017e-38
0.0168966999061 -0.099690529446 0.913 9.10713961314e-39
0.0185863698967 -0.099690529446 0.913 1.25886530361e-38
0.020320456185 -0.0999089095762 0.915 3.21424236553e-39
0.0220138275337 -0.0999089095762 0.915 1.83323582401e-38
0.0237071988825 -0.0999089095762 0.915 2.93873587706e-39
0.0254838507894 -0.100236479772 0.918 1.62115252442e-38
0.0271827741753 -0.100236479772 0.918 1.50064940441e-38
0.0288816975613 -0.100236479772 0.918 1.46348472706e-38
0.0306472453938 -0.100454859902 0.92 1.26015519884e-38
0.0323498701378 -0.100454859902 0.92 1.89672991859e-38
-0.0240958414871 -0.0998256290181 0.93 2.34925431454e-38
-0.0223265922965 -0.099610950246 0.928 5.32645877716e-39
-0.0206091621199 -0.099610950246 0.928 6.52032022722e-39
-0.0188306595339 -0.0992889320879 0.925 7.80601717343e-39
-0.0170817678131 -0.0990742533158 0.923 7.62234618111e-39
-0.0153236226969 -0.0987522351576 0.92 7.16316870032e-39
-0.01354697079 -0.0982155382274 0.915 7.71418167727e-39
-0.0118535994412 -0.0982155382274 0.915 7.98968816575e-39
-0.0101602280925 -0.0982155382274 0.915 7.71418167727e-39
-0.00844834995305 -0.0980008594554 0.913 8.17335915806e-39
-0.00675867996244 -0.0980008594554 0.913 8.26519465422e-39
-0.00506900997183 -0.0980008594554 0.913 6.70399121953e-39
-0.00337933998122 -0.0980008594554 0.913 1.61150962917e-38
-0.00168966999061 -0.0980008594554 0.913 1.37183980749e-38
0.0 -0.0980008594554 0.913 1.47318115191e-38
0.0016841179534 -0.0976788412972 0.91 1.43641023943e-38
0.0033682359068 -0.0976788412972 0.91 1.44552218269e-38
0.0050523538602 -0.0976788412972 0.91 1.43626730698e-38
0.0067364718136 -0.0976788412972 0.91 1.51005884333e-38
0.008420589767 -0.0976788412972 0.91 1.64838788111e-38
0.0101047077204 -0.0976788412972 0.91 1.38145369586e-38
0.0117888256738 -0.0976788412972 0.91 6.89878291646e-39
0.0135173599249 -0.0980008594554 0.913 1.12189972924e-38
0.0152070299155 -0.0980008594554 0.913 1.36942565049e-38
0.0169337134875 -0.0982155382274 0.915 9.00346594755e-39
0.0186270848362 -0.0982155382274 0.915 9.099964965e-39
0.020320456185 -0.0982155382274 0.915 1.12280216545e-38
0.0220138275337 -0.0982155382274 0.915 1.54743105299e-38
0.0237849274034 -0.0985375563856 0.918 7.35580800281e-39
0.0254838507894 -0.0985375563856 0.918 1.72245603378e-38
0.0272419959056 -0.0987522351576 0.92 1.36260917424e-38
