# .PCD v0.7 - Point Cloud Data file format
VERSION 0.7
FIELDS x y z rgb
SIZE 4 4 4 4
TYPE F F F F
COUNT 1 1 1 1
WIDTH 837
HEIGHT 1
VIEWPOINT 0 0 0 1 0 0 0
POINTS 837
DATA ascii
0.0259557739521 -0.0744065519961 0.935 2.34878487955e-38
0.0276861588823 -0.0744065519961 0.935 2.34878291773e-38
-0.0350148479982 -0.0735311807962 0.946 2.21938687741e-38
-0.0331586168913 -0.0732979952334 0.943 2.2009837648e-38
-0.0314134265286 -0.0732979952334 0.943 2.34889319992e-38
-0.0294165438124 -0.072676167066 0.935 8.64509227309e-39
-0.0276861588823 -0.072676167066 0.935 8.81620763117e-39
-0.02590025358 -0.0725207100241 0.933 8.81622024285e-39
-0.024173570008 -0.0725207100241 0.933 8.54070114269e-39
-0.022446886436 -0.0725207100241 0.933 9.37080793218e-39
-0.020720202864 -0.0725207100241 0.933 9.73780799999e-39
-0.018993519292 -0.0725207100241 0.933 7.89785266959e-39
-0.0172113153479 -0.0722875244614 0.93 9.36722060812e-39
-0.0154901838131 -0.0722875244614 0.93 8.54070114269e-39
-0.0137394414132 -0.0721320674195 0.928 8.63253663885e-39
-0.0120220112366 -0.0721320674195 0.928 9.64272709659e-39
-0.0103045810599 -0.0721320674195 0.928 9.09177157288e-39
-0.00855939069723 -0.0718988818567 0.925 1.28641875505e-38
-0.00684751255778 -0.0718988818567 0.925 1.1589273596e-38
-0.00513563441834 -0.0718988818567 0.925 1.14051794115e-38
-0.00342375627889 -0.0718988818567 0.925 1.12179210951e-38
-0.00171187813945 -0.0718988818567 0.925 1.25990422629e-38
0.0 -0.0718988818567 0.925 1.18629640016e-38
0.00171187813945 -0.0718988818567 0.925 8.35738888278e-39
0.00342375627889 -0.0718988818567 0.925 9.64272709659e-39
0.00515229052996 -0.0721320674195 0.928 9.91823358506e-39
0.00686972070662 -0.0721320674195 0.928 9.91823358506e-39
0.00858715088327 -0.0721320674195 0.928 9.91823358506e-39
0.0103045810599 -0.0721320674195 0.928 9.91823358506e-39
0.0120220112366 -0.0721320674195 0.928 1.02855755697e-38
0.0137394414132 -0.0721320674195 0.928 1.08365885466e-38
0.0154568715899 -0.0721320674195 0.928 1.09284240428e-38
0.01726683572 -0.0725207100241 0.933 1.12039305313e-38
0.0190342342316 -0.072676167066 0.935 1.23077501472e-38
0.0207646191617 -0.072676167066 0.935 1.05610820582e-38
0.0224950040919 -0.072676167066 0.935 1.84862866725e-38
0.024225389022 -0.072676167066 0.935 2.21049199527e-38
0.0260390545103 -0.0729093526288 0.938 2.34907242599e-38
-0.0332641055983 -0.0717804383963 0.946 2.29339407359e-38
-0.0315133631984 -0.0717804383963 0.946 2.34939682659e-38
-0.0295738515333 -0.0713251713451 0.94 5.97181837712e-39
-0.0277749914776 -0.0711734156614 0.938 1.13036791599e-38
-0.0259557739521 -0.0709457821358 0.935 7.8985701344e-39
-0.024225389022 -0.0709457821358 0.935 8.63253663885e-39
-0.0224950040919 -0.0709457821358 0.935 8.90804312733e-39
-0.0207646191617 -0.0709457821358 0.935 9.55125033284e-39
-0.0190342342316 -0.0709457821358 0.935 8.0815236619e-39
-0.01726683572 -0.0707940264521 0.933 9.27538511196e-39
-0.0154901838131 -0.0705663929266 0.93 8.54070114269e-39
-0.0137690522784 -0.0705663929266 0.93 8.99987862348e-39
-0.0120479207436 -0.0705663929266 0.93 8.90804312733e-39
-0.0103045810599 -0.0704146372428 0.928 1.15888504038e-38
-0.00858715088327 -0.0704146372428 0.928 9.27538511196e-39
-0.00686972070662 -0.0704146372428 0.928 1.01937400735e-38
-0.00515229052996 -0.0704146372428 0.928 8.17335915806e-39
-0.00342375627889 -0.0701870037173 0.925 8.72437213501e-39
-0.00171187813945 -0.0701870037173 0.925 8.81620763117e-39
0.0 -0.0701870037173 0.925 9.8264008915e-39
0.00171187813945 -0.0701870037173 0.925 9.64272709659e-39
0.00343486035331 -0.0704146372428 0.928 9.73456259275e-39
0.00515229052996 -0.0704146372428 0.928 9.64272709659e-39
0.00686972070662 -0.0704146372428 0.928 1.01019045774e-38
0.00858715088327 -0.0704146372428 0.928 9.91823358506e-39
0.0103045810599 -0.0704146372428 0.928 1.01019045774e-38
0.0120220112366 -0.0704146372428 0.928 1.07447530505e-38
0.013813468576 -0.0707940264521 0.933 1.1020259539e-38
0.015540152148 -0.0707940264521 0.933 1.08365885466e-38
0.0173038493014 -0.0709457821358 0.935 1.12039305313e-38
0.0190342342316 -0.0709457821358 0.935 1.11120950351e-38
0.0208312436082 -0.0711734156614 0.938 1.0469246562e-38
0.0225671805756 -0.0711734156614 0.938 1.94086255256e-38
0.0243031175429 -0.0711734156614 0.938 2.3026541341e-38
0.0260390545103 -0.0711734156614 0.938 2.34860467257e-38
-0.0332641055983 -0.0700296959964 0.946 2.25630268415e-38
-0.0315133631984 -0.0700296959964 0.946 2.34918074637e-38
-0.0295738515333 -0.0695855330196 0.94 6.98523742652e-39
-0.0277749914776 -0.0694374786941 0.938 9.55196779765e-39
-0.0259557739521 -0.0692153972057 0.935 8.35775742428e-39
-0.024225389022 -0.0692153972057 0.935 8.35703015038e-39
-0.0224950040919 -0.0692153972057 0.935 8.44886564654e-39
-0.0207646191617 -0.0692153972057 0.935 1.02898971742e-38
-0.0190342342316 -0.0692153972057 0.935 7.89785266959e-39
-0.01726683572 -0.0690673428801 0.933 9.55304399487e-39
-0.015540152148 -0.0690673428801 0.933 8.54070114269e-39
-0.0137690522784 -0.0688452613918 0.93 8.72437213501e-39
-0.0120479207436 -0.0688452613918 0.93 9.09171411964e-39
-0.0103267892088 -0.0688452613918 0.93 9.36722060812e-39
-0.00858715088327 -0.0686972070662 0.928 1.00100690812e-38
-0.00686972070662 -0.0686972070662 0.928 1.31436611149e-38
-0.00515229052996 -0.0686972070662 0.928 1.07547989592e-38
-0.00343486035331 -0.0686972070662 0.928 1.21366614138e-38
-0.00171743017665 -0.0686972070662 0.928 1.23279106282e-38
0.0 -0.0686972070662 0.928 1.22302821642e-38
0.00171743017665 -0.0686972070662 0.928 1.15842247176e-38
0.00343486035331 -0.0686972070662 0.928 9.18390834821e-39
0.00515229052996 -0.0686972070662 0.928 9.82639808891e-39
0.00686972070662 -0.0686972070662 0.928 1.01019045774e-38
0.00858715088327 -0.0686972070662 0.928 1.01937400735e-38
0.0103045810599 -0.0686972070662 0.928 1.01937400735e-38
0.0120479207436 -0.0688452613918 0.93 1.06529175543e-38
0.013813468576 -0.0690673428801 0.933 1.08365885466e-38
0.0155734643713 -0.0692153972057 0.935 1.09284240428e-38
0.0173038493014 -0.0692153972057 0.935 1.11120950351e-38
0.0190342342316 -0.0692153972057 0.935 1.27687254939e-38
0.0208312436082 -0.0694374786941 0.938 1.03774110659e-38
0.0225671805756 -0.0694374786941 0.938 1.9777745758e-38
0.0243031175429 -0.0694374786941 0.938 2.33949581216e-38
0.0260390545103 -0.0694374786941 0.938 2.33016638737e-38
-0.0315133631984 -0.0682789535964 0.946 2.34918074637e-38
-0.0296682361659 -0.0680624241453 0.943 7.53768533309e-39
-0.0278342132079 -0.0678458946941 0.94 8.0815236619e-39
-0.0260390545103 -0.0677015417267 0.938 8.81764256079e-39
-0.0243031175429 -0.0677015417267 0.938 8.35703015038e-39
-0.0225671805756 -0.0677015417267 0.938 8.63253663885e-39
-0.0208312436082 -0.0677015417267 0.938 8.81620763117e-39
-0.0190342342316 -0.0674850122756 0.935 8.26519465422e-39
-0.0173038493014 -0.0674850122756 0.935 9.45905610427e-39
-0.015540152148 -0.0673406593081 0.933 8.99987862348e-39
-0.013813468576 -0.0673406593081 0.933 8.72437213501e-39
-0.012086785004 -0.0673406593081 0.933 1.07483571901e-38
-0.0103267892088 -0.067124129857 0.93 9.45910795232e-39
-0.00860565767397 -0.067124129857 0.93 1.36935978947e-38
-0.00686972070662 -0.0669797768895 0.928 1.10357396831e-38
-0.00515229052996 -0.0669797768895 0.928 1.1124301746e-38
-0.00343486035331 -0.0669797768895 0.928 8.63253663885e-39
-0.00171743017665 -0.0669797768895 0.928 8.72437213501e-39
0.0 -0.0669797768895 0.928 9.55089160043e-39
0.00171743017665 -0.0669797768895 0.928 9.55089160043e-39
0.00343486035331 -0.0669797768895 0.928 1.02855755697e-38
0.00515229052996 -0.0669797768895 0.928 1.01019045774e-38
0.00686972070662 -0.0669797768895 0.928 9.91823358506e-39
0.00858715088327 -0.0669797768895 0.928 9.91823358506e-39
0.0103045810599 -0.0669797768895 0.928 1.02855755697e-38
0.0120479207436 -0.067124129857 0.93 1.09284240428e-38
0.0138430794411 -0.0674850122756 0.935 1.11120950351e-38
0.0155734643713 -0.0674850122756 0.935 1.08365885466e-38
0.0173038493014 -0.0674850122756 0.935 1.16631080121e-38
0.0190953066409 -0.0677015417267 0.938 1.20340373208e-38
0.0208312436082 -0.0677015417267 0.938 1.03774110659e-38
0.0225671805756 -0.0677015417267 0.938 2.06079001916e-38
0.0243549365569 -0.0678458946941 0.94 2.34882341526e-38
0.0260945748824 -0.0678458946941 0.94 2.33020113958e-38
-0.0315133631984 -0.0665282111965 0.946 2.34910843937e-38
-0.0296682361659 -0.0663172337826 0.943 7.81247435675e-39
-0.0278342132079 -0.0661062563686 0.94 9.73563878997e-39
-0.0260945748824 -0.0661062563686 0.94 8.81692789858e-39
-0.0243549365569 -0.0661062563686 0.94 8.90840185973e-39
-0.0225671805756 -0.0659656047594 0.938 1.0750868317e-38
-0.0208312436082 -0.0659656047594 0.938 8.0815236619e-39
-0.0190342342316 -0.0657546273454 0.935 8.54070114269e-39
-0.0173038493014 -0.0657546273454 0.935 9.1835496158e-39
-0.015540152148 -0.0656139757361 0.933 8.63253663885e-39
-0.013813468576 -0.0656139757361 0.933 8.63253663885e-39
-0.012086785004 -0.0656139757361 0.933 8.72437213501e-39
-0.010360101432 -0.0656139757361 0.933 9.36722060812e-39
-0.00860565767397 -0.0654029983222 0.93 1.05610820582e-38
-0.00688452613918 -0.0654029983222 0.93 8.26519465422e-39
-0.00516339460438 -0.0654029983222 0.93 8.72437213501e-39
-0.00344226306959 -0.0654029983222 0.93 9.82639808891e-39
-0.00172113153479 -0.0654029983222 0.93 9.09171411964e-39
0.0 -0.0652623467129 0.928 9.64272709659e-39
0.00171743017665 -0.0652623467129 0.928 9.27538511196e-39
0.00343486035331 -0.0652623467129 0.928 9.91823358506e-39
0.00515229052996 -0.0652623467129 0.928 1.03774110659e-38
0.00686972070662 -0.0652623467129 0.928 9.73456259275e-39
0.00858715088327 -0.0652623467129 0.928 1.13890518675e-38
0.0103267892088 -0.0654029983222 0.93 1.50886563769e-38
0.0120479207436 -0.0654029983222 0.93 8.63648269533e-39
0.013813468576 -0.0656139757361 0.933 1.12039305313e-38
0.0155734643713 -0.0657546273454 0.935 1.12039305313e-38
0.0173038493014 -0.0657546273454 0.935 1.12957660274e-38
0.0190953066409 -0.0659656047594 0.938 1.17574546351e-38
0.0208756599059 -0.0661062563686 0.94 1.02855755697e-38
0.0226152982314 -0.0661062563686 0.94 2.05157157721e-38
0.0243549365569 -0.0661062563686 0.94 2.34896858978e-38
0.0260945748824 -0.0661062563686 0.94 2.34860397192e-38
-0.0353109566493 -0.0653252698012 0.954 2.210527308e-38
-0.0334399201099 -0.0651198444245 0.951 2.28406731127e-38
-0.0315799876449 -0.0649144190478 0.948 2.34910942027e-38
-0.0297626207984 -0.0647774687966 0.946 6.52175515684e-39
-0.0279230458032 -0.0645720434199 0.943 8.72437213501e-39
-0.0260945748824 -0.0643666180432 0.94 9.27646691437e-39
-0.0243549365569 -0.0643666180432 0.94 8.90804312733e-39
-0.0225671805756 -0.064229667792 0.938 9.36793807293e-39
-0.0208312436082 -0.064229667792 0.938 9.45905610427e-39
-0.0190342342316 -0.0640242424153 0.935 8.26520306201e-39
-0.0173038493014 -0.0640242424153 0.935 8.99987862348e-39
-0.0155734643713 -0.0640242424153 0.935 8.72437213501e-39
-0.013813468576 -0.0638872921641 0.933 8.72437213501e-39
-0.012086785004 -0.0638872921641 0.933 8.81620763117e-39
-0.010360101432 -0.0638872921641 0.933 9.36722060812e-39
-0.00863341786002 -0.0638872921641 0.933 1.24017618599e-38
-0.00688452613918 -0.0636818667874 0.93 1.22309814121e-38
-0.00516339460438 -0.0636818667874 0.93 1.14055381439e-38
-0.00344226306959 -0.0636818667874 0.93 1.3063620348e-38
-0.00172113153479 -0.0636818667874 0.93 1.17710864665e-38
0.0 -0.0636818667874 0.93 1.35239328805e-38
0.00172113153479 -0.0636818667874 0.93 1.1678892238e-38
0.00344226306959 -0.0636818667874 0.93 1.34291574602e-38
0.00516339460438 -0.0636818667874 0.93 1.296931156e-38
0.00688452613918 -0.0636818667874 0.93 1.24146524045e-38
0.00860565767397 -0.0636818667874 0.93 1.08451981244e-38
0.010360101432 -0.0638872921641 0.933 9.82639808891e-39
0.012086785004 -0.0638872921641 0.933 1.02855755697e-38
0.013813468576 -0.0638872921641 0.933 1.12957660274e-38
0.0155734643713 -0.0640242424153 0.935 1.11120950351e-38
0.0173038493014 -0.0640242424153 0.935 1.17549435082e-38
0.0190953066409 -0.064229667792 0.938 1.23077515485e-38
0.0208756599059 -0.0643666180432 0.94 1.02855755697e-38
0.0226152982314 -0.0643666180432 0.94 2.08887974753e-38
0.0243549365569 -0.0643666180432 0.94 2.34910998079e-38
-0.0370765044818 -0.0635597219688 0.954 2.21038213347e-38
-0.0353109566493 -0.0635597219688 0.954 2.25640778154e-38
-0.0334399201099 -0.0633598486293 0.951 2.21953037037e-38
-0.0316799243146 -0.0633598486293 0.951 2.34900067951e-38
-0.0299199285194 -0.0633598486293 0.951 6.42884346347e-39
-0.0280118783985 -0.0630267263967 0.946 8.81620763117e-39
-0.0261778554405 -0.0628268530572 0.943 9.09171552094e-39
-0.0243549365569 -0.0626269797177 0.94 9.27538511196e-39
-0.0225671805756 -0.0624937308247 0.938 9.00239815812e-39
-0.0208312436082 -0.0624937308247 0.938 9.28004863325e-39
-0.0190342342316 -0.0622938574851 0.935 7.80601717343e-39
-0.0173038493014 -0.0622938574851 0.935 9.1835496158e-39
-0.0155734643713 -0.0622938574851 0.935 9.09171411964e-39
-0.0138430794411 -0.0622938574851 0.935 9.09171411964e-39
-0.012112694511 -0.0622938574851 0.935 8.63253663885e-39
-0.0103823095809 -0.0622938574851 0.935 8.72437213501e-39
-0.00863341786002 -0.0621606085921 0.933 9.45905610427e-39
-0.00690673428801 -0.0621606085921 0.933 9.27538511196e-39
-0.00518005071601 -0.0621606085921 0.933 9.45905610427e-39
-0.00345336714401 -0.0621606085921 0.933 9.45905610427e-39
-0.00172113153479 -0.0619607352526 0.93 9.45905610427e-39
0.0 -0.0619607352526 0.93 9.45905610427e-39
0.00172113153479 -0.0619607352526 0.93 9.55089160043e-39
0.00344226306959 -0.0619607352526 0.93 9.55089160043e-39
0.00518005071601 -0.0621606085921 0.933 1.00100690812e-38
0.00688452613918 -0.0619607352526 0.93 1.01937400735e-38
0.00860565767397 -0.0619607352526 0.93 1.03774110659e-38
0.010360101432 -0.0621606085921 0.933 1.06529175543e-38
0.012112694511 -0.0622938574851 0.935 1.02855755697e-38
0.0138430794411 -0.0622938574851 0.935 1.09284240428e-38
0.0155734643713 -0.0622938574851 0.935 1.11120950351e-38
0.0173038493014 -0.0622938574851 0.935 1.17549435082e-38
0.0191360215804 -0.0626269797177 0.94 1.20308087291e-38
0.0208756599059 -0.0626269797177 0.94 1.07447530505e-38
0.0226152982314 -0.0626269797177 0.94 2.09827685503e-38
0.0243549365569 -0.0626269797177 0.94 2.34864124646e-38
-0.0369599117004 -0.061599852834 0.951 2.20109068388e-38
-0.0351999159051 -0.061599852834 0.951 2.32994778481e-38
-0.0335454088169 -0.0617941741363 0.954 2.21935156468e-38
-0.0317798609844 -0.0617941741363 0.954 2.34943213931e-38
-0.0299199285194 -0.061599852834 0.951 5.78599499036e-39
-0.0280118783985 -0.0612759839968 0.946 9.1835496158e-39
-0.0261778554405 -0.0610816626945 0.943 9.27646691437e-39
-0.0244326650778 -0.0610816626945 0.943 8.72580706464e-39
-0.0226152982314 -0.0608873413922 0.94 9.83321540593e-39
-0.0208756599059 -0.0608873413922 0.94 8.44886564654e-39
-0.0190953066409 -0.0607577938573 0.938 8.54070114269e-39
-0.0173593696735 -0.0607577938573 0.938 8.90804312733e-39
-0.0155734643713 -0.060563472555 0.935 8.90804312733e-39
-0.0138430794411 -0.060563472555 0.935 8.99987862348e-39
-0.012112694511 -0.060563472555 0.935 8.99987862348e-39
-0.0103823095809 -0.060563472555 0.935 8.72437213501e-39
-0.00865192465071 -0.060563472555 0.935 9.36722060812e-39
-0.00692153972057 -0.060563472555 0.935 9.09171411964e-39
-0.00519115479043 -0.060563472555 0.935 9.27538511196e-39
-0.00346076986028 -0.060563472555 0.935 9.64272709659e-39
-0.001726683572 -0.0604339250201 0.933 9.64272709659e-39
0.0 -0.0604339250201 0.933 9.55089160043e-39
0.001726683572 -0.0604339250201 0.933 1.01019045774e-38
0.00345336714401 -0.0604339250201 0.933 9.73456259275e-39
0.00518005071601 -0.0604339250201 0.933 9.91823358506e-39
0.00690673428801 -0.0604339250201 0.933 1.03774110659e-38
0.00863341786002 -0.0604339250201 0.933 9.91823358506e-39
0.0103823095809 -0.060563472555 0.935 1.03774110659e-38
0.012112694511 -0.060563472555 0.935 1.03774110659e-38
0.0138430794411 -0.060563472555 0.935 1.07447530505e-38
0.0156234327062 -0.0607577938573 0.938 1.14794370197e-38
0.0173593696735 -0.0607577938573 0.938 1.17549435082e-38
0.019258166399 -0.0612759839968 0.946 1.18478552016e-38
0.0210089087989 -0.0612759839968 0.946 1.08365885466e-38
0.0227596511988 -0.0612759839968 0.946 2.14448383111e-38
0.0245103935987 -0.0612759839968 0.946 2.34893089485e-38
-0.038516332798 -0.0595252415969 0.946 2.25626540961e-38
-0.0367655903981 -0.0595252415969 0.946 2.21952980985e-38
-0.035088875161 -0.0596510877736 0.948 2.23778970975e-38
-0.0335454088169 -0.0600286263038 0.954 2.23778970975e-38
-0.0317798609844 -0.0600286263038 0.954 2.34907270625e-38
-0.0299199285194 -0.0598398570387 0.951 7.35150321393e-39
-0.0281599327241 -0.0598398570387 0.951 8.17335915806e-39
-0.0262611359986 -0.0595252415969 0.946 9.09207565464e-39
-0.0245103935987 -0.0595252415969 0.946 8.81620763117e-39
-0.0226874747151 -0.0593364723318 0.943 9.45905610427e-39
-0.0209422843524 -0.0593364723318 0.943 9.55089440303e-39
-0.0191360215804 -0.0591477030667 0.94 8.35703995947e-39
-0.0173963832549 -0.0591477030667 0.94 8.81620763117e-39
-0.0156234327062 -0.0590218568899 0.938 8.81620763117e-39
-0.0138874957388 -0.0590218568899 0.938 8.99987862348e-39
-0.0121515587715 -0.0590218568899 0.938 8.99987862348e-39
-0.0104156218041 -0.0590218568899 0.938 8.99987862348e-39
-0.00867968483676 -0.0590218568899 0.938 8.99987862348e-39
-0.00694374786941 -0.0590218568899 0.938 9.64272709659e-39
-0.00520781090205 -0.0590218568899 0.938 9.45905610427e-39
-0.00346076986028 -0.0588330876248 0.935 9.55089160043e-39
-0.00173038493014 -0.0588330876248 0.935 9.73456259275e-39
0.0 -0.0588330876248 0.935 9.64272709659e-39
0.00173038493014 -0.0588330876248 0.935 9.91823358506e-39
0.00346076986028 -0.0588330876248 0.935 9.45905610427e-39
0.00519115479043 -0.0588330876248 0.935 9.64272709659e-39
0.00690673428801 -0.0587072414481 0.933 1.03774110659e-38
0.00863341786002 -0.0587072414481 0.933 1.01937400735e-38
0.0103823095809 -0.0588330876248 0.935 1.09284240428e-38
0.012112694511 -0.0588330876248 0.935 1.11120950351e-38
0.0138874957388 -0.0590218568899 0.938 1.1020259539e-38
0.0156234327062 -0.0590218568899 0.938 1.15712725159e-38
0.0173963832549 -0.0591477030667 0.94 1.18467790044e-38
0.0192988813385 -0.0596510877736 0.948 1.14808719494e-38
0.0211199495431 -0.0598398570387 0.951 1.16631080121e-38
0.0228799453383 -0.0598398570387 0.951 2.1540635278e-38
-0.038516332798 -0.057774499197 0.946 2.31172796205e-38
-0.0367655903981 -0.057774499197 0.946 2.19183580817e-38
-0.035088875161 -0.0578966440156 0.948 2.20105537116e-38
-0.0335454088169 -0.0582630784714 0.954 2.21952980985e-38
-0.0317798609844 -0.0582630784714 0.954 2.34896382536e-38
-0.0299199285194 -0.0580798612435 0.951 6.3366492349e-39
-0.0281599327241 -0.0580798612435 0.951 1.06626033293e-38
-0.0262611359986 -0.057774499197 0.946 7.98968816575e-39
-0.0245103935987 -0.057774499197 0.946 8.17335915806e-39
-0.0227596511988 -0.057774499197 0.946 1.03809983899e-38
-0.0209422843524 -0.0575912819691 0.943 9.64380329381e-39
-0.0191360215804 -0.0574080647412 0.94 8.35703015038e-39
-0.0173963832549 -0.0574080647412 0.94 8.99987862348e-39
-0.0156234327062 -0.0572859199226 0.938 8.63253663885e-39
-0.0138874957388 -0.0572859199226 0.938 8.63253663885e-39
-0.0121515587715 -0.0572859199226 0.938 1.13901126504e-38
-0.0104156218041 -0.0572859199226 0.938 1.1671000125e-38
-0.00867968483676 -0.0572859199226 0.938 7.98968816575e-39
-0.00694374786941 -0.0572859199226 0.938 1.203907639e-38
-0.00520781090205 -0.0572859199226 0.938 1.15838281501e-38
-0.0034718739347 -0.0572859199226 0.938 1.14008746226e-38
-0.00173593696735 -0.0572859199226 0.938 8.81620763117e-39
0.0 -0.0572859199226 0.938 9.73456259275e-39
0.00173038493014 -0.0571027026947 0.935 1.17585616609e-38
0.00346076986028 -0.0571027026947 0.935 9.82639808891e-39
0.00519115479043 -0.0571027026947 0.935 8.63253663885e-39
0.00692153972057 -0.0571027026947 0.935 1.36096138738e-38
0.00865192465071 -0.0571027026947 0.935 1.07530038958e-38
0.0104156218041 -0.0572859199226 0.938 1.36056734225e-38
0.0121515587715 -0.0572859199226 0.938 1.34212695511e-38
0.0138874957388 -0.0572859199226 0.938 9.36973313626e-39
0.0156567449294 -0.0574080647412 0.94 1.16631080121e-38
0.0175074239991 -0.057774499197 0.946 1.17549435082e-38
0.0192988813385 -0.0578966440156 0.948 1.16631080121e-38
0.0211199495431 -0.0580798612435 0.951 1.11120950351e-38
0.0228799453383 -0.0580798612435 0.951 2.09885334922e-38
-0.0353109566493 -0.0564975306389 0.954 2.20109068388e-38
-0.0335454088169 -0.0564975306389 0.954 2.22878468556e-38
-0.0317798609844 -0.0564975306389 0.954 2.34925165207e-38
-0.0299199285194 -0.0563198654482 0.951 6.15297824259e-39
-0.0281599327241 -0.0563198654482 0.951 1.03831521857e-38
-0.0263166563707 -0.0561422002575 0.948 9.92507612546e-39
-0.0245622126127 -0.0561422002575 0.948 8.45030057616e-39
-0.0227596511988 -0.0560237567971 0.946 9.64452776512e-39
-0.0210089087989 -0.0560237567971 0.946 9.1835496158e-39
-0.0191360215804 -0.0556684264157 0.94 8.26519465422e-39
-0.0173963832549 -0.0556684264157 0.94 9.1835496158e-39
-0.0156234327062 -0.0555499829552 0.938 8.81620763117e-39
-0.0138874957388 -0.0555499829552 0.938 8.72437213501e-39
-0.0121515587715 -0.0555499829552 0.938 1.2220590784e-38
-0.0104156218041 -0.0555499829552 0.938 1.00100690812e-38
-0.00867968483676 -0.0555499829552 0.938 1.01955519525e-38
-0.00694374786941 -0.0555499829552 0.938 1.21420886428e-38
-0.00520781090205 -0.0555499829552 0.938 1.1306900745e-38
-0.0034718739347 -0.0555499829552 0.938 9.82893443913e-39
-0.00173593696735 -0.0555499829552 0.938 1.05639561213e-38
0.0 -0.0555499829552 0.938 1.35220719561e-38
0.00173593696735 -0.0555499829552 0.938 1.15853023161e-38
0.0034718739347 -0.0555499829552 0.938 1.1023499341e-38
0.00520781090205 -0.0555499829552 0.938 9.82639808891e-39
0.00694374786941 -0.0555499829552 0.938 1.26880177089e-38
0.00867968483676 -0.0555499829552 0.938 1.06597334701e-38
0.0104156218041 -0.0555499829552 0.938 1.02855755697e-38
0.0121774682784 -0.0556684264157 0.94 1.17549435082e-38
0.0139171066039 -0.0556684264157 0.94 1.00100690812e-38
0.0157067132643 -0.0558460916064 0.943 1.16631080121e-38
0.0175074239991 -0.0560237567971 0.946 1.20311674615e-38
0.0193599537478 -0.0563198654482 0.951 1.14801544846e-38
0.0211199495431 -0.0563198654482 0.951 1.17549435082e-38
0.0228799453383 -0.0563198654482 0.951 2.11750687386e-38
0.0246399411336 -0.0563198654482 0.951 2.34899983873e-38
-0.0353109566493 -0.0547319828065 0.954 2.21960197672e-38
-0.0335454088169 -0.0547319828065 0.954 2.23797145816e-38
-0.0317798609844 -0.0547319828065 0.954 2.34878431903e-38
-0.0300143131519 -0.0547319828065 0.954 7.25787405574e-39
-0.0281599327241 -0.054559869653 0.951 9.92289710635e-39
-0.0263999369289 -0.054559869653 0.951 8.63540649811e-39
-0.0245622126127 -0.0543877564995 0.948 9.27789623881e-39
-0.0228077688546 -0.0543877564995 0.948 9.55268526247e-39
-0.0210089087989 -0.0542730143972 0.946 9.55196779765e-39
-0.0191970939897 -0.0541009012437 0.943 8.54071515568e-39
-0.0173963832549 -0.0539287880902 0.94 9.09171411964e-39
-0.0156567449294 -0.0539287880902 0.94 9.1835496158e-39
-0.0139171066039 -0.0539287880902 0.94 8.81620763117e-39
-0.0121515587715 -0.0538140459879 0.938 9.73456259275e-39
-0.0104156218041 -0.0538140459879 0.938 9.36722060812e-39
-0.00867968483676 -0.0538140459879 0.938 8.17335915806e-39
-0.00694374786941 -0.0538140459879 0.938 7.80601717343e-39
-0.00521891497647 -0.0539287880902 0.94 8.44886564654e-39
-0.0034718739347 -0.0538140459879 0.938 8.54070114269e-39
-0.00173593696735 -0.0538140459879 0.938 7.98968816575e-39
0.0 -0.0538140459879 0.938 8.44886564654e-39
0.00173593696735 -0.0538140459879 0.938 8.17335915806e-39
0.0034718739347 -0.0538140459879 0.938 8.44886564654e-39
0.00520781090205 -0.0538140459879 0.938 8.54070114269e-39
0.00694374786941 -0.0538140459879 0.938 9.27538511196e-39
0.00867968483676 -0.0538140459879 0.938 1.19443640281e-38
0.0104378299529 -0.0539287880902 0.94 1.53681958024e-38
0.0122551967994 -0.0542730143972 0.946 1.74940678675e-38
0.0140059391993 -0.0542730143972 0.946 9.27538511196e-39
0.0157566815992 -0.0542730143972 0.946 1.14794370197e-38
0.0175074239991 -0.0542730143972 0.946 1.18471377368e-38
0.0192988813385 -0.0543877564995 0.948 1.1020259539e-38
0.0211199495431 -0.054559869653 0.951 1.19386145005e-38
0.0228799453383 -0.054559869653 0.951 2.13598145268e-38
0.0246399411336 -0.054559869653 0.951 2.34900067951e-38
-0.0335454088169 -0.052966434974 0.954 2.19183580817e-38
-0.0317798609844 -0.052966434974 0.954 2.34889249927e-38
-0.0300143131519 -0.052966434974 0.954 7.53409800902e-39
-0.0281599327241 -0.0527998738577 0.951 9.83177907501e-39
-0.0263999369289 -0.0527998738577 0.951 8.54249480473e-39
-0.0245622126127 -0.0526333127414 0.948 8.81620763117e-39
-0.0228077688546 -0.0526333127414 0.948 9.27538511196e-39
-0.0210089087989 -0.0525222719973 0.946 9.27538511196e-39
-0.019258166399 -0.0525222719973 0.946 9.27538931585e-39
-0.017451903627 -0.052355710881 0.943 8.90804312733e-39
-0.0157067132643 -0.052355710881 0.943 9.1835496158e-39
-0.0139615229016 -0.052355710881 0.943 8.35703015038e-39
-0.0121774682784 -0.0521891497647 0.94 1.58201930298e-38
-0.0104378299529 -0.0521891497647 0.94 1.71310432835e-38
-0.00869819162745 -0.0521891497647 0.94 1.58399555421e-38
-0.00695855330196 -0.0521891497647 0.94 1.61158165591e-38
-0.00521891497647 -0.0521891497647 0.94 1.63931125057e-38
-0.00347927665098 -0.0521891497647 0.94 1.64842291357e-38
-0.00173593696735 -0.0520781090205 0.938 1.58374346061e-38
0.0 -0.0520781090205 0.938 1.65753555749e-38
0.00173593696735 -0.0520781090205 0.938 1.75895004969e-38
0.00347927665098 -0.0521891497647 0.94 1.69448373422e-38
0.00520781090205 -0.0520781090205 0.938 1.7314358346e-38
0.00694374786941 -0.0520781090205 0.938 1.74069211161e-38
0.00869819162745 -0.0521891497647 0.94 1.64853277537e-38
0.0104378299529 -0.0521891497647 0.94 1.80508513916e-38
0.0122551967994 -0.0525222719973 0.946 1.74976972306e-38
0.0140059391993 -0.0525222719973 0.946 9.09171411964e-39
0.0157566815992 -0.0525222719973 0.946 1.16631080121e-38
0.0175444375805 -0.0526333127414 0.948 1.17549435082e-38
0.0192988813385 -0.0526333127414 0.948 1.12993533515e-38
0.0211199495431 -0.0527998738577 0.951 1.24907036747e-38
0.0228799453383 -0.0527998738577 0.951 2.11754428853e-38
0.0246399411336 -0.0527998738577 0.951 2.34907256612e-38
-0.0317798609844 -0.0512008871415 0.954 2.34892851264e-38
-0.0300143131519 -0.0512008871415 0.954 6.97949770801e-39
-0.0282487653195 -0.0512008871415 0.954 9.92325583876e-39
-0.0263999369289 -0.0510398780625 0.951 8.8187299684e-39
-0.0245622126127 -0.0508788689834 0.948 8.63253663885e-39
-0.0228077688546 -0.0508788689834 0.948 8.72437213501e-39
-0.0210089087989 -0.0507715295974 0.946 8.35703015038e-39
-0.019258166399 -0.0507715295974 0.946 9.27538511196e-39
-0.0175074239991 -0.0507715295974 0.946 8.81620763117e-39
-0.0157067132643 -0.0506105205183 0.943 9.1835496158e-39
-0.0139615229016 -0.0506105205183 0.943 8.35703015038e-39
-0.0122163325389 -0.0506105205183 0.943 1.5820911896e-38
-0.0104711421762 -0.0506105205183 0.943 1.62083807304e-38
-0.0087259518135 -0.0506105205183 0.943 1.30737321177e-38
-0.00695855330196 -0.0504495114392 0.94 1.34439593758e-38
-0.00521891497647 -0.0504495114392 0.94 1.34453929042e-38
-0.0034903807254 -0.0506105205183 0.943 1.48272315367e-38
-0.00173963832549 -0.0504495114392 0.94 1.47361317223e-38
0.0 -0.0504495114392 0.94 1.47353960406e-38
0.00173963832549 -0.0504495114392 0.94 1.47343422641e-38
0.00347927665098 -0.0504495114392 0.94 1.46428500861e-38
0.00521891497647 -0.0504495114392 0.94 1.31695444989e-38
0.00695855330196 -0.0504495114392 0.94 1.25223912369e-38
0.00869819162745 -0.0504495114392 0.94 1.41815692563e-38
0.0104711421762 -0.0506105205183 0.943 1.57477753265e-38
0.0122551967994 -0.0507715295974 0.946 1.63934978628e-38
0.0140059391993 -0.0507715295974 0.946 9.1835496158e-39
0.0157566815992 -0.0507715295974 0.946 1.15712725159e-38
0.0175444375805 -0.0508788689834 0.948 1.23059564852e-38
0.0192988813385 -0.0508788689834 0.948 1.15730661779e-38
0.0211199495431 -0.0510398780625 0.951 1.20304499967e-38
0.0228799453383 -0.0510398780625 0.951 2.10846723759e-38
0.0246399411336 -0.0510398780625 0.951 2.34885844772e-38
-0.0318464854309 -0.049538977337 0.956 2.34889305979e-38
-0.0300143131519 -0.0494353393091 0.954 6.97949770801e-39
-0.0282487653195 -0.0494353393091 0.954 9.74496583255e-39
-0.026483217487 -0.0494353393091 0.954 8.72760072667e-39
-0.0246399411336 -0.0492798822672 0.951 9.09207285205e-39
-0.0228799453383 -0.0492798822672 0.951 8.90840185973e-39
-0.0210533250966 -0.0491244252253 0.948 8.72437213501e-39
-0.019258166399 -0.0490207871974 0.946 8.90804312733e-39
-0.0175074239991 -0.0490207871974 0.946 9.09171411964e-39
-0.0157067132643 -0.0488653301556 0.943 9.27538511196e-39
-0.0139615229016 -0.0488653301556 0.943 8.90804312733e-39
-0.0122163325389 -0.0488653301556 0.943 1.64644792352e-38
-0.0104711421762 -0.0488653301556 0.943 1.60225503372e-38
-0.0087259518135 -0.0488653301556 0.943 1.08603335491e-38
-0.0069807614508 -0.0488653301556 0.943 1.02203731521e-38
-0.0052355710881 -0.0488653301556 0.943 1.00367287845e-38
-0.0034903807254 -0.0488653301556 0.943 9.9474002113e-39
-0.00173963832549 -0.0487098731137 0.94 1.02247101709e-38
0.0 -0.0487098731137 0.94 9.67259297076e-39
0.00173963832549 -0.0487098731137 0.94 9.85629479164e-39
0.00347927665098 -0.0487098731137 0.94 1.08690075866e-38
0.00521891497647 -0.0487098731137 0.94 1.05924010788e-38
0.00695855330196 -0.0487098731137 0.94 1.09597556752e-38
0.0087259518135 -0.0488653301556 0.943 1.41862327776e-38
0.0105044543995 -0.0490207871974 0.946 1.4186563484e-38
0.0122551967994 -0.0490207871974 0.946 1.56584537598e-38
0.0140059391993 -0.0490207871974 0.946 9.45905610427e-39
0.0157899938224 -0.0491244252253 0.948 1.20315261939e-38
0.0175444375805 -0.0491244252253 0.948 1.20329611235e-38
0.0193599537478 -0.0492798822672 0.951 1.14801544846e-38
0.0211199495431 -0.0492798822672 0.951 1.31339122815e-38
0.0228799453383 -0.0492798822672 0.951 2.1916190273e-38
0.0246399411336 -0.0492798822672 0.951 2.34925305337e-38
-0.0318464854309 -0.0477697281463 0.956 2.34889305979e-38
-0.0300143131519 -0.0476697914766 0.954 6.79582671569e-39
-0.0282487653195 -0.0476697914766 0.954 1.14016004952e-38
-0.026483217487 -0.0476697914766 0.954 7.99076436297e-39
-0.0246399411336 -0.0475198864719 0.951 1.00133032781e-38
-0.0228077688546 -0.0473699814673 0.948 1.03845871153e-38
-0.0210533250966 -0.0473699814673 0.948 1.03878143057e-38
-0.019258166399 -0.0472700447975 0.946 1.13025819432e-38
-0.0175074239991 -0.0472700447975 0.946 9.09171411964e-39
-0.0157566815992 -0.0472700447975 0.946 9.55089160043e-39
-0.0140059391993 -0.0472700447975 0.946 8.17335915806e-39
-0.0122551967994 -0.0472700447975 0.946 1.64655624389e-38
-0.0104711421762 -0.0471201397929 0.943 1.67608356435e-38
-0.0087259518135 -0.0471201397929 0.943 1.27056908851e-38
-0.0069807614508 -0.0471201397929 0.943 1.22508308049e-38
-0.0052355710881 -0.0471201397929 0.943 1.25266918219e-38
-0.0034903807254 -0.0471201397929 0.943 1.31727786957e-38
-0.0017451903627 -0.0471201397929 0.943 1.33593237512e-38
0.0 -0.0471201397929 0.943 1.24373520383e-38
0.0017451903627 -0.0471201397929 0.943 1.23437467022e-38
0.0034903807254 -0.0471201397929 0.943 1.30805816646e-38
0.0052355710881 -0.0471201397929 0.943 1.26196105217e-38
0.0069807614508 -0.0471201397929 0.943 1.39121598174e-38
0.0087259518135 -0.0471201397929 0.943 1.31745821668e-38
0.0105044543995 -0.0472700447975 0.946 1.51099841396e-38
0.0122551967994 -0.0472700447975 0.946 1.50130871533e-38
0.0140355500644 -0.0473699814673 0.948 1.01019045774e-38
0.0157899938224 -0.0473699814673 0.948 1.19386145005e-38
0.0175444375805 -0.0473699814673 0.948 1.21240791549e-38
0.0193599537478 -0.0475198864719 0.951 1.12039305313e-38
0.0211199495431 -0.0475198864719 0.951 1.30417194543e-38
0.0228799453383 -0.0475198864719 0.951 2.12722712078e-38
0.0247694886685 -0.0477697281463 0.956 2.34900278146e-38
-0.0318464854309 -0.0460004789557 0.956 2.28453422392e-38
-0.0300772362403 -0.0460004789557 0.956 7.81068069472e-39
-0.0282487653195 -0.0459042436441 0.954 8.63576523051e-39
-0.026483217487 -0.0459042436441 0.954 9.27969130214e-39
-0.0246399411336 -0.0457598906767 0.951 1.04778659489e-38
-0.0228077688546 -0.0456155377093 0.948 9.28150878625e-39
-0.0210533250966 -0.0456155377093 0.948 9.27574384436e-39
-0.019258166399 -0.0455193023976 0.946 1.15820583102e-38
-0.0175074239991 -0.0455193023976 0.946 1.00183283344e-38
-0.0157566815992 -0.0455193023976 0.946 8.63253663885e-39
-0.0140059391993 -0.0455193023976 0.946 8.17335915806e-39
-0.0122551967994 -0.0455193023976 0.946 1.68339848246e-38
-0.0104711421762 -0.0453749494302 0.943 1.59318036499e-38
-0.0087259518135 -0.0453749494302 0.943 1.25216541539e-38
-0.0069807614508 -0.0453749494302 0.943 1.22501049323e-38
-0.0052355710881 -0.0453749494302 0.943 1.32606639315e-38
-0.00350148479982 -0.0455193023976 0.946 1.33524938225e-38
-0.0017451903627 -0.0453749494302 0.943 1.42712187269e-38
0.0 -0.0453749494302 0.943 1.36258367061e-38
0.00175074239991 -0.0455193023976 0.946 1.45481629475e-38
0.00350148479982 -0.0455193023976 0.946 1.40889756577e-38
0.00525222719973 -0.0455193023976 0.946 1.3815632774e-38
0.00700296959964 -0.0455193023976 0.946 1.40968915927e-38
0.00875371199954 -0.0455193023976 0.946 1.31742108228e-38
0.0105044543995 -0.0455193023976 0.946 1.51992888907e-38
0.0122551967994 -0.0455193023976 0.946 1.39074332377e-38
0.0140355500644 -0.0456155377093 0.948 1.00100690812e-38
0.0157899938224 -0.0456155377093 0.948 1.21222854929e-38
0.0175999579526 -0.0457598906767 0.951 1.21222854929e-38
0.0193599537478 -0.0457598906767 0.951 1.24903603566e-38
0.0211199495431 -0.0457598906767 0.951 1.39651050773e-38
0.0230002394779 -0.0460004789557 0.956 2.1733243752e-38
0.0247694886685 -0.0460004789557 0.956 2.34900124003e-38
-0.0319464221007 -0.0443700306954 0.959 2.34892837251e-38
-0.0300772362403 -0.0442312297651 0.956 7.16532109476e-39
-0.0283079870497 -0.0442312297651 0.956 1.03870968408e-38
-0.026483217487 -0.0441386958117 0.954 8.54249480473e-39
-0.0247176696545 -0.0441386958117 0.954 1.03831619948e-38
-0.0228799453383 -0.0439998948814 0.951 1.00211897858e-38
-0.0210533250966 -0.0438610939512 0.948 8.82158861727e-39
-0.019258166399 -0.0437685599977 0.946 9.46407835797e-39
-0.0175074239991 -0.0437685599977 0.946 1.04818049988e-38
-0.0157566815992 -0.0437685599977 0.946 9.0009548207e-39
-0.0140059391993 -0.0437685599977 0.946 8.0815236619e-39
-0.0122551967994 -0.0437685599977 0.946 1.76641042258e-38
-0.0105044543995 -0.0437685599977 0.946 1.48254490851e-38
-0.00875371199954 -0.0437685599977 0.946 1.27071216108e-38
-0.00700296959964 -0.0437685599977 0.946 1.36330393802e-38
-0.00525222719973 -0.0437685599977 0.946 1.40014309374e-38
-0.00350148479982 -0.0437685599977 0.946 1.40914755741e-38
-0.00175074239991 -0.0437685599977 0.946 1.44584840497e-38
0.0 -0.0437685599977 0.946 1.41811712875e-38
0.00175074239991 -0.0437685599977 0.946 1.52893181131e-38
0.0035088875161 -0.0438610939512 0.948 1.49227090076e-38
0.00526333127414 -0.0438610939512 0.948 1.35390500883e-38
0.00701777503219 -0.0438610939512 0.948 1.37223623482e-38
0.00877221879024 -0.0438610939512 0.948 1.36298023808e-38
0.0105266625483 -0.0438610939512 0.948 1.60258139613e-38
0.0122811063063 -0.0438610939512 0.948 1.37219727873e-38
0.0140355500644 -0.0438610939512 0.948 1.01019045774e-38
0.0157899938224 -0.0438610939512 0.948 1.14794370197e-38
0.0175999579526 -0.0439998948814 0.951 1.29509573527e-38
0.0193599537478 -0.0439998948814 0.951 1.15712725159e-38
0.0211199495431 -0.0439998948814 0.951 1.44228532337e-38
0.0230002394779 -0.0442312297651 0.956 2.21949477739e-38
0.0247694886685 -0.0442312297651 0.956 2.3489287929e-38
-0.0319464221007 -0.0425952294675 0.959 2.34874886618e-38
-0.0300772362403 -0.0424619805745 0.956 6.61215572338e-39
-0.0283079870497 -0.0424619805745 0.956 9.18534327783e-39
-0.026483217487 -0.0423731479792 0.954 9.00238975033e-39
-0.0247176696545 -0.0423731479792 0.954 9.09207285205e-39
-0.0229521218221 -0.0423731479792 0.954 1.06647557238e-38
-0.0210533250966 -0.0421066501932 0.948 1.0665146686e-38
-0.0192988813385 -0.0421066501932 0.948 1.04792910694e-38
-0.0175444375805 -0.0421066501932 0.948 1.01101582253e-38
-0.0157899938224 -0.0421066501932 0.948 1.05711728084e-38
-0.0140355500644 -0.0421066501932 0.948 7.4386751888e-39
-0.0122551967994 -0.0420178175978 0.946 1.84023895321e-38
-0.0105044543995 -0.0420178175978 0.946 1.62083779278e-38
-0.00875371199954 -0.0420178175978 0.946 1.32606611289e-38
-0.00700296959964 -0.0420178175978 0.946 1.28043549087e-38
-0.00526333127414 -0.0421066501932 0.948 1.31698976261e-38
-0.00350148479982 -0.0420178175978 0.946 1.38138307042e-38
-0.00175074239991 -0.0420178175978 0.946 1.39063822639e-38
0.0 -0.0420178175978 0.946 1.33550077519e-38
0.00175444375805 -0.0421066501932 0.948 1.36351847682e-38
0.0035088875161 -0.0421066501932 0.948 1.35415443996e-38
0.00526333127414 -0.0421066501932 0.948 1.45546173283e-38
0.00701777503219 -0.0421066501932 0.948 1.38181312892e-38
0.00877221879024 -0.0421066501932 0.948 1.49208915235e-38
0.0105266625483 -0.0421066501932 0.948 1.64817530413e-38
0.0122811063063 -0.0421066501932 0.948 1.39946122191e-38
0.0140355500644 -0.0421066501932 0.948 9.73456259275e-39
0.0158399621573 -0.0422398990862 0.951 1.19386145005e-38
0.0175999579526 -0.0422398990862 0.951 1.23988681785e-38
0.0194210261571 -0.0423731479792 0.954 1.16631080121e-38
0.0211865739896 -0.0423731479792 0.954 1.47919944855e-38
0.0230002394779 -0.0424619805745 0.956 2.20109222531e-38
-0.0319464221007 -0.0408204282397 0.959 2.29325156154e-38
-0.0300772362403 -0.0406927313839 0.956 6.97949770801e-39
-0.0283079870497 -0.0406927313839 0.956 1.02938264151e-38
-0.0265387378591 -0.0406927313839 0.956 8.0815236619e-39
-0.0247694886685 -0.0406927313839 0.956 9.27538511196e-39
-0.0230002394779 -0.0406927313839 0.956 1.00165262645e-38
-0.0211199495431 -0.0404799032909 0.951 9.09171411964e-39
-0.0192988813385 -0.0403522064351 0.948 9.91859231747e-39
-0.0175444375805 -0.0403522064351 0.948 1.02913152882e-38
-0.0157899938224 -0.0403522064351 0.948 9.27646130918e-39
-0.0140355500644 -0.0403522064351 0.948 7.89785266959e-39
-0.0122551967994 -0.0402670751979 0.946 1.81240047766e-38
-0.0105044543995 -0.0402670751979 0.946 1.53807682522e-38
-0.00875371199954 -0.0402670751979 0.946 1.05862703981e-38
-0.00700296959964 -0.0402670751979 0.946 1.16958717715e-38
-0.00526333127414 -0.0403522064351 0.948 1.16955088352e-38
-0.0035088875161 -0.0403522064351 0.948 1.21561310547e-38
-0.00175074239991 -0.0402670751979 0.946 1.1881342031e-38
0.0 -0.0402670751979 0.946 1.16058299373e-38
0.00175444375805 -0.0403522064351 0.948 1.18824182282e-38
0.0035088875161 -0.0403522064351 0.948 1.16051110712e-38
0.00526333127414 -0.0403522064351 0.948 1.09583067326e-38
0.00701777503219 -0.0403522064351 0.948 1.07760930906e-38
0.00877221879024 -0.0403522064351 0.948 1.39056774107e-38
0.0105266625483 -0.0403522064351 0.948 1.88798889903e-38
0.0122811063063 -0.0403522064351 0.948 1.26105931661e-38
0.0140799663621 -0.0404799032909 0.951 9.55089160043e-39
0.0158399621573 -0.0404799032909 0.951 1.17549435082e-38
0.0176554783247 -0.0406076001467 0.954 1.18467790044e-38
0.0194617410967 -0.0406927313839 0.956 1.25854300496e-38
0.0212309902873 -0.0406927313839 0.956 1.47919944855e-38
0.0230724159616 -0.0408204282397 0.959 2.29317841376e-38
-0.0338970378401 -0.0392492017096 0.964 2.28381493742e-38
-0.0321129832169 -0.0392492017096 0.964 2.28406857244e-38
-0.0301716208728 -0.0390456270119 0.959 6.52032022722e-39
-0.0283079870497 -0.0389234821933 0.956 9.83429020186e-39
-0.0265387378591 -0.0389234821933 0.956 1.04800267511e-38
-0.0247694886685 -0.0389234821933 0.956 8.17335915806e-39
-0.0230002394779 -0.0389234821933 0.956 9.92325583876e-39
-0.0212309902873 -0.0389234821933 0.956 1.1399815241e-38
-0.0194210261571 -0.0388420523143 0.954 9.65169540676e-39
-0.0175999579526 -0.0387199074957 0.951 1.12197147572e-38
-0.0157899938224 -0.0385977626771 0.948 9.92361457117e-39
-0.0140355500644 -0.0385977626771 0.948 8.63253663885e-39
-0.0122811063063 -0.0385977626771 0.948 1.90445163365e-38
-0.0105044543995 -0.038516332798 0.946 1.5380067603e-38
-0.00875371199954 -0.038516332798 0.946 1.13231333864e-38
-0.00700296959964 -0.038516332798 0.946 1.12356222973e-38
-0.00526333127414 -0.0385977626771 0.948 1.15111301871e-38
-0.0035088875161 -0.0385977626771 0.948 1.16047551414e-38
-0.00175444375805 -0.0385977626771 0.948 1.02247073683e-38
0.0 -0.0385977626771 0.948 1.09626227318e-38
0.00175444375805 -0.0385977626771 0.948 1.18816923556e-38
0.0035088875161 -0.0385977626771 0.948 1.19738879855e-38
0.00526333127414 -0.0385977626771 0.948 1.18827685528e-38
0.00701777503219 -0.0385977626771 0.948 1.02265066355e-38
0.00877221879024 -0.0385977626771 0.948 1.34518893238e-38
0.0105266625483 -0.0385977626771 0.948 1.85132364445e-38
0.0122811063063 -0.0385977626771 0.948 1.15960811039e-38
0.0140799663621 -0.0387199074957 0.951 9.82639808891e-39
0.0158399621573 -0.0387199074957 0.951 1.18485726664e-38
0.0176554783247 -0.0388420523143 0.954 1.24939322664e-38
0.0194617410967 -0.0389234821933 0.956 1.10202623416e-38
0.0212309902873 -0.0389234821933 0.956 1.55284805246e-38
0.0230724159616 -0.0390456270119 0.959 2.25637302933e-38
-0.0338970378401 -0.0374651470864 0.964 2.22878622699e-38
-0.0320463587704 -0.0373874185655 0.962 2.22900356838e-38
-0.0301716208728 -0.0372708257841 0.959 6.61215572338e-39
-0.028396819645 -0.0372708257841 0.959 1.09395447474e-38
-0.0265387378591 -0.0371542330027 0.956 8.9119891838e-39
-0.0247694886685 -0.0371542330027 0.956 8.17335915806e-39
-0.0230002394779 -0.0371542330027 0.956 8.72437213501e-39
-0.0212309902873 -0.0371542330027 0.956 1.00132976729e-38
-0.0194617410967 -0.0371542330027 0.956 1.05671805091e-38
-0.0176554783247 -0.0370765044818 0.954 9.46371962556e-39
-0.0158399621573 -0.0369599117004 0.951 9.45905610427e-39
-0.0140799663621 -0.0369599117004 0.951 8.72437213501e-39
-0.0122811063063 -0.036843318919 0.948 1.96902388728e-38
-0.0105266625483 -0.036843318919 0.948 1.55651763275e-38
-0.00877221879024 -0.036843318919 0.948 1.04008169541e-38
-0.00701777503219 -0.036843318919 0.948 1.11423476677e-38
-0.00526333127414 -0.036843318919 0.948 1.1692634772e-38
-0.0035088875161 -0.036843318919 0.948 1.23383545057e-38
-0.00175444375805 -0.036843318919 0.948 1.13281682518e-38
0.0 -0.036843318919 0.948 1.1234550304e-38
0.00175444375805 -0.036843318919 0.948 1.17884261337e-38
0.0035088875161 -0.036843318919 0.948 1.08671901025e-38
0.00526333127414 -0.036843318919 0.948 1.16958717715e-38
0.00703998318103 -0.0369599117004 0.951 1.15165420018e-38
0.00879997897629 -0.0369599117004 0.951 1.22565663195e-38
0.0105599747715 -0.0369599117004 0.951 1.76860317442e-38
0.0123199705668 -0.0369599117004 0.951 1.03978910429e-38
0.0141243826597 -0.0370765044818 0.954 1.01019045774e-38
0.0158899304922 -0.0370765044818 0.954 1.20326023911e-38
0.0176554783247 -0.0370765044818 0.954 1.24932148016e-38
0.0194617410967 -0.0371542330027 0.956 1.06529175543e-38
0.0212976147338 -0.0372708257841 0.959 1.70972327541e-38
0.0231445924453 -0.0373874185655 0.962 2.2379711779e-38
-0.0338970378401 -0.0356810924633 0.964 2.26562762478e-38
-0.0319464221007 -0.0354960245563 0.959 2.21063702967e-38
-0.0301716208728 -0.0354960245563 0.959 7.25500419648e-39
-0.028396819645 -0.0354960245563 0.959 8.17335915806e-39
-0.0265387378591 -0.0353849838121 0.956 8.72544833223e-39
-0.0247694886685 -0.0353849838121 0.956 8.44886564654e-39
-0.0230724159616 -0.0354960245563 0.959 8.81620763117e-39
-0.0212309902873 -0.0353849838121 0.956 8.90804312733e-39
-0.0194617410967 -0.0353849838121 0.956 9.27538511196e-39
-0.0176554783247 -0.0353109566493 0.954 8.81620763117e-39
-0.0158899304922 -0.0353109566493 0.954 9.27538511196e-39
-0.0140799663621 -0.0351999159051 0.951 8.26519465422e-39
-0.0123199705668 -0.0351999159051 0.951 1.94132946521e-38
-0.0105266625483 -0.035088875161 0.948 1.51034821147e-38
-0.00877221879024 -0.035088875161 0.948 9.75578245539e-39
-0.00703998318103 -0.0351999159051 0.951 1.1510411321e-38
-0.00527998738577 -0.0351999159051 0.951 1.1878102229e-38
-0.00351999159051 -0.0351999159051 0.951 1.16955088352e-38
-0.00175999579526 -0.0351999159051 0.951 1.215433459e-38
0.0 -0.0351999159051 0.951 1.26152945225e-38
0.00175999579526 -0.0351999159051 0.951 1.23397964418e-38
0.00351999159051 -0.0351999159051 0.951 1.20639214118e-38
0.00527998738577 -0.0351999159051 0.951 1.07731924028e-38
0.00703998318103 -0.0351999159051 0.951 1.10555274187e-38
0.00879997897629 -0.0351999159051 0.951 1.41869138086e-38
0.0105599747715 -0.0351999159051 0.951 1.82341664541e-38
0.0123588348273 -0.0353109566493 0.954 9.1996995806e-39
0.0141539935248 -0.0353849838121 0.956 1.02855755697e-38
0.0159232427154 -0.0353849838121 0.956 1.18474964692e-38
0.0176924919061 -0.0353849838121 0.956 1.2401020573e-38
0.019522813506 -0.0354960245563 0.959 1.18467790044e-38
0.0213642391803 -0.0356070653005 0.962 1.73748944396e-38
0.0232648865848 -0.0357921332074 0.967 2.22882350152e-38
0.0251322217661 -0.0359031739516 0.97 2.34856935985e-38
-0.0338970378401 -0.0338970378401 0.964 2.16428656062e-38
-0.0319464221007 -0.0337212233285 0.959 2.23840305809e-38
-0.0301716208728 -0.0337212233285 0.959 6.70399121953e-39
-0.028396819645 -0.0337212233285 0.959 1.07591023468e-38
-0.0266220184172 -0.0337212233285 0.959 7.4390339212e-39
-0.0248472171894 -0.0337212233285 0.959 9.09171411964e-39
-0.0230724159616 -0.0337212233285 0.959 8.99987862348e-39
-0.0212976147338 -0.0337212233285 0.959 9.73779118441e-39
-0.0194617410967 -0.0336157346215 0.956 8.63253663885e-39
-0.0176924919061 -0.0336157346215 0.956 8.63253663885e-39
-0.0158899304922 -0.0335454088169 0.954 8.90804312733e-39
-0.0141243826597 -0.0335454088169 0.954 8.0815236619e-39
-0.0123588348273 -0.0335454088169 0.954 1.9690620026e-38
-0.0105599747715 -0.0334399201099 0.951 1.56548566266e-38
-0.00879997897629 -0.0334399201099 0.951 1.09536053762e-38
-0.00703998318103 -0.0334399201099 0.951 1.28918814121e-38
-0.00527998738577 -0.0334399201099 0.951 1.32620960585e-38
-0.00351999159051 -0.0334399201099 0.951 1.26149385927e-38
-0.00175999579526 -0.0334399201099 0.951 1.31692067859e-38
0.0 -0.0334399201099 0.951 1.26152889173e-38
0.00175999579526 -0.0334399201099 0.951 1.37198442149e-38
0.00353109566493 -0.0335454088169 0.954 1.36283702537e-38
0.0052966434974 -0.0335454088169 0.954 1.39081815311e-38
0.00706219132986 -0.0335454088169 0.954 1.1698743032e-38
0.00882773916233 -0.0335454088169 0.954 1.56588040844e-38
0.0105932869948 -0.0335454088169 0.954 1.94309369997e-38
0.0123847443342 -0.0336157346215 0.956 8.0919269017e-39
0.0141539935248 -0.0336157346215 0.956 1.01937400735e-38
0.0159232427154 -0.0336157346215 0.956 1.16631080121e-38
0.0176924919061 -0.0336157346215 0.956 1.22162747848e-38
0.019522813506 -0.0337212233285 0.959 1.25850769224e-38
0.0213642391803 -0.0338267120354 0.962 1.7564312157e-38
0.0232648865848 -0.0340025265471 0.967 2.27495662918e-38
0.0251322217661 -0.034108015254 0.97 2.33005764661e-38
-0.0338970378401 -0.0321129832169 0.964 2.22885657217e-38
-0.0320463587704 -0.0320463587704 0.962 2.19223419732e-38
-0.0301716208728 -0.0319464221007 0.959 6.61215572338e-39
-0.028396819645 -0.0319464221007 0.959 9.92146357802e-39
-0.0266220184172 -0.0319464221007 0.959 7.99327548981e-39
-0.0248472171894 -0.0319464221007 0.959 9.27610257677e-39
-0.0230724159616 -0.0319464221007 0.959 9.27717877399e-39
-0.0212976147338 -0.0319464221007 0.959 1.39909366132e-38
-0.019522813506 -0.0319464221007 0.959 1.16850565499e-38
-0.0176924919061 -0.0318464854309 0.956 8.44886564654e-39
-0.0159232427154 -0.0318464854309 0.956 9.55089160043e-39
-0.0141539935248 -0.0318464854309 0.956 8.17335915806e-39
-0.0123588348273 -0.0317798609844 0.954 1.91399671827e-38
-0.0105932869948 -0.0317798609844 0.954 1.52871685213e-38
-0.00882773916233 -0.0317798609844 0.954 1.01239049633e-38
