# .PCD v0.7 - Point Cloud Data file format
VERSION 0.7
FIELDS x y z rgb
SIZE 4 4 4 4
TYPE F F F F
COUNT 1 1 1 1
WIDTH 840
HEIGHT 1
VIEWPOINT 0 0 0 1 0 0 0
POINTS 840
DATA ascii
0.0171743017665 -0.0686972070662 0.928 1.26180536791e-38
0.0189324468827 -0.0688452613918 0.93 1.09599924946e-38
0.020720202864 -0.0690673428801 0.933 6.99133587743e-39
0.022446886436 -0.0690673428801 0.933 4.6021780477e-39
0.024225389022 -0.0692153972057 0.935 7.19079389825e-39
0.0260390545103 -0.0694374786941 0.938 1.26230759328e-38
0.0277749914776 -0.0694374786941 0.938 1.12354989831e-38
0.029510928445 -0.0694374786941 0.938 1.14220398347e-38
0.0313134898588 -0.0695855330196 0.94 1.91578575602e-38
0.0330531281843 -0.0695855330196 0.94 2.28453170158e-38
-0.0245622126127 -0.0684233065639 0.948 2.32108975683e-38
-0.0228077688546 -0.0684233065639 0.948 1.33495328788e-38
-0.0210089087989 -0.0682789535964 0.946 8.35703015038e-39
-0.0191970939897 -0.0680624241453 0.943 9.09243158445e-39
-0.0173963832549 -0.0678458946941 0.94 8.17335915806e-39
-0.0156234327062 -0.0677015417267 0.938 6.97949770801e-39
-0.0138874957388 -0.0677015417267 0.938 1.60992938489e-38
-0.012112694511 -0.0674850122756 0.935 1.26131267137e-38
-0.0103823095809 -0.0674850122756 0.935 1.29804644945e-38
-0.00863341786002 -0.0673406593081 0.933 1.30726601243e-38
-0.00688452613918 -0.067124129857 0.93 1.35325424583e-38
-0.00516339460438 -0.067124129857 0.93 1.47292653598e-38
-0.00344226306959 -0.067124129857 0.93 1.10375193321e-38
-0.00172113153479 -0.067124129857 0.93 1.19522827658e-38
0.0 -0.0669797768895 0.928 1.45405230683e-38
0.00171743017665 -0.0669797768895 0.928 1.69407988001e-38
0.00343486035331 -0.0669797768895 0.928 1.92854541932e-39
0.00515229052996 -0.0669797768895 0.928 1.0131753636e-38
0.00686972070662 -0.0669797768895 0.928 1.4457992194e-38
0.00858715088327 -0.0669797768895 0.928 1.48206706573e-38
0.0103045810599 -0.0669797768895 0.928 1.50057765793e-38
0.0120220112366 -0.0669797768895 0.928 1.24286429683e-38
0.0137394414132 -0.0669797768895 0.928 1.06816161469e-38
0.0154568715899 -0.0669797768895 0.928 6.99779306076e-39
0.0171743017665 -0.0669797768895 0.928 6.62650501965e-39
0.0189324468827 -0.067124129857 0.93 8.75342945997e-39
0.0207646191617 -0.0674850122756 0.935 1.00430724627e-38
0.0224950040919 -0.0674850122756 0.935 8.20098155339e-39
0.024225389022 -0.0674850122756 0.935 9.40022398955e-39
0.0260390545103 -0.0677015417267 0.938 1.39112882098e-38
0.0277749914776 -0.0677015417267 0.938 1.07766802347e-38
0.029510928445 -0.0677015417267 0.938 1.36339838554e-38
0.0313134898588 -0.0678458946941 0.94 1.9800652784e-38
0.0330531281843 -0.0678458946941 0.94 2.34874690436e-38
-0.0245622126127 -0.0666688628058 0.948 2.27499222216e-38
-0.0228077688546 -0.0666688628058 0.948 1.27960101763e-38
-0.0210089087989 -0.0665282111965 0.946 8.0815236619e-39
-0.0191970939897 -0.0663172337826 0.943 9.36829680534e-39
-0.017451903627 -0.0663172337826 0.943 8.17335915806e-39
-0.0156567449294 -0.0661062563686 0.94 6.97949770801e-39
-0.0138874957388 -0.0659656047594 0.938 1.65602719982e-38
-0.0121515587715 -0.0659656047594 0.938 1.27063887317e-38
-0.0103823095809 -0.0657546273454 0.935 1.31659305501e-38
-0.00863341786002 -0.0656139757361 0.933 1.31655816268e-38
-0.00690673428801 -0.0656139757361 0.933 1.15935139251e-38
-0.00516339460438 -0.0654029983222 0.93 1.43590381016e-38
-0.00344226306959 -0.0654029983222 0.93 1.47289388572e-38
-0.00172113153479 -0.0654029983222 0.93 1.177617318e-38
0.0 -0.0654029983222 0.93 9.56308850226e-39
0.00171743017665 -0.0652623467129 0.928 1.62925875577e-38
0.00343486035331 -0.0652623467129 0.928 2.11221641163e-39
0.00515229052996 -0.0652623467129 0.928 1.14225176774e-38
0.00686972070662 -0.0652623467129 0.928 1.4552338817e-38
0.00858715088327 -0.0652623467129 0.928 1.48224643193e-38
0.0103045810599 -0.0652623467129 0.928 1.37172097738e-38
0.0120220112366 -0.0652623467129 0.928 1.11404348953e-38
0.0137690522784 -0.0654029983222 0.93 8.84526495612e-39
0.0154901838131 -0.0654029983222 0.93 7.37195096112e-39
0.0172113153479 -0.0654029983222 0.93 9.03072961047e-39
0.018993519292 -0.0656139757361 0.933 9.95051950168e-39
0.0207646191617 -0.0657546273454 0.935 1.25298055071e-38
0.0224950040919 -0.0657546273454 0.935 7.91901788159e-39
0.0243031175429 -0.0659656047594 0.938 1.00430724627e-38
0.0260945748824 -0.0661062563686 0.94 8.75091833312e-39
0.0278342132079 -0.0661062563686 0.94 1.37222502444e-38
0.0295738515333 -0.0661062563686 0.94 1.74035720127e-38
0.0313134898588 -0.0661062563686 0.94 2.04395229707e-38
0.0330531281843 -0.0661062563686 0.94 2.32105416385e-38
0.0347927665098 -0.0661062563686 0.94 2.24708115935e-38
-0.0265387378591 -0.0654622200524 0.956 2.13659059712e-38
-0.0245622126127 -0.0649144190478 0.948 2.33034463254e-38
-0.0228077688546 -0.0649144190478 0.948 1.35342968839e-38
-0.0210089087989 -0.0647774687966 0.946 8.17335915806e-39
-0.019258166399 -0.0647774687966 0.946 9.27610257677e-39
-0.017451903627 -0.0645720434199 0.943 9.0005960883e-39
-0.0156567449294 -0.0643666180432 0.94 7.25500419648e-39
-0.0138874957388 -0.064229667792 0.938 1.68364931489e-38
-0.0121515587715 -0.064229667792 0.938 1.26131211086e-38
-0.0104156218041 -0.064229667792 0.938 1.27953473622e-38
-0.00865192465071 -0.0640242424153 0.935 1.3439988096e-38
-0.00690673428801 -0.0638872921641 0.933 1.36239939986e-38
-0.00518005071601 -0.0638872921641 0.933 1.36243471259e-38
-0.00345336714401 -0.0638872921641 0.933 1.36225548651e-38
-0.001726683572 -0.0638872921641 0.933 1.60196510507e-38
0.0 -0.0636818667874 0.93 1.11369176361e-38
0.00172113153479 -0.0636818667874 0.93 1.17714746262e-38
0.00344226306959 -0.0636818667874 0.93 2.20405190779e-39
0.00516339460438 -0.0636818667874 0.93 1.08696689995e-38
0.00688452613918 -0.0636818667874 0.93 1.41824857055e-38
0.00860565767397 -0.0636818667874 0.93 1.51883713743e-38
0.0103267892088 -0.0636818667874 0.93 1.46380758622e-38
0.0120479207436 -0.0636818667874 0.93 1.11415110925e-38
0.0137690522784 -0.0636818667874 0.93 9.21332440557e-39
0.0154901838131 -0.0636818667874 0.93 8.93925284672e-39
0.0172113153479 -0.0636818667874 0.93 8.84634115334e-39
0.018993519292 -0.0638872921641 0.933 9.3977128627e-39
0.0207646191617 -0.0640242424153 0.935 1.17050797037e-38
0.0225671805756 -0.064229667792 0.938 4.69688340311e-39
0.0243031175429 -0.064229667792 0.938 1.06783875552e-38
0.0260945748824 -0.0643666180432 0.94 1.61157170669e-38
0.0278342132079 -0.0643666180432 0.94 1.84198328954e-38
0.0295738515333 -0.0643666180432 0.94 1.54635191304e-38
0.0313134898588 -0.0643666180432 0.94 2.18228231576e-38
0.0330531281843 -0.0643666180432 0.94 2.33023673256e-38
-0.0265387378591 -0.0636929708618 0.956 2.24711619181e-38
-0.0247176696545 -0.0635597219688 0.954 2.293286594e-38
-0.0228077688546 -0.0631599752897 0.948 1.41796690956e-38
-0.0210533250966 -0.0631599752897 0.948 8.35703015038e-39
-0.019258166399 -0.0630267263967 0.946 8.81764256079e-39
-0.017451903627 -0.0628268530572 0.943 8.81620763117e-39
-0.0156567449294 -0.0626269797177 0.94 7.71418167727e-39
-0.0139171066039 -0.0626269797177 0.94 1.64684266929e-38
-0.0121515587715 -0.0624937308247 0.938 1.36269058968e-38
-0.0104156218041 -0.0624937308247 0.938 1.29818742007e-38
-0.00865192465071 -0.0622938574851 0.935 1.44552162217e-38
-0.00692153972057 -0.0622938574851 0.935 1.21492338636e-38
-0.00518005071601 -0.0621606085921 0.933 1.43593758145e-38
-0.00345336714401 -0.0621606085921 0.933 1.38987704106e-38
-0.001726683572 -0.0621606085921 0.933 1.44519399859e-38
0.0 -0.0621606085921 0.933 1.55583071624e-38
0.00172113153479 -0.0619607352526 0.93 1.69415569025e-38
0.00344226306959 -0.0619607352526 0.93 1.56120343469e-39
0.00516339460438 -0.0619607352526 0.93 9.30630616387e-39
0.00688452613918 -0.0619607352526 0.93 1.42757561313e-38
0.00860565767397 -0.0619607352526 0.93 1.56486250524e-38
0.0103267892088 -0.0619607352526 0.93 1.40831168288e-38
0.0120479207436 -0.0619607352526 0.93 1.04965102249e-38
0.013813468576 -0.0621606085921 0.933 8.10591746557e-39
0.015540152148 -0.0621606085921 0.933 6.26418528871e-39
0.01726683572 -0.0621606085921 0.933 1.0132396832e-38
0.0190342342316 -0.0622938574851 0.935 7.91256069827e-39
0.0208312436082 -0.0624937308247 0.938 1.22403364807e-38
0.0225671805756 -0.0624937308247 0.938 1.42750386665e-38
0.0243031175429 -0.0624937308247 0.938 1.7959220485e-38
0.0261778554405 -0.0628268530572 0.943 1.675567326e-38
0.0279230458032 -0.0628268530572 0.943 1.62950608495e-38
0.0296682361659 -0.0628268530572 0.943 1.56511361792e-38
0.0314134265286 -0.0628268530572 0.943 2.17356343671e-38
0.0331586168913 -0.0628268530572 0.943 2.30261335632e-38
-0.0265387378591 -0.0619237216712 0.956 2.17328780131e-38
-0.0247176696545 -0.0617941741363 0.954 2.34860369166e-38
-0.0228799453383 -0.061599852834 0.951 1.37186909463e-38
-0.0210533250966 -0.0614055315317 0.948 7.80601717343e-39
-0.0192988813385 -0.0614055315317 0.948 9.28112483047e-39
-0.0175074239991 -0.0612759839968 0.946 8.26519465422e-39
-0.0157067132643 -0.0610816626945 0.943 7.62234618111e-39
-0.0139171066039 -0.0608873413922 0.94 1.72953161012e-38
-0.0121515587715 -0.0607577938573 0.938 1.27049509995e-38
-0.0104156218041 -0.0607577938573 0.938 1.33492273958e-38
-0.00867968483676 -0.0607577938573 0.938 1.43630486178e-38
-0.00692153972057 -0.060563472555 0.935 1.21499555323e-38
-0.00519115479043 -0.060563472555 0.935 1.40824357977e-38
-0.00346076986028 -0.060563472555 0.935 1.39895353147e-38
-0.001726683572 -0.0604339250201 0.933 1.54646093406e-38
0.0 -0.0604339250201 0.933 1.38044223863e-38
0.001726683572 -0.0604339250201 0.933 1.70337245064e-38
0.00345336714401 -0.0604339250201 0.933 2.93873587706e-39
0.00518005071601 -0.0604339250201 0.933 7.37057068213e-39
0.00688452613918 -0.0602396037178 0.93 1.4923992597e-38
0.00860565767397 -0.0602396037178 0.93 1.50054178468e-38
0.010360101432 -0.0604339250201 0.933 1.40834755612e-38
0.012086785004 -0.0604339250201 0.933 1.34424207501e-38
0.013813468576 -0.0604339250201 0.933 1.24307953628e-38
0.0155734643713 -0.060563472555 0.935 1.29868305934e-38
0.0173038493014 -0.060563472555 0.935 1.37240256895e-38
0.0190953066409 -0.0607577938573 0.938 1.57476351967e-38
0.0208312436082 -0.0607577938573 0.938 1.67578256544e-38
0.0225671805756 -0.0607577938573 0.938 1.6297213244e-38
0.0243549365569 -0.0608873413922 0.94 1.59302299917e-38
0.0261778554405 -0.0610816626945 0.943 1.39001633013e-38
0.0279230458032 -0.0610816626945 0.943 1.68525310098e-38
0.0296682361659 -0.0610816626945 0.943 1.48221055869e-38
0.0314134265286 -0.0610816626945 0.943 2.23799233751e-38
0.0332641055983 -0.0612759839968 0.946 2.34882019227e-38
-0.0265387378591 -0.0601544724806 0.956 2.15488552948e-38
-0.0247176696545 -0.0600286263038 0.954 2.34867557827e-38
-0.0229521218221 -0.0600286263038 0.954 1.45484586215e-38
-0.0211865739896 -0.0600286263038 0.954 7.80601717343e-39
-0.0193599537478 -0.0598398570387 0.951 8.63253663885e-39
-0.0175444375805 -0.0596510877736 0.948 8.99987862348e-39
-0.0157566815992 -0.0595252415969 0.946 7.16316870032e-39
-0.0139615229016 -0.0593364723318 0.943 1.69294048423e-38
-0.0122163325389 -0.0593364723318 0.943 1.28904198578e-38
-0.0104378299529 -0.0591477030667 0.94 1.32566758361e-38
-0.00869819162745 -0.0591477030667 0.94 1.34403440258e-38
-0.00694374786941 -0.0590218568899 0.938 1.37183826606e-38
-0.00520781090205 -0.0590218568899 0.938 1.08552426318e-38
-0.00346076986028 -0.0588330876248 0.935 1.14952212457e-38
-0.00173038493014 -0.0588330876248 0.935 9.92648443042e-39
0.0 -0.0588330876248 0.935 1.02012734541e-38
0.001726683572 -0.0587072414481 0.933 1.4817495315e-38
0.00345336714401 -0.0587072414481 0.933 6.80909981475e-39
0.00518005071601 -0.0587072414481 0.933 4.32236677034e-39
0.00690673428801 -0.0587072414481 0.933 1.44619564673e-38
0.00863341786002 -0.0587072414481 0.933 1.54660302573e-38
0.010360101432 -0.0587072414481 0.933 1.51908825012e-38
0.012112694511 -0.0588330876248 0.935 1.60188368962e-38
0.0138430794411 -0.0588330876248 0.935 1.59273601325e-38
0.0155734643713 -0.0588330876248 0.935 1.62975719764e-38
0.0173593696735 -0.0590218568899 0.938 1.60199130935e-38
0.0190953066409 -0.0590218568899 0.938 1.47306288232e-38
0.0208756599059 -0.0591477030667 0.94 1.49175284072e-38
0.0226152982314 -0.0591477030667 0.94 1.34460080742e-38
0.0243549365569 -0.0591477030667 0.94 1.39008807661e-38
0.0261778554405 -0.0593364723318 0.943 1.6206453945e-38
0.0279230458032 -0.0593364723318 0.943 1.54703350461e-38
0.0296682361659 -0.0593364723318 0.943 1.66645552286e-38
0.0315133631984 -0.0595252415969 0.946 2.17338743363e-38
0.0332641055983 -0.0595252415969 0.946 2.30261335632e-38
-0.0265387378591 -0.05838522329 0.956 2.19183608843e-38
-0.0247694886685 -0.05838522329 0.956 2.34878347825e-38
-0.0230002394779 -0.05838522329 0.956 1.25197960321e-38
-0.0211865739896 -0.0582630784714 0.954 8.63253663885e-39
-0.0193599537478 -0.0580798612435 0.951 9.09171411964e-39
-0.0175999579526 -0.0580798612435 0.951 9.27610257677e-39
-0.0157899938224 -0.0578966440156 0.948 7.16316870032e-39
-0.0140059391993 -0.057774499197 0.946 1.64712979535e-38
-0.0122163325389 -0.0575912819691 0.943 1.28911387239e-38
-0.0104378299529 -0.0574080647412 0.94 1.34421460956e-38
-0.00869819162745 -0.0574080647412 0.94 1.40864393074e-38
-0.00695855330196 -0.0574080647412 0.94 1.43630458152e-38
-0.00520781090205 -0.0572859199226 0.938 1.08567406199e-38
-0.0034718739347 -0.0572859199226 0.938 1.03903394455e-38
-0.00173593696735 -0.0572859199226 0.938 1.36207724135e-38
0.0 -0.0571027026947 0.935 1.30726180854e-38
0.00173038493014 -0.0571027026947 0.935 1.39009312128e-38
0.00346076986028 -0.0571027026947 0.935 1.02177751448e-38
0.00519115479043 -0.0571027026947 0.935 1.65303893084e-39
0.00692153972057 -0.0571027026947 0.935 1.52009676462e-38
0.00865192465071 -0.0571027026947 0.935 1.50054178468e-38
0.0103823095809 -0.0571027026947 0.935 1.58340897067e-38
0.012112694511 -0.0571027026947 0.935 1.25172498728e-38
0.0138430794411 -0.0571027026947 0.935 1.21499078882e-38
0.0156234327062 -0.0572859199226 0.938 1.32530100393e-38
0.0173593696735 -0.0572859199226 0.938 1.44544048699e-38
0.0191360215804 -0.0574080647412 0.94 1.31611745431e-38
0.0208756599059 -0.0574080647412 0.94 1.46420219187e-38
0.0226152982314 -0.0574080647412 0.94 1.50147448894e-38
0.0244326650778 -0.0575912819691 0.943 1.44554810671e-38
0.0261778554405 -0.0575912819691 0.943 1.56514949116e-38
0.0279230458032 -0.0575912819691 0.943 1.73127846878e-38
0.0296682361659 -0.0575912819691 0.943 1.74039027192e-38
0.0315133631984 -0.057774499197 0.946 2.25640231647e-38
-0.0265387378591 -0.0566159740994 0.956 2.24729639879e-38
-0.0247694886685 -0.0566159740994 0.956 2.34849607194e-38
-0.0230002394779 -0.0566159740994 0.956 1.30715236713e-38
-0.0211865739896 -0.0564975306389 0.954 7.98968816575e-39
-0.0193599537478 -0.0563198654482 0.951 9.18607055174e-39
-0.0175999579526 -0.0563198654482 0.951 8.44886564654e-39
-0.0157899938224 -0.0561422002575 0.948 7.16316870032e-39
-0.0140059391993 -0.0560237567971 0.946 1.66599883969e-38
-0.0122163325389 -0.0558460916064 0.943 1.25237953379e-38
-0.0104378299529 -0.0556684264157 0.94 1.31662780721e-38
-0.00869819162745 -0.0556684264157 0.94 1.38098496153e-38
-0.00695855330196 -0.0556684264157 0.94 1.39942464802e-38
-0.00520781090205 -0.0555499829552 0.938 1.42719039618e-38
-0.0034718739347 -0.0555499829552 0.938 1.46410382072e-38
-0.00173593696735 -0.0555499829552 0.938 1.42689948662e-38
0.0 -0.0555499829552 0.938 1.59281462609e-38
0.00173593696735 -0.0555499829552 0.938 1.61143704191e-38
0.0034718739347 -0.0555499829552 0.938 1.34406761335e-38
0.00519115479043 -0.0553723177646 0.935 2.02038091548e-39
0.00692153972057 -0.0553723177646 0.935 1.48325760891e-38
0.00867968483676 -0.0555499829552 0.938 1.50054178468e-38
0.0104156218041 -0.0555499829552 0.938 1.56486250524e-38
0.0121515587715 -0.0555499829552 0.938 1.30704152442e-38
0.0138874957388 -0.0555499829552 0.938 1.33498677892e-38
0.0156234327062 -0.0555499829552 0.938 1.48235405166e-38
0.0173963832549 -0.0556684264157 0.94 1.51019168643e-38
0.0191360215804 -0.0556684264157 0.94 1.44576334616e-38
0.0209422843524 -0.0558460916064 0.943 1.30747200331e-38
0.0226874747151 -0.0558460916064 0.943 1.44533286727e-38
0.0244326650778 -0.0558460916064 0.943 1.6204660283e-38
0.0262611359986 -0.0560237567971 0.946 1.76790504752e-38
0.0280118783985 -0.0560237567971 0.946 1.74935858209e-38
0.0297626207984 -0.0560237567971 0.946 1.56497012496e-38
0.0315799876449 -0.0561422002575 0.948 2.24750477187e-38
-0.0247694886685 -0.0548467249088 0.956 2.34856641712e-38
-0.0230002394779 -0.0548467249088 0.956 1.23354061737e-38
-0.0212309902873 -0.0548467249088 0.956 8.17335915806e-39
-0.0194210261571 -0.0547319828065 0.954 8.81658037656e-39
-0.0176554783247 -0.0547319828065 0.954 8.90804312733e-39
-0.0157899938224 -0.0543877564995 0.948 7.4386751888e-39
-0.0140059391993 -0.0542730143972 0.946 1.61972095791e-38
-0.0122551967994 -0.0542730143972 0.946 1.25230764718e-38
-0.0104711421762 -0.0541009012437 0.943 1.30755047602e-38
-0.0087259518135 -0.0541009012437 0.943 1.35336382737e-38
-0.00695855330196 -0.0539287880902 0.94 1.41772028103e-38
-0.00521891497647 -0.0539287880902 0.94 1.4454856088e-38
-0.00347927665098 -0.0539287880902 0.94 1.35371961705e-38
-0.00173593696735 -0.0538140459879 0.938 1.41814837771e-38
0.0 -0.0538140459879 0.938 1.36246806349e-38
0.00173593696735 -0.0538140459879 0.938 1.03946302214e-38
0.0034718739347 -0.0538140459879 0.938 1.00251358423e-38
0.00520781090205 -0.0538140459879 0.938 1.83670992316e-39
0.00694374786941 -0.0538140459879 0.938 1.51049072352e-38
0.00867968483676 -0.0538140459879 0.938 1.48228230518e-38
0.0104156218041 -0.0538140459879 0.938 1.54663889897e-38
0.0121515587715 -0.0538140459879 0.938 1.58344484391e-38
0.0138874957388 -0.0538140459879 0.938 1.56511361792e-38
0.0156234327062 -0.0538140459879 0.938 1.48228230518e-38
0.0173963832549 -0.0539287880902 0.94 1.22406671871e-38
0.0191360215804 -0.0539287880902 0.94 1.41763872546e-38
0.0209422843524 -0.0541009012437 0.943 1.48253341786e-38
0.0226874747151 -0.0541009012437 0.943 1.68525310098e-38
0.0245103935987 -0.0542730143972 0.946 1.71240914418e-38
0.0263166563707 -0.0543877564995 0.948 1.75843451198e-38
0.0280711001288 -0.0543877564995 0.948 1.51901650364e-38
0.0298255438868 -0.0543877564995 0.948 1.73106322934e-38
0.0315799876449 -0.0543877564995 0.948 2.29342504229e-38
-0.0267052989754 -0.0534105979507 0.962 2.20101907753e-38
-0.0248472171894 -0.0532440368344 0.959 2.34878403877e-38
-0.0230724159616 -0.0532440368344 0.959 1.21506589842e-38
-0.0212309902873 -0.0530774757182 0.956 8.90804312733e-39
-0.0194617410967 -0.0530774757182 0.956 9.00023735589e-39
-0.0176554783247 -0.052966434974 0.954 8.35703015038e-39
-0.0158399621573 -0.0527998738577 0.951 7.71418167727e-39
-0.0140355500644 -0.0526333127414 0.948 1.65674242256e-38
-0.0122551967994 -0.0525222719973 0.946 1.26152721017e-38
-0.0104711421762 -0.052355710881 0.943 1.3351026663e-38
-0.0087259518135 -0.052355710881 0.943 1.37190987241e-38
-0.0069807614508 -0.052355710881 0.943 1.39942436776e-38
-0.0052355710881 -0.052355710881 0.943 1.51931245787e-38
-0.00347927665098 -0.0521891497647 0.94 8.19165451081e-39
-0.00173593696735 -0.0520781090205 0.938 8.37604296794e-39
0.0 -0.0520781090205 0.938 9.38408103124e-39
0.00173593696735 -0.0520781090205 0.938 8.92597974767e-39
0.0034718739347 -0.0520781090205 0.938 1.52885698197e-38
0.00520781090205 -0.0520781090205 0.938 2.02038091548e-39
0.00694374786941 -0.0520781090205 0.938 1.19724362403e-38
0.00867968483676 -0.0520781090205 0.938 1.537849955e-38
0.0104156218041 -0.0520781090205 0.938 1.52816418001e-38
0.0121774682784 -0.0521891497647 0.94 1.57418954781e-38
0.0139171066039 -0.0521891497647 0.94 1.55589419506e-38
0.0156567449294 -0.0521891497647 0.94 1.53749122259e-38
0.017451903627 -0.052355710881 0.943 1.61117485896e-38
0.0191970939897 -0.052355710881 0.943 1.63858201485e-38
0.0209422843524 -0.052355710881 0.943 1.70326146781e-38
0.0227596511988 -0.0525222719973 0.946 1.69404204495e-38
0.0245103935987 -0.0525222719973 0.946 1.57451240698e-38
0.0263166563707 -0.0526333127414 0.948 1.61149771813e-38
0.0280711001288 -0.0526333127414 0.948 1.6297213244e-38
0.0298255438868 -0.0526333127414 0.948 1.44504588134e-38
0.0315799876449 -0.0526333127414 0.948 2.34859892724e-38
-0.0285448739706 -0.0517375840717 0.964 2.21945750285e-38
-0.0267052989754 -0.0516302446857 0.962 2.1548151843e-38
-0.0248472171894 -0.0514692356066 0.959 2.34885732668e-38
-0.0230724159616 -0.0514692356066 0.959 1.132052557e-38
-0.0212309902873 -0.0513082265276 0.956 9.55089160043e-39
-0.0194617410967 -0.0513082265276 0.956 8.44886564654e-39
-0.0176554783247 -0.0512008871415 0.954 8.35703015038e-39
-0.0158399621573 -0.0510398780625 0.951 7.53051068496e-39
-0.0140355500644 -0.0508788689834 0.948 1.62004718019e-38
-0.0122811063063 -0.0508788689834 0.948 1.2798943094e-38
-0.0105044543995 -0.0507715295974 0.946 1.33503260138e-38
-0.00875371199954 -0.0507715295974 0.946 1.36258339035e-38
-0.0069807614508 -0.0506105205183 0.943 1.40860861802e-38
-0.0052355710881 -0.0506105205183 0.943 1.5193139993e-38
-0.0034903807254 -0.0506105205183 0.943 1.0404009112e-38
-0.00173963832549 -0.0504495114392 0.94 7.82574745581e-39
0.0 -0.0504495114392 0.94 7.46019913321e-39
0.00173963832549 -0.0504495114392 0.94 6.81304587122e-39
0.0034718739347 -0.0503421720532 0.938 1.00412788006e-38
0.00520781090205 -0.0503421720532 0.938 7.55457378218e-39
0.00694374786941 -0.0503421720532 0.938 4.3306176157e-39
0.00869819162745 -0.0504495114392 0.94 1.50154623542e-38
0.0104378299529 -0.0504495114392 0.94 1.53731185639e-38
0.0121774682784 -0.0504495114392 0.94 1.62943433847e-38
0.0139171066039 -0.0504495114392 0.94 1.55578657534e-38
0.0157067132643 -0.0506105205183 0.943 1.63876138105e-38
0.017451903627 -0.0506105205183 0.943 1.66620441018e-38
0.0191970939897 -0.0506105205183 0.943 1.6112107322e-38
0.0210089087989 -0.0507715295974 0.946 1.31658380644e-38
0.0227596511988 -0.0507715295974 0.946 1.49132236183e-38
0.0245622126127 -0.0508788689834 0.948 1.43625693737e-38
0.0263166563707 -0.0508788689834 0.948 1.69436490411e-38
0.0281599327241 -0.0510398780625 0.951 1.89679760131e-38
0.0299199285194 -0.0510398780625 0.951 1.17714451989e-38
0.0316799243146 -0.0510398780625 0.951 2.34864531022e-38
-0.0285448739706 -0.0499535294486 0.964 2.20105537116e-38
-0.0267052989754 -0.0498498914207 0.962 2.2655572796e-38
-0.0248472171894 -0.0496944343788 0.959 2.34864068594e-38
-0.0230724159616 -0.0496944343788 0.959 1.21499275064e-38
-0.0212976147338 -0.0496944343788 0.959 8.26519465422e-39
-0.0194617410967 -0.049538977337 0.956 8.72581126853e-39
-0.0176554783247 -0.0494353393091 0.954 8.44886564654e-39
-0.0158399621573 -0.0492798822672 0.951 7.4386751888e-39
-0.0140355500644 -0.0491244252253 0.948 1.62933891005e-38
-0.0122811063063 -0.0491244252253 0.948 1.27982368396e-38
-0.0105044543995 -0.0490207871974 0.946 1.33506735358e-38
-0.00875371199954 -0.0490207871974 0.946 1.37180295334e-38
-0.00700296959964 -0.0490207871974 0.946 1.43630233944e-38
-0.0052355710881 -0.0488653301556 0.943 1.45463608777e-38
-0.0034903807254 -0.0488653301556 0.943 1.51953078017e-38
-0.00173963832549 -0.0487098731137 0.94 5.79603949775e-39
0.0 -0.0487098731137 0.94 7.18218151789e-39
0.00173963832549 -0.0487098731137 0.94 7.55203462937e-39
0.00347927665098 -0.0487098731137 0.94 6.72192783988e-39
0.00521891497647 -0.0487098731137 0.94 6.53825684756e-39
0.00695855330196 -0.0487098731137 0.94 0.0
0.00869819162745 -0.0487098731137 0.94 1.55679733192e-38
0.0104378299529 -0.0487098731137 0.94 1.49132236183e-38
0.0121774682784 -0.0487098731137 0.94 1.56486250524e-38
0.0139615229016 -0.0488653301556 0.943 1.44536874051e-38
0.0157067132643 -0.0488653301556 0.943 1.40870628853e-38
0.017451903627 -0.0488653301556 0.943 1.49178871396e-38
0.019258166399 -0.0490207871974 0.946 1.21502666206e-38
0.0210089087989 -0.0490207871974 0.946 1.29807321425e-38
0.0227596511988 -0.0490207871974 0.946 1.62068126774e-38
0.0245622126127 -0.0491244252253 0.948 1.83262037372e-38
0.0263999369289 -0.0492798822672 0.951 1.20534088707e-38
0.0281599327241 -0.0492798822672 0.951 1.49957404797e-38
0.0300143131519 -0.0494353393091 0.954 8.26770578107e-39
0.0317798609844 -0.0494353393091 0.954 2.34914781585e-38
0.0337212233285 -0.0496944343788 0.959 2.26577392034e-38
-0.0248472171894 -0.047919633151 0.959 2.3486757184e-38
-0.0230724159616 -0.047919633151 0.959 1.08595698415e-38
-0.0212976147338 -0.047919633151 0.959 9.09171411964e-39
-0.0194617410967 -0.0477697281463 0.956 8.90804312733e-39
-0.0176924919061 -0.0477697281463 0.956 8.54070114269e-39
-0.0158899304922 -0.0476697914766 0.954 7.25500419648e-39
-0.0140799663621 -0.0475198864719 0.951 1.58345787599e-38
-0.0122811063063 -0.0473699814673 0.948 1.30758845121e-38
-0.0105266625483 -0.0473699814673 0.948 1.33510238604e-38
-0.00875371199954 -0.0472700447975 0.946 1.37190987241e-38
-0.00700296959964 -0.0472700447975 0.946 1.40860861802e-38
-0.00525222719973 -0.0472700447975 0.946 1.40860861802e-38
-0.0034903807254 -0.0471201397929 0.943 1.62973393608e-38
-0.0017451903627 -0.0471201397929 0.943 1.19706243614e-38
0.0 -0.0471201397929 0.943 5.60913991377e-39
0.0017451903627 -0.0471201397929 0.943 6.62865741409e-39
0.0034903807254 -0.0471201397929 0.943 1.02188723615e-38
0.0052355710881 -0.0471201397929 0.943 7.54521871364e-39
0.0069807614508 -0.0471201397929 0.943 3.67951829724e-39
0.0087259518135 -0.0471201397929 0.943 1.31716702686e-38
0.0104711421762 -0.0471201397929 0.943 1.53806519444e-38
0.0122163325389 -0.0471201397929 0.943 1.59273601325e-38
0.0139615229016 -0.0471201397929 0.943 1.30707739766e-38
0.0157566815992 -0.0472700447975 0.946 1.44536874051e-38
0.0175074239991 -0.0472700447975 0.946 1.5285946589e-38
0.019258166399 -0.0472700447975 0.946 1.52845116594e-38
0.0210089087989 -0.0472700447975 0.946 1.64819604335e-38
0.0227596511988 -0.0472700447975 0.946 1.72162856704e-38
0.0245622126127 -0.0473699814673 0.948 1.90605289741e-38
0.0263999369289 -0.0475198864719 0.951 1.26991272031e-38
0.0282487653195 -0.0476697914766 0.954 1.20390595745e-38
0.0300772362403 -0.0477697281463 0.956 9.46945934407e-39
0.0318464854309 -0.0477697281463 0.956 2.34914641455e-38
0.0337212233285 -0.047919633151 0.959 2.29332484945e-38
-0.0248472171894 -0.0461448319232 0.959 2.3487494267e-38
-0.0230724159616 -0.0461448319232 0.959 1.1320178048e-38
-0.0212976147338 -0.0461448319232 0.959 8.81620763117e-39
-0.019522813506 -0.0461448319232 0.959 8.90877600642e-39
-0.0176924919061 -0.0460004789557 0.956 8.44886564654e-39
-0.0158899304922 -0.0459042436441 0.954 7.16316870032e-39
-0.0140799663621 -0.0457598906767 0.951 1.57427208429e-38
-0.0122811063063 -0.0456155377093 0.948 1.30737321177e-38
-0.0105266625483 -0.0456155377093 0.948 1.38101999399e-38
-0.00877221879024 -0.0456155377093 0.948 1.36276093487e-38
-0.00700296959964 -0.0455193023976 0.946 1.42697515674e-38
-0.00525222719973 -0.0455193023976 0.946 1.42679593066e-38
-0.00350148479982 -0.0455193023976 0.946 1.49129699833e-38
-0.0017451903627 -0.0453749494302 0.943 1.61140467191e-38
0.0 -0.0453749494302 0.943 1.06759072569e-38
0.0017451903627 -0.0453749494302 0.943 6.98846601818e-39
0.0034903807254 -0.0453749494302 0.943 1.22371036851e-38
0.0052355710881 -0.0453749494302 0.943 7.71489914208e-39
0.00700296959964 -0.0455193023976 0.946 7.63669547739e-39
0.00875371199954 -0.0455193023976 0.946 3.50086955862e-39
0.0105044543995 -0.0455193023976 0.946 1.56608920191e-38
0.0122551967994 -0.0455193023976 0.946 1.54674651869e-38
0.0140059391993 -0.0455193023976 0.946 1.57422542106e-38
0.0157566815992 -0.0455193023976 0.946 1.72137745435e-38
0.0175074239991 -0.0455193023976 0.946 1.68475087561e-38
0.019258166399 -0.0455193023976 0.946 1.6570567338e-38
0.0210089087989 -0.0455193023976 0.946 1.53734772963e-38
0.0228077688546 -0.0456155377093 0.948 1.75861387818e-38
0.0245622126127 -0.0456155377093 0.948 1.73095560962e-38
0.0263999369289 -0.0457598906767 0.951 1.27012795975e-38
0.0282487653195 -0.0459042436441 0.954 1.31518629148e-38
0.0300772362403 -0.0460004789557 0.956 1.28770584769e-38
0.0318464854309 -0.0460004789557 0.956 2.34914557377e-38
0.0337212233285 -0.0461448319232 0.959 2.34874914644e-38
-0.0249249457103 -0.0445088316256 0.962 2.34867655918e-38
-0.0231445924453 -0.0445088316256 0.962 1.03056645845e-38
-0.0212976147338 -0.0443700306954 0.959 9.82855048335e-39
-0.019522813506 -0.0443700306954 0.959 8.81728382839e-39
-0.0176924919061 -0.0442312297651 0.956 8.54177733991e-39
-0.0158899304922 -0.0441386958117 0.954 7.4386751888e-39
-0.0140799663621 -0.0439998948814 0.951 1.55583267806e-38
-0.0122811063063 -0.0438610939512 0.948 1.3256694053e-38
-0.0105266625483 -0.0438610939512 0.948 1.4085357505e-38
-0.00877221879024 -0.0438610939512 0.948 1.37173036608e-38
-0.00701777503219 -0.0438610939512 0.948 1.4453799509e-38
-0.00526333127414 -0.0438610939512 0.948 1.45445433936e-38
-0.00350148479982 -0.0437685599977 0.946 1.46363929028e-38
-0.00175074239991 -0.0437685599977 0.946 1.55597743219e-38
0.0 -0.0437685599977 0.946 1.39909940664e-38
0.00175074239991 -0.0437685599977 0.946 1.13086803941e-38
0.00350148479982 -0.0437685599977 0.946 1.18668680192e-38
0.00525222719973 -0.0437685599977 0.946 8.27165183754e-39
0.00700296959964 -0.0437685599977 0.946 1.10439484895e-38
0.00875371199954 -0.0437685599977 0.946 3.21424236553e-39
0.0105044543995 -0.0437685599977 0.946 1.40032063826e-38
0.0122551967994 -0.0437685599977 0.946 1.47356510769e-38
0.0140059391993 -0.0437685599977 0.946 1.64798080391e-38
0.0157566815992 -0.0437685599977 0.946 1.60152495722e-38
0.0175074239991 -0.0437685599977 0.946 1.77662224501e-38
0.019258166399 -0.0437685599977 0.946 1.362573301e-38
0.0210533250966 -0.0438610939512 0.948 1.32548037013e-38
0.0228077688546 -0.0438610939512 0.948 1.68460738265e-38
0.0245622126127 -0.0438610939512 0.948 9.46730694963e-39
0.026483217487 -0.0441386958117 0.954 1.25061291682e-38
0.0283079870497 -0.0442312297651 0.956 1.28817374125e-38
0.0300772362403 -0.0442312297651 0.956 1.29692527055e-38
0.0319464221007 -0.0443700306954 0.959 2.34903767379e-38
0.0338267120354 -0.0445088316256 0.962 2.3393856701e-38
-0.0231927101011 -0.0428173109559 0.964 1.00290847014e-38
-0.0213642391803 -0.0427284783606 0.962 9.64523822344e-39
-0.019522813506 -0.0425952294675 0.959 8.45101944227e-39
-0.0177480122781 -0.0425952294675 0.959 8.90804312733e-39
-0.0159232427154 -0.0424619805745 0.956 7.53051068496e-39
-0.0141243826597 -0.0423731479792 0.954 1.58359758544e-38
-0.0123199705668 -0.0422398990862 0.951 1.37173036608e-38
-0.0105599747715 -0.0422398990862 0.951 1.38098524179e-38
-0.00877221879024 -0.0421066501932 0.948 1.39020508503e-38
-0.00701777503219 -0.0421066501932 0.948 1.45463454634e-38
-0.00526333127414 -0.0421066501932 0.948 1.49144077155e-38
-0.00350148479982 -0.0420178175978 0.946 1.48222218947e-38
-0.00175074239991 -0.0420178175978 0.946 1.5375377457e-38
0.0 -0.0420178175978 0.946 1.29786470104e-38
0.00175074239991 -0.0420178175978 0.946 1.21366347891e-38
0.00350148479982 -0.0420178175978 0.946 1.35278130759e-38
0.00525222719973 -0.0420178175978 0.946 9.19718144726e-39
0.00700296959964 -0.0420178175978 0.946 1.01176888033e-38
0.00875371199954 -0.0420178175978 0.946 7.99865647592e-39
0.0105044543995 -0.0420178175978 0.946 5.14852750336e-39
0.0122811063063 -0.0421066501932 0.948 1.63970375427e-38
0.0140355500644 -0.0421066501932 0.948 1.62968545116e-38
0.0157899938224 -0.0421066501932 0.948 1.6112107322e-38
0.0175444375805 -0.0421066501932 0.948 1.59295125269e-38
0.0192988813385 -0.0421066501932 0.948 9.57205681244e-39
0.0210533250966 -0.0421066501932 0.948 1.67600144826e-38
0.0228077688546 -0.0421066501932 0.948 1.76790504752e-38
0.0247176696545 -0.0423731479792 0.954 1.50007543256e-38
0.0265387378591 -0.0424619805745 0.956 1.1127879261e-38
0.0283079870497 -0.0424619805745 0.956 1.15877742066e-38
0.0301716208728 -0.0425952294675 0.959 1.49958175511e-38
0.0319464221007 -0.0425952294675 0.959 2.34925123168e-38
0.0338970378401 -0.0428173109559 0.964 2.3116549544e-38
-0.0231445924453 -0.0409481250955 0.962 9.75286915589e-39
-0.0213642391803 -0.0409481250955 0.962 9.1835496158e-39
-0.019522813506 -0.0408204282397 0.959 9.09459378799e-39
-0.0177480122781 -0.0408204282397 0.959 8.44886564654e-39
-0.0159232427154 -0.0406927313839 0.956 7.25500419648e-39
-0.0141243826597 -0.0406076001467 0.954 1.60207314518e-38
-0.0123199705668 -0.0404799032909 0.951 1.34417901658e-38
-0.0105599747715 -0.0404799032909 0.951 1.39020480477e-38
-0.00877221879024 -0.0403522064351 0.948 1.4086456123e-38
-0.00701777503219 -0.0403522064351 0.948 1.43637296489e-38
-0.00526333127414 -0.0403522064351 0.948 1.45470517179e-38
-0.00350148479982 -0.0402670751979 0.946 1.45474174568e-38
-0.00175074239991 -0.0402670751979 0.946 1.48243616775e-38
0.0 -0.0402670751979 0.946 1.54701122397e-38
0.00175074239991 -0.0402670751979 0.946 1.32563255115e-38
0.00350148479982 -0.0402670751979 0.946 1.23242518379e-38
0.00525222719973 -0.0402670751979 0.946 1.04767799426e-38
0.00700296959964 -0.0402670751979 0.946 8.17335915806e-39
0.00875371199954 -0.0402670751979 0.946 8.17335915806e-39
0.0105266625483 -0.0403522064351 0.948 5.69559442383e-39
0.0122811063063 -0.0403522064351 0.948 1.1968092215e-38
0.0140355500644 -0.0403522064351 0.948 1.39048268226e-38
0.0157899938224 -0.0403522064351 0.948 1.24307953628e-38
0.0175444375805 -0.0403522064351 0.948 7.54199012198e-39
0.0193599537478 -0.0404799032909 0.951 1.18733336103e-38
0.0211199495431 -0.0404799032909 0.951 1.23285566268e-38
0.0228799453383 -0.0404799032909 0.951 1.25947360727e-38
0.0247694886685 -0.0406927313839 0.956 1.25972471995e-38
0.0265387378591 -0.0406927313839 0.956 1.1586339277e-38
0.028396819645 -0.0408204282397 0.959 1.46337724746e-38
0.0301716208728 -0.0408204282397 0.959 1.60127860895e-38
0.0320463587704 -0.0409481250955 0.962 2.34921451766e-38
0.0338970378401 -0.0410332563327 0.964 2.30254343153e-38
-0.0231445924453 -0.0391677718305 0.962 9.56918695318e-39
-0.0213642391803 -0.0391677718305 0.962 9.6434445614e-39
-0.0195838859153 -0.0391677718305 0.962 8.63253663885e-39
-0.0177480122781 -0.0390456270119 0.959 8.63253663885e-39
-0.0159232427154 -0.0389234821933 0.956 7.4386751888e-39
-0.0141539935248 -0.0389234821933 0.956 1.60200616311e-38
-0.0123588348273 -0.0388420523143 0.954 1.34417733502e-38
-0.0105932869948 -0.0388420523143 0.954 1.36258339035e-38
-0.00879997897629 -0.0387199074957 0.951 1.39938905504e-38
-0.00703998318103 -0.0387199074957 0.951 1.43623045283e-38
-0.00526333127414 -0.0385977626771 0.948 1.4363026197e-38
-0.0035088875161 -0.0385977626771 0.948 1.48247106008e-38
-0.00175444375805 -0.0385977626771 0.948 1.46396158892e-38
0.0 -0.0385977626771 0.948 1.45474174568e-38
0.00175444375805 -0.0385977626771 0.948 1.69445010306e-38
0.0035088875161 -0.0385977626771 0.948 9.28758201379e-39
0.00526333127414 -0.0385977626771 0.948 1.21301776058e-38
0.00701777503219 -0.0385977626771 0.948 8.99987862348e-39
0.00877221879024 -0.0385977626771 0.948 9.83285527223e-39
0.0105266625483 -0.0385977626771 0.948 9.00561834199e-39
0.0122811063063 -0.0385977626771 0.948 1.11426055066e-38
0.0140355500644 -0.0385977626771 0.948 1.05026086758e-38
0.0157899938224 -0.0385977626771 0.948 6.5350282559e-39
0.0175999579526 -0.0387199074957 0.951 1.1507425154e-38
0.0193599537478 -0.0387199074957 0.951 1.21473967613e-38
0.0211199495431 -0.0387199074957 0.951 1.27852229807e-38
0.0229521218221 -0.0388420523143 0.954 1.22309814121e-38
0.0247694886685 -0.0389234821933 0.956 7.8096044975e-39
0.0266220184172 -0.0390456270119 0.959 1.25087061561e-38
0.028396819645 -0.0390456270119 0.959 1.45383692726e-38
0.0302660055054 -0.0391677718305 0.962 1.71198370997e-38
0.0320463587704 -0.0391677718305 0.962 2.34925249285e-38
0.0338970378401 -0.0392492017096 0.964 2.3485686592e-38
-0.0214752799245 -0.0375817398678 0.967 8.17335915806e-39
-0.0195838859153 -0.0373874185655 0.962 9.27538791455e-39
-0.0177480122781 -0.0372708257841 0.959 8.44886564654e-39
-0.0159732110503 -0.0372708257841 0.959 7.34683969264e-39
-0.0141539935248 -0.0371542330027 0.956 1.58353018299e-38
-0.0123588348273 -0.0370765044818 0.954 1.34406915478e-38
-0.0105932869948 -0.0370765044818 0.954 1.46389068322e-38
-0.00879997897629 -0.0369599117004 0.951 1.41789894658e-38
-0.00703998318103 -0.0369599117004 0.951 1.46396130866e-38
-0.00527998738577 -0.0369599117004 0.951 1.4363401745e-38
-0.0035088875161 -0.036843318919 0.948 1.50987709492e-38
-0.00175444375805 -0.036843318919 0.948 1.51009835995e-38
0.0 -0.036843318919 0.948 1.53760991257e-38
0.00175444375805 -0.036843318919 0.948 1.60225475346e-38
0.0035088875161 -0.036843318919 0.948 1.30754921485e-38
0.00526333127414 -0.036843318919 0.948 1.47310800413e-38
0.00701777503219 -0.036843318919 0.948 9.19432980489e-39
0.00877221879024 -0.036843318919 0.948 1.03835095168e-38
0.0105266625483 -0.036843318919 0.948 1.42739750809e-38
0.0122811063063 -0.036843318919 0.948 9.20831196096e-39
0.0140799663621 -0.0369599117004 0.951 9.10965073998e-39
0.0158399621573 -0.0369599117004 0.951 1.30722117088e-38
0.0175999579526 -0.0369599117004 0.951 1.39888304616e-38
0.0193599537478 -0.0369599117004 0.951 1.37100435334e-38
0.0211865739896 -0.0370765044818 0.954 1.00219072506e-38
0.0230002394779 -0.0371542330027 0.956 6.79797911013e-39
0.0248472171894 -0.0372708257841 0.959 7.26577457648e-39
0.0266220184172 -0.0372708257841 0.959 1.05779831189e-38
0.028396819645 -0.0372708257841 0.959 1.19583447829e-38
0.0302660055054 -0.0373874185655 0.962 1.78574175529e-38
0.0320463587704 -0.0373874185655 0.962 2.34892921329e-38
0.0340025265471 -0.0375817398678 0.967 2.3484587974e-38
-0.021541904371 -0.0359031739516 0.97 8.81620763117e-39
-0.0196856732641 -0.0357921332074 0.967 8.99988002478e-39
-0.0178035326502 -0.0356070653005 0.962 8.63253663885e-39
-0.0159732110503 -0.0354960245563 0.959 7.34683969264e-39
-0.0141539935248 -0.0353849838121 0.956 1.55590708701e-38
-0.0123847443342 -0.0353849838121 0.956 1.43601367196e-38
-0.0106154951436 -0.0353849838121 0.956 1.39013417933e-38
-0.00882773916233 -0.0353109566493 0.954 1.40867952373e-38
-0.00706219132986 -0.0353109566493 0.954 1.44552190243e-38
-0.0052966434974 -0.0353109566493 0.954 1.45474174568e-38
-0.00351999159051 -0.0351999159051 0.951 1.4363026197e-38
-0.00175999579526 -0.0351999159051 0.951 1.41761336196e-38
0.0 -0.0351999159051 0.951 1.55593987739e-38
0.00175444375805 -0.035088875161 0.948 1.59307022293e-38
0.0035088875161 -0.035088875161 0.948 6.70937220564e-39
0.00526333127414 -0.035088875161 0.948 1.5557934417e-38
0.00701777503219 -0.035088875161 0.948 1.3441044675e-38
0.00877221879024 -0.035088875161 0.948 1.15992536436e-38
0.0105266625483 -0.035088875161 0.948 6.81232840641e-39
0.0122811063063 -0.035088875161 0.948 8.92992720544e-39
0.0140799663621 -0.0351999159051 0.951 1.13248233524e-38
0.0158399621573 -0.0351999159051 0.951 1.18718902729e-38
0.0175999579526 -0.0351999159051 0.951 1.343489858e-38
0.0194210261571 -0.0353109566493 0.954 8.8233822793e-39
0.0212309902873 -0.0353849838121 0.956 7.53696786828e-39
0.0230002394779 -0.0353849838121 0.956 4.77903872948e-39
0.0248472171894 -0.0354960245563 0.959 8.65228513811e-39
0.0266220184172 -0.0354960245563 0.959 5.97432950397e-39
0.0284856522404 -0.0356070653005 0.962 1.00269295043e-38
0.0302660055054 -0.0356070653005 0.962 1.86889957057e-38
0.0320463587704 -0.0356070653005 0.962 2.34885480434e-38
0.0340025265471 -0.0357921332074 0.967 2.34846005857e-38
-0.0233370630686 -0.034108015254 0.97 7.26038518258e-39
-0.021541904371 -0.034108015254 0.97 8.81620763117e-39
-0.0196856732641 -0.0340025265471 0.967 8.91163045139e-39
-0.0178405462316 -0.0338970378401 0.964 8.81620763117e-39
-0.0159732110503 -0.0337212233285 0.959 7.25500419648e-39
-0.0141984098225 -0.0337212233285 0.959 1.60218062477e-38
-0.0123847443342 -0.0336157346215 0.956 1.39020480477e-38
-0.0106154951436 -0.0336157346215 0.956 1.37194546539e-38
-0.00884624595303 -0.0336157346215 0.956 1.40860861802e-38
-0.00707699676242 -0.0336157346215 0.956 1.4639610284e-38
-0.0052966434974 -0.0335454088169 0.954 1.47318115191e-38
-0.00353109566493 -0.0335454088169 0.954 1.49144049129e-38
-0.00175999579526 -0.0334399201099 0.951 1.48229281491e-38
0.0 -0.0334399201099 0.951 1.5006578122e-38
0.00175999579526 -0.0334399201099 0.951 1.58360024791e-38
0.00351999159051 -0.0334399201099 0.951 1.67597370255e-38
0.00526333127414 -0.0333344314029 0.948 1.37208979913e-38
0.00701777503219 -0.0333344314029 0.948 5.69882301549e-39
0.00877221879024 -0.0333344314029 0.948 7.64100026627e-39
0.0105266625483 -0.0333344314029 0.948 6.99635813113e-39
0.0122811063063 -0.0333344314029 0.948 1.10489973679e-38
0.0140799663621 -0.0334399201099 0.951 1.11404348953e-38
0.0158399621573 -0.0334399201099 0.951 1.18754775969e-38
0.0176554783247 -0.0335454088169 0.954 1.1776826185e-38
0.0194617410967 -0.0336157346215 0.956 7.44692603416e-39
0.0212309902873 -0.0336157346215 0.956 3.76525534248e-39
0.0230724159616 -0.0337212233285 0.959 7.54238528814e-39
0.0248472171894 -0.0337212233285 0.959 1.48272035108e-38
0.0267052989754 -0.0338267120354 0.962 5.23462328101e-39
0.0284856522404 -0.0338267120354 0.962 6.43135459031e-39
0.0302660055054 -0.0338267120354 0.962 1.97042364431e-38
0.0320463587704 -0.0338267120354 0.962 2.34896186355e-38
0.0340025265471 -0.0340025265471 0.967 2.3115812461e-38
-0.0233370630686 -0.0323128565565 0.97 6.15297824259e-39
-0.021541904371 -0.0323128565565 0.97 9.0009548207e-39
-0.0196856732641 -0.0322129198867 0.967 8.17730521454e-39
-0.0178405462316 -0.0321129832169 0.964 8.26519465422e-39
-0.0160231793852 -0.0320463587704 0.962 7.53051068496e-39
-0.0141984098225 -0.0319464221007 0.959 1.54693751567e-38
-0.0124236085947 -0.0319464221007 0.959 1.35332459101e-38
-0.0106488073669 -0.0319464221007 0.959 1.40874986891e-38
-0.00884624595303 -0.0318464854309 0.956 1.44552064126e-38
-0.00707699676242 -0.0318464854309 0.956 1.43633737191e-38
-0.00530774757182 -0.0318464854309 0.956 1.46399662138e-38
-0.00353109566493 -0.0317798609844 0.954 1.500695367e-38
-0.00176554783247 -0.0317798609844 0.954 1.48233050984e-38
0.0 -0.0317798609844 0.954 1.54682975582e-38
0.00175999579526 -0.0316799243146 0.951 1.60211027959e-38
0.00351999159051 -0.0316799243146 0.951 1.59303519047e-38
0.00527998738577 -0.0316799243146 0.951 6.15943542591e-39
0.00703998318103 -0.0316799243146 0.951 7.17572433456e-39
0.00879997897629 -0.0316799243146 0.951 1.23350726647e-38
0.0105599747715 -0.0316799243146 0.951 6.80336009624e-39
0.0123199705668 -0.0316799243146 0.951 1.288358012e-38
0.0141243826597 -0.0317798609844 0.954 1.16928828018e-38
0.0158899304922 -0.0317798609844 0.954 1.29818293592e-38
0.0176554783247 -0.0317798609844 0.954 1.40820406316e-38
0.0194617410967 -0.0318464854309 0.956 6.25055345725e-39
0.0212976147338 -0.0319464221007 0.959 2.57139389242e-39
0.0230724159616 -0.0319464221007 0.959 1.5929254688e-38
0.0249249457103 -0.0320463587704 0.962 1.96206756144e-38
0.0267052989754 -0.0320463587704 0.962 1.14102465068e-38
0.0284856522404 -0.0320463587704 0.962 1.44523477638e-38
0.0302660055054 -0.0320463587704 0.962 1.53649756185e-38
0.0321129832169 -0.0321129832169 0.964 2.34892711134e-38
0.0340025265471 -0.0322129198867 0.967 2.30243384999e-38
-0.0233370630686 -0.0305176978589 0.97 5.87747175411e-39
-0.021541904371 -0.0305176978589 0.97 8.54070114269e-39
-0.0196856732641 -0.0304233132263 0.967 8.54141860751e-39
-0.0178960666037 -0.0304233132263 0.967 8.35703015038e-39
-0.0160231793852 -0.0302660055054 0.962 7.53051068496e-39
-0.0142428261202 -0.0302660055054 0.962 1.50094872176e-38
-0.0124236085947 -0.0301716208728 0.959 1.3533973184e-38
-0.0106488073669 -0.0301716208728 0.959 1.39020452451e-38
-0.00887400613907 -0.0301716208728 0.959 1.42719039618e-38
-0.00707699676242 -0.0300772362403 0.956 1.4547770584e-38
-0.00530774757182 -0.0300772362403 0.956 1.44552162217e-38
-0.00353849838121 -0.0300772362403 0.956 1.47318087165e-38
-0.00176924919061 -0.0300772362403 0.956 1.51906330701e-38
0.0 -0.0300772362403 0.956 1.52831874323e-38
0.00176554783247 -0.0300143131519 0.954 1.55597715193e-38
0.00353109566493 -0.0300143131519 0.954 1.58374556256e-38
0.0052966434974 -0.0300143131519 0.954 1.02113838225e-38
0.00706219132986 -0.0300143131519 0.954 1.30646755257e-38
0.00882773916233 -0.0300143131519 0.954 9.83285527223e-39
0.0105932869948 -0.0300143131519 0.954 8.54070114269e-39
0.0123588348273 -0.0300143131519 0.954 1.37983855925e-38
0.0141243826597 -0.0300143131519 0.954 1.18729664701e-38
0.0159232427154 -0.0300772362403 0.956 1.2150625353e-38
0.0176924919061 -0.0300772362403 0.956 1.38036642838e-38
0.0194617410967 -0.0300772362403 0.956 5.69559442383e-39
0.0212976147338 -0.0301716208728 0.959 1.46936793853e-39
0.0231445924453 -0.0302660055054 0.962 1.78646426477e-38
0.0249249457103 -0.0302660055054 0.962 1.88787945762e-38
0.0267052989754 -0.0302660055054 0.962 2.06301654229e-38
0.0284856522404 -0.0302660055054 0.962 1.44501645407e-38
0.0302660055054 -0.0302660055054 0.962 1.7013261345e-38
0.0321129832169 -0.0303289285938 0.964 2.3489635451e-38
0.0340025265471 -0.0304233132263 0.967 2.24708115935e-38
-0.0233370630686 -0.0287225391613 0.97 5.32645877716e-39
-0.021541904371 -0.0287225391613 0.97 8.90876059214e-39
-0.0197467456734 -0.0287225391613 0.97 8.90840185973e-39
-0.0178960666037 -0.028633706566 0.967 8.63253663885e-39
-0.0160564916085 -0.0285448739706 0.964 7.25500419648e-39
-0.0142428261202 -0.0284856522404 0.962 1.53771809281e-38
-0.0124624728552 -0.0284856522404 0.962 1.37176413737e-38
-0.0106488073669 -0.028396819645 0.959 1.40860917854e-38
-0.00887400613907 -0.028396819645 0.959 1.39949625437e-38
-0.00709920491126 -0.028396819645 0.959 1.4271909567e-38
-0.00532440368344 -0.028396819645 0.959 1.44570168902e-38
-0.00353849838121 -0.0283079870497 0.956 1.48240057477e-38
-0.00176924919061 -0.0283079870497 0.956 1.50073208102e-38
0.0 -0.0283079870497 0.956 1.52824685662e-38
0.00176924919061 -0.0283079870497 0.956 1.54679262141e-38
0.00353849838121 -0.0283079870497 0.956 1.56537594099e-38
0.00530774757182 -0.0283079870497 0.956 1.51924183243e-38
0.00706219132986 -0.0282487653195 0.954 1.6573553505e-38
0.00882773916233 -0.0282487653195 0.954 1.41725028552e-38
0.0105932869948 -0.0282487653195 0.954 1.22360176788e-38
0.0123847443342 -0.0283079870497 0.956 1.66592821425e-38
0.0141539935248 -0.0283079870497 0.956 1.3164836136e-38
0.0159232427154 -0.0283079870497 0.956 1.12272481377e-38
0.0176924919061 -0.0283079870497 0.956 1.08627760123e-38
0.019522813506 -0.028396819645 0.959 5.87890668374e-39
0.0212976147338 -0.028396819645 0.959 1.16771812525e-38
0.0231445924453 -0.0284856522404 0.962 1.91557892437e-38
0.0249249457103 -0.0284856522404 0.962 2.01677425349e-38
0.0267608193474 -0.0285448739706 0.964 1.37101135984e-38
0.0285448739706 -0.0285448739706 0.964 1.0469246562e-38
0.0303289285938 -0.0285448739706 0.964 1.97712563448e-38
0.0322129198867 -0.028633706566 0.967 2.34885802733e-38
-0.0251322217661 -0.0269273804637 0.97 2.16453641214e-38
-0.0233370630686 -0.0269273804637 0.97 5.14278778485e-39
-0.0216085288175 -0.0270106610218 0.973 7.4386751888e-39
-0.0198078180827 -0.0270106610218 0.973 8.54213607232e-39
-0.0178960666037 -0.0268440999056 0.967 8.26519465422e-39
-0.0160564916085 -0.0267608193474 0.964 7.89785266959e-39
-0.0142428261202 -0.0267052989754 0.962 1.56541377605e-38
-0.0124624728552 -0.0267052989754 0.962 1.46406822774e-38
-0.0106488073669 -0.0266220184172 0.959 1.46396285009e-38
-0.00887400613907 -0.0266220184172 0.959 1.39960429448e-38
-0.00709920491126 -0.0266220184172 0.959 1.41793608099e-38
-0.00532440368344 -0.0266220184172 0.959 1.46414123539e-38
-0.00353849838121 -0.0265387378591 0.956 1.43641051969e-38
-0.00176924919061 -0.0265387378591 0.956 1.509951644e-38
0.0 -0.0265387378591 0.956 1.60214713374e-38
0.00176924919061 -0.0265387378591 0.956 1.53775284502e-38
0.00353849838121 -0.0265387378591 0.956 1.48232784738e-38
0.00530774757182 -0.0265387378591 0.956 1.5100225497e-38
0.00707699676242 -0.0265387378591 0.956 1.57466584916e-38
