# .PCD v0.7 - Point Cloud Data file format
VERSION 0.7
FIELDS x y z rgb
SIZE 4 4 4 4
TYPE F F F F
COUNT 1 1 1 1
WIDTH 852
HEIGHT 1
VIEWPOINT 0 0 0 1 0 0 0
POINTS 852
DATA ascii
0.024623285022 -0.134607291453 0.887 9.91823358506e-39
0.026324059087 -0.134910802821 0.889 1.01937400735e-38
0.0279693127799 -0.134910802821 0.889 1.01937400735e-38
0.0297811275891 -0.135669581239 0.894 1.03774110659e-38
0.0314356346774 -0.135669581239 0.894 1.06529175543e-38
0.0330901417657 -0.135669581239 0.894 1.00100690812e-38
0.0348223773749 -0.135973092607 0.896 1.5257654373e-38
0.0364805858214 -0.135973092607 0.896 2.14518980528e-38
-0.0200095421013 -0.135064409184 0.901 1.39887702058e-38
-0.0182810078502 -0.13461469417 0.898 6.24481373874e-39
-0.0165820844643 -0.13431488416 0.896 6.97949770801e-39
-0.0149238760178 -0.13431488416 0.896 6.70399121953e-39
-0.0131916404086 -0.133565359137 0.891 7.25500419648e-39
-0.0115426853575 -0.133565359137 0.891 7.07133320417e-39
-0.00987152215763 -0.133265549128 0.889 7.16316870032e-39
-0.00822626846469 -0.133265549128 0.889 7.53051068496e-39
-0.00656620933919 -0.132965739119 0.887 7.25500419648e-39
-0.00492465700439 -0.132965739119 0.887 7.53051068496e-39
-0.0032831046696 -0.132965739119 0.887 7.53051068496e-39
-0.0016415523348 -0.132965739119 0.887 8.26519465422e-39
0.0 -0.132965739119 0.887 7.98968816575e-39
0.0016415523348 -0.132965739119 0.887 8.54070114269e-39
0.0032831046696 -0.132965739119 0.887 8.26519465422e-39
0.00491355292998 -0.132665929109 0.885 8.17335915806e-39
0.00655140390664 -0.132665929109 0.885 8.81620763117e-39
0.00818925488329 -0.132665929109 0.885 8.54070114269e-39
0.00984931400879 -0.132965739119 0.887 8.54070114269e-39
0.0114908663436 -0.132965739119 0.887 8.81620763117e-39
0.0131324186784 -0.132965739119 0.887 8.72437213501e-39
0.0147739710132 -0.132965739119 0.887 8.81620763117e-39
0.016415523348 -0.132965739119 0.887 8.99987862348e-39
0.0180570756828 -0.132965739119 0.887 9.55089160043e-39
0.0196986280176 -0.132965739119 0.887 9.91823358506e-39
0.0213401803524 -0.132965739119 0.887 9.91823358506e-39
0.0229817326872 -0.132965739119 0.887 9.91823358506e-39
0.0246788053941 -0.133265549128 0.889 9.64272709659e-39
0.026324059087 -0.133265549128 0.889 1.02855755697e-38
0.0280322358683 -0.133565359137 0.891 1.01019045774e-38
0.0297811275891 -0.134015074151 0.894 1.07447530505e-38
0.0314356346774 -0.134015074151 0.894 1.06529175543e-38
0.0330901417657 -0.134015074151 0.894 1.01019045774e-38
0.0348223773749 -0.13431488416 0.896 1.57171919875e-38
-0.0217251215989 -0.133693055993 0.903 2.29244819713e-38
-0.020053958399 -0.133693055993 0.903 9.93330034615e-39
-0.0182810078502 -0.132952784365 0.898 5.60196526564e-39
-0.0166190980456 -0.132952784365 0.898 6.97949770801e-39
-0.0149238760178 -0.132656675714 0.896 7.07133320417e-39
-0.0132360567063 -0.132360567063 0.894 7.25500419648e-39
-0.0115426853575 -0.131916404086 0.891 6.88766221185e-39
-0.00987152215763 -0.131620295435 0.889 7.07133320417e-39
-0.00822626846469 -0.131620295435 0.889 7.53051068496e-39
-0.00658101477175 -0.131620295435 0.889 7.53051068496e-39
-0.00492465700439 -0.131324186784 0.887 7.62234618111e-39
-0.0032831046696 -0.131324186784 0.887 7.71418167727e-39
-0.0016415523348 -0.131324186784 0.887 7.98968816575e-39
0.0 -0.131324186784 0.887 7.98968816575e-39
0.0016415523348 -0.131324186784 0.887 8.17335915806e-39
0.0032831046696 -0.131324186784 0.887 8.26519465422e-39
0.00491355292998 -0.131028078133 0.885 8.44886564654e-39
0.00655140390664 -0.131028078133 0.885 9.1835496158e-39
0.00818925488329 -0.131028078133 0.885 8.90804312733e-39
0.00984931400879 -0.131324186784 0.887 8.72437213501e-39
0.0114908663436 -0.131324186784 0.887 8.54070114269e-39
0.0131324186784 -0.131324186784 0.887 8.81620763117e-39
0.0147739710132 -0.131324186784 0.887 8.99987862348e-39
0.016415523348 -0.131324186784 0.887 8.81620763117e-39
0.0180570756828 -0.131324186784 0.887 9.09171411964e-39
0.0196986280176 -0.131324186784 0.887 9.45905610427e-39
0.0213882980082 -0.131620295435 0.889 9.82639808891e-39
0.0230335517011 -0.131620295435 0.889 9.55089160043e-39
0.0246788053941 -0.131620295435 0.889 9.91823358506e-39
0.0263832808172 -0.131916404086 0.891 1.01937400735e-38
0.0281266205009 -0.132360567063 0.894 1.03774110659e-38
0.0297811275891 -0.132360567063 0.894 1.07447530505e-38
0.0314356346774 -0.132360567063 0.894 1.07447530505e-38
0.0331641689285 -0.132656675714 0.896 9.82639808891e-39
0.0348223773749 -0.132656675714 0.896 1.9955668624e-38
0.0365620157004 -0.132952784365 0.898 2.17288674969e-38
-0.0234740133197 -0.132460503733 0.906 1.88675463535e-38
-0.0217251215989 -0.132021892793 0.903 2.22809272438e-38
-0.020053958399 -0.132021892793 0.903 8.73549283962e-39
-0.0183420802595 -0.1317294855 0.901 5.78563625795e-39
-0.0166190980456 -0.131290874561 0.898 7.4386751888e-39
-0.0149238760178 -0.130998467268 0.896 7.34683969264e-39
-0.0132360567063 -0.130706059975 0.894 7.25500419648e-39
-0.0115426853575 -0.130267449035 0.891 7.16316870032e-39
-0.00987152215763 -0.129975041742 0.889 7.34683969264e-39
-0.00822626846469 -0.129975041742 0.889 7.16316870032e-39
-0.00658101477175 -0.129975041742 0.889 7.34683969264e-39
-0.00493576107881 -0.129975041742 0.889 7.53051068496e-39
-0.0032831046696 -0.129682634449 0.887 7.71418167727e-39
-0.0016415523348 -0.129682634449 0.887 7.53051068496e-39
0.0 -0.129682634449 0.887 7.98968816575e-39
0.0016415523348 -0.129682634449 0.887 8.35703015038e-39
0.0032831046696 -0.129682634449 0.887 8.35703015038e-39
0.00492465700439 -0.129682634449 0.887 8.26519465422e-39
0.00656620933919 -0.129682634449 0.887 8.72437213501e-39
0.00820776167399 -0.129682634449 0.887 8.35703015038e-39
0.00984931400879 -0.129682634449 0.887 8.72437213501e-39
0.0114908663436 -0.129682634449 0.887 8.81620763117e-39
0.0131324186784 -0.129682634449 0.887 8.99987862348e-39
0.0147739710132 -0.129682634449 0.887 9.36722060812e-39
0.016415523348 -0.129682634449 0.887 8.81620763117e-39
0.0180570756828 -0.129682634449 0.887 9.27538511196e-39
0.0197430443153 -0.129975041742 0.889 9.45905610427e-39
0.0213882980082 -0.129975041742 0.889 9.91823358506e-39
0.0230335517011 -0.129975041742 0.889 9.73456259275e-39
0.0247343257662 -0.130267449035 0.891 9.64272709659e-39
0.0263832808172 -0.130267449035 0.891 1.03774110659e-38
0.0281266205009 -0.130706059975 0.894 1.01937400735e-38
0.0297811275891 -0.130706059975 0.894 1.03774110659e-38
0.0315059604821 -0.130998467268 0.896 1.05610820582e-38
0.0331641689285 -0.130998467268 0.896 1.01937400735e-38
0.0348223773749 -0.130998467268 0.896 1.78384131431e-38
0.0364805858214 -0.130998467268 0.896 2.00686258919e-38
-0.0249286470685 -0.129628964756 0.898 1.96958622835e-38
-0.0232667372639 -0.129628964756 0.898 2.02487459939e-38
-0.0217972980826 -0.130783788496 0.906 2.18181568337e-38
-0.0201205828455 -0.130783788496 0.906 1.01184062681e-38
-0.018382795199 -0.130350729593 0.903 5.51012976948e-39
-0.0166746184177 -0.130062023658 0.901 6.88766221185e-39
-0.0149571882411 -0.129628964756 0.898 7.16316870032e-39
-0.0132656675714 -0.129340258821 0.896 6.97949770801e-39
-0.0115426853575 -0.128618493984 0.891 7.07133320417e-39
-0.00987152215763 -0.128329788049 0.889 7.34683969264e-39
-0.00822626846469 -0.128329788049 0.889 7.53051068496e-39
-0.00658101477175 -0.128329788049 0.889 7.71418167727e-39
-0.00493576107881 -0.128329788049 0.889 7.71418167727e-39
-0.00329050738588 -0.128329788049 0.889 7.98968816575e-39
-0.00164525369294 -0.128329788049 0.889 8.0815236619e-39
0.0 -0.128041082114 0.887 8.0815236619e-39
0.0016415523348 -0.128041082114 0.887 8.35703015038e-39
0.0032831046696 -0.128041082114 0.887 8.81620763117e-39
0.00492465700439 -0.128041082114 0.887 8.54070114269e-39
0.00656620933919 -0.128041082114 0.887 8.99987862348e-39
0.00820776167399 -0.128041082114 0.887 8.72437213501e-39
0.00984931400879 -0.128041082114 0.887 8.90804312733e-39
0.0114908663436 -0.128041082114 0.887 9.36722060812e-39
0.0131324186784 -0.128041082114 0.887 8.99987862348e-39
0.0147739710132 -0.128041082114 0.887 9.09171411964e-39
0.016415523348 -0.128041082114 0.887 9.36722060812e-39
0.0180570756828 -0.128041082114 0.887 9.45905610427e-39
0.0197430443153 -0.128329788049 0.889 9.55089160043e-39
0.0213882980082 -0.128329788049 0.889 9.82639808891e-39
0.0230335517011 -0.128329788049 0.889 9.91823358506e-39
0.0247343257662 -0.128618493984 0.891 1.01019045774e-38
0.0263832808172 -0.128618493984 0.891 1.01019045774e-38
0.0281266205009 -0.129051552886 0.894 1.01937400735e-38
0.0297811275891 -0.129051552886 0.894 1.07447530505e-38
0.0315059604821 -0.129340258821 0.896 1.09284240428e-38
0.0331641689285 -0.129340258821 0.896 9.82639808891e-39
0.0348223773749 -0.129340258821 0.896 1.83926659221e-38
0.0364805858214 -0.129340258821 0.896 2.03466617241e-38
-0.0249286470685 -0.127967054951 0.898 2.03401344759e-38
-0.0232667372639 -0.127967054951 0.898 2.05263460223e-38
-0.0217972980826 -0.129107073258 0.906 2.21876596206e-38
-0.0201205828455 -0.129107073258 0.906 9.47268793573e-39
-0.018382795199 -0.128679566393 0.903 5.96930725027e-39
-0.0166746184177 -0.128394561817 0.901 6.42848473106e-39
-0.0149571882411 -0.127967054951 0.898 6.79582671569e-39
-0.0132656675714 -0.127682050375 0.896 7.4386751888e-39
-0.011581549618 -0.127397045798 0.894 7.16316870032e-39
-0.00989373030646 -0.126969538933 0.891 7.71418167727e-39
-0.00822626846469 -0.126684534356 0.889 7.16316870032e-39
-0.00658101477175 -0.126684534356 0.889 7.25500419648e-39
-0.00493576107881 -0.126684534356 0.889 7.71418167727e-39
-0.00329050738588 -0.126684534356 0.889 7.71418167727e-39
-0.00164525369294 -0.126684534356 0.889 7.98968816575e-39
0.0 -0.126684534356 0.889 7.98968816575e-39
0.0016415523348 -0.126399529779 0.887 8.26519465422e-39
0.0032831046696 -0.126399529779 0.887 8.72437213501e-39
0.00492465700439 -0.126399529779 0.887 8.81620763117e-39
0.00656620933919 -0.126399529779 0.887 8.81620763117e-39
0.00820776167399 -0.126399529779 0.887 8.99987862348e-39
0.00984931400879 -0.126399529779 0.887 8.99987862348e-39
0.0114908663436 -0.126399529779 0.887 8.99987862348e-39
0.0131324186784 -0.126399529779 0.887 8.90804312733e-39
0.0147739710132 -0.126399529779 0.887 8.90804312733e-39
0.0164525369294 -0.126684534356 0.889 9.09171411964e-39
0.0180977906223 -0.126684534356 0.889 9.55089160043e-39
0.0197430443153 -0.126684534356 0.889 9.73456259275e-39
0.0213882980082 -0.126684534356 0.889 1.00100690812e-38
0.0230853707151 -0.126969538933 0.891 1.01019045774e-38
0.0247343257662 -0.126969538933 0.891 9.55089160043e-39
0.0264721134126 -0.127397045798 0.894 1.00100690812e-38
0.0281266205009 -0.127397045798 0.894 1.01019045774e-38
0.0298477520357 -0.127682050375 0.896 1.05610820582e-38
0.0315059604821 -0.127682050375 0.896 1.09284240428e-38
0.0331641689285 -0.127682050375 0.896 9.64272709659e-39
0.0348223773749 -0.127682050375 0.896 2.09723456923e-38
0.0364805858214 -0.127682050375 0.896 2.09920087124e-38
-0.0234740133197 -0.127430358021 0.906 1.96976377287e-38
-0.0217972980826 -0.127430358021 0.906 2.20943681753e-38
-0.0201205828455 -0.127430358021 0.906 9.74819442421e-39
-0.018382795199 -0.127008403193 0.903 6.15297824259e-39
-0.0167116319991 -0.127008403193 0.903 6.79582671569e-39
-0.015007156576 -0.126727099975 0.901 6.97949770801e-39
-0.0132656675714 -0.126023841928 0.896 6.79582671569e-39
-0.011607459125 -0.126023841928 0.896 7.07133320417e-39
-0.00989373030646 -0.125320583882 0.891 7.71418167727e-39
-0.00824477525538 -0.125320583882 0.891 7.80601717343e-39
-0.00658101477175 -0.125039280663 0.889 7.62234618111e-39
-0.00493576107881 -0.125039280663 0.889 8.17335915806e-39
-0.00329050738588 -0.125039280663 0.889 7.98968816575e-39
-0.00164525369294 -0.125039280663 0.889 7.80601717343e-39
0.0 -0.125039280663 0.889 7.98968816575e-39
0.0016415523348 -0.124757977445 0.887 8.35703015038e-39
0.0032831046696 -0.124757977445 0.887 8.63253663885e-39
0.00492465700439 -0.124757977445 0.887 8.81620763117e-39
0.00656620933919 -0.124757977445 0.887 8.72437213501e-39
0.00820776167399 -0.124757977445 0.887 9.09171411964e-39
0.00984931400879 -0.124757977445 0.887 9.64272709659e-39
0.0114908663436 -0.124757977445 0.887 9.73456259275e-39
0.0131620295435 -0.125039280663 0.889 9.1835496158e-39
0.0148072832364 -0.125039280663 0.889 8.99987862348e-39
0.0164525369294 -0.125039280663 0.889 8.90804312733e-39
0.0180977906223 -0.125039280663 0.889 9.36722060812e-39
0.0197874606129 -0.125320583882 0.891 9.55089160043e-39
0.021436415664 -0.125320583882 0.891 1.00100690812e-38
0.023163099236 -0.12574253871 0.894 1.03774110659e-38
0.0248176063243 -0.12574253871 0.894 1.01019045774e-38
0.0264721134126 -0.12574253871 0.894 1.02855755697e-38
0.0281895435892 -0.126023841928 0.896 1.03774110659e-38
0.0298477520357 -0.126023841928 0.896 1.08365885466e-38
0.0315059604821 -0.126023841928 0.896 1.07447530505e-38
0.0331641689285 -0.126023841928 0.896 9.27538511196e-39
0.0348223773749 -0.126023841928 0.896 2.19857745508e-38
0.0364805858214 -0.126023841928 0.896 2.07147379891e-38
-0.0217972980826 -0.125753642784 0.906 2.27397193675e-38
-0.0201205828455 -0.125753642784 0.906 1.0209165567e-38
-0.018382795199 -0.125337239993 0.903 6.3366492349e-39
-0.0167116319991 -0.125337239993 0.903 6.79582671569e-39
-0.015007156576 -0.125059638133 0.901 6.79582671569e-39
-0.0132952784365 -0.124643235342 0.898 6.97949770801e-39
-0.011607459125 -0.124365633482 0.896 7.07133320417e-39
-0.00992704252972 -0.124088031621 0.894 7.07133320417e-39
-0.00824477525538 -0.123671628831 0.891 7.07133320417e-39
-0.00659582020431 -0.123671628831 0.891 7.4386751888e-39
-0.00493576107881 -0.12339402697 0.889 8.17335915806e-39
-0.00329050738588 -0.12339402697 0.889 7.98968816575e-39
-0.00164525369294 -0.12339402697 0.889 8.26519465422e-39
0.0 -0.12339402697 0.889 8.26519465422e-39
0.00164525369294 -0.12339402697 0.889 8.35703015038e-39
0.00329050738588 -0.12339402697 0.889 8.44886564654e-39
0.00493576107881 -0.12339402697 0.889 8.72437213501e-39
0.00658101477175 -0.12339402697 0.889 8.81620763117e-39
0.00822626846469 -0.12339402697 0.889 8.81620763117e-39
0.00987152215763 -0.12339402697 0.889 9.64272709659e-39
0.0115167758506 -0.12339402697 0.889 9.27538511196e-39
0.0131620295435 -0.12339402697 0.889 8.90804312733e-39
0.0148405954597 -0.123671628831 0.891 9.55089160043e-39
0.0164895505108 -0.123671628831 0.891 8.81620763117e-39
0.0181385055618 -0.123671628831 0.891 8.90804312733e-39
0.0198540850594 -0.124088031621 0.894 9.55089160043e-39
0.0215085921477 -0.124088031621 0.894 9.91823358506e-39
0.023163099236 -0.124088031621 0.894 1.01019045774e-38
0.0248176063243 -0.124088031621 0.894 1.01019045774e-38
0.0265313351428 -0.124365633482 0.896 1.01937400735e-38
0.0281895435892 -0.124365633482 0.896 1.03774110659e-38
0.0298477520357 -0.124365633482 0.896 1.06529175543e-38
0.0315059604821 -0.124365633482 0.896 1.03774110659e-38
0.0331641689285 -0.124365633482 0.896 8.90804312733e-39
0.0348223773749 -0.124365633482 0.896 2.3183594669e-38
-0.0235258323337 -0.124350828049 0.908 2.11702847056e-38
-0.0217972980826 -0.124076927547 0.906 2.23691445873e-38
-0.0201205828455 -0.124076927547 0.906 1.05790186785e-38
-0.0184438676083 -0.124076927547 0.906 6.42848473106e-39
-0.0167116319991 -0.123666076794 0.903 6.79582671569e-39
-0.0150404687992 -0.123666076794 0.903 7.07133320417e-39
-0.0132952784365 -0.122981325538 0.898 6.79582671569e-39
-0.011633368632 -0.122981325538 0.898 7.07133320417e-39
-0.00994925067855 -0.122707425035 0.896 7.16316870032e-39
-0.00827253544143 -0.122433524533 0.894 7.53051068496e-39
-0.00661802835314 -0.122433524533 0.894 7.62234618111e-39
-0.00494686515323 -0.12202267378 0.891 7.71418167727e-39
-0.00329791010215 -0.12202267378 0.891 7.71418167727e-39
-0.00164525369294 -0.121748773277 0.889 7.71418167727e-39
0.0 -0.121748773277 0.889 8.26519465422e-39
0.00164525369294 -0.121748773277 0.889 8.44886564654e-39
0.00329050738588 -0.121748773277 0.889 8.54070114269e-39
0.00493576107881 -0.121748773277 0.889 8.54070114269e-39
0.00658101477175 -0.121748773277 0.889 8.81620763117e-39
0.00822626846469 -0.121748773277 0.889 8.99987862348e-39
0.00987152215763 -0.121748773277 0.889 9.1835496158e-39
0.0115167758506 -0.121748773277 0.889 9.64272709659e-39
0.0131620295435 -0.121748773277 0.889 9.55089160043e-39
0.0148405954597 -0.12202267378 0.891 9.91823358506e-39
0.0164895505108 -0.12202267378 0.891 8.99987862348e-39
0.0181995779711 -0.122433524533 0.894 8.99987862348e-39
0.0198540850594 -0.122433524533 0.894 9.55089160043e-39
0.0215085921477 -0.122433524533 0.894 9.55089160043e-39
0.023163099236 -0.122433524533 0.894 9.73456259275e-39
0.0248731266964 -0.122707425035 0.896 1.00100690812e-38
0.0265313351428 -0.122707425035 0.896 1.01019045774e-38
0.0281895435892 -0.122707425035 0.896 1.00100690812e-38
0.0298477520357 -0.122707425035 0.896 1.01937400735e-38
0.0315059604821 -0.122707425035 0.896 1.0469246562e-38
0.0331641689285 -0.122707425035 0.896 8.90804312733e-39
-0.0235258323337 -0.122670411454 0.908 2.07089043836e-38
-0.0218454157384 -0.122670411454 0.908 2.25535736821e-38
-0.0201649991431 -0.122670411454 0.908 1.16842732241e-38
-0.018382795199 -0.121994913594 0.903 6.3366492349e-39
-0.0167116319991 -0.121994913594 0.903 6.97949770801e-39
-0.015007156576 -0.121724714449 0.901 7.25500419648e-39
-0.0132952784365 -0.121319415733 0.898 6.97949770801e-39
-0.011633368632 -0.121319415733 0.898 7.07133320417e-39
-0.00994925067855 -0.121049216589 0.896 7.53051068496e-39
-0.00829104223213 -0.121049216589 0.896 7.34683969264e-39
-0.0066328337857 -0.121049216589 0.896 7.62234618111e-39
-0.00496352126486 -0.120779017445 0.894 7.71418167727e-39
-0.00329791010215 -0.120373718729 0.891 7.80601717343e-39
-0.00164895505108 -0.120373718729 0.891 8.26519465422e-39
0.0 -0.120373718729 0.891 8.35703015038e-39
0.00164525369294 -0.120103519584 0.889 8.72437213501e-39
0.00329050738588 -0.120103519584 0.889 8.54070114269e-39
0.00493576107881 -0.120103519584 0.889 8.81620763117e-39
0.00658101477175 -0.120103519584 0.889 8.81620763117e-39
0.00822626846469 -0.120103519584 0.889 8.99987862348e-39
0.00987152215763 -0.120103519584 0.889 8.90804312733e-39
0.0115167758506 -0.120103519584 0.889 9.45905610427e-39
0.0131916404086 -0.120373718729 0.891 9.36722060812e-39
0.0148405954597 -0.120373718729 0.891 9.55089160043e-39
0.0165450708829 -0.120779017445 0.894 9.36722060812e-39
0.0181995779711 -0.120779017445 0.894 9.36722060812e-39
0.0198540850594 -0.120779017445 0.894 9.27538511196e-39
0.0215567098035 -0.121049216589 0.896 9.45905610427e-39
0.02321491825 -0.121049216589 0.896 9.45905610427e-39
0.0248731266964 -0.121049216589 0.896 1.01937400735e-38
0.0265313351428 -0.121049216589 0.896 1.00100690812e-38
0.0282524666776 -0.121319415733 0.898 9.82639808891e-39
0.0299143764822 -0.121319415733 0.898 1.00100690812e-38
0.0315762862867 -0.121319415733 0.898 1.0469246562e-38
0.0332381960913 -0.121319415733 0.898 8.72437213501e-39
-0.0235776513476 -0.121256492645 0.91 2.02508031001e-38
-0.0218935333942 -0.121256492645 0.91 2.14496896064e-38
-0.0201649991431 -0.120989994859 0.908 1.35285193304e-38
-0.018382795199 -0.120323750394 0.903 5.6938007618e-39
-0.0167116319991 -0.120323750394 0.903 6.15297824259e-39
-0.015007156576 -0.120057252608 0.901 7.07133320417e-39
-0.0132952784365 -0.119657505929 0.898 7.07133320417e-39
-0.011633368632 -0.119657505929 0.898 6.97949770801e-39
-0.00994925067855 -0.119391008143 0.896 7.25500419648e-39
-0.00829104223213 -0.119391008143 0.896 7.34683969264e-39
-0.0066328337857 -0.119391008143 0.896 7.53051068496e-39
-0.00496352126486 -0.119124510357 0.894 7.71418167727e-39
-0.00330901417657 -0.119124510357 0.894 7.80601717343e-39
-0.00164895505108 -0.118724763678 0.891 7.98968816575e-39
0.0 -0.118724763678 0.891 8.26519465422e-39
0.00164895505108 -0.118724763678 0.891 8.72437213501e-39
0.00329791010215 -0.118724763678 0.891 8.54070114269e-39
0.00493576107881 -0.118458265892 0.889 8.81620763117e-39
0.00658101477175 -0.118458265892 0.889 8.72437213501e-39
0.00822626846469 -0.118458265892 0.889 8.63253663885e-39
0.00987152215763 -0.118458265892 0.889 8.54070114269e-39
0.0115426853575 -0.118724763678 0.891 8.99987862348e-39
0.0131916404086 -0.118724763678 0.891 8.81620763117e-39
0.0148905637946 -0.119124510357 0.894 8.99987862348e-39
0.0165450708829 -0.119124510357 0.894 9.36722060812e-39
0.0181995779711 -0.119124510357 0.894 9.36722060812e-39
0.0198540850594 -0.119124510357 0.894 9.36722060812e-39
0.0215567098035 -0.119391008143 0.896 9.36722060812e-39
0.02321491825 -0.119391008143 0.896 9.55089160043e-39
0.0248731266964 -0.119391008143 0.896 1.01019045774e-38
0.026590556873 -0.119657505929 0.898 1.00100690812e-38
0.0283468513102 -0.120057252608 0.901 1.01019045774e-38
0.0300143131519 -0.120057252608 0.901 1.00100690812e-38
0.0316817749937 -0.120057252608 0.901 1.03774110659e-38
0.0333492368355 -0.120057252608 0.901 7.80601717343e-39
-0.0220138275337 -0.120229365761 0.915 2.04352055702e-38
-0.0201649991431 -0.119309578264 0.908 1.42664346939e-38
-0.0184845825479 -0.119309578264 0.908 9.10576213675e-39
-0.0167671523712 -0.119046781836 0.906 4.86728129637e-39
-0.0150404687992 -0.118652587194 0.903 6.79582671569e-39
-0.0133396947342 -0.118389790766 0.901 6.97949770801e-39
-0.011633368632 -0.117995596124 0.898 7.07133320417e-39
-0.00997145882739 -0.117995596124 0.898 7.25500419648e-39
-0.00829104223213 -0.117732799696 0.896 7.53051068496e-39
-0.0066328337857 -0.117732799696 0.896 7.71418167727e-39
-0.00497462533928 -0.117732799696 0.896 7.80601717343e-39
-0.00330901417657 -0.117470003268 0.894 8.26519465422e-39
-0.00165450708829 -0.117470003268 0.894 8.17335915806e-39
0.0 -0.117470003268 0.894 8.54070114269e-39
0.00164895505108 -0.117075808626 0.891 8.54070114269e-39
0.00329791010215 -0.117075808626 0.891 8.54070114269e-39
0.00493576107881 -0.116813012199 0.889 8.54070114269e-39
0.00658101477175 -0.116813012199 0.889 8.72437213501e-39
0.00822626846469 -0.116813012199 0.889 8.63253663885e-39
0.00987152215763 -0.116813012199 0.889 8.63253663885e-39
0.011581549618 -0.117470003268 0.894 8.72437213501e-39
0.0132360567063 -0.117470003268 0.894 8.90804312733e-39
0.0148905637946 -0.117470003268 0.894 8.99987862348e-39
0.0165820844643 -0.117732799696 0.896 9.45905610427e-39
0.0182402929107 -0.117732799696 0.896 9.55089160043e-39
0.0198985013571 -0.117732799696 0.896 9.45905610427e-39
0.0216048274593 -0.117995596124 0.898 9.45905610427e-39
0.0232667372639 -0.117995596124 0.898 9.55089160043e-39
0.0249286470685 -0.117995596124 0.898 1.00100690812e-38
0.026590556873 -0.117995596124 0.898 9.91823358506e-39
0.0283468513102 -0.118389790766 0.901 1.00100690812e-38
0.0300809375984 -0.118652587194 0.903 1.01019045774e-38
0.0317521007983 -0.118652587194 0.903 8.81620763117e-39
0.0335343047424 -0.119046781836 0.906 1.45258514734e-38
-0.0220860040175 -0.118924637017 0.918 2.10827273737e-38
-0.0202094154408 -0.117888256738 0.91 1.2514738746e-38
-0.0184845825479 -0.117629161668 0.908 1.16871851223e-38
-0.0167671523712 -0.117370066599 0.906 1.03082359672e-38
-0.0150404687992 -0.116981423994 0.903 6.42848473106e-39
-0.0133396947342 -0.116722328924 0.901 6.24481373874e-39
-0.0116722328924 -0.116722328924 0.901 6.79582671569e-39
-0.00997145882739 -0.11633368632 0.898 7.34683969264e-39
-0.00830954902282 -0.11633368632 0.898 7.53051068496e-39
-0.00664763921826 -0.11633368632 0.898 7.71418167727e-39
-0.00497462533928 -0.11607459125 0.896 7.98968816575e-39
-0.00331641689285 -0.11607459125 0.896 7.89785266959e-39
-0.00165820844643 -0.11607459125 0.896 7.16316870032e-39
0.0 -0.11581549618 0.894 7.25500419648e-39
0.00165450708829 -0.11581549618 0.894 7.25500419648e-39
0.00330901417657 -0.11581549618 0.894 7.62234618111e-39
0.00494686515323 -0.115426853575 0.891 8.17335915806e-39
0.00659582020431 -0.115426853575 0.891 8.0815236619e-39
0.00824477525538 -0.115426853575 0.891 7.80601717343e-39
0.00989373030646 -0.115426853575 0.891 7.80601717343e-39
0.011581549618 -0.11581549618 0.894 7.71418167727e-39
0.0132360567063 -0.11581549618 0.894 7.71418167727e-39
0.0148905637946 -0.11581549618 0.894 7.98968816575e-39
0.0165820844643 -0.11607459125 0.896 8.26519465422e-39
0.0182402929107 -0.11607459125 0.896 8.90804312733e-39
0.0198985013571 -0.11607459125 0.896 9.36722060812e-39
0.0216048274593 -0.11633368632 0.898 9.45905610427e-39
0.0232667372639 -0.11633368632 0.898 9.82639808891e-39
0.0249286470685 -0.11633368632 0.898 9.82639808891e-39
0.0266793894684 -0.116722328924 0.901 9.55089160043e-39
0.0284097743985 -0.116981423994 0.903 9.36722060812e-39
0.0300809375984 -0.116981423994 0.903 8.35703015038e-39
0.0318575895053 -0.117370066599 0.906 1.62746831673e-38
0.0335343047424 -0.117370066599 0.906 1.55573178457e-38
-0.020320456185 -0.116842623064 0.915 1.22385147927e-38
-0.0184845825479 -0.115948745073 0.908 1.05801341121e-38
-0.0167671523712 -0.115693351361 0.906 1.09532270256e-38
-0.0150404687992 -0.115310260794 0.903 1.34410698984e-38
-0.0133693055993 -0.115310260794 0.903 8.46109337693e-39
-0.0116722328924 -0.115054867082 0.901 6.88766221185e-39
-0.00997145882739 -0.114671776515 0.898 6.42848473106e-39
-0.00830954902282 -0.114671776515 0.898 6.79582671569e-39
-0.00664763921826 -0.114671776515 0.898 6.79582671569e-39
-0.00498572941369 -0.114671776515 0.898 6.70399121953e-39
-0.00331641689285 -0.114416382803 0.896 8.63253663885e-39
-0.00165820844643 -0.114416382803 0.896 1.35246727661e-38
0.0 -0.114416382803 0.896 1.389954673e-38
0.00165820844643 -0.114416382803 0.896 1.53771781255e-38
0.00331641689285 -0.114416382803 0.896 1.5745960645e-38
0.00497462533928 -0.114416382803 0.896 1.61147445657e-38
0.00661802835314 -0.114160989092 0.894 1.63899049335e-38
0.00827253544143 -0.114160989092 0.894 1.61147445657e-38
0.00992704252972 -0.114160989092 0.894 1.57474053837e-38
0.011581549618 -0.114160989092 0.894 1.62991316216e-38
0.0132656675714 -0.114416382803 0.896 1.55608463153e-38
0.0149238760178 -0.114416382803 0.896 1.52824657636e-38
0.0165820844643 -0.114416382803 0.896 1.25158513769e-38
0.0182402929107 -0.114416382803 0.896 8.90804312733e-39
0.0198985013571 -0.114416382803 0.896 8.26519465422e-39
0.0216048274593 -0.114671776515 0.898 7.98968816575e-39
0.0232667372639 -0.114671776515 0.898 9.36722060812e-39
0.0249286470685 -0.114671776515 0.898 9.36722060812e-39
0.0266793894684 -0.115054867082 0.901 8.35703015038e-39
0.0284097743985 -0.115310260794 0.903 8.99987862348e-39
0.0301808742682 -0.115693351361 0.906 1.74890624294e-38
0.0318575895053 -0.115693351361 0.906 1.71281888385e-38
0.0335343047424 -0.115693351361 0.906 1.362544154e-38
-0.0184845825479 -0.114268328478 0.908 1.05804816341e-38
-0.0168041659526 -0.114268328478 0.908 1.13205521947e-38
-0.0151237493574 -0.114268328478 0.908 1.12312432396e-38
-0.013413721897 -0.114016636124 0.906 1.19673887632e-38
-0.0116981423994 -0.113639097594 0.903 1.33488910841e-38
-0.0100047710506 -0.113387405241 0.901 1.16889970012e-38
-0.00830954902282 -0.11300986671 0.898 7.53373927662e-39
-0.00664763921826 -0.11300986671 0.898 1.14934570109e-38
-0.00498572941369 -0.11300986671 0.898 1.4639262762e-38
-0.00332381960913 -0.11300986671 0.898 1.43644709358e-38
-0.00165820844643 -0.112758174357 0.896 1.49183481668e-38
0.0 -0.112758174357 0.896 1.4271158471e-38
0.00165820844643 -0.112758174357 0.896 1.4544916139e-38
0.00331641689285 -0.112758174357 0.896 1.44516036743e-38
0.00497462533928 -0.112758174357 0.896 1.28810788022e-38
0.0066328337857 -0.112758174357 0.896 1.43555110334e-38
0.00829104223213 -0.112758174357 0.896 1.33431359513e-38
0.00994925067855 -0.112758174357 0.896 1.34357029253e-38
0.011607459125 -0.112758174357 0.896 1.44487604397e-38
0.0132656675714 -0.112758174357 0.896 1.62912086801e-38
0.0149238760178 -0.112758174357 0.896 1.75844810458e-38
0.0165820844643 -0.112758174357 0.896 1.6944150706e-38
0.0182402929107 -0.112758174357 0.896 1.6761204185e-38
0.0199429176548 -0.11300986671 0.898 1.464068508e-38
0.0216770039431 -0.113387405241 0.901 7.80888703268e-39
0.0233444657848 -0.113387405241 0.901 9.36722060812e-39
0.0250674479987 -0.113639097594 0.903 1.41531271014e-38
0.0267386111986 -0.113639097594 0.903 1.70309163043e-38
0.0285041590311 -0.114016636124 0.906 1.74962510906e-38
0.0301808742682 -0.114016636124 0.906 1.70356274698e-38
0.0318575895053 -0.114016636124 0.906 1.57423859326e-38
0.0335343047424 -0.114016636124 0.906 1.36229374196e-38
-0.0185252974874 -0.112835902878 0.91 1.07655833522e-38
-0.0168041659526 -0.112587911883 0.908 1.06770002697e-38
-0.0151237493574 -0.112587911883 0.908 1.159824611e-38
-0.0134433327621 -0.112587911883 0.908 1.13220193542e-38
-0.0116981423994 -0.111967934394 0.903 1.20585053933e-38
-0.0100269791995 -0.111967934394 0.903 1.23361642762e-38
-0.00833730920887 -0.111719943399 0.901 1.35361550057e-38
-0.00666984736709 -0.111719943399 0.901 1.31655746203e-38
-0.00498572941369 -0.111347956906 0.898 1.36258339035e-38
-0.00332381960913 -0.111347956906 0.898 1.27035468985e-38
-0.00166190980456 -0.111347956906 0.898 1.21481828898e-38
0.0 -0.111347956906 0.898 1.33427435878e-38
0.00166190980456 -0.111347956906 0.898 1.33391702767e-38
0.00332381960913 -0.111347956906 0.898 1.37079724143e-38
0.00497462533928 -0.11109996591 0.896 1.47285492963e-38
0.0066328337857 -0.11109996591 0.896 1.50980674974e-38
0.00829104223213 -0.11109996591 0.896 1.49144049129e-38
0.00994925067855 -0.11109996591 0.896 1.50058746701e-38
0.011607459125 -0.11109996591 0.896 1.25119235374e-38
0.0132656675714 -0.11109996591 0.896 1.05611044789e-38
0.0149238760178 -0.11109996591 0.896 1.2214120989e-38
0.0166190980456 -0.111347956906 0.898 1.20304499967e-38
0.0182810078502 -0.111347956906 0.898 1.70248402742e-38
0.0199429176548 -0.111347956906 0.898 1.6298781297e-38
0.0216770039431 -0.111719943399 0.901 1.61151004956e-38
0.0233444657848 -0.111719943399 0.901 1.6944873776e-38
0.0250674479987 -0.111967934394 0.903 1.64831725567e-38
0.026827443794 -0.112339920887 0.906 1.59285568414e-38
0.0285041590311 -0.112339920887 0.906 1.58374374087e-38
0.0301808742682 -0.112339920887 0.906 1.53760963231e-38
0.0318575895053 -0.112339920887 0.906 1.6479206882e-38
0.0335343047424 -0.112339920887 0.906 1.29768295263e-38
0.0352110199796 -0.112339920887 0.906 1.94268564186e-38
-0.0185863698967 -0.11151821938 0.913 1.08603279439e-38
-0.016841179534 -0.111151784924 0.91 1.12305369852e-38
-0.0151570615806 -0.111151784924 0.91 1.13230857423e-38
-0.0134433327621 -0.110907495287 0.908 1.13227382203e-38
-0.0117370066599 -0.11066320565 0.906 1.1967035636e-38
-0.0100269791995 -0.110296771194 0.903 1.19673859606e-38
-0.00835581599956 -0.110296771194 0.903 1.2335811149e-38
-0.00668465279965 -0.110296771194 0.903 1.27953501647e-38
-0.00500238552532 -0.110052481557 0.901 1.32555842246e-38
-0.00333492368355 -0.110052481557 0.901 1.12233749488e-38
-0.00166746184177 -0.110052481557 0.901 1.24165063223e-38
0.0 -0.109686047101 0.898 1.20477013821e-38
0.00166190980456 -0.109686047101 0.898 1.39838362339e-38
0.00332381960913 -0.109686047101 0.898 1.61111474326e-38
0.00498572941369 -0.109686047101 0.898 1.47307297167e-38
0.0066328337857 -0.109441757464 0.896 1.44548686997e-38
0.00829104223213 -0.109441757464 0.896 1.43630514204e-38
0.00994925067855 -0.109441757464 0.896 1.44541624453e-38
0.011607459125 -0.109441757464 0.896 1.50091186761e-38
0.0132656675714 -0.109441757464 0.896 1.36222339678e-38
0.0149238760178 -0.109441757464 0.896 1.09284240428e-38
0.0166190980456 -0.109686047101 0.898 1.23977919813e-38
0.0182810078502 -0.109686047101 0.898 1.13876015236e-38
0.0199429176548 -0.109686047101 0.898 1.74735612658e-38
0.0217251215989 -0.110296771194 0.903 1.62051591453e-38
0.0233962847988 -0.110296771194 0.903 1.52853356229e-38
0.0251507285568 -0.11066320565 0.906 1.57434425116e-38
0.026827443794 -0.11066320565 0.906 1.57427236455e-38
0.0285041590311 -0.11066320565 0.906 1.57427334546e-38
0.0301808742682 -0.11066320565 0.906 1.56501903027e-38
0.0318575895053 -0.11066320565 0.906 1.70327562092e-38
0.0335343047424 -0.11066320565 0.906 1.35293026562e-38
0.0352110199796 -0.11066320565 0.906 2.02558912148e-38
-0.0186270848362 -0.110069137669 0.915 1.03997029218e-38
-0.0168966999061 -0.10982854939 0.913 1.08628320643e-38
-0.0151570615806 -0.109467666971 0.91 1.10468744007e-38
-0.0134433327621 -0.109227078692 0.908 1.15078483461e-38
-0.0117629161668 -0.109227078692 0.908 1.17830073126e-38
-0.0100602914227 -0.108986490413 0.906 1.22439658437e-38
-0.00838357618561 -0.108986490413 0.906 1.2335811149e-38
-0.00670686094849 -0.108986490413 0.906 1.288791854e-38
-0.00501348959974 -0.108625607994 0.903 1.18705071913e-38
-0.00334232639983 -0.108625607994 0.903 1.3435659485e-38
-0.00166746184177 -0.108385019715 0.901 1.20473496562e-38
0.0 -0.108385019715 0.901 1.31504588138e-38
0.00166190980456 -0.108024137297 0.898 1.01123232315e-38
0.00332381960913 -0.108024137297 0.898 1.59256099107e-38
0.00498572941369 -0.108024137297 0.898 1.37121875201e-38
0.00664763921826 -0.108024137297 0.898 1.54686745075e-38
0.00830954902282 -0.108024137297 0.898 1.445737282e-38
0.00997145882739 -0.108024137297 0.898 1.33431135306e-38
0.011633368632 -0.108024137297 0.898 1.60221747892e-38
0.0132952784365 -0.108024137297 0.898 1.65764373773e-38
0.0149571882411 -0.108024137297 0.898 1.02080893698e-38
0.0166190980456 -0.108024137297 0.898 1.20304499967e-38
0.0183420802595 -0.108385019715 0.901 1.21222854929e-38
0.020053958399 -0.108625607994 0.903 1.17549435082e-38
0.0217251215989 -0.108625607994 0.903 1.77660024462e-38
0.0234740133197 -0.108986490413 0.906 1.51006136567e-38
0.0251507285568 -0.108986490413 0.906 1.58363584089e-38
0.026827443794 -0.108986490413 0.906 1.56519727544e-38
0.0285670821194 -0.109227078692 0.908 1.58363584089e-38
0.0302474987147 -0.109227078692 0.908 1.58352850143e-38
0.03192791531 -0.109227078692 0.908 1.60182315353e-38
0.0336083319052 -0.109227078692 0.908 1.371189605e-38
0.0352887485005 -0.109227078692 0.908 2.1823571451e-38
-0.0186270848362 -0.10837576632 0.915 1.01209734469e-38
-0.0168966999061 -0.108138879399 0.913 1.08628194526e-38
-0.0152070299155 -0.108138879399 0.913 1.13227354177e-38
-0.0134729436272 -0.107783549018 0.91 1.1598621658e-38
-0.0117629161668 -0.107546662097 0.908 1.15989775878e-38
-0.0100824995716 -0.107546662097 0.908 1.20595815905e-38
-0.00838357618561 -0.107309775176 0.906 1.20606409721e-38
-0.00670686094849 -0.107309775176 0.906 1.42704578218e-38
-0.00503014571137 -0.107309775176 0.906 1.05733139925e-38
-0.00334232639983 -0.106954444794 0.903 1.21355585919e-38
-0.00167116319991 -0.106954444794 0.903 1.55450242543e-38
0.0 -0.106717557874 0.901 1.56451077932e-38
0.00166746184177 -0.106717557874 0.901 8.63971128699e-39
0.00333492368355 -0.106717557874 0.901 1.43421314356e-38
0.00498572941369 -0.106362227492 0.898 1.60917534618e-38
0.00664763921826 -0.106362227492 0.898 9.18426848191e-39
0.00830954902282 -0.106362227492 0.898 1.44390690595e-38
0.00997145882739 -0.106362227492 0.898 1.62757761801e-38
0.011633368632 -0.106362227492 0.898 1.01166126061e-38
0.0132952784365 -0.106362227492 0.898 1.38787094218e-38
0.015007156576 -0.106717557874 0.901 1.4077789092e-38
0.0166746184177 -0.106717557874 0.901 1.11120950351e-38
0.018382795199 -0.106954444794 0.903 1.35992484691e-38
0.020053958399 -0.106954444794 0.903 1.67410703287e-38
0.0217972980826 -0.107309775176 0.906 1.63863302211e-38
0.0234740133197 -0.107309775176 0.906 1.5100225497e-38
0.0252062489289 -0.107546662097 0.908 1.55597715193e-38
0.0268866655242 -0.107546662097 0.908 1.54679290167e-38
0.0285670821194 -0.107546662097 0.908 1.58363415933e-38
0.0302474987147 -0.107546662097 0.908 1.55601274491e-38
0.03192791531 -0.107546662097 0.908 1.59281812934e-38
0.0336083319052 -0.107546662097 0.908 1.54646850107e-38
0.0352887485005 -0.107546662097 0.908 1.97963171665e-38
-0.0203870806315 -0.107032173315 0.918 1.29746336916e-38
-0.0186270848362 -0.106682394971 0.915 1.10425135599e-38
-0.0169337134875 -0.106682394971 0.915 1.11369022218e-38
-0.0152070299155 -0.106449209408 0.913 9.84758852428e-39
-0.0134729436272 -0.106099431064 0.91 9.75178174828e-39
-0.0117629161668 -0.105866245501 0.908 1.28000206925e-38
-0.0100824995716 -0.105866245501 0.908 1.08646313315e-38
-0.00840208297631 -0.105866245501 0.908 1.28000206925e-38
-0.00670686094849 -0.105633059939 0.906 1.42715690515e-38
-0.00503014571137 -0.105633059939 0.906 7.44333871009e-39
-0.00335343047424 -0.105633059939 0.906 1.0469246562e-38
-0.00167116319991 -0.105283281595 0.903 1.05610820582e-38
0.0 -0.105283281595 0.903 1.6179612073e-38
0.00166746184177 -0.105050096032 0.901 8.17766394694e-39
0.00333492368355 -0.105050096032 0.901 1.72053107008e-38
0.00500238552532 -0.105050096032 0.901 1.12093115174e-38
0.00664763921826 -0.104700317688 0.898 1.45193550537e-38
0.00830954902282 -0.104700317688 0.898 1.38854889038e-38
0.00997145882739 -0.104700317688 0.898 1.66416720247e-38
0.011633368632 -0.104700317688 0.898 1.12200734896e-38
0.0133396947342 -0.105050096032 0.901 1.40587482485e-38
0.015007156576 -0.105050096032 0.901 1.47220626857e-38
0.0166746184177 -0.105050096032 0.901 1.31529461186e-38
0.018382795199 -0.105283281595 0.903 1.60088932823e-38
0.0201205828455 -0.105633059939 0.906 1.3434255384e-38
0.0217972980826 -0.105633059939 0.906 1.69398543249e-38
0.0234740133197 -0.105633059939 0.906 1.57449068685e-38
0.0252062489289 -0.105866245501 0.908 1.60222000126e-38
0.0268866655242 -0.105866245501 0.908 1.62073087371e-38
0.0285670821194 -0.105866245501 0.908 1.61143704191e-38
0.0302474987147 -0.105866245501 0.908 1.5652323079e-38
0.03192791531 -0.105866245501 0.908 1.62044150558e-38
0.0336083319052 -0.105866245501 0.908 1.65714025119e-38
0.0352887485005 -0.105866245501 0.908 1.95179954694e-38
-0.0203870806315 -0.105333249929 0.918 1.33419756762e-38
-0.0186881572455 -0.105333249929 0.918 1.02145731778e-38
-0.0169337134875 -0.104989023622 0.915 1.13205732141e-38
-0.0152403421387 -0.104989023622 0.915 1.14167092953e-38
-0.0134729436272 -0.104415313111 0.91 7.17967039104e-39
-0.0117629161668 -0.104185828906 0.908 1.09568045406e-38
-0.0100824995716 -0.104185828906 0.908 3.49082505122e-39
-0.00840208297631 -0.104185828906 0.908 7.90288753497e-39
-0.00670686094849 -0.103956344702 0.906 1.51002409113e-38
-0.00503014571137 -0.103956344702 0.906 1.20628073795e-38
-0.00335343047424 -0.103956344702 0.906 8.73082931833e-39
-0.00167671523712 -0.103956344702 0.906 1.12957660274e-38
0.0 -0.103956344702 0.906 1.11120950351e-38
0.00167116319991 -0.103612118395 0.903 1.66599855943e-38
0.00334232639983 -0.103612118395 0.903 1.43615814583e-38
0.00500238552532 -0.10338263419 0.901 1.58334717341e-38
0.00666984736709 -0.10338263419 0.901 1.3251266824e-38
0.00833730920887 -0.10338263419 0.901 1.56508208871e-38
0.0100047710506 -0.10338263419 0.901 1.39895591368e-38
0.0116722328924 -0.10338263419 0.901 1.45420266616e-38
0.0133693055993 -0.103612118395 0.903 1.64788565574e-38
0.0150404687992 -0.103612118395 0.903 1.3156586692e-38
0.0167116319991 -0.103612118395 0.903 1.5179505359e-38
0.0184438676083 -0.103956344702 0.906 1.54596277246e-38
0.0201205828455 -0.103956344702 0.906 1.46417682837e-38
0.0217972980826 -0.103956344702 0.906 1.62123281882e-38
0.0235258323337 -0.104185828906 0.908 1.13245360862e-38
0.0252062489289 -0.104185828906 0.908 1.13208772959e-38
0.0268866655242 -0.104185828906 0.908 1.75902179617e-38
0.0285670821194 -0.104185828906 0.908 4.50029804415e-39
0.0302474987147 -0.104185828906 0.908 1.59156116462e-38
0.03192791531 -0.104185828906 0.908 1.63902552581e-38
0.0336083319052 -0.104185828906 0.908 1.51888029743e-38
0.0353664770214 -0.104415313111 0.91 1.97001530594e-38
-0.022206298157 -0.10419878366 0.923 2.16344494076e-38
-0.0203870806315 -0.103634326543 0.918 1.27902452344e-38
-0.0186881572455 -0.103634326543 0.918 1.18733518272e-38
-0.0169337134875 -0.103295652274 0.915 1.07706336318e-38
-0.0152403421387 -0.103295652274 0.915 6.90165277572e-39
-0.0134729436272 -0.102731195157 0.91 1.13263507677e-38
-0.0117629161668 -0.102505412311 0.908 6.52677741054e-39
-0.0100824995716 -0.102505412311 0.908 9.20256943986e-39
-0.00840208297631 -0.102505412311 0.908 7.16854968643e-39
-0.00672166638105 -0.102505412311 0.908 8.46287582858e-39
-0.00504124978578 -0.102505412311 0.908 6.98918348299e-39
-0.00336083319052 -0.102505412311 0.908 1.45494857733e-38
-0.00167671523712 -0.102279629464 0.906 8.72831819148e-39
0.0 -0.102279629464 0.906 1.15712725159e-38
0.00167671523712 -0.102279629464 0.906 1.75611031835e-38
0.00335343047424 -0.102279629464 0.906 1.53735781898e-38
0.00501348959974 -0.101940955195 0.903 1.55608280984e-38
0.00668465279965 -0.101940955195 0.903 1.45488663994e-38
0.00835581599956 -0.101940955195 0.903 1.43648212604e-38
0.0100269791995 -0.101940955195 0.903 1.53750425467e-38
0.0116981423994 -0.101940955195 0.903 1.55593987739e-38
0.0133693055993 -0.101940955195 0.903 1.3622587095e-38
0.0150404687992 -0.101940955195 0.903 1.4447315701e-38
0.0167671523712 -0.102279629464 0.906 1.36175298088e-38
0.0184438676083 -0.102279629464 0.906 1.72159717795e-38
0.0201205828455 -0.102279629464 0.906 2.57139389242e-39
0.0217972980826 -0.102279629464 0.906 5.05993741444e-39
0.0235258323337 -0.102505412311 0.908 8.55576790378e-39
0.0252062489289 -0.102505412311 0.908 1.35300089106e-38
0.0268866655242 -0.102505412311 0.908 1.6117614425e-38
0.0285670821194 -0.102505412311 0.908 1.10500819729e-38
0.0302474987147 -0.102505412311 0.908 1.62091122082e-38
0.03192791531 -0.102505412311 0.908 1.56533894671e-38
0.0337933998122 -0.103069869427 0.913 1.78631796921e-38
0.0355607983237 -0.103295652274 0.915 2.05313388487e-38
-0.022206298157 -0.102490606878 0.923 2.08940271212e-38
-0.0203870806315 -0.101935403157 0.918 1.33423344086e-38
-0.0186881572455 -0.101935403157 0.918 1.12287671453e-38
-0.0169337134875 -0.101602280925 0.915 6.80515515957e-39
-0.0152403421387 -0.101602280925 0.915 5.8821352754e-39
-0.0134729436272 -0.101047077204 0.91 1.38984355003e-38
-0.0117888256738 -0.101047077204 0.91 1.02145465531e-38
-0.0100824995716 -0.100824995716 0.908 6.52605994573e-39
-0.00840208297631 -0.100824995716 0.908 4.86728129637e-39
-0.00672166638105 -0.100824995716 0.908 4.50137424137e-39
-0.00504124978578 -0.100824995716 0.908 1.39024011749e-38
-0.00336083319052 -0.100824995716 0.908 1.36214282212e-38
-0.00168041659526 -0.100824995716 0.908 1.56507774468e-38
0.0 -0.100602914227 0.906 1.03896079677e-38
0.00167671523712 -0.100602914227 0.906 1.09284310493e-38
0.00335343047424 -0.100602914227 0.906 1.50826434052e-38
0.00503014571137 -0.100602914227 0.906 1.58348758351e-38
0.00670686094849 -0.100602914227 0.906 1.50984206246e-38
0.00838357618561 -0.100602914227 0.906 1.5283537757e-38
0.0100269791995 -0.100269791995 0.903 1.52817356871e-38
0.0116981423994 -0.100269791995 0.903 1.38969809525e-38
0.013413721897 -0.100602914227 0.906 1.36157375481e-38
0.0150904371341 -0.100602914227 0.906 1.30625637689e-38
0.0167671523712 -0.100602914227 0.906 1.57405558368e-38
0.0184438676083 -0.100602914227 0.906 1.56504187144e-38
0.0201205828455 -0.100602914227 0.906 1.46423820524e-38
0.0218454157384 -0.100824995716 0.908 2.29696360117e-39
0.0235258323337 -0.100824995716 0.908 6.71977684673e-39
0.0252062489289 -0.100824995716 0.908 1.33452589185e-38
0.0269458872544 -0.101047077204 0.91 4.68361030406e-39
0.0286300052078 -0.101047077204 0.91 5.14278778485e-39
0.0303141231612 -0.101047077204 0.91 1.67594259372e-38
0.0321037298216 -0.101380199437 0.913 1.48240085503e-38
0.033867426975 -0.101602280925 0.915 1.83187866644e-38
0.0355607983237 -0.101602280925 0.915 2.08064866048e-38
-0.022206298157 -0.100782430097 0.923 1.96962154107e-38
-0.0204314969292 -0.100454859902 0.92 1.48170833332e-38
-0.0186881572455 -0.100236479772 0.918 1.15989775878e-38
-0.0169892338596 -0.100236479772 0.918 3.489748854e-39
-0.0152403421387 -0.0999089095762 0.915 7.80924576509e-39
-0.0135173599249 -0.099690529446 0.913 1.00233421803e-38
-0.0117888256738 -0.0993629592506 0.91 7.16316870032e-39
-0.0100824995716 -0.0991445791204 0.908 7.99363422222e-39
-0.00840208297631 -0.0991445791204 0.908 1.65303893084e-39
-0.00672166638105 -0.0991445791204 0.908 1.34492857113e-38
-0.00504124978578 -0.0991445791204 0.908 1.32540862365e-38
-0.00336083319052 -0.0991445791204 0.908 1.38043817487e-38
-0.00168041659526 -0.0991445791204 0.908 1.37143399145e-38
0.0 -0.0989261989902 0.906 1.42678640183e-38
0.00167671523712 -0.0989261989902 0.906 1.55567895562e-38
0.00335343047424 -0.0989261989902 0.906 1.36192758267e-38
0.00503014571137 -0.0989261989902 0.906 1.27884880062e-38
0.00670686094849 -0.0989261989902 0.906 1.38029972658e-38
0.00838357618561 -0.0989261989902 0.906 1.36200507448e-38
0.0100602914227 -0.0989261989902 0.906 1.11296925412e-38
0.0117370066599 -0.0989261989902 0.906 1.43550752296e-38
0.013413721897 -0.0989261989902 0.906 1.62004199538e-38
0.0150904371341 -0.0989261989902 0.906 1.51887301068e-38
0.0167671523712 -0.0989261989902 0.906 1.51887301068e-38
0.0184438676083 -0.0989261989902 0.906 1.49128648859e-38
0.0201649991431 -0.0991445791204 0.908 1.64798080391e-38
0.0218454157384 -0.0991445791204 0.908 1.03092673228e-38
0.0235258323337 -0.0991445791204 0.908 4.78477284279e-39
0.025261769301 -0.0993629592506 0.91 8.3792743622e-39
0.0269458872544 -0.0993629592506 0.91 7.07922531712e-39
0.0286300052078 -0.0993629592506 0.91 1.17772129434e-38
0.0303141231612 -0.0993629592506 0.91 1.6944526254e-38
0.0321037298216 -0.099690529446 0.913 1.62069163735e-38
0.033867426975 -0.0999089095762 0.915 1.71198875464e-38
-0.0222544158128 -0.0992889320879 0.925 2.19089007184e-38
-0.0204981213757 -0.0990742533158 0.923 1.41717237333e-38
-0.0187288721851 -0.0987522351576 0.92 1.187444484e-38
-0.017026247441 -0.0987522351576 0.92 1.05848424749e-38
-0.0152903104736 -0.0985375563856 0.918 6.70399121953e-39
-0.0135173599249 -0.0980008594554 0.913 8.17622901732e-39
-0.0117888256738 -0.0976788412972 0.91 8.35990000963e-39
-0.0101047077204 -0.0976788412972 0.91 4.31626831943e-39
-0.008420589767 -0.0976788412972 0.91 1.0495167781e-38
-0.00672166638105 -0.0974641625252 0.908 1.32616196171e-38
-0.00504124978578 -0.0974641625252 0.908 1.17850770304e-38
-0.00336083319052 -0.0974641625252 0.908 1.09571226354e-38
-0.00168041659526 -0.0974641625252 0.908 1.32605434198e-38
0.0 -0.0974641625252 0.908 1.40852692232e-38
0.00168041659526 -0.0974641625252 0.908 1.40831168288e-38
0.00336083319052 -0.0974641625252 0.908 1.47284764287e-38
0.00504124978578 -0.0974641625252 0.908 1.41771047194e-38
0.00672166638105 -0.0974641625252 0.908 1.44522524755e-38
0.00838357618561 -0.0972494837531 0.906 1.43611344441e-38
0.0100602914227 -0.0972494837531 0.906 1.46380758622e-38
0.0117370066599 -0.0972494837531 0.906 1.47281176963e-38
0.013413721897 -0.0972494837531 0.906 1.53727598315e-38
0.0150904371341 -0.0972494837531 0.906 1.51894475716e-38
0.0168041659526 -0.0974641625252 0.908 1.50054178468e-38
0.0184845825479 -0.0974641625252 0.908 1.49132236183e-38
0.0201649991431 -0.0974641625252 0.908 1.60191956287e-38
0.0218454157384 -0.0974641625252 0.908 1.73124301593e-38
0.0235776513476 -0.0976788412972 0.91 2.75506488474e-39
0.025261769301 -0.0976788412972 0.91 9.1194009747e-39
0.0270347198498 -0.0980008594554 0.913 7.82682365303e-39
0.0287243898404 -0.0980008594554 0.913 1.38087257739e-38
0.0304806842775 -0.0982155382274 0.915 1.65778709056e-38
0.0321740556262 -0.0982155382274 0.915 8.55327919771e-39
0.033867426975 -0.0982155382274 0.915 1.96109688199e-38
-0.0222544158128 -0.0975770539484 0.925 2.04326860355e-38
-0.0204981213757 -0.0973660765345 0.923 1.51847840503e-38
-0.0187288721851 -0.0970496104135 0.92 1.12297816853e-38
-0.017026247441 -0.0970496104135 0.92 1.15075008241e-38
-0.0153236226969 -0.0970496104135 0.92 5.87747175411e-39
-0.01354697079 -0.0965221668787 0.915 7.99148182778e-39
-0.0118276899343 -0.0963111894648 0.913 7.07527926064e-39
-0.0101047077204 -0.0959947233438 0.91 1.1020259539e-39
-0.008420589767 -0.0959947233438 0.91 1.38177235113e-38
-0.0067364718136 -0.0959947233438 0.91 1.13248233524e-38
-0.0050523538602 -0.0959947233438 0.91 1.28569694621e-39
-0.0033682359068 -0.0959947233438 0.91 5.89002738835e-39
-0.00168041659526 -0.0957837459299 0.908 2.57139389242e-39
