# .PCD v0.7 - Point Cloud Data file format
VERSION 0.7
FIELDS x y z rgb
SIZE 4 4 4 4
TYPE F F F F
COUNT 1 1 1 1
WIDTH 838
HEIGHT 1
VIEWPOINT 0 0 0 1 0 0 0
POINTS 838
DATA ascii
-0.0276861588823 -0.084788861577 0.935 4.86728129637e-39
-0.02590025358 -0.0846074950282 0.933 7.89785266959e-39
-0.0240958414871 -0.0843354452049 0.93 9.55734878375e-39
-0.0223747099523 -0.0843354452049 0.93 7.16316870032e-39
-0.0206535784175 -0.0843354452049 0.93 8.0815236619e-39
-0.0188917319432 -0.0841540786561 0.928 8.72544833223e-39
-0.0171743017665 -0.0841540786561 0.928 9.55555512172e-39
-0.015406903255 -0.0838820288328 0.925 7.53051068496e-39
-0.0136950251156 -0.0838820288328 0.925 8.35703015038e-39
-0.0119831469761 -0.0838820288328 0.925 1.01991238622e-38
-0.0102712688367 -0.0838820288328 0.925 8.0815236619e-39
-0.00855939069723 -0.0838820288328 0.925 8.26519465422e-39
-0.00683270712523 -0.083700662284 0.923 8.54070114269e-39
-0.00512453034392 -0.083700662284 0.923 8.90804312733e-39
-0.00341635356261 -0.083700662284 0.923 8.99987862348e-39
-0.00170817678131 -0.083700662284 0.923 9.1835496158e-39
0.0 -0.083700662284 0.923 9.09171411964e-39
0.00170817678131 -0.083700662284 0.923 9.91823358506e-39
0.00341635356261 -0.083700662284 0.923 9.82639808891e-39
0.00512453034392 -0.083700662284 0.923 9.64272709659e-39
0.00683270712523 -0.083700662284 0.923 9.64272709659e-39
0.00854088390653 -0.083700662284 0.923 9.64272709659e-39
0.0102490606878 -0.083700662284 0.923 9.36722060812e-39
0.0119572374691 -0.083700662284 0.923 9.45905610427e-39
0.0136950251156 -0.0838820288328 0.925 9.91823358506e-39
0.015406903255 -0.0838820288328 0.925 9.64272709659e-39
0.0171187813945 -0.0838820288328 0.925 9.36722060812e-39
0.0188917319432 -0.0841540786561 0.928 1.83270697397e-38
0.0205425376733 -0.0838820288328 0.925 1.63895153725e-38
0.0222544158128 -0.0838820288328 0.925 1.66668225295e-38
0.0239662939522 -0.0838820288328 0.925 1.01169713385e-38
-0.029510928445 -0.0833249744329 0.938 2.34946927372e-38
-0.0276861588823 -0.0830584766468 0.935 5.41829427332e-39
-0.02590025358 -0.0828808114561 0.933 8.81620763117e-39
-0.024173570008 -0.0828808114561 0.933 9.18749567227e-39
-0.022446886436 -0.0828808114561 0.933 9.00490087718e-39
-0.0206535784175 -0.0826143136701 0.93 8.26591211903e-39
-0.0188917319432 -0.0824366484794 0.928 8.0815236619e-39
-0.0171743017665 -0.0824366484794 0.928 8.0815236619e-39
-0.0154568715899 -0.0824366484794 0.928 1.08502203781e-38
-0.0136950251156 -0.0821701506934 0.925 1.1497030322e-38
-0.0119831469761 -0.0821701506934 0.925 1.00212248183e-38
-0.0102712688367 -0.0821701506934 0.925 9.18606074265e-39
-0.00854088390653 -0.0819924855027 0.923 9.91823358506e-39
-0.00683270712523 -0.0819924855027 0.923 8.72437213501e-39
-0.00512453034392 -0.0819924855027 0.923 8.35703015038e-39
-0.00341635356261 -0.0819924855027 0.923 8.90804312733e-39
-0.00170817678131 -0.0819924855027 0.923 9.64272709659e-39
0.0 -0.0819924855027 0.923 8.99987862348e-39
0.00170817678131 -0.0819924855027 0.923 9.36722060812e-39
0.00341635356261 -0.0819924855027 0.923 9.45905610427e-39
0.00512453034392 -0.0819924855027 0.923 9.73456259275e-39
0.00683270712523 -0.0819924855027 0.923 9.64272709659e-39
0.00855939069723 -0.0821701506934 0.925 9.55089160043e-39
0.0102712688367 -0.0821701506934 0.925 9.55089160043e-39
0.0119831469761 -0.0821701506934 0.925 9.55089160043e-39
0.0136950251156 -0.0821701506934 0.925 9.91823358506e-39
0.015406903255 -0.0821701506934 0.925 9.82639808891e-39
0.0171187813945 -0.0821701506934 0.925 1.09320225773e-38
0.0188917319432 -0.0824366484794 0.928 1.8050473041e-38
0.0205425376733 -0.0821701506934 0.925 1.67600929553e-38
0.0222544158128 -0.0821701506934 0.925 1.63906055827e-38
0.0239662939522 -0.0821701506934 0.925 7.80601717343e-39
-0.0312468654123 -0.0815890374655 0.938 2.30229287936e-38
-0.029510928445 -0.0815890374655 0.938 2.34928906674e-38
-0.0276861588823 -0.0813280917167 0.935 5.78563625795e-39
-0.0259557739521 -0.0813280917167 0.935 9.1835496158e-39
-0.024173570008 -0.0811541278841 0.933 8.81692509598e-39
-0.022446886436 -0.0811541278841 0.933 8.26519465422e-39
-0.020720202864 -0.0811541278841 0.933 8.54070114269e-39
-0.0189324468827 -0.0808931821353 0.93 1.11189291677e-38
-0.0171743017665 -0.0807192183028 0.928 7.98968816575e-39
-0.0154568715899 -0.0807192183028 0.928 7.62234618111e-39
-0.0137394414132 -0.0807192183028 0.928 7.71418167727e-39
-0.0119831469761 -0.0804582725539 0.925 7.89785266959e-39
-0.0102712688367 -0.0804582725539 0.925 1.17621335706e-38
-0.00854088390653 -0.0802843087214 0.923 1.10295865815e-38
-0.00683270712523 -0.0802843087214 0.923 1.1772891339e-38
-0.00513563441834 -0.0804582725539 0.925 1.25133122241e-38
-0.00342375627889 -0.0804582725539 0.925 1.12222959489e-38
-0.00170817678131 -0.0802843087214 0.923 8.72437213501e-39
0.0 -0.0802843087214 0.923 9.82639808891e-39
0.00171187813945 -0.0804582725539 0.925 9.55089160043e-39
0.00342375627889 -0.0804582725539 0.925 9.55089160043e-39
0.00513563441834 -0.0804582725539 0.925 9.64272709659e-39
0.00684751255778 -0.0804582725539 0.925 9.55089160043e-39
0.00855939069723 -0.0804582725539 0.925 9.45905610427e-39
0.0102712688367 -0.0804582725539 0.925 9.55089160043e-39
0.0119831469761 -0.0804582725539 0.925 9.55089160043e-39
0.0136950251156 -0.0804582725539 0.925 1.01019045774e-38
0.015406903255 -0.0804582725539 0.925 9.73456259275e-39
0.0171743017665 -0.0807192183028 0.928 1.24993482849e-38
0.0188917319432 -0.0807192183028 0.928 1.8604378298e-38
0.0206091621199 -0.0807192183028 0.928 1.67608356435e-38
0.0223265922965 -0.0807192183028 0.928 1.27928040054e-38
0.024173570008 -0.0811541278841 0.933 1.25983233968e-38
0.02590025358 -0.0811541278841 0.933 2.29253451711e-38
-0.0312468654123 -0.0798531004982 0.938 2.25615624846e-38
-0.029510928445 -0.0798531004982 0.938 2.3493255005e-38
-0.0276861588823 -0.0795977067866 0.935 5.96930725027e-39
-0.0259557739521 -0.0795977067866 0.935 8.54070114269e-39
-0.024173570008 -0.0794274443121 0.933 8.90983678936e-39
-0.022446886436 -0.0794274443121 0.933 8.44886564654e-39
-0.020720202864 -0.0794274443121 0.933 7.98968816575e-39
-0.0189324468827 -0.0791720506005 0.93 7.71418167727e-39
-0.0171743017665 -0.0790017881261 0.928 8.0815236619e-39
-0.0154568715899 -0.0790017881261 0.928 7.98968816575e-39
-0.0137394414132 -0.0790017881261 0.928 8.26519465422e-39
-0.0119831469761 -0.0787463944145 0.925 8.35703015038e-39
-0.0102712688367 -0.0787463944145 0.925 8.17335915806e-39
-0.00855939069723 -0.0787463944145 0.925 8.44886564654e-39
-0.00684751255778 -0.0787463944145 0.925 8.35703015038e-39
-0.00513563441834 -0.0787463944145 0.925 9.09171411964e-39
-0.00342375627889 -0.0787463944145 0.925 9.36722060812e-39
-0.00171187813945 -0.0787463944145 0.925 9.45905610427e-39
0.0 -0.0787463944145 0.925 9.64272709659e-39
0.00171187813945 -0.0787463944145 0.925 9.55089160043e-39
0.00342375627889 -0.0787463944145 0.925 9.64272709659e-39
0.00513563441834 -0.0787463944145 0.925 9.64272709659e-39
0.00684751255778 -0.0787463944145 0.925 9.64272709659e-39
0.00855939069723 -0.0787463944145 0.925 1.01019045774e-38
0.0102712688367 -0.0787463944145 0.925 9.91823358506e-39
0.0119831469761 -0.0787463944145 0.925 9.91823358506e-39
0.0136950251156 -0.0787463944145 0.925 1.0469246562e-38
0.0154568715899 -0.0790017881261 0.928 9.36722060812e-39
0.0171743017665 -0.0790017881261 0.928 1.36960894033e-38
0.0188917319432 -0.0790017881261 0.928 1.81419736268e-38
0.0206091621199 -0.0790017881261 0.928 1.72196431815e-38
0.0223265922965 -0.0790017881261 0.928 1.31554628506e-38
0.024173570008 -0.0794274443121 0.933 1.79442406044e-38
0.02590025358 -0.0794274443121 0.933 2.22868154999e-38
-0.0312468654123 -0.0781171635308 0.938 2.34860411205e-38
-0.029510928445 -0.0781171635308 0.938 2.34896508653e-38
-0.0276861588823 -0.0778673218564 0.935 6.52032022722e-39
-0.0259557739521 -0.0778673218564 0.935 1.0380646664e-38
-0.024173570008 -0.0777007607401 0.933 8.3581077489e-39
-0.022446886436 -0.0777007607401 0.933 8.35703015038e-39
-0.020720202864 -0.0777007607401 0.933 8.63253663885e-39
-0.018993519292 -0.0777007607401 0.933 8.44886564654e-39
-0.0172113153479 -0.0774509190657 0.93 8.35703015038e-39
-0.0154568715899 -0.0772843579495 0.928 8.17335915806e-39
-0.0137394414132 -0.0772843579495 0.928 8.26519465422e-39
-0.0119831469761 -0.0770345162751 0.925 8.35703015038e-39
-0.0102712688367 -0.0770345162751 0.925 8.72437213501e-39
-0.00855939069723 -0.0770345162751 0.925 8.63253663885e-39
-0.00684751255778 -0.0770345162751 0.925 8.63253663885e-39
-0.00513563441834 -0.0770345162751 0.925 8.99987862348e-39
-0.00342375627889 -0.0770345162751 0.925 9.45905610427e-39
-0.00171187813945 -0.0770345162751 0.925 9.45905610427e-39
0.0 -0.0770345162751 0.925 8.99987862348e-39
0.00171187813945 -0.0770345162751 0.925 9.64272709659e-39
0.00342375627889 -0.0770345162751 0.925 9.55089160043e-39
0.00513563441834 -0.0770345162751 0.925 9.55089160043e-39
0.00684751255778 -0.0770345162751 0.925 9.73456259275e-39
0.00855939069723 -0.0770345162751 0.925 1.01019045774e-38
0.0102712688367 -0.0770345162751 0.925 1.01019045774e-38
0.0119831469761 -0.0770345162751 0.925 1.01937400735e-38
0.0136950251156 -0.0770345162751 0.925 1.03774110659e-38
0.0154568715899 -0.0772843579495 0.928 9.73456259275e-39
0.0171743017665 -0.0772843579495 0.928 1.54470875046e-38
0.0189324468827 -0.0774509190657 0.93 1.76813598151e-38
0.0206535784175 -0.0774509190657 0.93 1.63880650286e-38
0.022446886436 -0.0777007607401 0.933 1.30629561325e-38
0.024173570008 -0.0777007607401 0.933 1.877828224e-38
0.02590025358 -0.0777007607401 0.933 2.25630100259e-38
0.027626937152 -0.0777007607401 0.933 2.30275853084e-38
-0.0312468654123 -0.0763812265635 0.938 2.26534049873e-38
-0.029510928445 -0.0763812265635 0.938 2.34885676616e-38
-0.0276861588823 -0.0761369369263 0.935 7.80816956787e-39
-0.0259557739521 -0.0761369369263 0.935 9.46407835797e-39
-0.024225389022 -0.0761369369263 0.935 8.26520025941e-39
-0.0224950040919 -0.0761369369263 0.935 8.54070114269e-39
-0.0207646191617 -0.0761369369263 0.935 9.1835496158e-39
-0.018993519292 -0.0759740771681 0.933 8.0815236619e-39
-0.01726683572 -0.0759740771681 0.933 1.20416071351e-38
-0.0154901838131 -0.0757297875309 0.93 7.71418167727e-39
-0.0137690522784 -0.0757297875309 0.93 8.26519465422e-39
-0.0119831469761 -0.0753226381356 0.925 8.35703015038e-39
-0.0102712688367 -0.0753226381356 0.925 8.72437213501e-39
-0.00855939069723 -0.0753226381356 0.925 8.63253663885e-39
-0.00684751255778 -0.0753226381356 0.925 9.1835496158e-39
-0.00513563441834 -0.0753226381356 0.925 9.09171411964e-39
-0.00342375627889 -0.0753226381356 0.925 9.09171411964e-39
-0.00171187813945 -0.0753226381356 0.925 9.64272709659e-39
0.0 -0.0753226381356 0.925 9.64272709659e-39
0.00171187813945 -0.0753226381356 0.925 9.64272709659e-39
0.00342375627889 -0.0753226381356 0.925 9.64272709659e-39
0.00513563441834 -0.0753226381356 0.925 9.64272709659e-39
0.00684751255778 -0.0753226381356 0.925 9.91823358506e-39
0.00855939069723 -0.0753226381356 0.925 1.01937400735e-38
0.0102712688367 -0.0753226381356 0.925 1.01019045774e-38
0.0120220112366 -0.0755669277728 0.928 1.01937400735e-38
0.0137394414132 -0.0755669277728 0.928 1.07447530505e-38
0.0154568715899 -0.0755669277728 0.928 1.01019045774e-38
0.0172113153479 -0.0757297875309 0.93 1.62775670395e-38
0.018993519292 -0.0759740771681 0.933 1.76824416175e-38
0.020720202864 -0.0759740771681 0.933 1.72199766905e-38
0.022446886436 -0.0759740771681 0.933 1.68490515857e-38
0.024173570008 -0.0759740771681 0.933 1.4727101755e-38
0.02590025358 -0.0759740771681 0.933 2.3297312842e-38
0.0276861588823 -0.0761369369263 0.935 2.29332344815e-38
0.0294165438124 -0.0761369369263 0.935 2.30229105767e-38
-0.0313134898588 -0.0748044479961 0.94 2.293286594e-38
-0.0295738515333 -0.0748044479961 0.94 2.34903697314e-38
-0.0276861588823 -0.0744065519961 0.935 6.52032022722e-39
-0.0259557739521 -0.0744065519961 0.935 1.04764212101e-38
-0.024225389022 -0.0744065519961 0.935 8.08331872524e-39
-0.0224950040919 -0.0744065519961 0.935 8.63253663885e-39
-0.0207646191617 -0.0744065519961 0.935 9.4604910339e-39
-0.018993519292 -0.0742473935961 0.933 8.35707078803e-39
-0.01726683572 -0.0742473935961 0.933 8.17335915806e-39
-0.0154901838131 -0.0740086559961 0.93 1.00158116023e-38
-0.0137690522784 -0.0740086559961 0.93 1.14026682847e-38
-0.0120220112366 -0.0738494975962 0.928 1.1496692609e-38
-0.0103045810599 -0.0738494975962 0.928 1.05675392415e-38
-0.00858715088327 -0.0738494975962 0.928 8.35703015038e-39
-0.00684751255778 -0.0736107599962 0.925 8.72437213501e-39
-0.00513563441834 -0.0736107599962 0.925 9.09171411964e-39
-0.00342375627889 -0.0736107599962 0.925 9.09171411964e-39
-0.00171187813945 -0.0736107599962 0.925 8.99987862348e-39
0.0 -0.0736107599962 0.925 9.73456259275e-39
0.00171187813945 -0.0736107599962 0.925 9.73456259275e-39
0.00342375627889 -0.0736107599962 0.925 9.64272709659e-39
0.00515229052996 -0.0738494975962 0.928 9.55089160043e-39
0.00686972070662 -0.0738494975962 0.928 9.73456259275e-39
0.00858715088327 -0.0738494975962 0.928 9.73456259275e-39
0.0103045810599 -0.0738494975962 0.928 1.01019045774e-38
0.0120220112366 -0.0738494975962 0.928 1.01019045774e-38
0.0137394414132 -0.0738494975962 0.928 1.05610820582e-38
0.015540152148 -0.0742473935961 0.933 1.00100690812e-38
0.0173038493014 -0.0744065519961 0.935 1.79356492435e-38
0.0190342342316 -0.0744065519961 0.935 1.70366994631e-38
0.0207646191617 -0.0744065519961 0.935 1.76806017126e-38
0.0224950040919 -0.0744065519961 0.935 1.8048703201e-38
0.024225389022 -0.0744065519961 0.935 1.24215299773e-38
0.0259557739521 -0.0744065519961 0.935 2.34810216694e-38
0.0276861588823 -0.0744065519961 0.935 2.33941972165e-38
-0.0313134898588 -0.0730648096706 0.94 2.24722605361e-38
-0.0295738515333 -0.0730648096706 0.94 2.34911110183e-38
-0.0276861588823 -0.072676167066 0.935 6.97949770801e-39
-0.0259557739521 -0.072676167066 0.935 8.63253663885e-39
-0.024225389022 -0.072676167066 0.935 9.00167789071e-39
-0.0224950040919 -0.072676167066 0.935 8.26519465422e-39
-0.0207646191617 -0.072676167066 0.935 8.81620763117e-39
-0.0190342342316 -0.072676167066 0.935 8.26519465422e-39
-0.01726683572 -0.0725207100241 0.933 1.02938334215e-38
-0.015540152148 -0.0725207100241 0.933 1.1311980452e-38
-0.0137690522784 -0.0722875244614 0.93 8.54213607232e-39
-0.0120479207436 -0.0722875244614 0.93 8.90804312733e-39
-0.0103045810599 -0.0721320674195 0.928 8.81620763117e-39
-0.00858715088327 -0.0721320674195 0.928 8.99987862348e-39
-0.00684751255778 -0.0718988818567 0.925 8.72437213501e-39
-0.00513563441834 -0.0718988818567 0.925 8.99987862348e-39
-0.00342375627889 -0.0718988818567 0.925 9.09171411964e-39
-0.00171187813945 -0.0718988818567 0.925 9.09171411964e-39
0.0 -0.0718988818567 0.925 9.1835496158e-39
0.00171187813945 -0.0718988818567 0.925 9.73456259275e-39
0.00343486035331 -0.0721320674195 0.928 9.64272709659e-39
0.00515229052996 -0.0721320674195 0.928 9.55089160043e-39
0.00686972070662 -0.0721320674195 0.928 9.73456259275e-39
0.00858715088327 -0.0721320674195 0.928 9.55089160043e-39
0.0103045810599 -0.0721320674195 0.928 9.82639808891e-39
0.012086785004 -0.0725207100241 0.933 1.01937400735e-38
0.013813468576 -0.0725207100241 0.933 1.08365885466e-38
0.0155734643713 -0.072676167066 0.935 9.55089160043e-39
0.0173038493014 -0.072676167066 0.935 1.88576069435e-38
0.0190342342316 -0.072676167066 0.935 1.7220387271e-38
0.0208312436082 -0.0729093526288 0.938 1.74951566765e-38
0.0225671805756 -0.0729093526288 0.938 1.76798954582e-38
0.0243031175429 -0.0729093526288 0.938 1.79553809272e-38
0.0260390545103 -0.0729093526288 0.938 2.34875278981e-38
0.0277749914776 -0.0729093526288 0.938 2.34878501968e-38
-0.0314134265286 -0.0715528048707 0.943 2.33023617204e-38
-0.0296682361659 -0.0715528048707 0.943 2.29346834241e-38
-0.0278342132079 -0.0713251713451 0.94 7.07133320417e-39
-0.0260390545103 -0.0711734156614 0.938 8.63253663885e-39
-0.0243031175429 -0.0711734156614 0.938 9.00454214477e-39
-0.0225671805756 -0.0711734156614 0.938 7.89785266959e-39
-0.0207646191617 -0.0709457821358 0.935 8.72437213501e-39
-0.0190342342316 -0.0709457821358 0.935 8.0815236619e-39
-0.0173038493014 -0.0709457821358 0.935 1.13051267012e-38
-0.015540152148 -0.0707940264521 0.933 8.0815236619e-39
-0.013813468576 -0.0707940264521 0.933 8.63253663885e-39
-0.0120479207436 -0.0705663929266 0.93 1.17675033464e-38
-0.0103045810599 -0.0704146372428 0.928 1.18607709695e-38
-0.00858715088327 -0.0704146372428 0.928 1.12179645354e-38
-0.00686972070662 -0.0704146372428 0.928 8.35703015038e-39
-0.00515229052996 -0.0704146372428 0.928 8.99987862348e-39
-0.00342375627889 -0.0701870037173 0.925 9.27538511196e-39
-0.00171187813945 -0.0701870037173 0.925 9.1835496158e-39
0.0 -0.0701870037173 0.925 9.1835496158e-39
0.00171743017665 -0.0704146372428 0.928 9.73456259275e-39
0.00343486035331 -0.0704146372428 0.928 9.73456259275e-39
0.00516339460438 -0.0705663929266 0.93 9.91823358506e-39
0.00688452613918 -0.0705663929266 0.93 9.82639808891e-39
0.00863341786002 -0.0707940264521 0.933 9.91823358506e-39
0.010360101432 -0.0707940264521 0.933 1.01019045774e-38
0.012112694511 -0.0709457821358 0.935 1.03774110659e-38
0.0138430794411 -0.0709457821358 0.935 1.05610820582e-38
0.0155734643713 -0.0709457821358 0.935 9.64272709659e-39
0.0173038493014 -0.0709457821358 0.935 1.9778121306e-38
0.0190953066409 -0.0711734156614 0.938 1.69448765786e-38
0.0208312436082 -0.0711734156614 0.938 1.7033459661e-38
0.0225671805756 -0.0711734156614 0.938 1.56472601877e-38
0.0243031175429 -0.0711734156614 0.938 1.77663135345e-38
0.0260390545103 -0.0711734156614 0.938 2.34871495476e-38
0.0277749914776 -0.0711734156614 0.938 2.30239853726e-38
-0.0314134265286 -0.069807614508 0.943 2.28406703101e-38
-0.0296682361659 -0.069807614508 0.943 2.34914557377e-38
-0.0279230458032 -0.069807614508 0.943 6.70399121953e-39
-0.0260945748824 -0.0695855330196 0.94 1.03867381084e-38
-0.0243549365569 -0.0695855330196 0.94 8.63468903329e-39
-0.0226152982314 -0.0695855330196 0.94 8.26519465422e-39
-0.0208312436082 -0.0694374786941 0.938 8.35703015038e-39
-0.0190342342316 -0.0692153972057 0.935 8.81620763117e-39
-0.0173038493014 -0.0692153972057 0.935 7.89785266959e-39
-0.015540152148 -0.0690673428801 0.933 9.64524943382e-39
-0.013813468576 -0.0690673428801 0.933 9.27538511196e-39
-0.012086785004 -0.0690673428801 0.933 8.81620763117e-39
-0.0103267892088 -0.0688452613918 0.93 8.54070114269e-39
-0.00858715088327 -0.0686972070662 0.928 8.81620763117e-39
-0.00686972070662 -0.0686972070662 0.928 8.99987862348e-39
-0.00515229052996 -0.0686972070662 0.928 9.1835496158e-39
-0.00343486035331 -0.0686972070662 0.928 9.1835496158e-39
-0.00171743017665 -0.0686972070662 0.928 9.64272709659e-39
0.0 -0.0686972070662 0.928 9.73456259275e-39
0.00171743017665 -0.0686972070662 0.928 9.73456259275e-39
0.00344226306959 -0.0688452613918 0.93 9.91823358506e-39
0.00516339460438 -0.0688452613918 0.93 9.64272709659e-39
0.00690673428801 -0.0690673428801 0.933 9.91823358506e-39
0.00863341786002 -0.0690673428801 0.933 9.91823358506e-39
0.0103823095809 -0.0692153972057 0.935 1.01019045774e-38
0.012112694511 -0.0692153972057 0.935 1.01937400735e-38
0.0138430794411 -0.0692153972057 0.935 1.11120950351e-38
0.0155734643713 -0.0692153972057 0.935 9.45905610427e-39
0.0173593696735 -0.0694374786941 0.938 2.07904711646e-38
0.0190953066409 -0.0694374786941 0.938 1.68526837513e-38
0.0208312436082 -0.0694374786941 0.938 1.78643119413e-38
0.0226152982314 -0.0695855330196 0.94 1.78628265649e-38
0.0243549365569 -0.0695855330196 0.94 1.66617456252e-38
0.0260945748824 -0.0695855330196 0.94 2.34878628085e-38
0.0278342132079 -0.0695855330196 0.94 2.34860565348e-38
-0.0314134265286 -0.0680624241453 0.943 2.28395913103e-38
-0.0296682361659 -0.0680624241453 0.943 2.34889334005e-38
-0.0279230458032 -0.0680624241453 0.943 6.98057390523e-39
-0.0261778554405 -0.0680624241453 0.943 8.26519465422e-39
-0.0243549365569 -0.0678458946941 0.94 9.18534327783e-39
-0.0226152982314 -0.0678458946941 0.94 8.54070114269e-39
-0.0208312436082 -0.0677015417267 0.938 8.54070114269e-39
-0.0190953066409 -0.0677015417267 0.938 8.54070114269e-39
-0.0173038493014 -0.0674850122756 0.935 1.11282379934e-38
-0.0155734643713 -0.0674850122756 0.935 1.03903674715e-38
-0.0138430794411 -0.0674850122756 0.935 8.72473086742e-39
-0.012086785004 -0.0673406593081 0.933 8.99987862348e-39
-0.010360101432 -0.0673406593081 0.933 8.44886564654e-39
-0.00860565767397 -0.067124129857 0.93 8.26519465422e-39
-0.00688452613918 -0.067124129857 0.93 8.90804312733e-39
-0.00515229052996 -0.0669797768895 0.928 8.90804312733e-39
-0.00343486035331 -0.0669797768895 0.928 9.64272709659e-39
-0.00171743017665 -0.0669797768895 0.928 9.55089160043e-39
0.0 -0.0669797768895 0.928 9.64272709659e-39
0.00172113153479 -0.067124129857 0.93 9.64272709659e-39
0.00344226306959 -0.067124129857 0.93 9.73456259275e-39
0.00518005071601 -0.0673406593081 0.933 9.64272709659e-39
0.00690673428801 -0.0673406593081 0.933 1.01937400735e-38
0.00865192465071 -0.0674850122756 0.935 1.01019045774e-38
0.0103823095809 -0.0674850122756 0.935 1.01937400735e-38
0.0121515587715 -0.0677015417267 0.938 1.03774110659e-38
0.0138874957388 -0.0677015417267 0.938 1.07447530505e-38
0.0156234327062 -0.0677015417267 0.938 9.73456259275e-39
0.0173593696735 -0.0677015417267 0.938 2.19875724167e-38
0.0190953066409 -0.0677015417267 0.938 1.68530312734e-38
0.0208756599059 -0.0678458946941 0.94 1.75873495037e-38
0.0226152982314 -0.0678458946941 0.94 1.69405157378e-38
0.0243549365569 -0.0678458946941 0.94 1.38007944246e-38
0.0260945748824 -0.0678458946941 0.94 2.34910899988e-38
0.0278342132079 -0.0678458946941 0.94 2.34867796048e-38
-0.0315133631984 -0.0665282111965 0.946 2.24718807842e-38
-0.0297626207984 -0.0665282111965 0.946 2.33960090954e-38
-0.0279230458032 -0.0663172337826 0.943 6.88766221185e-39
-0.0261778554405 -0.0663172337826 0.943 8.90947805695e-39
-0.0243549365569 -0.0661062563686 0.94 9.18677820746e-39
-0.0226152982314 -0.0661062563686 0.94 8.72437213501e-39
-0.0208312436082 -0.0659656047594 0.938 8.54070114269e-39
-0.0190953066409 -0.0659656047594 0.938 8.17335915806e-39
-0.0173038493014 -0.0657546273454 0.935 8.35703015038e-39
-0.0155734643713 -0.0657546273454 0.935 8.35703015038e-39
-0.0138430794411 -0.0657546273454 0.935 1.00111452784e-38
-0.012112694511 -0.0657546273454 0.935 1.12128988414e-38
-0.010360101432 -0.0656139757361 0.933 1.30622106417e-38
-0.00863341786002 -0.0656139757361 0.933 1.02066894726e-38
-0.00688452613918 -0.0654029983222 0.93 1.14948653158e-38
-0.00516339460438 -0.0654029983222 0.93 9.55591385413e-39
-0.00344226306959 -0.0654029983222 0.93 1.00100690812e-38
-0.00172113153479 -0.0654029983222 0.93 9.91823358506e-39
0.0 -0.0654029983222 0.93 1.24986294188e-38
0.00172113153479 -0.0654029983222 0.93 8.90804312733e-39
0.00344226306959 -0.0654029983222 0.93 1.02855755697e-38
0.00518005071601 -0.0656139757361 0.933 9.82639808891e-39
0.00690673428801 -0.0656139757361 0.933 9.91823358506e-39
0.00865192465071 -0.0657546273454 0.935 9.91823358506e-39
0.0103823095809 -0.0657546273454 0.935 1.01937400735e-38
0.0121515587715 -0.0659656047594 0.938 1.0469246562e-38
0.0138874957388 -0.0659656047594 0.938 1.07447530505e-38
0.0156234327062 -0.0659656047594 0.938 9.64272709659e-39
0.0173593696735 -0.0659656047594 0.938 2.18979075319e-38
0.0191360215804 -0.0661062563686 0.94 1.67608160253e-38
0.0208756599059 -0.0661062563686 0.94 1.77717309544e-38
0.0226152982314 -0.0661062563686 0.94 1.43586751653e-38
0.0244326650778 -0.0663172337826 0.943 1.72087635002e-38
0.0261778554405 -0.0663172337826 0.943 2.3490710247e-38
0.0279230458032 -0.0663172337826 0.943 2.34871425411e-38
-0.0317798609844 -0.0653252698012 0.954 2.27488278075e-38
-0.0297626207984 -0.0647774687966 0.946 2.2936105742e-38
-0.0280118783985 -0.0647774687966 0.946 7.16316870032e-39
-0.0261778554405 -0.0645720434199 0.943 9.5595011782e-39
-0.0243549365569 -0.0643666180432 0.94 8.35990000963e-39
-0.0226152982314 -0.0643666180432 0.94 8.81620763117e-39
-0.0208756599059 -0.0643666180432 0.94 8.81620763117e-39
-0.0190953066409 -0.064229667792 0.938 8.17335915806e-39
-0.0173593696735 -0.064229667792 0.938 8.54070114269e-39
-0.0155734643713 -0.0640242424153 0.935 8.72437213501e-39
-0.0138430794411 -0.0640242424153 0.935 8.63253663885e-39
-0.012112694511 -0.0640242424153 0.935 8.54070114269e-39
-0.0103823095809 -0.0640242424153 0.935 8.17335915806e-39
-0.00863341786002 -0.0638872921641 0.933 8.54070114269e-39
-0.00690673428801 -0.0638872921641 0.933 9.27538511196e-39
-0.00518005071601 -0.0638872921641 0.933 1.02906132377e-38
-0.00345336714401 -0.0638872921641 0.933 1.04785736046e-38
-0.001726683572 -0.0638872921641 0.933 1.21359187256e-38
0.0 -0.0638872921641 0.933 1.06611810114e-38
0.001726683572 -0.0638872921641 0.933 1.01937400735e-38
0.00345336714401 -0.0638872921641 0.933 1.03774110659e-38
0.00518005071601 -0.0638872921641 0.933 1.01019045774e-38
0.00690673428801 -0.0638872921641 0.933 1.03774110659e-38
0.00863341786002 -0.0638872921641 0.933 9.91823358506e-39
0.0104156218041 -0.064229667792 0.938 1.03774110659e-38
0.0121515587715 -0.064229667792 0.938 1.06529175543e-38
0.0138874957388 -0.064229667792 0.938 1.11120950351e-38
0.0156234327062 -0.064229667792 0.938 9.73456259275e-39
0.0173963832549 -0.0643666180432 0.94 2.15330976936e-38
0.0191970939897 -0.0645720434199 0.943 1.67608328409e-38
0.0209422843524 -0.0645720434199 0.943 1.82331000659e-38
0.0226874747151 -0.0645720434199 0.943 1.46363536664e-38
0.0244326650778 -0.0645720434199 0.943 1.91463514985e-38
0.0261778554405 -0.0645720434199 0.943 2.34878501968e-38
-0.0317798609844 -0.0635597219688 0.954 2.24718807842e-38
-0.0299199285194 -0.0633598486293 0.951 2.30279482447e-38
-0.0280118783985 -0.0630267263967 0.946 6.88766221185e-39
-0.0261778554405 -0.0628268530572 0.943 1.0290600626e-38
-0.0244326650778 -0.0628268530572 0.943 7.8985701344e-39
-0.0226874747151 -0.0628268530572 0.943 8.63253663885e-39
-0.0208756599059 -0.0626269797177 0.94 8.54070114269e-39
-0.0191360215804 -0.0626269797177 0.94 8.72437213501e-39
-0.0173593696735 -0.0624937308247 0.938 8.54070114269e-39
-0.0156234327062 -0.0624937308247 0.938 8.72437213501e-39
-0.0138874957388 -0.0624937308247 0.938 8.54070114269e-39
-0.012112694511 -0.0622938574851 0.935 8.81620763117e-39
-0.0103823095809 -0.0622938574851 0.935 8.63253663885e-39
-0.00865192465071 -0.0622938574851 0.935 9.09171411964e-39
-0.00690673428801 -0.0621606085921 0.933 8.90804312733e-39
-0.00518005071601 -0.0621606085921 0.933 8.99987862348e-39
-0.00345336714401 -0.0621606085921 0.933 9.55089160043e-39
-0.001726683572 -0.0621606085921 0.933 9.45905610427e-39
0.0 -0.0621606085921 0.933 1.01019045774e-38
0.001726683572 -0.0621606085921 0.933 1.01019045774e-38
0.00345336714401 -0.0621606085921 0.933 1.02855755697e-38
0.00519115479043 -0.0622938574851 0.935 1.01019045774e-38
0.00690673428801 -0.0621606085921 0.933 1.02855755697e-38
0.00863341786002 -0.0621606085921 0.933 1.02855755697e-38
0.0103823095809 -0.0622938574851 0.935 1.03774110659e-38
0.0121515587715 -0.0624937308247 0.938 1.02855755697e-38
0.0138874957388 -0.0624937308247 0.938 1.07447530505e-38
0.0156234327062 -0.0624937308247 0.938 9.73456259275e-39
0.0173963832549 -0.0626269797177 0.94 2.16281799983e-38
0.019258166399 -0.0630267263967 0.946 1.64853249511e-38
0.0210089087989 -0.0630267263967 0.946 1.75894878852e-38
0.0227596511988 -0.0630267263967 0.946 1.78650097879e-38
0.0245103935987 -0.0630267263967 0.946 1.57444906829e-38
0.0262611359986 -0.0630267263967 0.946 2.34885830759e-38
0.0280118783985 -0.0630267263967 0.946 2.34871579554e-38
-0.0317798609844 -0.0617941741363 0.954 2.33016428543e-38
-0.0299199285194 -0.061599852834 0.951 2.23829347655e-38
-0.0280118783985 -0.0612759839968 0.946 7.4386751888e-39
-0.0262611359986 -0.0612759839968 0.946 9.55089160043e-39
-0.0244326650778 -0.0610816626945 0.943 9.28004863325e-39
-0.0226874747151 -0.0610816626945 0.943 8.44886564654e-39
-0.0209422843524 -0.0610816626945 0.943 1.16742539401e-38
-0.0191360215804 -0.0608873413922 0.94 8.3581063476e-39
-0.0173963832549 -0.0608873413922 0.94 1.01955337356e-38
-0.0156234327062 -0.0607577938573 0.938 9.36722060812e-39
-0.0138874957388 -0.0607577938573 0.938 8.90804312733e-39
-0.0121515587715 -0.0607577938573 0.938 8.81620763117e-39
-0.0103823095809 -0.060563472555 0.935 8.35703015038e-39
-0.00865192465071 -0.060563472555 0.935 9.09171411964e-39
-0.00692153972057 -0.060563472555 0.935 9.55089160043e-39
-0.00519115479043 -0.060563472555 0.935 9.55089160043e-39
-0.00346076986028 -0.060563472555 0.935 9.73456259275e-39
-0.00173038493014 -0.060563472555 0.935 9.64272709659e-39
0.0 -0.060563472555 0.935 1.00100690812e-38
0.00173038493014 -0.060563472555 0.935 9.91823358506e-39
0.00346076986028 -0.060563472555 0.935 1.01937400735e-38
0.00519115479043 -0.060563472555 0.935 1.01019045774e-38
0.00692153972057 -0.060563472555 0.935 1.03774110659e-38
0.00865192465071 -0.060563472555 0.935 1.01937400735e-38
0.0103823095809 -0.060563472555 0.935 1.02855755697e-38
0.0121515587715 -0.0607577938573 0.938 1.03774110659e-38
0.0138874957388 -0.0607577938573 0.938 1.08365885466e-38
0.0156567449294 -0.0608873413922 0.94 9.73456259275e-39
0.017451903627 -0.0610816626945 0.943 2.09856650342e-38
0.019258166399 -0.0612759839968 0.946 1.67601139748e-38
0.0210089087989 -0.0612759839968 0.946 1.74951510713e-38
0.0227596511988 -0.0612759839968 0.946 1.8878788971e-38
0.0245103935987 -0.0612759839968 0.946 1.24247053196e-38
0.0262611359986 -0.0612759839968 0.946 2.34914375209e-38
-0.0317798609844 -0.0600286263038 0.954 2.25637134778e-38
-0.0300143131519 -0.0600286263038 0.954 2.23825788357e-38
-0.0282487653195 -0.0600286263038 0.954 7.25500419648e-39
-0.0262611359986 -0.0595252415969 0.946 8.81907749042e-39
-0.0245103935987 -0.0595252415969 0.946 8.44958311135e-39
-0.0227596511988 -0.0595252415969 0.946 8.81620763117e-39
-0.0210089087989 -0.0595252415969 0.946 8.63253663885e-39
-0.019258166399 -0.0595252415969 0.946 8.7243763389e-39
-0.0175074239991 -0.0595252415969 0.946 1.34227465197e-38
-0.0157067132643 -0.0593364723318 0.943 9.73922611404e-39
-0.0139615229016 -0.0593364723318 0.943 1.05747587312e-38
-0.0121774682784 -0.0591477030667 0.94 8.0815236619e-39
-0.0104378299529 -0.0591477030667 0.94 8.44886564654e-39
-0.00867968483676 -0.0590218568899 0.938 9.45905610427e-39
-0.00694374786941 -0.0590218568899 0.938 9.91823358506e-39
-0.00520781090205 -0.0590218568899 0.938 1.00100690812e-38
-0.00346076986028 -0.0588330876248 0.935 9.64272709659e-39
-0.00173038493014 -0.0588330876248 0.935 9.64272709659e-39
0.0 -0.0588330876248 0.935 9.73456259275e-39
0.00173038493014 -0.0588330876248 0.935 9.91823358506e-39
0.00346076986028 -0.0588330876248 0.935 1.01019045774e-38
0.00519115479043 -0.0588330876248 0.935 9.82639808891e-39
0.00692153972057 -0.0588330876248 0.935 1.01019045774e-38
0.00865192465071 -0.0588330876248 0.935 1.03774110659e-38
0.0103823095809 -0.0588330876248 0.935 1.05610820582e-38
0.0121515587715 -0.0590218568899 0.938 1.07447530505e-38
0.0138874957388 -0.0590218568899 0.938 1.11120950351e-38
0.0156567449294 -0.0591477030667 0.94 9.55089160043e-39
0.0175074239991 -0.0595252415969 0.946 2.14487913741e-38
0.0192988813385 -0.0596510877736 0.948 1.722144385e-38
0.0210533250966 -0.0596510877736 0.948 1.823307204e-38
0.0228077688546 -0.0596510877736 0.948 1.79575613476e-38
0.0247694886685 -0.0601544724806 0.956 1.2514738746e-38
0.0266220184172 -0.0603432417457 0.959 2.34964709849e-38
-0.0318464854309 -0.05838522329 0.956 2.30253922763e-38
-0.0300143131519 -0.0582630784714 0.954 2.21056360163e-38
-0.0282487653195 -0.0582630784714 0.954 7.07133320417e-39
-0.0262611359986 -0.057774499197 0.946 1.08462757229e-38
-0.0245103935987 -0.057774499197 0.946 8.17622901732e-39
-0.0227596511988 -0.057774499197 0.946 7.98968816575e-39
-0.0210533250966 -0.0578966440156 0.948 1.34245471882e-38
-0.0192988813385 -0.0578966440156 0.948 7.71525787449e-39
-0.0175074239991 -0.057774499197 0.946 7.4386751888e-39
-0.0157566815992 -0.057774499197 0.946 8.26519465422e-39
-0.0139615229016 -0.0575912819691 0.943 9.36938561424e-39
-0.0122163325389 -0.0575912819691 0.943 9.73994357885e-39
-0.0104378299529 -0.0574080647412 0.94 1.16803271676e-38
-0.00869819162745 -0.0574080647412 0.94 1.18622605498e-38
-0.00695855330196 -0.0574080647412 0.94 1.01937400735e-38
-0.00520781090205 -0.0572859199226 0.938 1.03774110659e-38
-0.0034718739347 -0.0572859199226 0.938 1.09309659982e-38
-0.00173593696735 -0.0572859199226 0.938 9.91824899935e-39
0.0 -0.0572859199226 0.938 1.25882971063e-38
0.00173593696735 -0.0572859199226 0.938 1.00100690812e-38
0.0034718739347 -0.0572859199226 0.938 1.14794482301e-38
0.00520781090205 -0.0572859199226 0.938 1.01019045774e-38
0.00694374786941 -0.0572859199226 0.938 1.01019045774e-38
0.00867968483676 -0.0572859199226 0.938 1.03774110659e-38
0.0104156218041 -0.0572859199226 0.938 1.06529175543e-38
0.0121774682784 -0.0574080647412 0.94 1.06529175543e-38
0.0139615229016 -0.0575912819691 0.943 1.08365885466e-38
0.0157566815992 -0.057774499197 0.946 9.73456259275e-39
0.0175444375805 -0.0578966440156 0.948 2.09899810335e-38
0.0192988813385 -0.0578966440156 0.948 1.70359960112e-38
0.0211199495431 -0.0580798612435 0.951 1.77720966933e-38
0.0229521218221 -0.0582630784714 0.954 1.86947886736e-38
0.0247694886685 -0.05838522329 0.956 1.3347021752e-38
0.0266220184172 -0.0585684405179 0.959 2.34961122525e-38
-0.0318464854309 -0.0566159740994 0.956 2.34860144958e-38
-0.0300143131519 -0.0564975306389 0.954 2.21049171501e-38
-0.0282487653195 -0.0564975306389 0.954 7.07133320417e-39
-0.0263999369289 -0.0563198654482 0.951 9.92146217672e-39
-0.0245103935987 -0.0560237567971 0.946 8.91127171899e-39
-0.0227596511988 -0.0560237567971 0.946 7.62234618111e-39
-0.0210533250966 -0.0561422002575 0.948 1.56357975662e-38
-0.0192988813385 -0.0561422002575 0.948 1.50116368094e-38
-0.0175074239991 -0.0560237567971 0.946 1.42740577575e-38
-0.0157566815992 -0.0560237567971 0.946 1.01227278726e-38
-0.0139615229016 -0.0558460916064 0.943 7.80601717343e-39
-0.0122163325389 -0.0558460916064 0.943 8.0815236619e-39
-0.0104378299529 -0.0556684264157 0.94 7.53051068496e-39
-0.00869819162745 -0.0556684264157 0.94 8.81620763117e-39
-0.00695855330196 -0.0556684264157 0.94 9.27538511196e-39
-0.00521891497647 -0.0556684264157 0.94 9.55089160043e-39
-0.0034718739347 -0.0555499829552 0.938 1.09388398943e-38
-0.00173593696735 -0.0555499829552 0.938 1.13112139417e-38
0.0 -0.0555499829552 0.938 1.24150111369e-38
0.00173593696735 -0.0555499829552 0.938 1.15763031774e-38
0.0034718739347 -0.0555499829552 0.938 1.24135762072e-38
0.00520781090205 -0.0555499829552 0.938 9.91823358506e-39
0.00694374786941 -0.0555499829552 0.938 1.02855755697e-38
0.00867968483676 -0.0555499829552 0.938 1.03774110659e-38
0.0104378299529 -0.0556684264157 0.94 1.07447530505e-38
0.0121774682784 -0.0556684264157 0.94 1.08365885466e-38
0.0139615229016 -0.0558460916064 0.943 1.11120950351e-38
0.0157566815992 -0.0560237567971 0.946 9.55089160043e-39
0.0175444375805 -0.0561422002575 0.948 1.98850754113e-38
0.0193599537478 -0.0563198654482 0.951 1.67583175102e-38
0.0211199495431 -0.0563198654482 0.951 1.77713750245e-38
0.0229521218221 -0.0564975306389 0.954 1.90628355113e-38
0.0247694886685 -0.0566159740994 0.956 1.61129060622e-38
0.0265387378591 -0.0566159740994 0.956 2.34910787885e-38
0.0283079870497 -0.0566159740994 0.956 2.3486433484e-38
-0.0318464854309 -0.0548467249088 0.956 2.31161781999e-38
-0.0300772362403 -0.0548467249088 0.956 2.16432187334e-38
-0.0282487653195 -0.0547319828065 0.954 7.4386751888e-39
-0.026483217487 -0.0547319828065 0.954 9.55304399487e-39
-0.0247176696545 -0.0547319828065 0.954 8.54070114269e-39
-0.0228799453383 -0.054559869653 0.951 7.16316870032e-39
-0.0210533250966 -0.0543877564995 0.948 1.52684569829e-38
-0.0192988813385 -0.0543877564995 0.948 1.38123705512e-38
-0.0175444375805 -0.0543877564995 0.948 1.20620787043e-38
-0.0157566815992 -0.0542730143972 0.946 1.39081394921e-38
-0.0140059391993 -0.0542730143972 0.946 1.55669615818e-38
-0.0122163325389 -0.0541009012437 0.943 1.48268756069e-38
-0.0104711421762 -0.0541009012437 0.943 1.49179950396e-38
-0.0087259518135 -0.0541009012437 0.943 1.22403336781e-38
-0.00695855330196 -0.0539287880902 0.94 1.0757004603e-38
-0.00521891497647 -0.0539287880902 0.94 9.0005960883e-39
-0.00347927665098 -0.0539287880902 0.94 8.26519465422e-39
-0.00173593696735 -0.0538140459879 0.938 8.35703015038e-39
0.0 -0.0538140459879 0.938 9.09171411964e-39
0.00173963832549 -0.0539287880902 0.94 1.01019045774e-38
0.0034718739347 -0.0538140459879 0.938 8.81620763117e-39
0.00520781090205 -0.0538140459879 0.938 9.91823358506e-39
0.00694374786941 -0.0538140459879 0.938 1.02855755697e-38
0.00869819162745 -0.0539287880902 0.94 1.03774110659e-38
0.0104378299529 -0.0539287880902 0.94 1.02855755697e-38
0.0122163325389 -0.0541009012437 0.943 1.1020259539e-38
0.0139615229016 -0.0541009012437 0.943 1.12039305313e-38
0.0157566815992 -0.0542730143972 0.946 9.45905610427e-39
0.0175444375805 -0.0543877564995 0.948 2.02567067705e-38
0.0193599537478 -0.054559869653 0.951 1.71267469024e-38
0.0211199495431 -0.054559869653 0.951 1.85997091715e-38
0.0229521218221 -0.0547319828065 0.954 1.82327189128e-38
0.0247694886685 -0.0548467249088 0.956 1.8507121178e-38
0.0265387378591 -0.0548467249088 0.956 2.34892795212e-38
0.0283079870497 -0.0548467249088 0.956 2.34853222544e-38
-0.0318464854309 -0.0530774757182 0.956 2.28399444375e-38
-0.0300772362403 -0.0530774757182 0.956 2.15528209695e-38
-0.0282487653195 -0.052966434974 0.954 9.09746364724e-39
-0.026483217487 -0.052966434974 0.954 1.03899667001e-38
-0.0247176696545 -0.052966434974 0.954 8.63397156848e-39
-0.0229521218221 -0.052966434974 0.954 7.4386751888e-39
-0.0210533250966 -0.0526333127414 0.948 1.59138263919e-38
-0.0192988813385 -0.0526333127414 0.948 1.31673766901e-38
-0.0175444375805 -0.0526333127414 0.948 8.19136864592e-39
-0.0157899938224 -0.0526333127414 0.948 9.58043377466e-39
-0.0140059391993 -0.0525222719973 0.946 1.05909563401e-38
-0.0122551967994 -0.0525222719973 0.946 1.20614144889e-38
-0.0104711421762 -0.052355710881 0.943 1.37230643988e-38
-0.0087259518135 -0.052355710881 0.943 1.40914755741e-38
-0.0069807614508 -0.052355710881 0.943 1.48287057027e-38
-0.0052355710881 -0.052355710881 0.943 1.61201381635e-38
-0.00347927665098 -0.0521891497647 0.94 1.66715070703e-38
-0.00173963832549 -0.0521891497647 0.94 1.64842291357e-38
0.0 -0.0521891497647 0.94 1.71281734242e-38
0.00173963832549 -0.0521891497647 0.94 1.82345335943e-38
0.00347927665098 -0.0521891497647 0.94 5.87747175411e-39
0.00521891497647 -0.0521891497647 0.94 9.82639808891e-39
0.00695855330196 -0.0521891497647 0.94 1.05610820582e-38
0.0087259518135 -0.052355710881 0.943 1.03774110659e-38
0.0104711421762 -0.052355710881 0.943 1.05610820582e-38
0.0122551967994 -0.0525222719973 0.946 1.08365885466e-38
0.0140059391993 -0.0525222719973 0.946 1.09284240428e-38
0.0157899938224 -0.0526333127414 0.948 9.55089160043e-39
0.0175444375805 -0.0526333127414 0.948 2.04425231508e-38
0.0193599537478 -0.0527998738577 0.951 1.67579671855e-38
0.0211199495431 -0.0527998738577 0.951 1.85071576118e-38
0.0229521218221 -0.052966434974 0.954 1.78642923231e-38
0.0247694886685 -0.0530774757182 0.956 1.88759050988e-38
0.0265387378591 -0.0530774757182 0.956 2.34889291966e-38
0.0283079870497 -0.0530774757182 0.956 2.34853208531e-38
-0.0300772362403 -0.0513082265276 0.956 2.10918456228e-38
-0.0283079870497 -0.0513082265276 0.956 6.52032022722e-39
-0.026483217487 -0.0512008871415 0.954 9.83321400464e-39
-0.0247176696545 -0.0512008871415 0.954 9.28327722491e-39
-0.0229521218221 -0.0512008871415 0.954 7.71418167727e-39
-0.0211865739896 -0.0512008871415 0.954 1.64655596363e-38
-0.0193599537478 -0.0510398780625 0.951 1.39964269006e-38
-0.0175999579526 -0.0510398780625 0.951 1.18777252797e-38
-0.0157899938224 -0.0508788689834 0.948 9.7629851295e-39
-0.0140355500644 -0.0508788689834 0.948 1.05927696203e-38
-0.0122551967994 -0.0507715295974 0.946 9.30203080226e-39
-0.0105044543995 -0.0507715295974 0.946 9.30348955396e-39
-0.00875371199954 -0.0507715295974 0.946 9.95026866926e-39
-0.0069807614508 -0.0506105205183 0.943 1.08722095536e-38
-0.0052355710881 -0.0506105205183 0.943 1.11437699856e-38
-0.0034903807254 -0.0506105205183 0.943 1.18770218278e-38
-0.00173963832549 -0.0504495114392 0.94 1.28886626295e-38
0.0 -0.0504495114392 0.94 1.64810243661e-38
0.0017451903627 -0.0506105205183 0.943 1.73136534929e-38
0.0034903807254 -0.0506105205183 0.943 6.15297824259e-39
0.0052355710881 -0.0506105205183 0.943 9.91823358506e-39
0.0069807614508 -0.0506105205183 0.943 1.01937400735e-38
0.0087259518135 -0.0506105205183 0.943 1.08365885466e-38
0.0104711421762 -0.0506105205183 0.943 1.08365885466e-38
0.0122551967994 -0.0507715295974 0.946 1.05610820582e-38
0.0140059391993 -0.0507715295974 0.946 1.0469246562e-38
0.0157899938224 -0.0508788689834 0.948 9.45905610427e-39
0.0175444375805 -0.0508788689834 0.948 2.07191114416e-38
0.0193599537478 -0.0510398780625 0.951 1.68508788789e-38
0.0211199495431 -0.0510398780625 0.951 1.83227635495e-38
0.0230002394779 -0.0513082265276 0.956 1.77713806297e-38
0.0247694886685 -0.0513082265276 0.956 2.08120161285e-38
0.0265387378591 -0.0513082265276 0.956 2.34885746681e-38
0.0283079870497 -0.0513082265276 0.956 2.34863998529e-38
-0.0300772362403 -0.049538977337 0.956 2.01702620695e-38
-0.0283079870497 -0.049538977337 0.956 8.63720016014e-39
-0.0265387378591 -0.049538977337 0.956 1.02041685367e-38
-0.0247694886685 -0.049538977337 0.956 9.83717827799e-39
-0.0229521218221 -0.0494353393091 0.954 7.16316870032e-39
-0.0211865739896 -0.0494353393091 0.954 1.59138263919e-38
-0.0194210261571 -0.0494353393091 0.954 1.36290582913e-38
-0.0175999579526 -0.0492798822672 0.951 1.16000663968e-38
-0.0157899938224 -0.0491244252253 0.948 1.23390607601e-38
-0.0140355500644 -0.0491244252253 0.948 1.30802313399e-38
-0.0122551967994 -0.0490207871974 0.946 1.09604605283e-38
-0.0105044543995 -0.0490207871974 0.946 1.17912791774e-38
-0.00875371199954 -0.0490207871974 0.946 1.16987304203e-38
-0.00700296959964 -0.0490207871974 0.946 1.03136688013e-38
-0.0052355710881 -0.0488653301556 0.943 1.03161869346e-38
-0.0034903807254 -0.0488653301556 0.943 9.85483043475e-39
-0.0017451903627 -0.0488653301556 0.943 1.37220148262e-38
0.0 -0.0488653301556 0.943 1.36258465152e-38
0.0017451903627 -0.0488653301556 0.943 1.73140094227e-38
0.0034903807254 -0.0488653301556 0.943 6.06114274643e-39
0.0052355710881 -0.0488653301556 0.943 9.45905610427e-39
0.0069807614508 -0.0488653301556 0.943 1.01937400735e-38
0.0087259518135 -0.0488653301556 0.943 1.05610820582e-38
0.0104711421762 -0.0488653301556 0.943 1.09284240428e-38
0.0122551967994 -0.0490207871974 0.946 1.11120950351e-38
0.0140355500644 -0.0491244252253 0.948 9.64272709659e-39
0.0157899938224 -0.0491244252253 0.948 9.82639808891e-39
0.0175999579526 -0.0492798822672 0.951 2.05347201819e-38
0.0194210261571 -0.0494353393091 0.954 1.68512193944e-38
0.0212309902873 -0.049538977337 0.956 1.92446834144e-38
0.0230002394779 -0.049538977337 0.956 1.758948228e-38
0.0247694886685 -0.049538977337 0.956 2.14577512765e-38
0.0265387378591 -0.049538977337 0.956 2.34878684137e-38
0.0283079870497 -0.049538977337 0.956 2.34852802154e-38
-0.0320463587704 -0.0480695381556 0.962 2.3117606123e-38
-0.0300772362403 -0.0477697281463 0.956 2.03549966474e-38
-0.0283079870497 -0.0477697281463 0.956 7.71489914208e-39
-0.0265387378591 -0.0477697281463 0.956 1.1589231557e-38
-0.0247176696545 -0.0476697914766 0.954 9.37547425607e-39
-0.0229521218221 -0.0476697914766 0.954 6.70399121953e-39
-0.0211865739896 -0.0476697914766 0.954 1.67443073281e-38
-0.0194210261571 -0.0476697914766 0.954 1.22472182574e-38
-0.0175999579526 -0.0475198864719 0.951 1.25216541539e-38
-0.0158399621573 -0.0475198864719 0.951 1.26127707839e-38
-0.0140355500644 -0.0473699814673 0.948 1.32603080017e-38
-0.0122811063063 -0.0473699814673 0.948 1.22472336717e-38
-0.0105044543995 -0.0472700447975 0.946 1.36283520369e-38
-0.00875371199954 -0.0472700447975 0.946 1.30737489333e-38
-0.00700296959964 -0.0472700447975 0.946 1.39978730406e-38
-0.00525222719973 -0.0472700447975 0.946 1.22515342567e-38
-0.00350148479982 -0.0472700447975 0.946 1.27143074694e-38
-0.00175074239991 -0.0472700447975 0.946 1.34464775092e-38
0.0 -0.0472700447975 0.946 1.41797111345e-38
0.00175074239991 -0.0472700447975 0.946 1.74980475552e-38
0.00350148479982 -0.0472700447975 0.946 6.15297824259e-39
0.00525222719973 -0.0472700447975 0.946 9.55089160043e-39
0.00700296959964 -0.0472700447975 0.946 1.0469246562e-38
0.00875371199954 -0.0472700447975 0.946 1.05610820582e-38
0.0105044543995 -0.0472700447975 0.946 1.06529175543e-38
0.0122551967994 -0.0472700447975 0.946 1.11120950351e-38
0.0140355500644 -0.0473699814673 0.948 1.06529175543e-38
0.0158399621573 -0.0475198864719 0.951 9.45905610427e-39
0.0176554783247 -0.0476697914766 0.954 1.97982369454e-38
0.0194210261571 -0.0476697914766 0.954 1.76802485854e-38
0.0212309902873 -0.0477697281463 0.956 1.79554089532e-38
0.0230002394779 -0.0477697281463 0.956 1.8140491053e-38
0.0247694886685 -0.0477697281463 0.956 2.13659339972e-38
0.0265387378591 -0.0477697281463 0.956 2.34885746681e-38
-0.0320463587704 -0.0462891848906 0.962 2.25644323439e-38
-0.0300772362403 -0.0460004789557 0.956 2.03549966474e-38
-0.0283079870497 -0.0460004789557 0.956 7.34683969264e-39
-0.0265387378591 -0.0460004789557 0.956 9.74030231126e-39
-0.0247176696545 -0.0459042436441 0.954 9.55591385413e-39
-0.0229521218221 -0.0459042436441 0.954 7.07133320417e-39
-0.0211865739896 -0.0459042436441 0.954 1.711344858e-38
-0.0194210261571 -0.0459042436441 0.954 1.25234478159e-38
-0.0175999579526 -0.0457598906767 0.951 1.23383545057e-38
-0.0158399621573 -0.0457598906767 0.951 1.29826295006e-38
-0.0140355500644 -0.0456155377093 0.948 1.28893604761e-38
-0.0122811063063 -0.0456155377093 0.948 1.27064307707e-38
-0.0105044543995 -0.0455193023976 0.946 1.35358060824e-38
-0.00875371199954 -0.0455193023976 0.946 1.34421839307e-38
-0.00700296959964 -0.0455193023976 0.946 1.39992827469e-38
-0.00525222719973 -0.0455193023976 0.946 1.41865480697e-38
-0.00350148479982 -0.0455193023976 0.946 1.27132284695e-38
-0.00175074239991 -0.0455193023976 0.946 1.35365081329e-38
0.0 -0.0455193023976 0.946 1.48232812763e-38
0.00175074239991 -0.0455193023976 0.946 1.72225396654e-38
0.00350148479982 -0.0455193023976 0.946 6.70399121953e-39
0.00525222719973 -0.0455193023976 0.946 9.45905610427e-39
0.00700296959964 -0.0455193023976 0.946 1.06529175543e-38
0.00875371199954 -0.0455193023976 0.946 1.08365885466e-38
0.0105044543995 -0.0455193023976 0.946 1.1020259539e-38
0.0122811063063 -0.0456155377093 0.948 1.09284240428e-38
0.0140799663621 -0.0457598906767 0.951 1.06529175543e-38
0.0158399621573 -0.0457598906767 0.951 1.0469246562e-38
0.0176554783247 -0.0459042436441 0.954 1.93383434011e-38
0.0194210261571 -0.0459042436441 0.954 1.77724442153e-38
0.0212309902873 -0.0460004789557 0.956 1.84163913064e-38
0.0230002394779 -0.0460004789557 0.956 1.76784507195e-38
0.0247694886685 -0.0460004789557 0.956 2.17339892427e-38
0.0266220184172 -0.0461448319232 0.959 2.34885732668e-38
-0.0338970378401 -0.0446013655791 0.964 2.219566664e-38
-0.0320463587704 -0.0445088316256 0.962 2.26566265724e-38
-0.0301716208728 -0.0443700306954 0.959 1.90639075047e-38
-0.028396819645 -0.0443700306954 0.959 7.89785266959e-39
-0.0265387378591 -0.0442312297651 0.956 1.13093992602e-38
-0.0247694886685 -0.0442312297651 0.956 9.65061920954e-39
-0.0230002394779 -0.0442312297651 0.956 6.42848473106e-39
-0.0212309902873 -0.0442312297651 0.956 1.73896767372e-38
-0.0194210261571 -0.0441386958117 0.954 1.10475932668e-38
-0.0175999579526 -0.0439998948814 0.951 1.06806338367e-38
-0.0158399621573 -0.0439998948814 0.951 1.08657453638e-38
-0.0140355500644 -0.0438610939512 0.948 1.28951184115e-38
-0.0122811063063 -0.0438610939512 0.948 1.25266890193e-38
-0.0105266625483 -0.0438610939512 0.948 1.23401467664e-38
