# .PCD v0.7 - Point Cloud Data file format
VERSION 0.7
FIELDS x y z rgb
SIZE 4 4 4 4
TYPE F F F F
COUNT 1 1 1 1
WIDTH 841
HEIGHT 1
VIEWPOINT 0 0 0 1 0 0 0
POINTS 841
DATA ascii
0.00933852658556 -0.091828844758 0.841 1.13883189884e-38
0.0108949476832 -0.091828844758 0.841 1.1480513217e-38
0.0124513687807 -0.091828844758 0.841 1.14801572872e-38
0.0140077898783 -0.091828844758 0.841 1.21222896968e-38
0.0155642109759 -0.091828844758 0.841 1.18467944187e-38
0.0171206320735 -0.091828844758 0.841 1.12957660274e-38
0.0187214694688 -0.0920472248882 0.843 1.15766717189e-38
0.0202815919245 -0.0920472248882 0.843 2.10029486495e-38
0.0218417143803 -0.0920472248882 0.843 1.8975013334e-38
0.023401836836 -0.0920472248882 0.843 1.92516044275e-38
0.025021181022 -0.0922656050184 0.845 1.91615569882e-38
0.0265850048358 -0.0922656050184 0.845 1.93455881142e-38
0.0282154530962 -0.0924839851487 0.847 2.01753515855e-38
0.0298533040729 -0.0927023652789 0.849 6.0647300705e-39
0.0314985577658 -0.0929207454091 0.851 1.36982025614e-38
0.0330734856541 -0.0929207454091 0.851 1.19526050644e-38
0.0346484135424 -0.0929207454091 0.851 2.16425152816e-38
0.0362233414307 -0.0929207454091 0.851 2.34961374759e-38
-0.0158788264178 -0.0920971932231 0.858 1.14981415517e-38
-0.0142576315527 -0.091882514451 0.856 1.11315100253e-38
-0.012643839404 -0.0916678356789 0.854 1.04782344904e-38
-0.011024495218 -0.0913458175208 0.851 1.14012767953e-38
-0.0094273591809 -0.0911311387487 0.849 1.08459225957e-38
-0.00785613265075 -0.0911311387487 0.849 8.99987862348e-39
-0.00627010068805 -0.0909164599767 0.847 1.02855755697e-38
-0.00470257551603 -0.0909164599767 0.847 1.0377416671e-38
-0.00312764762774 -0.0907017812046 0.845 1.0469246562e-38
-0.00156382381387 -0.0907017812046 0.845 1.11121202585e-38
0.0 -0.0907017812046 0.845 1.24053800125e-38
0.00156382381387 -0.0907017812046 0.845 1.2783510594e-38
0.00312764762774 -0.0907017812046 0.845 9.91930978228e-39
0.00469147144162 -0.0907017812046 0.845 1.12957660274e-38
0.00625529525549 -0.0907017812046 0.845 1.12957660274e-38
0.00780061227866 -0.0904871024325 0.843 1.1112099239e-38
0.0093607347344 -0.0904871024325 0.843 1.12039333339e-38
0.0109208571901 -0.0904871024325 0.843 1.15716312483e-38
0.0124809796459 -0.0904871024325 0.843 1.13883189884e-38
0.0140411021016 -0.0904871024325 0.843 1.54452938426e-38
0.0156012245573 -0.0904871024325 0.843 1.11182117029e-38
0.0171613470131 -0.0904871024325 0.843 1.0469246562e-38
0.0187214694688 -0.0904871024325 0.843 1.1761783246e-38
0.0202815919245 -0.0904871024325 0.843 2.10040178402e-38
0.0218935333942 -0.0907017812046 0.845 1.91612066635e-38
0.0234573572081 -0.0907017812046 0.845 1.9529266113e-38
0.025021181022 -0.0907017812046 0.845 1.87020179724e-38
0.0266479279242 -0.0909164599767 0.847 1.93455726999e-38
0.0282820775427 -0.0911311387487 0.849 1.99902386571e-38
0.0299236298775 -0.0913458175208 0.851 2.13738919712e-38
0.0314985577658 -0.0913458175208 0.851 1.34450678029e-38
0.0330734856541 -0.0913458175208 0.851 1.02102417643e-38
0.0346484135424 -0.0913458175208 0.851 2.11837077436e-38
-0.0159528535806 -0.0909312654092 0.862 1.13137208647e-38
-0.014290943776 -0.0905093105813 0.858 9.6545820816e-39
-0.012643839404 -0.0900873557534 0.854 1.16731553221e-38
-0.0110633594785 -0.0900873557534 0.854 1.05715567642e-38
-0.00944956732974 -0.0897708896325 0.851 1.13047749753e-38
-0.00785613265075 -0.0895599122186 0.849 1.13984083373e-38
-0.0062849061206 -0.0895599122186 0.849 1.22295787124e-38
-0.00470257551603 -0.0893489348046 0.847 8.5410598751e-39
-0.00313505034402 -0.0893489348046 0.847 1.02855755697e-38
-0.00156382381387 -0.0891379573907 0.845 1.05610820582e-38
0.0 -0.0891379573907 0.845 1.01937400735e-38
0.00156382381387 -0.0891379573907 0.845 1.03774180723e-38
0.00312764762774 -0.0891379573907 0.845 1.13876015236e-38
0.00469147144162 -0.0891379573907 0.845 1.12042892637e-38
0.00625529525549 -0.0891379573907 0.845 1.13876015236e-38
0.00781911906936 -0.0891379573907 0.845 1.15712781211e-38
0.00938294288323 -0.0891379573907 0.845 1.12961359702e-38
0.0109467666971 -0.0891379573907 0.845 1.18478580042e-38
0.012510590511 -0.0891379573907 0.845 1.14794622431e-38
0.0140744143248 -0.0891379573907 0.845 1.20308087291e-38
0.0156382381387 -0.0891379573907 0.845 1.24914393564e-38
0.0172020619526 -0.0891379573907 0.845 1.13876043262e-38
0.0187658857665 -0.0891379573907 0.845 1.11156949709e-38
0.0203297095803 -0.0891379573907 0.845 2.10969393427e-38
0.0218935333942 -0.0891379573907 0.845 1.88864176399e-38
0.0234573572081 -0.0891379573907 0.845 1.91601276637e-38
0.0250804027522 -0.0893489348046 0.847 1.92544911023e-38
0.0266479279242 -0.0893489348046 0.847 1.95299821765e-38
0.0283487019892 -0.0897708896325 0.851 2.03583149221e-38
0.0299236298775 -0.0897708896325 0.851 2.06356080662e-38
0.0314985577658 -0.0897708896325 0.851 1.43580263641e-38
0.0330734856541 -0.0897708896325 0.851 9.02366286232e-39
0.034770558361 -0.0900873557534 0.854 1.93483696916e-38
0.0363510382865 -0.0900873557534 0.854 2.34986570106e-38
-0.0159528535806 -0.0893359800512 0.862 1.3057188388e-38
-0.0143242559993 -0.0891287039954 0.86 1.20513181334e-38
-0.0127030611342 -0.0889214279396 0.858 1.00229918557e-38
-0.0110633594785 -0.0885068758279 0.854 1.06626383618e-38
-0.00948287955299 -0.0885068758279 0.854 1.23221246669e-38
-0.00787463944145 -0.0881959617442 0.851 1.28760593511e-38
-0.00629971155316 -0.0881959617442 0.851 9.73886738163e-39
-0.00471367959045 -0.0879886856884 0.849 1.0753023514e-38
-0.0031424530603 -0.0879886856884 0.849 1.01019227943e-38
-0.00157122653015 -0.0879886856884 0.849 1.46141248689e-38
0.0 -0.0877814096326 0.847 9.832877693e-39
0.00156752517201 -0.0877814096326 0.847 1.12990226451e-38
0.00313505034402 -0.0877814096326 0.847 1.06529287647e-38
0.00469147144162 -0.0875741335768 0.845 1.13876099314e-38
0.00625529525549 -0.0875741335768 0.845 1.09284240428e-38
0.00781911906936 -0.0875741335768 0.845 1.15712753185e-38
0.00938294288323 -0.0875741335768 0.845 1.13883316001e-38
0.0109467666971 -0.0875741335768 0.845 1.13876015236e-38
0.012510590511 -0.0875741335768 0.845 1.18467916161e-38
0.0140744143248 -0.0875741335768 0.845 1.16631108147e-38
0.0156382381387 -0.0875741335768 0.845 1.23059634917e-38
0.0172020619526 -0.0875741335768 0.845 1.12957660274e-38
0.0187658857665 -0.0875741335768 0.845 1.14826754205e-38
0.0203297095803 -0.0875741335768 0.845 2.12806271506e-38
0.0218935333942 -0.0875741335768 0.845 1.87920640104e-38
0.0235128775802 -0.0877814096326 0.847 1.87920513987e-38
0.0250804027522 -0.0877814096326 0.847 1.96225323349e-38
0.0267737741009 -0.0881959617442 0.851 1.94377893492e-38
0.028448638659 -0.0885068758279 0.854 2.03586666481e-38
0.0300291185845 -0.0885068758279 0.854 1.46443368638e-38
0.0314985577658 -0.0881959617442 0.851 2.06333309561e-38
0.0330734856541 -0.0881959617442 0.851 9.94158342137e-39
0.034770558361 -0.0885068758279 0.854 2.14641748286e-38
0.0363510382865 -0.0885068758279 0.854 2.3498654208e-38
-0.0159528535806 -0.0877406946931 0.862 1.19537148928e-38
-0.0143242559993 -0.0875371199954 0.86 1.1586766673e-38
-0.0127030611342 -0.0873335452978 0.858 1.22346107752e-38
-0.0111151784924 -0.0873335452978 0.858 9.00419602405e-39
-0.00950508770183 -0.0871299706001 0.856 1.18622605498e-38
-0.0079023996275 -0.0869263959024 0.854 1.04796792291e-38
-0.006321919702 -0.0869263959024 0.854 1.14912751892e-38
-0.00472478366487 -0.086621033856 0.851 1.3705078733e-38
-0.0031424530603 -0.0864174591583 0.849 1.1862238129e-38
-0.00157122653015 -0.0864174591583 0.849 1.15823932205e-38
0.0 -0.0862138844606 0.847 1.09363231622e-38
0.00156752517201 -0.0862138844606 0.847 1.13965782416e-38
0.00313505034402 -0.0862138844606 0.847 1.23196205465e-38
0.00470257551603 -0.0862138844606 0.847 1.08366025596e-38
0.00627010068805 -0.0862138844606 0.847 1.13876057275e-38
0.00783762586006 -0.0862138844606 0.847 1.13876015236e-38
0.00940515103207 -0.0862138844606 0.847 1.16631080121e-38
0.0109726762041 -0.0862138844606 0.847 1.17549463108e-38
0.0125402013761 -0.0862138844606 0.847 1.18475146861e-38
0.0141077265481 -0.0862138844606 0.847 1.16631080121e-38
0.0156752517201 -0.0862138844606 0.847 1.20304570032e-38
0.0172427768921 -0.0862138844606 0.847 1.08365885466e-38
0.0188103020641 -0.0862138844606 0.847 1.19450955059e-38
0.0203778272361 -0.0862138844606 0.847 2.16497585934e-38
0.0219971714221 -0.0864174591583 0.849 1.87920640104e-38
0.0235683979523 -0.0864174591583 0.849 1.94370858974e-38
0.0251396244824 -0.0864174591583 0.849 1.95296192402e-38
0.0267737741009 -0.086621033856 0.851 1.94370704831e-38
0.028448638659 -0.0869263959024 0.854 2.08185545872e-38
0.0300291185845 -0.0869263959024 0.854 1.85158148337e-38
0.0314985577658 -0.086621033856 0.851 1.80530374172e-38
0.0330734856541 -0.086621033856 0.851 1.45485286864e-38
-0.0159528535806 -0.086145409335 0.862 1.20469797134e-38
-0.0143575682225 -0.086145409335 0.862 1.07552291578e-38
-0.0127326719993 -0.0859455359955 0.86 1.16785699393e-38
-0.0111151784924 -0.085745662656 0.858 9.19036553153e-39
-0.00952729585067 -0.085745662656 0.858 1.20434666581e-38
-0.00792090641819 -0.0855457893165 0.856 9.46660069521e-39
-0.006321919702 -0.0853459159769 0.854 1.34299169639e-38
-0.0047414397765 -0.0853459159769 0.854 1.05683379816e-38
-0.00314985577658 -0.0850461059677 0.851 1.14880704196e-38
-0.00157122653015 -0.0848462326281 0.849 1.02855783723e-38
0.0 -0.0848462326281 0.849 1.43479145944e-38
0.00156752517201 -0.0846463592886 0.847 1.26026996519e-38
0.00313505034402 -0.0846463592886 0.847 1.17693236331e-38
0.00471367959045 -0.0848462326281 0.849 1.06529371725e-38
0.0062849061206 -0.0848462326281 0.849 1.13876015236e-38
0.00785613265075 -0.0848462326281 0.849 1.09284240428e-38
0.0094273591809 -0.0848462326281 0.849 1.17549435082e-38
0.0109985857111 -0.0848462326281 0.849 1.14801544846e-38
0.0125698122412 -0.0848462326281 0.849 1.17549463108e-38
0.0141410387714 -0.0848462326281 0.849 1.19393375705e-38
0.0156752517201 -0.0846463592886 0.847 1.17549477121e-38
0.0172427768921 -0.0846463592886 0.847 1.12039347352e-38
0.0188547183618 -0.0848462326281 0.849 1.14841173566e-38
0.020425944892 -0.0848462326281 0.849 2.14657218621e-38
0.0220489904361 -0.0850461059677 0.851 1.85158372545e-38
0.0236239183244 -0.0850461059677 0.851 1.9067576104e-38
0.0251988462126 -0.0850461059677 0.851 1.93438028599e-38
0.0268681587335 -0.0853459159769 0.854 1.97125811755e-38
0.028448638659 -0.0853459159769 0.854 2.11880629792e-38
0.0300291185845 -0.0853459159769 0.854 2.03561373043e-38
0.03160959851 -0.0853459159769 0.854 1.75768299561e-38
0.0331900784355 -0.0853459159769 0.854 1.32508576449e-38
-0.0175888538782 -0.0847462959584 0.864 6.7075785436e-39
-0.0159528535806 -0.084550123977 0.862 1.38951732775e-38
-0.0143575682225 -0.084550123977 0.862 8.73156920392e-39
-0.0127622828645 -0.084550123977 0.862 1.08427332404e-38
-0.0111410879994 -0.0843539519956 0.86 1.0016199762e-38
-0.0095495039995 -0.0843539519956 0.86 1.13065882555e-38
-0.00793941320889 -0.0841577800142 0.858 1.12175945926e-38
-0.006321919702 -0.0837654360515 0.854 1.06572559744e-38
-0.0047414397765 -0.0837654360515 0.854 9.36722200941e-39
-0.00314985577658 -0.0834711780794 0.851 1.29563831804e-38
-0.00157492788829 -0.0834711780794 0.851 9.73456259275e-39
0.0 -0.083275006098 0.849 1.4617684167e-38
0.00157122653015 -0.083275006098 0.849 1.23242952782e-38
0.0031424530603 -0.083275006098 0.849 9.09350778168e-39
0.00471367959045 -0.083275006098 0.849 1.12957870469e-38
0.0062849061206 -0.083275006098 0.849 1.12039333339e-38
0.00785613265075 -0.083275006098 0.849 1.11121006403e-38
0.00944956732974 -0.0834711780794 0.851 1.15712725159e-38
0.011024495218 -0.0834711780794 0.851 1.18471419407e-38
0.0125994231063 -0.0834711780794 0.851 1.16634667445e-38
0.0141743509946 -0.0834711780794 0.851 1.16638296808e-38
0.0157122653015 -0.083275006098 0.849 1.16631234263e-38
0.0172834918317 -0.083275006098 0.849 1.12957772378e-38
0.0188547183618 -0.083275006098 0.849 1.12068087983e-38
0.020425944892 -0.083275006098 0.849 2.1281680927e-38
0.0220489904361 -0.0834711780794 0.851 1.87016704503e-38
0.0236239183244 -0.0834711780794 0.851 1.93452377896e-38
0.0251988462126 -0.0834711780794 0.851 1.97133210611e-38
0.0268681587335 -0.0837654360515 0.854 1.94367145533e-38
0.028448638659 -0.0837654360515 0.854 2.06366828621e-38
0.0300291185845 -0.0837654360515 0.854 1.38966334305e-38
0.03160959851 -0.0837654360515 0.854 2.02361230973e-38
0.0331900784355 -0.0837654360515 0.854 1.48127981625e-38
-0.015989867162 -0.0831473092422 0.864 1.27866999493e-38
-0.0143908804458 -0.0831473092422 0.864 1.08563482563e-38
-0.0127622828645 -0.0829548386189 0.862 9.5563006125e-39
-0.0111410879994 -0.0827623679957 0.86 1.03817424794e-38
-0.0095495039995 -0.0827623679957 0.86 1.06579720379e-38
-0.00793941320889 -0.0825698973724 0.858 1.24176147494e-38
-0.006321919702 -0.082184956126 0.854 1.15835030489e-38
-0.0047414397765 -0.082184956126 0.854 9.46264342834e-39
-0.003160959851 -0.082184956126 0.854 1.45240550088e-38
-0.00157492788829 -0.0818962501911 0.851 1.25944179779e-38
0.0 -0.0818962501911 0.851 9.92365100493e-39
0.00157492788829 -0.0818962501911 0.851 1.24093176612e-38
0.00314985577658 -0.0818962501911 0.851 1.06561573564e-38
0.00472478366487 -0.0818962501911 0.851 1.13876071288e-38
0.00629971155316 -0.0818962501911 0.851 1.15719997898e-38
0.00787463944145 -0.0818962501911 0.851 1.08369781076e-38
0.00944956732974 -0.0818962501911 0.851 1.18475076796e-38
0.011024495218 -0.0818962501911 0.851 1.1754965929e-38
0.0125994231063 -0.0818962501911 0.851 1.17549463108e-38
0.0141743509946 -0.0818962501911 0.851 1.16638296808e-38
0.0157492788829 -0.0818962501911 0.851 1.18475146861e-38
0.0173242067712 -0.0818962501911 0.851 1.15712725159e-38
0.0188991346595 -0.0818962501911 0.851 1.08383850113e-38
0.0204740625478 -0.0818962501911 0.851 2.16493928545e-38
0.0220489904361 -0.0818962501911 0.851 1.87920640104e-38
0.0236239183244 -0.0818962501911 0.851 1.89771783401e-38
0.0251988462126 -0.0818962501911 0.851 1.94377865466e-38
0.0268681587335 -0.082184956126 0.854 1.9529266113e-38
0.028448638659 -0.082184956126 0.854 2.0451219609e-38
0.0300291185845 -0.082184956126 0.854 1.2875983681e-38
0.03160959851 -0.082184956126 0.854 2.10673130905e-38
-0.0175888538782 -0.081548322526 0.864 1.03031912927e-38
-0.015989867162 -0.081548322526 0.864 1.13983634958e-38
-0.0143908804458 -0.081548322526 0.864 1.21399390509e-38
-0.0127622828645 -0.0813595532609 0.862 1.28821507955e-38
-0.0111669975064 -0.0813595532609 0.862 8.1755115525e-39
-0.0095495039995 -0.0811707839958 0.86 1.02855839775e-38
-0.00795791999959 -0.0811707839958 0.86 1.01019045774e-38
-0.00633672513455 -0.0807932454656 0.856 1.01019157878e-38
-0.0047414397765 -0.0806044762005 0.854 1.24121721062e-38
-0.003160959851 -0.0806044762005 0.854 1.37965316747e-38
-0.0015804799255 -0.0806044762005 0.854 1.18622227148e-38
0.0 -0.0806044762005 0.854 1.01083617607e-38
0.00157492788829 -0.0803213223028 0.851 1.1483767032e-38
0.00314985577658 -0.0803213223028 0.851 1.05661043119e-38
0.00472478366487 -0.0803213223028 0.851 1.13876015236e-38
0.006321919702 -0.0806044762005 0.854 1.12957660274e-38
0.0079023996275 -0.0806044762005 0.854 1.12957660274e-38
0.00948287955299 -0.0806044762005 0.854 1.13876015236e-38
0.0110633594785 -0.0806044762005 0.854 1.17549435082e-38
0.012643839404 -0.0806044762005 0.854 1.13876015236e-38
0.0142243193295 -0.0806044762005 0.854 1.23077641602e-38
0.015804799255 -0.0806044762005 0.854 1.17549463108e-38
0.0173852791805 -0.0806044762005 0.854 1.12039361365e-38
0.018965759106 -0.0806044762005 0.854 1.07458334516e-38
0.0205462390315 -0.0806044762005 0.854 2.15568384922e-38
0.022126718957 -0.0806044762005 0.854 1.87006012596e-38
0.0237071988825 -0.0806044762005 0.854 1.96229008764e-38
0.0254061222684 -0.0809820147307 0.858 1.91615569882e-38
0.0269940049102 -0.0809820147307 0.858 2.05430621117e-38
0.028581887552 -0.0809820147307 0.858 1.95292633104e-38
0.0302400959984 -0.0811707839958 0.86 1.56407371433e-38
0.0318316799983 -0.0811707839958 0.86 2.1629892385e-38
-0.017690641227 -0.0804120055772 0.869 9.47486275095e-39
-0.0160824011154 -0.0804120055772 0.869 1.35202754915e-38
-0.0144741610039 -0.0804120055772 0.869 1.06676774311e-38
-0.0128659208924 -0.0804120055772 0.869 1.17675509905e-38
-0.0111929070134 -0.0799493358098 0.864 1.21399264392e-38
-0.00959392029717 -0.0799493358098 0.864 1.01037318706e-38
-0.00797642679028 -0.0797642679028 0.862 1.05614421919e-38
-0.00638114143223 -0.0797642679028 0.862 1.02855755697e-38
-0.00477475199975 -0.0795791999959 0.86 1.0469246562e-38
-0.00316836256728 -0.0792090641819 0.856 1.06529175543e-38
-0.00158418128364 -0.0792090641819 0.856 1.03774194736e-38
0.0 -0.079023996275 0.854 1.31429170255e-38
0.0015804799255 -0.079023996275 0.854 1.40706046348e-38
0.00314985577658 -0.0787463944145 0.851 1.10281810792e-38
0.00472478366487 -0.0787463944145 0.851 1.13876029249e-38
0.00633672513455 -0.0792090641819 0.856 1.12957660274e-38
0.0079023996275 -0.079023996275 0.854 1.1480513217e-38
0.00948287955299 -0.079023996275 0.854 1.16631080121e-38
0.0110633594785 -0.079023996275 0.854 1.18474964692e-38
0.012643839404 -0.079023996275 0.854 1.18467846096e-38
0.0142243193295 -0.079023996275 0.854 1.2031550016e-38
0.015804799255 -0.079023996275 0.854 1.15716340509e-38
0.0173852791805 -0.079023996275 0.854 1.13876071288e-38
0.018965759106 -0.079023996275 0.854 1.07461893814e-38
0.0205943566873 -0.0792090641819 0.856 2.22018421623e-38
0.0221785379709 -0.0792090641819 0.856 1.8884619774e-38
0.0237627192546 -0.0792090641819 0.856 1.90697270972e-38
0.0254653439987 -0.0795791999959 0.86 1.93448748533e-38
0.0270569279986 -0.0795791999959 0.86 2.01735537196e-38
0.0286485119985 -0.0795791999959 0.86 1.99884393899e-38
0.0302400959984 -0.0795791999959 0.86 1.62854577512e-38
0.0318316799983 -0.0795791999959 0.86 1.90476440347e-38
-0.0177313561665 -0.0789851320145 0.871 9.66032320141e-39
-0.0161194146968 -0.0789851320145 0.871 1.13051238986e-38
-0.0144741610039 -0.0788037654657 0.869 1.16778510732e-38
-0.0128659208924 -0.0788037654657 0.869 1.13065602295e-38
-0.0112576807808 -0.0788037654657 0.869 1.39805894253e-38
-0.00959392029717 -0.0783503490936 0.864 8.45639902708e-39
-0.00797642679028 -0.0781689825448 0.862 1.05611100841e-38
-0.00638114143223 -0.0781689825448 0.862 1.05610834595e-38
-0.00478585607417 -0.0781689825448 0.862 1.08365885466e-38
-0.00319057071611 -0.0781689825448 0.862 1.08365885466e-38
-0.00159158399992 -0.0779876159959 0.86 1.12039305313e-38
0.0 -0.0779876159959 0.86 1.07447530505e-38
0.00159158399992 -0.0779876159959 0.86 1.09284240428e-38
0.00317576528356 -0.0778062494471 0.858 1.09284240428e-38
0.00476364792533 -0.0778062494471 0.858 1.1387960256e-38
0.00635153056711 -0.0778062494471 0.858 1.1020259539e-38
0.00793941320889 -0.0778062494471 0.858 1.1480513217e-38
0.00950508770183 -0.0776248828983 0.856 1.13876015236e-38
0.0110892689855 -0.0776248828983 0.856 1.17553022406e-38
0.0126734502691 -0.0776248828983 0.856 1.18478608068e-38
0.0142576315527 -0.0776248828983 0.856 1.22148496642e-38
0.0158418128364 -0.0776248828983 0.856 1.19404109652e-38
0.01742599412 -0.0776248828983 0.856 1.15716312483e-38
0.0190101754037 -0.0776248828983 0.856 9.45905610427e-39
0.0206424743431 -0.0778062494471 0.858 2.20174509026e-38
0.0222303569849 -0.0778062494471 0.858 1.88838995065e-38
0.0238737599988 -0.0779876159959 0.86 1.93445189234e-38
0.0255245657289 -0.0781689825448 0.862 1.98980458298e-38
0.027119851087 -0.0781689825448 0.862 2.01749984583e-38
0.028715136445 -0.0781689825448 0.862 1.67586678348e-38
0.0303807476077 -0.0783503490936 0.864 1.83101140282e-38
0.0321648022309 -0.0788037654657 0.869 2.03370151855e-38
-0.0195431709757 -0.0781726839029 0.88 2.34968871706e-38
-0.0178127860456 -0.0777285209262 0.875 1.02134997832e-38
-0.0161934418596 -0.0777285209262 0.875 1.26905358422e-38
-0.0145074732272 -0.0773731905448 0.871 1.13094146745e-38
-0.0128955317575 -0.0773731905448 0.871 1.03824459312e-38
-0.0112835902878 -0.0773731905448 0.871 9.92040419638e-39
-0.00964944066926 -0.0771955253541 0.869 1.37111701774e-38
-0.00799493358098 -0.0767513623774 0.864 1.16786329978e-38
-0.00639594686478 -0.0767513623774 0.864 9.36722901591e-39
-0.00478585607417 -0.0765736971867 0.862 1.019374708e-38
-0.00319057071611 -0.0765736971867 0.862 1.08366011583e-38
-0.00159528535806 -0.0765736971867 0.862 1.09284240428e-38
0.0 -0.0765736971867 0.862 1.07447530505e-38
0.00159158399992 -0.076396031996 0.86 1.09284240428e-38
0.00318316799983 -0.076396031996 0.86 1.11120950351e-38
0.00477475199975 -0.076396031996 0.86 1.12039305313e-38
0.00636633599967 -0.076396031996 0.86 1.1112099239e-38
0.00793941320889 -0.0762183668053 0.858 1.15723501144e-38
0.00952729585067 -0.0762183668053 0.858 1.12961359702e-38
0.0110892689855 -0.0760407016146 0.856 1.17549435082e-38
0.0126734502691 -0.0760407016146 0.856 1.16631080121e-38
0.014290943776 -0.0762183668053 0.858 1.20304570032e-38
0.0158788264178 -0.0762183668053 0.858 1.21222854929e-38
0.0174667090596 -0.0762183668053 0.858 1.1938621507e-38
0.0190545917013 -0.0762183668053 0.858 9.73456259275e-39
0.0206905919989 -0.076396031996 0.86 2.14642771234e-38
0.0222821759988 -0.076396031996 0.86 1.88835435767e-38
0.0239292803708 -0.0765736971867 0.862 1.92526764208e-38
0.0255837874591 -0.0767513623774 0.864 1.9990228848e-38
0.027119851087 -0.0765736971867 0.862 1.92530239428e-38
0.028715136445 -0.0765736971867 0.862 1.81416050853e-38
0.0304862363147 -0.0770178601634 0.867 1.86839159988e-38
0.0321648022309 -0.0771955253541 0.869 2.14508414737e-38
0.0338507708634 -0.0773731905448 0.871 1.45430440043e-38
-0.021171768557 -0.0765440863216 0.88 2.34900432289e-38
-0.0195431709757 -0.0765440863216 0.88 2.34950935086e-38
-0.0179145733944 -0.0765440863216 0.88 1.01209300066e-38
-0.0161934418596 -0.0761091767402 0.875 1.26844205757e-38
-0.0145740976737 -0.0761091767402 0.875 1.08503114625e-38
-0.0129251426226 -0.0759352129077 0.873 1.02888041614e-38
-0.0112835902878 -0.0757612490751 0.871 1.04706941033e-38
-0.00964944066926 -0.0755872852426 0.869 1.02855755697e-38
-0.00802269376702 -0.07541332141 0.867 1.08366081648e-38
-0.00639594686478 -0.0751523756612 0.864 1.43529102234e-38
-0.00479696014859 -0.0751523756612 0.864 1.33431331487e-38
-0.00319797343239 -0.0751523756612 0.864 1.03885317705e-38
-0.00159528535806 -0.0749784118287 0.862 1.02855867801e-38
0.0 -0.0749784118287 0.862 1.09284240428e-38
0.00159528535806 -0.0749784118287 0.862 1.11124537675e-38
0.00319057071611 -0.0749784118287 0.862 1.12039305313e-38
0.00477475199975 -0.0748044479961 0.86 1.13876057275e-38
0.00636633599967 -0.0748044479961 0.86 1.13876071288e-38
0.00795791999959 -0.0748044479961 0.86 1.13876015236e-38
0.0095495039995 -0.0748044479961 0.86 1.12039305313e-38
0.0111151784924 -0.0746304841636 0.858 1.24003031082e-38
0.0127030611342 -0.0746304841636 0.858 1.18467790044e-38
0.014290943776 -0.0746304841636 0.858 1.18467790044e-38
0.0158788264178 -0.0746304841636 0.858 1.23063152176e-38
0.0175074239991 -0.0748044479961 0.86 1.15712725159e-38
0.019099007999 -0.0748044479961 0.86 9.91823358506e-39
0.0207387096547 -0.0749784118287 0.862 2.20156488328e-38
0.0223339950128 -0.0749784118287 0.862 1.89761091494e-38
0.0239848007429 -0.0751523756612 0.864 1.95292689156e-38
0.0255837874591 -0.0751523756612 0.864 2.04508636792e-38
0.0272771588079 -0.07541332141 0.867 2.06348892e-38
0.0288816975613 -0.07541332141 0.867 1.25137802578e-38
0.0305565621193 -0.0755872852426 0.869 2.00668952883e-38
0.0321648022309 -0.0755872852426 0.869 1.50926248542e-38
0.0338507708634 -0.0757612490751 0.871 1.55547548708e-38
0.035462712333 -0.0757612490751 0.871 2.16517512398e-38
-0.021171768557 -0.0749154887403 0.88 2.34900516367e-38
-0.0195431709757 -0.0749154887403 0.88 2.34954480371e-38
-0.0179145733944 -0.0749154887403 0.88 1.19662929478e-38
-0.0162489622317 -0.0747452262659 0.878 1.29581432112e-38
-0.0146240660085 -0.0747452262659 0.878 1.09474887084e-38
-0.0129547534877 -0.0744898325543 0.875 1.14001879864e-38
-0.0113094997948 -0.0743195700798 0.873 9.64274391217e-39
-0.00964944066926 -0.073979045131 0.869 1.11128237103e-38
-0.00802269376702 -0.0738087826566 0.867 1.02859441112e-38
-0.00641815501362 -0.0738087826566 0.867 9.64272709659e-39
-0.00481361626021 -0.0738087826566 0.867 1.04692577724e-38
-0.00319797343239 -0.073553388945 0.864 1.3514226086e-38
-0.0015989867162 -0.073553388945 0.864 9.82962668057e-39
0.0 -0.073553388945 0.864 1.10209812077e-38
0.00159528535806 -0.0733831264706 0.862 1.092950024e-38
0.00319057071611 -0.0733831264706 0.862 1.12039305313e-38
0.00477475199975 -0.0732128639962 0.86 1.14794370197e-38
0.00636633599967 -0.0732128639962 0.86 1.12039333339e-38
0.00795791999959 -0.0732128639962 0.86 1.12968422247e-38
0.0095495039995 -0.0732128639962 0.86 1.18474964692e-38
0.0111410879994 -0.0732128639962 0.86 1.16631080121e-38
0.0127326719993 -0.0732128639962 0.86 1.16641842093e-38
0.0143242559993 -0.0732128639962 0.86 1.20315261939e-38
0.0159158399992 -0.0732128639962 0.86 1.23063152176e-38
0.0175074239991 -0.0732128639962 0.86 1.18467790044e-38
0.019099007999 -0.0732128639962 0.86 9.91823358506e-39
0.0207387096547 -0.0733831264706 0.862 2.22926112704e-38
0.0223858140267 -0.073553388945 0.864 1.89775314673e-38
0.0239848007429 -0.073553388945 0.864 1.97133014429e-38
0.0256726200545 -0.0738087826566 0.867 1.98058473974e-38
0.0272771588079 -0.0738087826566 0.867 1.65771436317e-38
0.0289483220078 -0.073979045131 0.869 1.52748441013e-38
0.0305565621193 -0.073979045131 0.869 1.94240145853e-38
0.0321648022309 -0.073979045131 0.869 1.79517781888e-38
0.0338507708634 -0.0741493076054 0.871 1.27982214253e-38
0.035462712333 -0.0741493076054 0.871 2.08258931872e-38
-0.021171768557 -0.073286891159 0.88 2.34893215602e-38
-0.0195431709757 -0.073286891159 0.88 2.3498316495e-38
-0.0179145733944 -0.073286891159 0.88 1.26116595543e-38
-0.0162489622317 -0.0731203300427 0.878 1.27712408247e-38
-0.0146240660085 -0.0731203300427 0.878 1.04850658204e-38
-0.0129547534877 -0.0728704883683 0.875 1.25990969135e-38
-0.0113354093017 -0.0728704883683 0.875 1.16753483542e-38
-0.00964944066926 -0.0723708050195 0.869 9.73529407055e-39
-0.00804120055772 -0.0723708050195 0.869 1.04696249126e-38
-0.00643296044618 -0.0723708050195 0.869 1.02859343021e-38
-0.00481361626021 -0.0722042439032 0.867 1.05610820582e-38
-0.00320907750681 -0.0722042439032 0.867 1.07447530505e-38
-0.0016045387534 -0.0722042439032 0.867 1.08365885466e-38
0.0 -0.0719544022288 0.864 1.09284240428e-38
0.00159528535806 -0.0717878411125 0.862 1.12039305313e-38
0.00319057071611 -0.0717878411125 0.862 1.1112099239e-38
0.00478585607417 -0.0717878411125 0.862 1.15712725159e-38
0.00638114143223 -0.0717878411125 0.862 1.1020259539e-38
0.00797642679028 -0.0717878411125 0.862 1.13876015236e-38
0.0095495039995 -0.0716212799963 0.86 1.14794370197e-38
0.0111410879994 -0.0716212799963 0.86 1.12039305313e-38
0.0127622828645 -0.0717878411125 0.862 1.17553022406e-38
0.0143242559993 -0.0716212799963 0.86 1.22155559186e-38
0.0159158399992 -0.0716212799963 0.86 1.23981507137e-38
0.0175888538782 -0.0719544022288 0.864 1.15712767198e-38
0.0191878405943 -0.0719544022288 0.864 9.91823358506e-39
0.0207868273105 -0.0719544022288 0.864 2.14646456649e-38
0.0224635425477 -0.0722042439032 0.867 1.89771657284e-38
0.0240680813011 -0.0722042439032 0.867 1.980512713e-38
0.0257318417847 -0.0723708050195 0.869 1.89746447925e-38
0.0273400818963 -0.0723708050195 0.869 1.72159956016e-38
0.0289483220078 -0.0723708050195 0.869 2.11761197124e-38
0.030626887924 -0.0725373661358 0.871 2.22875287608e-38
0.0322388293937 -0.0725373661358 0.871 2.27499362346e-38
0.0341228206866 -0.0731203300427 0.878 1.14149338501e-38
0.0357477169098 -0.0731203300427 0.878 2.19308590653e-38
-0.0195431709757 -0.0716582935777 0.88 2.34958109734e-38
-0.0179145733944 -0.0716582935777 0.88 1.34406915478e-38
-0.0162859758131 -0.0716582935777 0.88 1.17588965712e-38
-0.0146240660085 -0.0714954338195 0.878 1.18622605498e-38
-0.0129991697854 -0.0714954338195 0.878 1.18690750642e-38
-0.0113354093017 -0.0712511441823 0.875 1.02070369947e-38
-0.0096716488181 -0.0709254246661 0.871 1.3616492848e-38
-0.00804120055772 -0.0707625649079 0.869 8.26806451347e-39
-0.00643296044618 -0.0707625649079 0.869 1.02859343021e-38
-0.00482472033463 -0.0707625649079 0.869 1.07447530505e-38
-0.00320907750681 -0.0705997051498 0.867 1.11120964364e-38
-0.0016045387534 -0.0705997051498 0.867 1.09284240428e-38
0.0 -0.0705997051498 0.867 1.08365885466e-38
0.0015989867162 -0.0703554155126 0.864 1.09284240428e-38
0.00319797343239 -0.0703554155126 0.864 1.1020259539e-38
0.00479696014859 -0.0703554155126 0.864 1.13876015236e-38
0.00639594686478 -0.0703554155126 0.864 1.17549435082e-38
0.00799493358098 -0.0703554155126 0.864 1.12957660274e-38
0.00959392029717 -0.0703554155126 0.864 1.18478580042e-38
0.0111929070134 -0.0703554155126 0.864 1.12039417417e-38
0.0127918937296 -0.0703554155126 0.864 1.22144853266e-38
0.0144408487806 -0.0705997051498 0.867 1.17549477121e-38
0.016045387534 -0.0705997051498 0.867 1.20315374043e-38
0.0176499262875 -0.0705997051498 0.867 1.18467874122e-38
0.0192544650409 -0.0705997051498 0.867 1.00100690812e-38
0.0208590037943 -0.0705997051498 0.867 2.13710080989e-38
0.0225153615616 -0.0707625649079 0.869 1.91612038609e-38
0.0241236016732 -0.0707625649079 0.869 1.96218316856e-38
0.0257318417847 -0.0707625649079 0.869 1.43601969754e-38
0.0274030049846 -0.0709254246661 0.871 1.74882987218e-38
0.0290149464543 -0.0709254246661 0.871 2.18229226498e-38
0.0306972137286 -0.0710882844242 0.873 2.00758958283e-38
0.0323868837192 -0.0712511441823 0.875 2.06272493208e-38
0.0341228206866 -0.0714954338195 0.878 1.22418036402e-38
0.0357477169098 -0.0714954338195 0.878 2.22964045853e-38
0.0373726131329 -0.0714954338195 0.878 2.34950542722e-38
-0.0195431709757 -0.0700296959964 0.88 2.34954396293e-38
-0.0179145733944 -0.0700296959964 0.88 1.44559252787e-38
-0.0162859758131 -0.0700296959964 0.88 1.00100690812e-38
-0.0146573782318 -0.0700296959964 0.88 1.15820414946e-38
-0.0129991697854 -0.0698705375964 0.878 1.22360597178e-38
-0.0113742735622 -0.0698705375964 0.878 1.10385885229e-38
-0.00969385696694 -0.0694726415964 0.873 1.07559326096e-38
-0.00805970734842 -0.0693134831964 0.871 1.18654330895e-38
-0.00644776587873 -0.0693134831964 0.871 9.64274531347e-39
-0.00482472033463 -0.0691543247964 0.869 1.07447586557e-38
-0.00321648022309 -0.0691543247964 0.869 1.1020259539e-38
-0.00160824011154 -0.0691543247964 0.869 1.0652930166e-38
0.0 -0.0691543247964 0.869 1.09284240428e-38
0.00160824011154 -0.0691543247964 0.869 1.11120950351e-38
0.00321648022309 -0.0691543247964 0.869 1.11120950351e-38
0.00481361626021 -0.0689951663964 0.867 1.12957660274e-38
0.00641815501362 -0.0689951663964 0.867 1.15712725159e-38
0.00802269376702 -0.0689951663964 0.867 1.10202637429e-38
0.00962723252043 -0.0689951663964 0.867 1.12957702313e-38
0.0112317712738 -0.0689951663964 0.867 1.18467790044e-38
0.0128363100272 -0.0689951663964 0.867 1.19386145005e-38
0.0144408487806 -0.0689951663964 0.867 1.21226498305e-38
0.016045387534 -0.0689951663964 0.867 1.18500103986e-38
0.0176499262875 -0.0689951663964 0.867 1.15712767198e-38
0.0192988813385 -0.0691543247964 0.869 9.91823358506e-39
0.0209071214501 -0.0691543247964 0.869 2.12788124691e-38
0.0225153615616 -0.0691543247964 0.869 1.90690110337e-38
0.0241791220453 -0.0693134831964 0.871 1.9344521726e-38
0.0257910635149 -0.0693134831964 0.871 1.70342177635e-38
0.027465928073 -0.0694726415964 0.873 1.90625244231e-38
0.0291481953473 -0.0696317999964 0.875 1.81398422518e-38
0.0308730282403 -0.0698705375964 0.878 1.54570815653e-38
0.0324979244634 -0.0698705375964 0.878 1.62868296224e-38
0.0341228206866 -0.0698705375964 0.878 1.1599612376e-38
0.0358291467888 -0.0700296959964 0.88 2.22060180317e-38
0.0374577443701 -0.0700296959964 0.88 2.34954228137e-38
-0.0179552883339 -0.0685565554569 0.882 1.66675638164e-38
-0.0163229893945 -0.0685565554569 0.882 1.07515689662e-38
-0.0146573782318 -0.068401098415 0.88 1.18557781431e-38
-0.0130287806505 -0.068401098415 0.88 1.09367463544e-38
-0.0113742735622 -0.0682456413732 0.878 1.34342371671e-38
-0.00971606511577 -0.0680124558104 0.875 1.00111775083e-38
-0.00807821413911 -0.0678569987686 0.873 1.39830907431e-38
-0.00644776587873 -0.0677015417267 0.871 9.65354652203e-39
-0.00483582440905 -0.0677015417267 0.871 1.06529385738e-38
-0.00322388293937 -0.0677015417267 0.871 1.11120950351e-38
-0.00160824011154 -0.0675460846849 0.869 1.04696052944e-38
0.0 -0.0675460846849 0.869 1.06539937515e-38
0.00161194146968 -0.0677015417267 0.871 1.09291457115e-38
0.00322388293937 -0.0677015417267 0.871 1.12039305313e-38
0.00482472033463 -0.0675460846849 0.869 1.15712725159e-38
0.00643296044618 -0.0675460846849 0.869 1.12039361365e-38
0.00804120055772 -0.0675460846849 0.869 1.12039501495e-38
0.00964944066926 -0.0675460846849 0.869 1.17549435082e-38
0.0112576807808 -0.0675460846849 0.869 1.19386159018e-38
0.0128659208924 -0.0675460846849 0.869 1.20304527993e-38
0.0144741610039 -0.0675460846849 0.869 1.16631206238e-38
0.0160824011154 -0.0675460846849 0.869 1.20322534678e-38
0.017690641227 -0.0675460846849 0.869 1.20304598058e-38
0.0192988813385 -0.0675460846849 0.869 1.01019045774e-38
0.0209071214501 -0.0675460846849 0.869 2.18337883181e-38
0.0225153615616 -0.0675460846849 0.869 1.88853358375e-38
0.0241791220453 -0.0677015417267 0.871 2.01746327194e-38
0.0258502852452 -0.0678569987686 0.873 2.08203580583e-38
0.0275288511614 -0.0680124558104 0.875 2.0083143344e-38
0.0291481953473 -0.0680124558104 0.875 2.11891377751e-38
0.0308730282403 -0.0682456413732 0.878 2.02642877952e-38
0.0324979244634 -0.0682456413732 0.878 2.25670079304e-38
0.0342005492075 -0.068401098415 0.88 8.4700686936e-39
0.0358291467888 -0.068401098415 0.88 2.23007205846e-38
0.0374577443701 -0.068401098415 0.88 2.34947039476e-38
-0.0180570756828 -0.0673036457267 0.887 1.74987664213e-38
-0.0163229893945 -0.0669242565174 0.882 1.06597516869e-38
-0.014690690455 -0.0669242565174 0.882 1.10263635951e-38
-0.0130287806505 -0.0667725008337 0.88 1.1672849839e-38
-0.0114001830692 -0.0667725008337 0.88 1.16753483542e-38
-0.00971606511577 -0.0663931116244 0.875 9.92005106917e-39
-0.00809672092981 -0.0663931116244 0.875 9.73456259275e-39
-0.00646257131129 -0.0662413559407 0.873 1.12064612763e-38
-0.00483582440905 -0.066089600257 0.871 1.05610820582e-38
-0.00322388293937 -0.066089600257 0.871 1.08365885466e-38
-0.00161194146968 -0.066089600257 0.871 1.05610820582e-38
0.0 -0.066089600257 0.871 1.08365885466e-38
0.00161194146968 -0.066089600257 0.871 1.12046479961e-38
0.00322388293937 -0.066089600257 0.871 1.11128124999e-38
0.00482472033463 -0.0659378445733 0.869 1.11120950351e-38
0.00643296044618 -0.0659378445733 0.869 1.13876071288e-38
0.00804120055772 -0.0659378445733 0.869 1.16631080121e-38
0.00964944066926 -0.0659378445733 0.869 1.17549435082e-38
0.0112576807808 -0.0659378445733 0.869 1.17549435082e-38
0.0128659208924 -0.0659378445733 0.869 1.23077515485e-38
0.0144741610039 -0.0659378445733 0.869 1.16631080121e-38
0.0160824011154 -0.0659378445733 0.869 1.23084704146e-38
0.017690641227 -0.0659378445733 0.869 1.15712725159e-38
0.0192988813385 -0.0659378445733 0.869 9.55089160043e-39
0.0209552391059 -0.066089600257 0.871 2.16497431791e-38
0.0225671805756 -0.066089600257 0.871 1.87016676477e-38
0.0242346424173 -0.0662413559407 0.873 1.91597577209e-38
0.0258502852452 -0.0662413559407 0.873 1.98976899e-38
0.0275288511614 -0.0663931116244 0.875 1.97139978882e-38
0.0291481953473 -0.0663931116244 0.875 1.96189323991e-38
0.0308730282403 -0.06662074515 0.878 1.99873323641e-38
0.0324979244634 -0.06662074515 0.878 2.19209196553e-38
0.0342005492075 -0.0667725008337 0.88 9.38910328493e-39
0.0358291467888 -0.0667725008337 0.88 2.23875576491e-38
-0.0180570756828 -0.0656620933919 0.887 1.83288830199e-38
-0.0163785097666 -0.0655140390664 0.885 9.27789623881e-39
-0.0147406587899 -0.0655140390664 0.885 1.09377833152e-38
-0.0130583915156 -0.065291957578 0.882 1.11203823142e-38
-0.0114001830692 -0.0651439032524 0.88 1.14873669678e-38
-0.00974937733903 -0.0649958489268 0.878 1.30644162855e-38
-0.00809672092981 -0.0647737674385 0.875 9.37080793218e-39
-0.00647737674385 -0.0647737674385 0.875 1.12961541871e-38
-0.00484692848347 -0.0646257131129 0.873 1.06529203569e-38
-0.00323128565565 -0.0646257131129 0.873 1.0469246562e-38
-0.00161194146968 -0.0644776587873 0.871 1.10202609403e-38
0.0 -0.0644776587873 0.871 1.09284268454e-38
0.00161194146968 -0.0644776587873 0.871 1.1020259539e-38
0.00322388293937 -0.0644776587873 0.871 1.11120950351e-38
0.00483582440905 -0.0644776587873 0.871 1.09284240428e-38
0.00644776587873 -0.0644776587873 0.871 1.12957660274e-38
0.00805970734842 -0.0644776587873 0.871 1.15712725159e-38
0.0096716488181 -0.0644776587873 0.871 1.17549435082e-38
0.0112835902878 -0.0644776587873 0.871 1.16631080121e-38
0.0128955317575 -0.0644776587873 0.871 1.22148496642e-38
0.0145074732272 -0.0644776587873 0.871 1.17553022406e-38
0.0161194146968 -0.0644776587873 0.871 1.18467846096e-38
0.0177313561665 -0.0644776587873 0.871 1.18467874122e-38
0.0193432976362 -0.0644776587873 0.871 9.45905610427e-39
0.0209552391059 -0.0644776587873 0.871 2.22021924869e-38
0.0225671805756 -0.0644776587873 0.871 1.9162997523e-38
0.0242346424173 -0.0646257131129 0.873 1.95296360558e-38
0.0259095069754 -0.0647737674385 0.875 2.00828028285e-38
0.0275288511614 -0.0647737674385 0.875 1.75916500887e-38
0.0292481320171 -0.0649958489268 0.878 2.03532366165e-38
0.0309433540449 -0.0651439032524 0.88 1.9619621838e-38
0.0325719516262 -0.0651439032524 0.88 1.69351459621e-38
0.0345503275517 -0.0658101477175 0.889 1.09557185343e-38
0.0361955812446 -0.0658101477175 0.889 2.21131623903e-38
-0.0180977906223 -0.0641648940246 0.889 1.94341557823e-38
-0.016415523348 -0.0640205410571 0.887 9.00490087718e-39
-0.0147406587899 -0.0638761880897 0.885 1.21424025336e-38
-0.0130583915156 -0.0636596586385 0.882 1.02020203462e-38
-0.0114260925761 -0.0636596586385 0.882 1.05628897332e-38
-0.00977158548786 -0.0635153056711 0.88 1.01019129852e-38
-0.00812448111586 -0.0633709527037 0.878 1.29635438155e-38
-0.00647737674385 -0.0631544232525 0.875 1.31530161835e-38
-0.00485803255789 -0.0631544232525 0.875 9.92325864136e-39
-0.00323128565565 -0.0630100702851 0.873 9.73458501352e-39
-0.00161564282782 -0.0630100702851 0.873 1.03774110659e-38
0.0 -0.0630100702851 0.873 1.07447586557e-38
0.00161564282782 -0.0630100702851 0.873 1.1020259539e-38
0.00322388293937 -0.0628657173177 0.871 1.11120964364e-38
0.00483582440905 -0.0628657173177 0.871 1.1020259539e-38
0.00644776587873 -0.0628657173177 0.871 1.17549435082e-38
0.00805970734842 -0.0628657173177 0.871 1.18478608068e-38
0.0096716488181 -0.0628657173177 0.871 1.17549435082e-38
0.0112835902878 -0.0628657173177 0.871 1.16641842093e-38
0.0128955317575 -0.0628657173177 0.871 1.20308087291e-38
0.0145074732272 -0.0628657173177 0.871 1.24903477449e-38
0.0161194146968 -0.0628657173177 0.871 1.24003031082e-38
0.0177313561665 -0.0628657173177 0.871 1.18474978705e-38
0.0193877139339 -0.0630100702851 0.873 9.73456259275e-39
0.0210033567617 -0.0630100702851 0.873 2.19248979416e-38
0.0226189995895 -0.0630100702851 0.873 1.89775286647e-38
0.0242901627894 -0.0631544232525 0.875 1.9714353818e-38
0.0259095069754 -0.0631544232525 0.875 1.92523232936e-38
0.0276861588823 -0.0635153056711 0.88 2.01724298782e-38
0.0294813175799 -0.0638761880897 0.885 2.00773629878e-38
0.0311894943612 -0.0640205410571 0.887 1.35292802354e-38
0.032831046696 -0.0640205410571 0.887 2.32066208054e-38
0.0345503275517 -0.0641648940246 0.889 1.02188541446e-38
0.0361955812446 -0.0641648940246 0.889 2.30333376386e-38
-0.0180977906223 -0.0625196403316 0.889 2.00791566499e-38
-0.016415523348 -0.0623789887223 0.887 7.53194561458e-39
-0.0147739710132 -0.0623789887223 0.887 1.2970368139e-38
-0.0131028078133 -0.062238337113 0.885 1.00165683035e-38
-0.0114649568366 -0.062238337113 0.885 1.05629023449e-38
-0.0097937936367 -0.0620273596991 0.882 1.09302303165e-38
-0.00816149469725 -0.0620273596991 0.882 9.91823358506e-39
-0.00649958489268 -0.0617460564805 0.878 1.00100746864e-38
-0.00487468866951 -0.0617460564805 0.878 1.25940774624e-38
-0.00324979244634 -0.0617460564805 0.878 1.44444444404e-38
-0.00161934418596 -0.0615350790666 0.875 1.27878265933e-38
0.0 -0.0615350790666 0.875 1.07540927047e-38
0.00161934418596 -0.0615350790666 0.875 1.1393373472e-38
0.00323128565565 -0.0613944274573 0.873 1.12039389391e-38
0.00484692848347 -0.0613944274573 0.873 1.13876015236e-38
0.00646257131129 -0.0613944274573 0.873 1.12039305313e-38
0.00807821413911 -0.0613944274573 0.873 1.12039305313e-38
0.00969385696694 -0.0613944274573 0.873 1.17549435082e-38
0.0113094997948 -0.0613944274573 0.873 1.11120950351e-38
0.0129251426226 -0.0613944274573 0.873 1.18474964692e-38
0.0145407854504 -0.0613944274573 0.873 1.19396906978e-38
0.0161564282782 -0.0613944274573 0.873 1.23999471784e-38
0.0177720711061 -0.0613944274573 0.873 1.18478580042e-38
0.0194321302315 -0.0615350790666 0.875 9.73456259275e-39
0.0210514744175 -0.0615350790666 0.875 2.2016377508e-38
0.0227485471244 -0.0617460564805 0.878 1.90679250274e-38
0.0243734433476 -0.0617460564805 0.878 1.92516016249e-38
0.0259983395707 -0.0617460564805 0.878 1.98969864482e-38
0.0277490819706 -0.0620273596991 0.882 1.71288796787e-38
0.0294813175799 -0.062238337113 0.885 1.77681128017e-38
0.0311894943612 -0.0623789887223 0.887 1.9887083472e-38
0.0329050738588 -0.0625196403316 0.889 2.14610163019e-38
0.0345503275517 -0.0625196403316 0.889 1.6665007848e-38
0.0361955812446 -0.0625196403316 0.889 2.21974841241e-38
-0.0180977906223 -0.0608743866387 0.889 2.12784046912e-38
-0.0164525369294 -0.0608743866387 0.889 6.98129137004e-39
-0.0148072832364 -0.0608743866387 0.889 1.39794753931e-38
-0.0131324186784 -0.0607374363875 0.887 1.25086865379e-38
-0.0114908663436 -0.0607374363875 0.887 1.12251097563e-38
-0.00982710585995 -0.0606004861364 0.885 8.35918254482e-39
-0.00818925488329 -0.0606004861364 0.885 1.09287827752e-38
-0.00649958489268 -0.0601211602573 0.878 1.0469246562e-38
-0.00487468866951 -0.0601211602573 0.878 1.01019045774e-38
-0.00324979244634 -0.0601211602573 0.878 9.8263994902e-39
-0.00162489622317 -0.0601211602573 0.878 1.10202917688e-38
0.0 -0.0599157348806 0.875 1.25007944249e-38
0.00161934418596 -0.0599157348806 0.875 1.43500375616e-38
0.00323128565565 -0.0597787846294 0.873 1.20427211673e-38
0.00484692848347 -0.0597787846294 0.873 1.13876239444e-38
0.00646257131129 -0.0597787846294 0.873 1.20315261939e-38
0.00807821413911 -0.0597787846294 0.873 1.11121202585e-38
0.00969385696694 -0.0597787846294 0.873 1.17549463108e-38
0.0113094997948 -0.0597787846294 0.873 1.18478552016e-38
0.0129251426226 -0.0597787846294 0.873 1.16645429417e-38
0.0145407854504 -0.0597787846294 0.873 1.20322436587e-38
0.0161564282782 -0.0597787846294 0.873 1.23077543511e-38
0.0178127860456 -0.0599157348806 0.875 1.15716312483e-38
0.0194321302315 -0.0599157348806 0.875 9.73456259275e-39
0.0211236509012 -0.0601211602573 0.878 2.19241818781e-38
0.0227485471244 -0.0601211602573 0.878 1.96221792077e-38
0.0244289637197 -0.0602581105085 0.88 1.9529613635e-38
0.026057561301 -0.0602581105085 0.88 2.05437683661e-38
0.0277490819706 -0.0603950607596 0.882 1.92519575547e-38
0.0294813175799 -0.0606004861364 0.885 1.48182408058e-38
0.0312598201658 -0.0608743866387 0.889 2.23815670982e-38
0.0329050738588 -0.0608743866387 0.889 1.57466865176e-38
0.0346280560726 -0.0610113368898 0.891 1.500695367e-38
0.0362770111237 -0.0610113368898 0.891 2.19201741645e-38
-0.0181385055618 -0.0593623818388 0.891 2.2017058539e-38
-0.0164895505108 -0.0593623818388 0.891 5.78563625795e-39
-0.0148405954597 -0.0593623818388 0.891 1.98829104051e-38
-0.0131620295435 -0.0592291329458 0.889 8.18377080565e-39
-0.0114908663436 -0.0590958840527 0.887 1.15852630798e-38
-0.00984931400879 -0.0590958840527 0.887 1.15917623021e-38
-0.00818925488329 -0.0589626351597 0.885 1.04699878489e-38
-0.00655140390664 -0.0589626351597 0.885 1.06529427777e-38
-0.00488579274393 -0.0586295129272 0.88 1.0561090466e-38
-0.00325719516262 -0.0586295129272 0.88 1.07447530505e-38
-0.00162859758131 -0.0586295129272 0.88 1.08365885466e-38
0.0 -0.0584962640342 0.878 1.09284240428e-38
0.00162489622317 -0.0584962640342 0.878 1.05610820582e-38
0.00323868837192 -0.0582963906946 0.875 1.09284282467e-38
0.00485803255789 -0.0582963906946 0.875 1.16631136173e-38
0.00647737674385 -0.0582963906946 0.875 1.18467790044e-38
0.00809672092981 -0.0582963906946 0.875 1.15712725159e-38
0.00971606511577 -0.0582963906946 0.875 1.20308087291e-38
0.0113354093017 -0.0582963906946 0.875 1.16631080121e-38
0.0129547534877 -0.0582963906946 0.875 1.19386145005e-38
0.0145740976737 -0.0582963906946 0.875 1.19386145005e-38
0.0162489622317 -0.0584962640342 0.878 1.23059634917e-38
0.0178738584549 -0.0584962640342 0.878 1.22141448111e-38
0.0195431709757 -0.0586295129272 0.88 9.55089160043e-39
0.021171768557 -0.0586295129272 0.88 2.17397752041e-38
0.0228003661383 -0.0586295129272 0.88 1.95303353037e-38
0.0244844840917 -0.0587627618202 0.882 1.98983989571e-38
0.0261167830312 -0.0587627618202 0.882 1.97132944364e-38
0.0278434666032 -0.0589626351597 0.885 2.0264695573e-38
0.0295479420264 -0.0590958840527 0.887 2.11880629792e-38
0.0313301459705 -0.0593623818388 0.891 1.98098158746e-38
0.0329791010215 -0.0593623818388 0.891 1.13273891299e-38
0.034744648854 -0.0595622551783 0.894 1.14195287078e-38
-0.0181995779711 -0.05790774809 0.894 2.26620748209e-38
-0.0165450708829 -0.05790774809 0.894 5.96930725027e-39
-0.0148905637946 -0.05790774809 0.894 1.72982223942e-38
-0.0131916404086 -0.0577134267877 0.891 1.70403092079e-38
-0.0115167758506 -0.0575838792528 0.889 9.56821164945e-39
-0.00987152215763 -0.0575838792528 0.889 8.54070114269e-39
-0.00820776167399 -0.0574543317179 0.887 1.33305761132e-38
-0.00656620933919 -0.0574543317179 0.887 1.15838589787e-38
-0.00491355292998 -0.0573247841831 0.885 9.73602274575e-39
-0.0032645978789 -0.0571304628807 0.882 1.04692549698e-38
-0.00163229893945 -0.0571304628807 0.882 1.12039305313e-38
0.0 -0.0570009153459 0.88 1.12039305313e-38
0.00162859758131 -0.0570009153459 0.88 1.1020259539e-38
0.00324979244634 -0.056871367811 0.878 1.12039445443e-38
0.00487468866951 -0.056871367811 0.878 1.12957926521e-38
0.00649958489268 -0.056871367811 0.878 1.20304626084e-38
0.00812448111586 -0.056871367811 0.878 1.15712865289e-38
0.00974937733903 -0.056871367811 0.878 1.18471419407e-38
0.0113742735622 -0.056871367811 0.878 1.18478902341e-38
0.0129991697854 -0.056871367811 0.878 1.21222854929e-38
0.0146240660085 -0.056871367811 0.878 1.24903477449e-38
0.0162489622317 -0.056871367811 0.878 1.22141265942e-38
0.0179145733944 -0.0570009153459 0.88 1.21226554356e-38
0.0195431709757 -0.0570009153459 0.88 9.91823358506e-39
0.021171768557 -0.0570009153459 0.88 2.22929419768e-38
0.0228521851523 -0.0571304628807 0.882 1.91615597908e-38
0.0244844840917 -0.0571304628807 0.882 1.91594087976e-38
0.0261167830312 -0.0571304628807 0.882 1.99880904666e-38
0.0278434666032 -0.0573247841831 0.885 2.06348892e-38
0.0295479420264 -0.0574543317179 0.887 2.04529992581e-38
0.0314356346774 -0.05790774809 0.894 1.28972315696e-38
0.0330901417657 -0.05790774809 0.894 1.13352378026e-38
0.034744648854 -0.05790774809 0.894 1.44609601441e-38
-0.0182402929107 -0.0563790871785 0.896 2.33074470325e-38
-0.0165820844643 -0.0563790871785 0.896 6.42848473106e-39
-0.0149238760178 -0.0563790871785 0.896 1.84027580736e-38
-0.0132360567063 -0.0562532410017 0.894 1.19731817311e-38
-0.0115426853575 -0.0560644717366 0.891 1.54787918824e-38
-0.00987152215763 -0.0559386255599 0.889 1.41847880389e-38
-0.00822626846469 -0.0559386255599 0.889 6.42991966069e-39
-0.00656620933919 -0.0558127793831 0.887 1.14819565544e-38
-0.00492465700439 -0.0558127793831 0.887 1.11161055513e-38
-0.00327570195332 -0.0556869332064 0.885 9.91825180194e-39
-0.00163785097666 -0.0556869332064 0.885 1.40734492707e-38
0.0 -0.0554981639413 0.882 1.09395447474e-38
0.00162859758131 -0.0553723177646 0.88 1.18478608068e-38
