# .PCD v0.7 - Point Cloud Data file format
VERSION 0.7
FIELDS x y z rgb
SIZE 4 4 4 4
TYPE F F F F
COUNT 1 1 1 1
WIDTH 847
HEIGHT 1
VIEWPOINT 0 0 0 1 0 0 0
POINTS 847
DATA ascii
-0.00997145882739 -0.121319415733 0.898 7.62234618111e-39
-0.00830954902282 -0.121319415733 0.898 7.71418167727e-39
-0.00664763921826 -0.121319415733 0.898 8.26519465422e-39
-0.00498572941369 -0.121319415733 0.898 8.35703015038e-39
-0.00331641689285 -0.121049216589 0.896 8.26519465422e-39
-0.00165820844643 -0.121049216589 0.896 8.54070114269e-39
0.0 -0.121049216589 0.896 8.81620763117e-39
0.00165820844643 -0.121049216589 0.896 8.63253663885e-39
0.00331641689285 -0.121049216589 0.896 8.63253663885e-39
0.00497462533928 -0.121049216589 0.896 8.90804312733e-39
0.0066328337857 -0.121049216589 0.896 8.81620763117e-39
0.00830954902282 -0.121319415733 0.898 8.81620763117e-39
0.00997145882739 -0.121319415733 0.898 8.81620763117e-39
0.0116722328924 -0.121724714449 0.901 8.81620763117e-39
0.0133396947342 -0.121724714449 0.901 8.54070114269e-39
0.0150404687992 -0.121994913594 0.903 9.27538511196e-39
0.0167116319991 -0.121994913594 0.903 9.73456259275e-39
0.018382795199 -0.121994913594 0.903 9.82639808891e-39
0.0201205828455 -0.12240021231 0.906 1.00100690812e-38
0.0217972980826 -0.12240021231 0.906 1.01937400735e-38
0.0234740133197 -0.12240021231 0.906 1.03774110659e-38
0.0252062489289 -0.122670411454 0.908 1.00100690812e-38
0.0268866655242 -0.122670411454 0.908 7.25500419648e-39
0.0287873129287 -0.123616108459 0.915 2.34731786019e-38
-0.0286300052078 -0.121256492645 0.91 2.15415293065e-38
-0.0268866655242 -0.120989994859 0.908 1.9702367111e-38
-0.0252062489289 -0.120989994859 0.908 6.24481373874e-39
-0.0235258323337 -0.120989994859 0.908 8.63791762495e-39
-0.0218935333942 -0.121256492645 0.91 6.70399121953e-39
-0.0202094154408 -0.121256492645 0.91 7.07133320417e-39
-0.0184845825479 -0.120989994859 0.908 6.97949770801e-39
-0.0167116319991 -0.120323750394 0.903 7.07133320417e-39
-0.015007156576 -0.120057252608 0.901 7.16316870032e-39
-0.0133396947342 -0.120057252608 0.901 7.53051068496e-39
-0.011633368632 -0.119657505929 0.898 7.80601717343e-39
-0.00997145882739 -0.119657505929 0.898 7.71418167727e-39
-0.00830954902282 -0.119657505929 0.898 7.80601717343e-39
-0.00664763921826 -0.119657505929 0.898 7.98968816575e-39
-0.00498572941369 -0.119657505929 0.898 8.63253663885e-39
-0.00331641689285 -0.119391008143 0.896 8.72437213501e-39
-0.00165820844643 -0.119391008143 0.896 8.63253663885e-39
0.0 -0.119391008143 0.896 8.81620763117e-39
0.00165820844643 -0.119391008143 0.896 8.72437213501e-39
0.00332381960913 -0.119657505929 0.898 8.72437213501e-39
0.00498572941369 -0.119657505929 0.898 8.81620763117e-39
0.00664763921826 -0.119657505929 0.898 8.99987862348e-39
0.00830954902282 -0.119657505929 0.898 8.90804312733e-39
0.00997145882739 -0.119657505929 0.898 9.36722060812e-39
0.0116722328924 -0.120057252608 0.901 9.27538511196e-39
0.0133396947342 -0.120057252608 0.901 8.90804312733e-39
0.0150404687992 -0.120323750394 0.903 9.55089160043e-39
0.0167116319991 -0.120323750394 0.903 9.82639808891e-39
0.0184438676083 -0.120723497073 0.906 9.91823358506e-39
0.0201205828455 -0.120723497073 0.906 9.64272709659e-39
0.0217972980826 -0.120723497073 0.906 9.82639808891e-39
0.0234740133197 -0.120723497073 0.906 9.91823358506e-39
0.0252062489289 -0.120989994859 0.908 7.98968816575e-39
0.0268866655242 -0.120989994859 0.908 1.48067403493e-38
0.0287243898404 -0.121656239324 0.913 2.16392726769e-38
-0.0287243898404 -0.119966569333 0.913 2.08000448357e-38
-0.0269458872544 -0.119572374691 0.91 1.89637300788e-38
-0.025261769301 -0.119572374691 0.91 7.16316870032e-39
-0.0235776513476 -0.119572374691 0.91 7.90323365569e-39
-0.0219657098779 -0.119966569333 0.913 9.37905877754e-39
-0.0202094154408 -0.119572374691 0.91 6.79582671569e-39
-0.0184845825479 -0.119309578264 0.908 6.97949770801e-39
-0.0167671523712 -0.119046781836 0.906 6.97949770801e-39
-0.0150404687992 -0.118652587194 0.903 7.25500419648e-39
-0.0133693055993 -0.118652587194 0.903 7.53051068496e-39
-0.0116722328924 -0.118389790766 0.901 7.71418167727e-39
-0.0100047710506 -0.118389790766 0.901 7.98968816575e-39
-0.00830954902282 -0.117995596124 0.898 7.98968816575e-39
-0.00664763921826 -0.117995596124 0.898 8.35703015038e-39
-0.00498572941369 -0.117995596124 0.898 8.35703015038e-39
-0.00332381960913 -0.117995596124 0.898 8.72437213501e-39
-0.00166190980456 -0.117995596124 0.898 8.63253663885e-39
0.0 -0.117995596124 0.898 8.72437213501e-39
0.00166190980456 -0.117995596124 0.898 8.63253663885e-39
0.00332381960913 -0.117995596124 0.898 8.63253663885e-39
0.00498572941369 -0.117995596124 0.898 8.81620763117e-39
0.00664763921826 -0.117995596124 0.898 8.81620763117e-39
0.00830954902282 -0.117995596124 0.898 8.90804312733e-39
0.00997145882739 -0.117995596124 0.898 9.55089160043e-39
0.0116722328924 -0.118389790766 0.901 9.09171411964e-39
0.0133396947342 -0.118389790766 0.901 8.81620763117e-39
0.0150404687992 -0.118652587194 0.903 9.36722060812e-39
0.0167116319991 -0.118652587194 0.903 9.82639808891e-39
0.0184438676083 -0.119046781836 0.906 1.01019045774e-38
0.0201205828455 -0.119046781836 0.906 9.36722060812e-39
0.0217972980826 -0.119046781836 0.906 8.72437213501e-39
0.0234740133197 -0.119046781836 0.906 8.0815236619e-39
0.0252062489289 -0.119309578264 0.908 1.75761629381e-38
0.0269458872544 -0.119572374691 0.91 1.39024376087e-38
0.0287243898404 -0.119966569333 0.913 1.85034749994e-38
-0.0287873129287 -0.118535994412 0.915 2.05245313408e-38
-0.0270347198498 -0.118276899343 0.913 1.80417709775e-38
-0.0253450498591 -0.118276899343 0.913 7.16316870032e-39
-0.0236553798685 -0.118276899343 0.913 5.60196526564e-39
-0.0220138275337 -0.118535994412 0.915 8.45104046175e-39
-0.0202094154408 -0.117888256738 0.91 1.00219576974e-38
-0.0184845825479 -0.117629161668 0.908 7.16567982717e-39
-0.0167671523712 -0.117370066599 0.906 9.1835496158e-39
-0.0150904371341 -0.117370066599 0.906 7.71418167727e-39
-0.0133693055993 -0.116981423994 0.903 7.34683969264e-39
-0.0116722328924 -0.116722328924 0.901 7.71418167727e-39
-0.0100047710506 -0.116722328924 0.901 7.89785266959e-39
-0.00833730920887 -0.116722328924 0.901 7.62234618111e-39
-0.00666984736709 -0.116722328924 0.901 7.98968816575e-39
-0.00498572941369 -0.11633368632 0.898 8.35703015038e-39
-0.00332381960913 -0.11633368632 0.898 8.72437213501e-39
-0.00166190980456 -0.11633368632 0.898 8.81620763117e-39
0.0 -0.11633368632 0.898 8.54070114269e-39
0.00166190980456 -0.11633368632 0.898 8.72437213501e-39
0.00332381960913 -0.11633368632 0.898 8.99987862348e-39
0.00498572941369 -0.11633368632 0.898 8.81620763117e-39
0.00664763921826 -0.11633368632 0.898 8.99987862348e-39
0.00830954902282 -0.11633368632 0.898 8.81620763117e-39
0.00997145882739 -0.11633368632 0.898 9.45905610427e-39
0.0116722328924 -0.116722328924 0.901 9.27538511196e-39
0.0133396947342 -0.116722328924 0.901 8.90804312733e-39
0.0150404687992 -0.116981423994 0.903 9.36722060812e-39
0.0167671523712 -0.117370066599 0.906 9.64272709659e-39
0.0184438676083 -0.117370066599 0.906 8.44886564654e-39
0.0201205828455 -0.117370066599 0.906 7.89785266959e-39
0.0218454157384 -0.117629161668 0.908 1.43400210802e-38
0.0235258323337 -0.117629161668 0.908 1.78643119413e-38
0.025261769301 -0.117888256738 0.91 1.68512165918e-38
0.0269458872544 -0.117888256738 0.91 1.27931865599e-38
-0.0306472453938 -0.117481107343 0.92 1.87749779782e-38
-0.0289446206497 -0.117481107343 0.92 2.0250455578e-38
-0.02709394158 -0.116842623064 0.915 1.74907580006e-38
-0.0253450498591 -0.116587229352 0.913 6.42848473106e-39
-0.0236553798685 -0.116587229352 0.913 6.88766221185e-39
-0.0220138275337 -0.116842623064 0.915 7.89785266959e-39
-0.0202760398873 -0.116587229352 0.913 6.88766221185e-39
-0.0184845825479 -0.115948745073 0.908 6.97949770801e-39
-0.0167671523712 -0.115693351361 0.906 1.19487374806e-38
-0.0150904371341 -0.115693351361 0.906 1.03914016297e-38
-0.0133693055993 -0.115310260794 0.903 9.84110611759e-39
-0.0116981423994 -0.115310260794 0.903 6.88766221185e-39
-0.0100047710506 -0.115054867082 0.901 7.62234618111e-39
-0.00833730920887 -0.115054867082 0.901 7.98968816575e-39
-0.00666984736709 -0.115054867082 0.901 7.98968816575e-39
-0.00500238552532 -0.115054867082 0.901 8.26519465422e-39
-0.00332381960913 -0.114671776515 0.898 8.26519465422e-39
-0.00166190980456 -0.114671776515 0.898 8.54070114269e-39
0.0 -0.115054867082 0.901 8.44886564654e-39
0.00166746184177 -0.115054867082 0.901 8.81620763117e-39
0.00333492368355 -0.115054867082 0.901 8.90804312733e-39
0.00500238552532 -0.115054867082 0.901 8.99987862348e-39
0.00666984736709 -0.115054867082 0.901 9.45905610427e-39
0.00833730920887 -0.115054867082 0.901 9.36722060812e-39
0.0100047710506 -0.115054867082 0.901 9.64272709659e-39
0.0116981423994 -0.115310260794 0.903 9.09171411964e-39
0.0133693055993 -0.115310260794 0.903 9.27538511196e-39
0.0150904371341 -0.115693351361 0.906 8.44886564654e-39
0.0167671523712 -0.115693351361 0.906 1.26815493152e-38
0.0184438676083 -0.115693351361 0.906 1.56450951815e-38
0.0201649991431 -0.115948745073 0.908 1.69448485526e-38
0.0218454157384 -0.115948745073 0.908 1.74040498555e-38
0.0235258323337 -0.115948745073 0.908 1.5929254688e-38
-0.0306472453938 -0.115778482599 0.92 1.86817075524e-38
-0.0289446206497 -0.115778482599 0.92 2.00653580639e-38
-0.02709394158 -0.115149251715 0.915 1.66613476564e-38
-0.0254005702312 -0.115149251715 0.915 6.61215572338e-39
-0.0237071988825 -0.115149251715 0.915 7.34685090303e-39
-0.0220138275337 -0.115149251715 0.915 7.80601717343e-39
-0.0202760398873 -0.114897559361 0.913 8.35954127723e-39
-0.0184845825479 -0.114268328478 0.908 7.34683969264e-39
-0.0167671523712 -0.114016636124 0.906 7.16316870032e-39
-0.0150904371341 -0.114016636124 0.906 7.34683969264e-39
-0.0133693055993 -0.113639097594 0.903 1.01108883018e-38
-0.0116981423994 -0.113639097594 0.903 1.03010080697e-38
-0.0100269791995 -0.113639097594 0.903 1.24226370031e-38
-0.00833730920887 -0.113387405241 0.901 7.1671147568e-39
-0.00666984736709 -0.113387405241 0.901 8.35703015038e-39
-0.00500238552532 -0.113387405241 0.901 8.26519465422e-39
-0.00333492368355 -0.113387405241 0.901 8.35703015038e-39
-0.00166746184177 -0.113387405241 0.901 8.99987862348e-39
0.0 -0.113387405241 0.901 8.63253663885e-39
0.00166746184177 -0.113387405241 0.901 8.72437213501e-39
0.00333492368355 -0.113387405241 0.901 8.99987862348e-39
0.00500238552532 -0.113387405241 0.901 9.45905610427e-39
0.00668465279965 -0.113639097594 0.903 9.45905610427e-39
0.00835581599956 -0.113639097594 0.903 9.45905610427e-39
0.0100269791995 -0.113639097594 0.903 9.36722060812e-39
0.0116981423994 -0.113639097594 0.903 9.27538511196e-39
0.0133693055993 -0.113639097594 0.903 8.72437213501e-39
0.0150904371341 -0.114016636124 0.906 9.46193437132e-39
0.0167671523712 -0.114016636124 0.906 1.86036748461e-38
0.0184845825479 -0.114268328478 0.908 1.56523202764e-38
0.0201649991431 -0.114268328478 0.908 1.53750145207e-38
0.0218935333942 -0.114520020831 0.91 1.56505378248e-38
0.0235776513476 -0.114520020831 0.91 1.5466522113e-38
0.0254005702312 -0.115149251715 0.915 1.56508881494e-38
-0.0324553588448 -0.114447844348 0.923 1.86842186793e-38
-0.0307471820635 -0.114447844348 0.923 1.8775347921e-38
-0.0289446206497 -0.114075857855 0.92 1.97891341106e-38
-0.0272419959056 -0.114075857855 0.92 1.80425276787e-38
-0.0254838507894 -0.113827866859 0.918 6.15297824259e-39
-0.0237849274034 -0.113827866859 0.918 7.4386751888e-39
-0.0220138275337 -0.113455880366 0.915 8.0815236619e-39
-0.020320456185 -0.113455880366 0.915 7.34683969264e-39
-0.0184845825479 -0.112587911883 0.908 7.4386751888e-39
-0.0168041659526 -0.112587911883 0.908 9.09422524649e-39
-0.0150904371341 -0.112339920887 0.906 9.55878371338e-39
-0.013413721897 -0.112339920887 0.906 7.99076436297e-39
-0.0116981423994 -0.111967934394 0.903 7.53051068496e-39
-0.0100269791995 -0.111967934394 0.903 7.53051068496e-39
-0.00835581599956 -0.111967934394 0.903 8.17335915806e-39
-0.00668465279965 -0.111967934394 0.903 8.26519465422e-39
-0.00501348959974 -0.111967934394 0.903 8.35703015038e-39
-0.00333492368355 -0.111719943399 0.901 8.63253663885e-39
-0.00166746184177 -0.111719943399 0.901 8.81620763117e-39
0.0 -0.111967934394 0.903 9.09171411964e-39
0.00167116319991 -0.111967934394 0.903 8.99987862348e-39
0.00334232639983 -0.111967934394 0.903 8.90804312733e-39
0.00501348959974 -0.111967934394 0.903 9.09171411964e-39
0.00668465279965 -0.111967934394 0.903 8.99987862348e-39
0.00835581599956 -0.111967934394 0.903 8.99987862348e-39
0.0100269791995 -0.111967934394 0.903 8.99987862348e-39
0.0116981423994 -0.111967934394 0.903 8.99987862348e-39
0.013413721897 -0.112339920887 0.906 8.35703015038e-39
0.0150904371341 -0.112339920887 0.906 9.27898504771e-39
0.0167671523712 -0.112339920887 0.906 1.78661252215e-38
0.0184845825479 -0.112587911883 0.908 1.51917302868e-38
0.0201649991431 -0.112587911883 0.908 1.55586953221e-38
0.0220138275337 -0.113455880366 0.915 1.62959072338e-38
0.0237071988825 -0.113455880366 0.915 1.5653046149e-38
0.0254005702312 -0.113455880366 0.915 1.55601274491e-38
-0.0324553588448 -0.112739667566 0.923 2.00667929935e-38
-0.0307471820635 -0.112739667566 0.923 1.84995219365e-38
-0.0289446206497 -0.11237323311 0.92 1.99724463705e-38
-0.0272419959056 -0.11237323311 0.92 1.60152747955e-38
-0.0254838507894 -0.112128943473 0.918 7.71418167727e-39
-0.0237849274034 -0.112128943473 0.918 7.25500419648e-39
-0.0220860040175 -0.112128943473 0.918 7.71418167727e-39
-0.020320456185 -0.111762509017 0.915 6.88766221185e-39
-0.0184845825479 -0.110907495287 0.908 9.09422804909e-39
-0.0168041659526 -0.110907495287 0.908 8.0815236619e-39
-0.0150904371341 -0.11066320565 0.906 6.88766221185e-39
-0.013413721897 -0.11066320565 0.906 8.17335915806e-39
-0.0116981423994 -0.110296771194 0.903 7.98971198782e-39
-0.0100269791995 -0.110296771194 0.903 1.00133088833e-38
-0.00835581599956 -0.110296771194 0.903 9.55664533193e-39
-0.00668465279965 -0.110296771194 0.903 1.07540800931e-38
-0.00501348959974 -0.110296771194 0.903 8.35990000963e-39
-0.00334232639983 -0.110296771194 0.903 8.63253663885e-39
-0.00167116319991 -0.110296771194 0.903 9.82639808891e-39
0.0 -0.110296771194 0.903 9.36722060812e-39
0.00167116319991 -0.110296771194 0.903 9.09171411964e-39
0.00335343047424 -0.11066320565 0.906 8.90804312733e-39
0.00503014571137 -0.11066320565 0.906 8.90804312733e-39
0.00668465279965 -0.110296771194 0.903 8.90804312733e-39
0.00835581599956 -0.110296771194 0.903 8.99987862348e-39
0.0100269791995 -0.110296771194 0.903 8.99987862348e-39
0.0117370066599 -0.11066320565 0.906 8.81620763117e-39
0.013413721897 -0.11066320565 0.906 8.44886564654e-39
0.0150904371341 -0.11066320565 0.906 9.83215882689e-39
0.0167671523712 -0.11066320565 0.906 1.69452297058e-38
0.0184845825479 -0.110907495287 0.908 1.55601274491e-38
0.0202094154408 -0.111151784924 0.91 1.55579792586e-38
0.0220138275337 -0.111762509017 0.915 1.71260238324e-38
0.0237071988825 -0.111762509017 0.915 1.58374079815e-38
0.0254838507894 -0.112128943473 0.918 1.56533922697e-38
-0.0307471820635 -0.111031490785 0.923 1.84987540249e-38
-0.0290390052822 -0.111031490785 0.923 2.05266725248e-38
-0.0272419959056 -0.110670608366 0.92 1.66613378473e-38
-0.0254838507894 -0.110430020087 0.918 7.53051068496e-39
-0.0237849274034 -0.110430020087 0.918 7.98968816575e-39
-0.0220860040175 -0.110430020087 0.918 7.98968816575e-39
-0.0203870806315 -0.110430020087 0.918 7.71418167727e-39
-0.0186270848362 -0.110069137669 0.915 7.53051068496e-39
-0.0168966999061 -0.10982854939 0.913 7.89785266959e-39
-0.0151237493574 -0.109227078692 0.908 7.71418167727e-39
-0.013413721897 -0.108986490413 0.906 1.0383177409e-38
-0.0117370066599 -0.108986490413 0.906 6.97949770801e-39
-0.0100602914227 -0.108986490413 0.906 9.09207285205e-39
-0.00838357618561 -0.108986490413 0.906 8.26519465422e-39
-0.00670686094849 -0.108986490413 0.906 8.54070114269e-39
-0.00503014571137 -0.108986490413 0.906 8.90804312733e-39
-0.00335343047424 -0.108986490413 0.906 8.99987862348e-39
-0.00167671523712 -0.108986490413 0.906 1.11196354222e-38
0.0 -0.108986490413 0.906 8.90804312733e-39
0.00167671523712 -0.108986490413 0.906 8.90804312733e-39
0.00335343047424 -0.108986490413 0.906 8.99987862348e-39
0.00503014571137 -0.108986490413 0.906 9.36722060812e-39
0.00670686094849 -0.108986490413 0.906 9.09171411964e-39
0.00838357618561 -0.108986490413 0.906 9.55089160043e-39
0.0100602914227 -0.108986490413 0.906 9.45905610427e-39
0.0117370066599 -0.108986490413 0.906 8.81620763117e-39
0.013413721897 -0.108986490413 0.906 8.35703015038e-39
0.0151237493574 -0.109227078692 0.908 1.21356076374e-38
0.0168041659526 -0.109227078692 0.908 1.70366994631e-38
0.0185252974874 -0.109467666971 0.91 1.56530293334e-38
0.0202760398873 -0.10982854939 0.913 1.54679290167e-38
0.0220138275337 -0.110069137669 0.915 1.66639666833e-38
0.0237849274034 -0.110430020087 0.918 1.53746641961e-38
0.0255393711615 -0.110670608366 0.92 1.64813578752e-38
-0.0307471820635 -0.109323314004 0.923 1.85916657183e-38
-0.0289446206497 -0.108967983622 0.92 1.99749448857e-38
-0.0272419959056 -0.108967983622 0.92 1.80435632383e-38
-0.0254838507894 -0.108731096701 0.918 6.24481373874e-39
-0.0237849274034 -0.108731096701 0.918 6.88766221185e-39
-0.0221341216733 -0.108967983622 0.92 7.80601717343e-39
-0.0203870806315 -0.108731096701 0.918 9.18749567227e-39
-0.0186270848362 -0.10837576632 0.915 6.61215572338e-39
-0.0168966999061 -0.108138879399 0.913 8.63253663885e-39
-0.0151237493574 -0.107546662097 0.908 1.01109163278e-38
-0.013413721897 -0.107309775176 0.906 8.72437213501e-39
-0.0117370066599 -0.107309775176 0.906 8.17335915806e-39
-0.0100602914227 -0.107309775176 0.906 8.26519465422e-39
-0.00838357618561 -0.107309775176 0.906 9.46084976631e-39
-0.00670686094849 -0.107309775176 0.906 9.92397330357e-39
-0.00503014571137 -0.107309775176 0.906 8.63253663885e-39
-0.00335343047424 -0.107309775176 0.906 9.5544831284e-39
-0.00167671523712 -0.107309775176 0.906 1.17675509905e-38
0.0 -0.107309775176 0.906 7.80637590584e-39
0.00167671523712 -0.107309775176 0.906 8.99987862348e-39
0.00335343047424 -0.107309775176 0.906 9.45905610427e-39
0.00503014571137 -0.107309775176 0.906 9.45905610427e-39
0.00670686094849 -0.107309775176 0.906 9.45905610427e-39
0.00838357618561 -0.107309775176 0.906 9.45905610427e-39
0.0100602914227 -0.107309775176 0.906 9.45905610427e-39
0.0117629161668 -0.107546662097 0.908 8.90804312733e-39
0.0134433327621 -0.107546662097 0.908 8.35703015038e-39
0.0151237493574 -0.107546662097 0.908 1.41639114943e-38
0.016841179534 -0.107783549018 0.91 1.66682868864e-38
0.0185863698967 -0.108138879399 0.913 1.56512440792e-38
0.020320456185 -0.10837576632 0.915 1.57427236455e-38
0.0220138275337 -0.10837576632 0.915 1.58356381415e-38
0.0237849274034 -0.108731096701 0.918 1.56508937546e-38
0.0256226517196 -0.109323314004 0.923 1.500767674e-38
0.0273900502311 -0.109560200925 0.925 1.28821353812e-38
-0.0289446206497 -0.107265358878 0.92 2.06217940659e-38
-0.0272419959056 -0.107265358878 0.92 1.75836640888e-38
-0.0254838507894 -0.107032173315 0.918 6.3366492349e-39
-0.0237849274034 -0.107032173315 0.918 6.88766221185e-39
-0.0221341216733 -0.107265358878 0.92 7.25500419648e-39
-0.0203870806315 -0.107032173315 0.918 6.97949770801e-39
-0.0186881572455 -0.107032173315 0.918 8.81979495524e-39
-0.0169337134875 -0.106682394971 0.915 8.0815236619e-39
-0.0152070299155 -0.106449209408 0.913 7.62234618111e-39
-0.0134433327621 -0.105866245501 0.908 8.63253663885e-39
-0.0117629161668 -0.105866245501 0.908 8.0815236619e-39
-0.0100824995716 -0.105866245501 0.908 1.03802935368e-38
-0.00840208297631 -0.105866245501 0.908 7.62234618111e-39
-0.00672166638105 -0.105866245501 0.908 9.91970354715e-39
-0.00504124978578 -0.105866245501 0.908 9.46479582278e-39
-0.00336083319052 -0.105866245501 0.908 9.27933817492e-39
-0.00168041659526 -0.105866245501 0.908 1.01966099328e-38
0.0 -0.105866245501 0.908 8.35703015038e-39
0.00168041659526 -0.105866245501 0.908 8.90804312733e-39
0.00335343047424 -0.105633059939 0.906 8.90804312733e-39
0.00503014571137 -0.105633059939 0.906 9.36722060812e-39
0.00670686094849 -0.105633059939 0.906 9.55089160043e-39
0.00840208297631 -0.105866245501 0.908 9.55089160043e-39
0.0100824995716 -0.105866245501 0.908 9.45905610427e-39
0.0117629161668 -0.105866245501 0.908 8.90804312733e-39
0.0134433327621 -0.105866245501 0.908 8.26519465422e-39
0.0151570615806 -0.106099431064 0.91 1.49003975334e-38
0.016841179534 -0.106099431064 0.91 1.62995099722e-38
0.0185863698967 -0.106449209408 0.913 1.55590848831e-38
0.020320456185 -0.106682394971 0.915 1.58345661482e-38
0.0220860040175 -0.107032173315 0.918 1.70324058846e-38
0.0237849274034 -0.107032173315 0.918 1.62054968582e-38
0.0256226517196 -0.107615137222 0.923 1.18737413881e-38
0.0273900502311 -0.107848322785 0.925 1.48978387624e-38
-0.0289446206497 -0.105562734134 0.92 2.00667733753e-38
-0.0272419959056 -0.105562734134 0.92 1.58326547771e-38
-0.0255393711615 -0.105562734134 0.92 7.07133320417e-39
-0.0238367464174 -0.105562734134 0.92 6.97949770801e-39
-0.0221341216733 -0.105562734134 0.92 7.16316870032e-39
-0.0203870806315 -0.105333249929 0.918 6.97949770801e-39
-0.0186881572455 -0.105333249929 0.918 7.16316870032e-39
-0.0169337134875 -0.104989023622 0.915 7.16316870032e-39
-0.0152403421387 -0.104989023622 0.915 8.90804312733e-39
-0.0135173599249 -0.104759539418 0.913 8.35703015038e-39
-0.0117888256738 -0.104415313111 0.91 1.09381336399e-38
-0.0100824995716 -0.104185828906 0.908 9.74247712647e-39
-0.00840208297631 -0.104185828906 0.908 7.80601717343e-39
-0.00672166638105 -0.104185828906 0.908 9.55196779765e-39
-0.00504124978578 -0.104185828906 0.908 8.26519465422e-39
-0.00336083319052 -0.104185828906 0.908 9.45905610427e-39
-0.00168041659526 -0.104185828906 0.908 1.00100718838e-38
0.0 -0.104185828906 0.908 9.55089160043e-39
0.00168041659526 -0.104185828906 0.908 8.54070114269e-39
0.00336083319052 -0.104185828906 0.908 8.72437213501e-39
0.00504124978578 -0.104185828906 0.908 8.90804312733e-39
0.00672166638105 -0.104185828906 0.908 9.64272709659e-39
0.00840208297631 -0.104185828906 0.908 9.55089160043e-39
0.0100824995716 -0.104185828906 0.908 9.55089160043e-39
0.0117629161668 -0.104185828906 0.908 9.36722060812e-39
0.0134433327621 -0.104185828906 0.908 8.17335915806e-39
0.0151570615806 -0.104415313111 0.91 1.61904174854e-38
0.0168966999061 -0.104759539418 0.913 1.69448765786e-38
0.0186270848362 -0.104989023622 0.915 1.57434425116e-38
0.0203870806315 -0.105333249929 0.918 1.57427236455e-38
0.0220860040175 -0.105333249929 0.918 1.62033430624e-38
0.0237849274034 -0.105333249929 0.918 1.71267244816e-38
0.0256781720917 -0.106136444646 0.925 5.51443455836e-39
0.0273900502311 -0.106136444646 0.925 1.56339997003e-38
-0.0289446206497 -0.10386010939 0.92 2.08054118089e-38
-0.0272419959056 -0.10386010939 0.92 1.57397486889e-38
-0.0255393711615 -0.10386010939 0.92 7.53051068496e-39
-0.0238367464174 -0.10386010939 0.92 7.89786948517e-39
-0.022206298157 -0.10419878366 0.923 9.37654765069e-39
-0.0204314969292 -0.10386010939 0.92 7.25500419648e-39
-0.0186881572455 -0.103634326543 0.918 7.4386751888e-39
-0.0169892338596 -0.103634326543 0.918 6.97949770801e-39
-0.0152403421387 -0.103295652274 0.915 7.34683969264e-39
-0.0135173599249 -0.103069869427 0.913 7.34683969264e-39
-0.0118276899343 -0.103069869427 0.913 7.62234618111e-39
-0.0101047077204 -0.102731195157 0.91 8.17335915806e-39
-0.008420589767 -0.102731195157 0.91 8.63253663885e-39
-0.00672166638105 -0.102505412311 0.908 1.09338204432e-38
-0.00504124978578 -0.102505412311 0.908 1.1308323063e-38
-0.0033682359068 -0.102731195157 0.91 1.00165304684e-38
-0.0016841179534 -0.102731195157 0.91 1.13080498098e-38
0.0 -0.102505412311 0.908 8.54070114269e-39
0.00168041659526 -0.102505412311 0.908 8.54070114269e-39
0.0033682359068 -0.102731195157 0.91 8.81620763117e-39
0.00504124978578 -0.102505412311 0.908 9.55089160043e-39
0.00672166638105 -0.102505412311 0.908 9.45905610427e-39
0.008420589767 -0.102731195157 0.91 9.45905610427e-39
0.0101047077204 -0.102731195157 0.91 1.11142474296e-38
0.0117888256738 -0.102731195157 0.91 9.27538511196e-39
0.0134729436272 -0.102731195157 0.91 8.44886564654e-39
0.0152070299155 -0.103069869427 0.913 1.6743588462e-38
0.0168966999061 -0.103069869427 0.913 1.60232706046e-38
0.0186270848362 -0.103295652274 0.915 1.56516168246e-38
0.0203870806315 -0.103634326543 0.918 1.61132984257e-38
0.0220860040175 -0.103634326543 0.918 1.62969666154e-38
0.0237849274034 -0.103634326543 0.918 1.64838760085e-38
0.0256781720917 -0.104424566506 0.925 5.23462328101e-39
0.0273900502311 -0.104424566506 0.925 1.95980460455e-38
0.0291019283706 -0.104424566506 0.925 2.00718698978e-38
-0.0290390052822 -0.102490606878 0.923 2.06181492886e-38
-0.0273308285009 -0.102490606878 0.923 1.47252478371e-38
-0.0256226517196 -0.102490606878 0.923 7.34683969264e-39
-0.0239144749383 -0.102490606878 0.923 7.43905494068e-39
-0.022206298157 -0.102490606878 0.923 7.89785266959e-39
-0.0204314969292 -0.102157484646 0.92 7.62234618111e-39
-0.0186881572455 -0.101935403157 0.918 8.54073757645e-39
-0.0169892338596 -0.101935403157 0.918 7.07133320417e-39
-0.0152403421387 -0.101602280925 0.915 8.0815236619e-39
-0.0135173599249 -0.101380199437 0.913 7.98968816575e-39
-0.0118276899343 -0.101380199437 0.913 7.98968816575e-39
-0.0101380199437 -0.101380199437 0.913 7.98968816575e-39
-0.00844834995305 -0.101380199437 0.913 7.98968816575e-39
-0.0067364718136 -0.101047077204 0.91 8.35703015038e-39
-0.0050523538602 -0.101047077204 0.91 8.72437213501e-39
-0.0033682359068 -0.101047077204 0.91 8.81620763117e-39
-0.0016841179534 -0.101047077204 0.91 8.90804312733e-39
0.0 -0.101047077204 0.91 9.09171411964e-39
0.0016841179534 -0.101047077204 0.91 9.45905610427e-39
0.0033682359068 -0.101047077204 0.91 9.09171411964e-39
0.0050523538602 -0.101047077204 0.91 8.90804312733e-39
0.0067364718136 -0.101047077204 0.91 9.45905610427e-39
0.00844834995305 -0.101380199437 0.913 9.55089160043e-39
0.0101380199437 -0.101380199437 0.913 9.73456259275e-39
0.0118276899343 -0.101380199437 0.913 9.45905610427e-39
0.0135173599249 -0.101380199437 0.913 8.44886564654e-39
0.0152403421387 -0.101602280925 0.915 1.73882376036e-38
0.0169337134875 -0.101602280925 0.915 1.6023267802e-38
0.0186881572455 -0.101935403157 0.918 1.59278351727e-38
0.0203870806315 -0.101935403157 0.918 1.55597715193e-38
0.0220860040175 -0.101935403157 0.918 1.8047604583e-38
0.0238367464174 -0.102157484646 0.92 7.63131449128e-39
0.0255393711615 -0.102157484646 0.92 5.41829427332e-39
0.0273900502311 -0.102712688367 0.925 2.03359768233e-38
0.0291019283706 -0.102712688367 0.925 1.91481115294e-38
-0.0290390052822 -0.100782430097 0.923 2.0435909022e-38
-0.0273308285009 -0.100782430097 0.923 1.55549958942e-38
-0.0256226517196 -0.100782430097 0.923 7.25500419648e-39
-0.0239144749383 -0.100782430097 0.923 8.08190621638e-39
-0.022206298157 -0.100782430097 0.923 8.0815236619e-39
-0.0204314969292 -0.100454859902 0.92 8.35703015038e-39
-0.0186881572455 -0.100236479772 0.918 7.4386751888e-39
-0.0169892338596 -0.100236479772 0.918 7.80601717343e-39
-0.0152903104736 -0.100236479772 0.918 9.46013510409e-39
-0.01354697079 -0.0999089095762 0.915 8.90911932455e-39
-0.0118276899343 -0.099690529446 0.913 9.83106161019e-39
-0.0101380199437 -0.099690529446 0.913 8.45030057616e-39
-0.00844834995305 -0.099690529446 0.913 7.80601717343e-39
-0.0067364718136 -0.0993629592506 0.91 8.54070114269e-39
-0.0050523538602 -0.0993629592506 0.91 8.90804312733e-39
-0.00337933998122 -0.099690529446 0.913 8.81620763117e-39
-0.00168966999061 -0.099690529446 0.913 8.90804312733e-39
0.0 -0.099690529446 0.913 8.99987862348e-39
0.00168966999061 -0.099690529446 0.913 8.90804312733e-39
0.00337933998122 -0.099690529446 0.913 8.90804312733e-39
0.00506900997183 -0.099690529446 0.913 9.45905610427e-39
0.00675867996244 -0.099690529446 0.913 9.55089160043e-39
0.00844834995305 -0.099690529446 0.913 9.64272709659e-39
0.0101380199437 -0.099690529446 0.913 9.45905610427e-39
0.0118276899343 -0.099690529446 0.913 9.27538511196e-39
0.0135173599249 -0.099690529446 0.913 8.72437213501e-39
0.0152403421387 -0.0999089095762 0.915 1.88615698155e-38
0.0169337134875 -0.0999089095762 0.915 1.62991316216e-38
0.0186881572455 -0.100236479772 0.918 1.59278323701e-38
0.0203870806315 -0.100236479772 0.918 1.53757459985e-38
0.0220860040175 -0.100236479772 0.918 1.63888119207e-38
0.0238367464174 -0.100454859902 0.92 1.73114884867e-38
0.0255393711615 -0.100454859902 0.92 1.92854541932e-39
0.0274788828265 -0.101328380423 0.928 1.95098132877e-38
-0.0291019283706 -0.0992889320879 0.925 2.00656971781e-38
-0.0273900502311 -0.0992889320879 0.925 1.58315785799e-38
-0.0256781720917 -0.0992889320879 0.925 7.80601717343e-39
-0.0239662939522 -0.0992889320879 0.925 8.72475749209e-39
-0.0222544158128 -0.0992889320879 0.925 9.09314904927e-39
-0.0204981213757 -0.0990742533158 0.923 7.71418167727e-39
-0.0187288721851 -0.0987522351576 0.92 7.71418167727e-39
-0.017026247441 -0.0987522351576 0.92 8.45030057616e-39
-0.0152903104736 -0.0985375563856 0.918 8.44886564654e-39
-0.01354697079 -0.0982155382274 0.915 8.81837964379e-39
-0.0118535994412 -0.0982155382274 0.915 8.17335915806e-39
-0.0101380199437 -0.0980008594554 0.913 9.1835496158e-39
-0.00844834995305 -0.0980008594554 0.913 8.35703015038e-39
-0.00675867996244 -0.0980008594554 0.913 8.26519465422e-39
-0.00506900997183 -0.0980008594554 0.913 1.0747638324e-38
-0.00337933998122 -0.0980008594554 0.913 1.00132976729e-38
-0.00168966999061 -0.0980008594554 0.913 1.19494563468e-38
0.0 -0.0980008594554 0.913 7.71454040968e-39
0.00168966999061 -0.0980008594554 0.913 9.09171411964e-39
0.00337933998122 -0.0980008594554 0.913 8.90804312733e-39
0.00508011404625 -0.0982155382274 0.915 9.45905610427e-39
0.006773485395 -0.0982155382274 0.915 9.45905610427e-39
0.00846685674374 -0.0982155382274 0.915 9.64272709659e-39
0.0101602280925 -0.0982155382274 0.915 9.45905610427e-39
0.0118535994412 -0.0982155382274 0.915 9.36722060812e-39
0.01354697079 -0.0982155382274 0.915 7.62234618111e-39
0.0152403421387 -0.0982155382274 0.915 1.99661181066e-38
0.0169892338596 -0.0985375563856 0.918 1.59307204462e-38
0.0186881572455 -0.0985375563856 0.918 1.57452417789e-38
0.0203870806315 -0.0985375563856 0.918 1.56526930218e-38
0.0220860040175 -0.0985375563856 0.918 1.61133166426e-38
0.0238367464174 -0.0987522351576 0.92 1.72189369271e-38
0.0255393711615 -0.0987522351576 0.92 5.78563625795e-39
-0.0292592360915 -0.0981044974833 0.93 2.08011084213e-38
-0.0273900502311 -0.0975770539484 0.925 1.45401419151e-38
-0.0256781720917 -0.0975770539484 0.925 7.4386751888e-39
-0.0239662939522 -0.0975770539484 0.925 8.81839505807e-39
-0.0222544158128 -0.0975770539484 0.925 8.63433030089e-39
-0.0204981213757 -0.0973660765345 0.923 7.16316870032e-39
-0.0187899445944 -0.0973660765345 0.923 7.16316870032e-39
-0.017026247441 -0.0970496104135 0.92 9.0949427113e-39
-0.0152903104736 -0.0968386329996 0.918 7.89785266959e-39
-0.01354697079 -0.0965221668787 0.915 8.17335915806e-39
-0.0118535994412 -0.0965221668787 0.915 8.90804312733e-39
-0.0101602280925 -0.0965221668787 0.915 1.00133088833e-38
-0.00846685674374 -0.0965221668787 0.915 9.27898785031e-39
-0.00675867996244 -0.0963111894648 0.913 1.05722027628e-38
-0.00506900997183 -0.0963111894648 0.913 8.63576523051e-39
-0.0033867426975 -0.0965221668787 0.915 9.55089160043e-39
-0.00169337134875 -0.0965221668787 0.915 9.45905610427e-39
0.0 -0.0965221668787 0.915 8.54070114269e-39
0.00169337134875 -0.0965221668787 0.915 8.81620763117e-39
0.0033867426975 -0.0965221668787 0.915 8.90804312733e-39
0.00508011404625 -0.0965221668787 0.915 9.09171411964e-39
0.006773485395 -0.0965221668787 0.915 9.36722060812e-39
0.00846685674374 -0.0965221668787 0.915 9.55089160043e-39
0.0101602280925 -0.0965221668787 0.915 9.45905610427e-39
0.0118535994412 -0.0965221668787 0.915 9.27538511196e-39
0.01354697079 -0.0965221668787 0.915 7.71418167727e-39
0.0152403421387 -0.0965221668787 0.915 1.98764406101e-38
0.0169892338596 -0.0968386329996 0.918 1.61151131072e-38
0.0186881572455 -0.0968386329996 0.918 1.56537650151e-38
0.0204314969292 -0.0970496104135 0.92 1.53775284502e-38
0.0221341216733 -0.0970496104135 0.92 1.72210879202e-38
0.0238367464174 -0.0970496104135 0.92 1.23357985373e-38
0.0255393711615 -0.0970496104135 0.92 9.01243425772e-39
-0.0292592360915 -0.0963833659485 0.93 2.11709699406e-38
-0.0275381045567 -0.0963833659485 0.93 1.48178007981e-38
-0.0257614526498 -0.0961760898927 0.928 7.25500419648e-39
-0.0240440224732 -0.0961760898927 0.928 1.02034622823e-38
-0.0223265922965 -0.0961760898927 0.928 7.89928759921e-39
-0.0205425376733 -0.095865175809 0.925 8.36025874204e-39
-0.0187899445944 -0.0956578997532 0.923 8.17443535528e-39
-0.0170817678131 -0.0956578997532 0.923 7.89785266959e-39
-0.0153236226969 -0.0953469856695 0.92 8.63253663885e-39
-0.0135913870877 -0.0951397096136 0.918 1.09367435518e-38
-0.0118535994412 -0.0948287955299 0.915 9.1889306019e-39
-0.0101602280925 -0.0948287955299 0.915 9.46371962556e-39
-0.00846685674374 -0.0948287955299 0.915 8.63325410366e-39
-0.006773485395 -0.0948287955299 0.915 8.17335915806e-39
-0.00508011404625 -0.0948287955299 0.915 9.91823358506e-39
-0.0033867426975 -0.0948287955299 0.915 1.01062093663e-38
-0.00169337134875 -0.0948287955299 0.915 1.19533393448e-38
0.0 -0.0948287955299 0.915 8.17335915806e-39
0.00169337134875 -0.0948287955299 0.915 8.72437213501e-39
0.0033867426975 -0.0948287955299 0.915 8.99987862348e-39
0.00508011404625 -0.0948287955299 0.915 8.90804312733e-39
0.006773485395 -0.0948287955299 0.915 9.09171411964e-39
0.00846685674374 -0.0948287955299 0.915 9.64272709659e-39
0.0101602280925 -0.0948287955299 0.915 9.73456259275e-39
0.0118535994412 -0.0948287955299 0.915 9.55089160043e-39
0.01354697079 -0.0948287955299 0.915 8.0815236619e-39
0.0152903104736 -0.0951397096136 0.918 2.0979926717e-38
0.0169892338596 -0.0951397096136 0.918 1.55615890034e-38
0.0187288721851 -0.0953469856695 0.92 1.62962827818e-38
0.0204314969292 -0.0953469856695 0.92 1.55626427799e-38
0.0221341216733 -0.0953469856695 0.92 1.64846186967e-38
0.0238367464174 -0.0953469856695 0.92 1.39020480477e-38
0.0256781720917 -0.095865175809 0.925 3.30607786169e-39
-0.0292592360915 -0.0946622344137 0.93 2.12660942842e-38
-0.0274788828265 -0.094458659716 0.928 1.49099950266e-38
-0.0256781720917 -0.0941532976695 0.925 7.07133320417e-39
-0.0239662939522 -0.0941532976695 0.925 8.17335915806e-39
-0.0223265922965 -0.094458659716 0.928 8.90804312733e-39
-0.0205425376733 -0.0941532976695 0.925 8.44922437894e-39
-0.0187899445944 -0.0939497229719 0.923 7.62234618111e-39
-0.0170817678131 -0.0939497229719 0.923 9.09386651408e-39
-0.0153236226969 -0.0936443609254 0.92 9.36757934052e-39
-0.0135913870877 -0.0934407862277 0.918 8.26519465422e-39
-0.0118924637017 -0.0934407862277 0.918 9.18570201024e-39
-0.0101602280925 -0.0931354241812 0.915 8.44886564654e-39
-0.00846685674374 -0.0931354241812 0.915 8.54070114269e-39
-0.006773485395 -0.0931354241812 0.915 9.74030231126e-39
-0.00508011404625 -0.0931354241812 0.915 8.17335915806e-39
-0.0033867426975 -0.0931354241812 0.915 1.30553933247e-38
-0.00169337134875 -0.0931354241812 0.915 9.64921230588e-39
0.0 -0.0931354241812 0.915 8.63253663885e-39
0.00169337134875 -0.0931354241812 0.915 8.99987862348e-39
0.0033867426975 -0.0931354241812 0.915 8.90804312733e-39
0.00509677015787 -0.0934407862277 0.918 8.90804312733e-39
0.00679569354383 -0.0934407862277 0.918 9.64272709659e-39
0.00849461692979 -0.0934407862277 0.918 9.64272709659e-39
0.0101935403157 -0.0934407862277 0.918 9.82639808891e-39
0.0118924637017 -0.0934407862277 0.918 9.55089160043e-39
0.0135913870877 -0.0934407862277 0.918 8.17335915806e-39
0.0152903104736 -0.0934407862277 0.918 2.07994717047e-38
0.017026247441 -0.0936443609254 0.92 1.55622924553e-38
0.0187288721851 -0.0936443609254 0.92 1.59285540388e-38
0.0204314969292 -0.0936443609254 0.92 1.59285512362e-38
0.0221341216733 -0.0936443609254 0.92 1.62991344242e-38
0.0239144749383 -0.0939497229719 0.923 1.62984127555e-38
0.0256226517196 -0.0939497229719 0.923 8.36025874204e-39
-0.0292592360915 -0.0929411028789 0.93 2.02486577121e-38
-0.0274788828265 -0.0927412295394 0.928 1.45401419151e-38
-0.0256781720917 -0.0924414195301 0.925 7.99076436297e-39
-0.0239662939522 -0.0924414195301 0.925 7.62236299669e-39
-0.0223265922965 -0.0927412295394 0.928 8.26519465422e-39
-0.0205425376733 -0.0924414195301 0.925 7.62234618111e-39
-0.0188306595339 -0.0924414195301 0.925 8.63253663885e-39
-0.0171187813945 -0.0924414195301 0.925 9.37194158264e-39
-0.0153735910318 -0.0922415461905 0.923 7.62234618111e-39
-0.0135913870877 -0.0917418628417 0.918 8.72437213501e-39
-0.0118924637017 -0.0917418628417 0.918 8.72437213501e-39
-0.0101602280925 -0.0914420528324 0.915 8.81620763117e-39
-0.00846685674374 -0.0914420528324 0.915 8.17335915806e-39
-0.006773485395 -0.0914420528324 0.915 9.64559975844e-39
-0.00508011404625 -0.0914420528324 0.915 1.16724939092e-38
-0.0033867426975 -0.0914420528324 0.915 1.0386379376e-38
-0.00169337134875 -0.0914420528324 0.915 9.09314904927e-39
0.0 -0.0914420528324 0.915 9.27538511196e-39
0.00169337134875 -0.0914420528324 0.915 9.09171411964e-39
0.0033867426975 -0.0914420528324 0.915 9.55089160043e-39
0.00509677015787 -0.0917418628417 0.918 9.45905610427e-39
0.00679569354383 -0.0917418628417 0.918 9.82639808891e-39
0.00849461692979 -0.0917418628417 0.918 9.82639808891e-39
0.0101935403157 -0.0917418628417 0.918 9.45905610427e-39
0.0118924637017 -0.0917418628417 0.918 9.36722060812e-39
0.0135913870877 -0.0917418628417 0.918 8.0815236619e-39
0.0153236226969 -0.0919417361813 0.92 1.96992394128e-38
0.017026247441 -0.0919417361813 0.92 1.54700968254e-38
0.0187288721851 -0.0919417361813 0.92 1.63884433792e-38
0.0204981213757 -0.0922415461905 0.923 1.62054940556e-38
0.022206298157 -0.0922415461905 0.923 1.74965986126e-38
0.0240440224732 -0.0927412295394 0.928 9.56452343189e-39
0.0258169730219 -0.0929411028789 0.93 1.07447530505e-38
0.0275381045567 -0.0929411028789 0.93 2.34882411591e-38
-0.0274788828265 -0.0910237993627 0.928 1.30643167933e-38
-0.0256781720917 -0.0907295413906 0.925 7.34683969264e-39
-0.0239662939522 -0.0907295413906 0.925 1.00237177283e-38
-0.0223265922965 -0.0910237993627 0.928 6.79582671569e-39
-0.0205425376733 -0.0907295413906 0.925 7.62234618111e-39
-0.0188306595339 -0.0907295413906 0.925 7.16316870032e-39
-0.0171187813945 -0.0907295413906 0.925 7.34683969264e-39
-0.0153735910318 -0.0905333694092 0.923 7.98968816575e-39
-0.0136209979528 -0.0902391114372 0.92 1.05668273819e-38
-0.0119183732087 -0.0902391114372 0.92 9.09243158445e-39
-0.0101935403157 -0.0900429394558 0.918 9.00348976963e-39
-0.00849461692979 -0.0900429394558 0.918 8.63253663885e-39
-0.00679569354383 -0.0900429394558 0.918 8.81620763117e-39
-0.00508011404625 -0.0897486814837 0.915 8.54070114269e-39
-0.0033867426975 -0.0897486814837 0.915 9.64272709659e-39
-0.00169892338596 -0.0900429394558 0.918 9.73671498719e-39
0.0 -0.0900429394558 0.918 8.44886564654e-39
0.00169892338596 -0.0900429394558 0.918 9.09171411964e-39
0.00339784677192 -0.0900429394558 0.918 9.55089160043e-39
0.00509677015787 -0.0900429394558 0.918 9.55089160043e-39
0.00679569354383 -0.0900429394558 0.918 9.82639808891e-39
0.00849461692979 -0.0900429394558 0.918 9.91823358506e-39
0.0101935403157 -0.0900429394558 0.918 9.55089160043e-39
0.0118924637017 -0.0900429394558 0.918 9.36722060812e-39
0.0136209979528 -0.0902391114372 0.92 7.89785266959e-39
0.0153236226969 -0.0902391114372 0.92 1.98847068698e-38
0.0170817678131 -0.0905333694092 0.923 1.58378059502e-38
0.0187899445944 -0.0905333694092 0.923 1.60214657322e-38
0.0205425376733 -0.0907295413906 0.925 1.60214657322e-38
0.0222544158128 -0.0907295413906 0.925 1.65750178619e-38
0.0240440224732 -0.0910237993627 0.928 9.00741200403e-39
0.0258169730219 -0.0912199713441 0.93 9.55089160043e-39
0.0275381045567 -0.0912199713441 0.93 2.34936137374e-38
-0.0295738515333 -0.0904611929255 0.94 2.34892332784e-38
-0.0275381045567 -0.0894988398093 0.93 1.32569897269e-38
-0.0257614526498 -0.089306369186 0.928 8.35703015038e-39
-0.0240440224732 -0.089306369186 0.928 8.27345110477e-39
-0.0223265922965 -0.089306369186 0.928 1.03939225657e-38
-0.0206091621199 -0.089306369186 0.928 6.3366492349e-39
-0.0188306595339 -0.0890176632512 0.925 7.25500419648e-39
-0.0171187813945 -0.0890176632512 0.925 7.53051068496e-39
-0.015406903255 -0.0890176632512 0.925 7.71418167727e-39
-0.0136654142505 -0.0888251926279 0.923 8.17335915806e-39
-0.0119572374691 -0.0888251926279 0.923 8.26519465422e-39
-0.0102490606878 -0.0888251926279 0.923 8.26519465422e-39
-0.00849461692979 -0.0883440160698 0.918 8.90804312733e-39
-0.00679569354383 -0.0883440160698 0.918 1.06629620617e-38
-0.00509677015787 -0.0883440160698 0.918 9.92756062764e-39
-0.00339784677192 -0.0883440160698 0.918 1.26923365107e-38
-0.00169892338596 -0.0883440160698 0.918 9.92615372398e-39
0.0 -0.0883440160698 0.918 8.72437213501e-39
0.00169892338596 -0.0883440160698 0.918 9.09171411964e-39
0.00339784677192 -0.0883440160698 0.918 9.64272709659e-39
0.00509677015787 -0.0883440160698 0.918 9.55089160043e-39
0.00679569354383 -0.0883440160698 0.918 9.73456259275e-39
0.00849461692979 -0.0883440160698 0.918 9.64272709659e-39
0.0101935403157 -0.0883440160698 0.918 9.64272709659e-39
0.0119183732087 -0.0885364866931 0.92 9.45905610427e-39
0.0136209979528 -0.0885364866931 0.92 8.17335915806e-39
0.0153236226969 -0.0885364866931 0.92 1.86872384775e-38
0.0170817678131 -0.0888251926279 0.923 1.63906111879e-38
0.0187899445944 -0.0888251926279 0.923 1.61143676165e-38
0.0205425376733 -0.0890176632512 0.925 1.62044122532e-38
0.0222544158128 -0.0890176632512 0.925 1.66675638164e-38
0.0240440224732 -0.089306369186 0.928 9.46264342834e-39
0.0257614526498 -0.089306369186 0.928 1.06529175543e-38
0.0275381045567 -0.0894988398093 0.93 2.34953681631e-38
-0.0295738515333 -0.0887215546 0.94 2.34928598388e-38
-0.0276861588823 -0.0882496314373 0.935 1.25194513127e-38
-0.0257614526498 -0.0875889390094 0.928 6.79582671569e-39
-0.0240440224732 -0.0875889390094 0.928 1.04836421011e-38
-0.0223265922965 -0.0875889390094 0.928 7.9039511205e-39
-0.0206091621199 -0.0875889390094 0.928 7.25500419648e-39
-0.0188306595339 -0.0873057851117 0.925 1.09377805126e-38
-0.0171187813945 -0.0873057851117 0.925 7.53086941736e-39
-0.015406903255 -0.0873057851117 0.925 7.71418167727e-39
-0.0136950251156 -0.0873057851117 0.925 7.62234618111e-39
-0.0119572374691 -0.0871170158466 0.923 7.89785266959e-39
-0.0102490606878 -0.0871170158466 0.923 8.17335915806e-39
-0.00854088390653 -0.0871170158466 0.923 8.35703015038e-39
-0.00681049897639 -0.086833861949 0.92 8.54070114269e-39
-0.00509677015787 -0.0866450926839 0.918 8.81620763117e-39
-0.00339784677192 -0.0866450926839 0.918 8.90804312733e-39
-0.00169892338596 -0.0866450926839 0.918 9.36722060812e-39
0.0 -0.0866450926839 0.918 9.45905610427e-39
0.00169892338596 -0.0866450926839 0.918 9.55089160043e-39
0.00339784677192 -0.0866450926839 0.918 9.55089160043e-39
0.00509677015787 -0.0866450926839 0.918 9.73456259275e-39
0.00681049897639 -0.086833861949 0.92 9.1835496158e-39
0.00851312372049 -0.086833861949 0.92 9.55089160043e-39
0.0102157484646 -0.086833861949 0.92 9.55089160043e-39
0.0119183732087 -0.086833861949 0.92 9.45905610427e-39
0.0136209979528 -0.086833861949 0.92 8.0815236619e-39
0.0153735910318 -0.0871170158466 0.923 1.933477009e-38
0.0171187813945 -0.0873057851117 0.925 1.5930367319e-38
0.0188306595339 -0.0873057851117 0.925 1.60228978592e-38
0.0205425376733 -0.0873057851117 0.925 1.58374346061e-38
0.0222544158128 -0.0873057851117 0.925 1.62980596282e-38
0.0240440224732 -0.0875889390094 0.928 1.18604108358e-38
0.0258169730219 -0.0877777082745 0.93 1.12972009571e-38
0.0275381045567 -0.0877777082745 0.93 2.34953765708e-38
-0.0296682361659 -0.087259518135 0.943 2.34907130496e-38
-0.0276861588823 -0.0865192465071 0.935 1.23354033711e-38
-0.0258169730219 -0.0860565767397 0.93 8.90804312733e-39
-0.0240958414871 -0.0860565767397 0.93 7.53373927662e-39
-0.0223747099523 -0.0860565767397 0.93 9.18499015062e-39
-0.0206091621199 -0.0858715088327 0.928 1.10335564601e-38
-0.0188917319432 -0.0858715088327 0.928 6.52032022722e-39
-0.0171187813945 -0.0855939069723 0.925 8.35703015038e-39
-0.015406903255 -0.0855939069723 0.925 9.27610257677e-39
-0.0136950251156 -0.0855939069723 0.925 7.89785266959e-39
-0.0119831469761 -0.0855939069723 0.925 8.26519465422e-39
-0.0102712688367 -0.0855939069723 0.925 8.54070114269e-39
-0.00854088390653 -0.0854088390653 0.923 8.63253663885e-39
-0.00683270712523 -0.0854088390653 0.923 8.81620763117e-39
-0.00510787423229 -0.0851312372049 0.92 8.81620763117e-39
-0.00340524948819 -0.0851312372049 0.92 9.09171411964e-39
-0.00169892338596 -0.0849461692979 0.918 9.55089160043e-39
0.0 -0.0849461692979 0.918 9.55089160043e-39
0.00169892338596 -0.0849461692979 0.918 9.45905610427e-39
0.00339784677192 -0.0849461692979 0.918 9.1835496158e-39
0.00509677015787 -0.0849461692979 0.918 9.09171411964e-39
0.00681049897639 -0.0851312372049 0.92 9.73456259275e-39
0.00851312372049 -0.0851312372049 0.92 9.73456259275e-39
0.0102157484646 -0.0851312372049 0.92 9.36722060812e-39
0.0119183732087 -0.0851312372049 0.92 9.45905610427e-39
0.0136654142505 -0.0854088390653 0.923 8.0815236619e-39
0.0153735910318 -0.0854088390653 0.923 1.87833983807e-38
0.0171187813945 -0.0855939069723 0.925 1.63913272514e-38
0.0188306595339 -0.0855939069723 0.925 1.61158025461e-38
0.0205425376733 -0.0855939069723 0.925 1.73121919386e-38
0.0222544158128 -0.0855939069723 0.925 1.55590456467e-38
0.0240440224732 -0.0858715088327 0.928 1.16720763222e-38
0.0258169730219 -0.0860565767397 0.93 1.40616139039e-38
-0.0295738515333 -0.085242277949 0.94 2.34896466614e-38
-0.0276861588823 -0.084788861577 0.935 1.48243322502e-38
-0.0258169730219 -0.0843354452049 0.93 7.89785266959e-39
-0.0240958414871 -0.0843354452049 0.93 1.02963417458e-38
-0.0223747099523 -0.0843354452049 0.93 8.35703015038e-39
-0.0206091621199 -0.0841540786561 0.928 7.25500419648e-39
-0.0188917319432 -0.0841540786561 0.928 9.92648443042e-39
-0.0171743017665 -0.0841540786561 0.928 1.03917743751e-38
-0.0154568715899 -0.0841540786561 0.928 8.17587028491e-39
-0.0137394414132 -0.0841540786561 0.928 7.98968816575e-39
-0.0119831469761 -0.0838820288328 0.925 7.98968816575e-39
-0.0102712688367 -0.0838820288328 0.925 8.35703015038e-39
-0.00855939069723 -0.0838820288328 0.925 8.35703015038e-39
-0.00683270712523 -0.083700662284 0.923 8.99987862348e-39
-0.00512453034392 -0.083700662284 0.923 9.09171411964e-39
-0.00341635356261 -0.083700662284 0.923 9.27538511196e-39
-0.0017026247441 -0.0834286124608 0.92 8.99987862348e-39
0.0 -0.0834286124608 0.92 8.99987862348e-39
0.0017026247441 -0.0834286124608 0.92 9.09171411964e-39
0.00340524948819 -0.0834286124608 0.92 8.99987862348e-39
0.00512453034392 -0.083700662284 0.923 9.09171411964e-39
0.00683270712523 -0.083700662284 0.923 9.55089160043e-39
0.00854088390653 -0.083700662284 0.923 9.64272709659e-39
0.0102490606878 -0.083700662284 0.923 9.45905610427e-39
0.0119572374691 -0.083700662284 0.923 9.55089160043e-39
0.0136950251156 -0.0838820288328 0.925 8.17335915806e-39
0.015406903255 -0.0838820288328 0.925 1.86933145076e-38
0.0171187813945 -0.0838820288328 0.925 1.60228978592e-38
0.0188306595339 -0.0838820288328 0.925 1.5837790536e-38
0.0205425376733 -0.0838820288328 0.925 1.71267244816e-38
0.0222544158128 -0.0838820288328 0.925 1.35296557834e-38
0.0239662939522 -0.0838820288328 0.925 1.40719961242e-38
-0.029510928445 -0.0833249744329 0.938 2.34921577883e-38
-0.0276861588823 -0.0830584766468 0.935 1.27956598517e-38
-0.02590025358 -0.0828808114561 0.933 8.63253663885e-39
-0.0240958414871 -0.0826143136701 0.93 9.09386651408e-39
-0.0223747099523 -0.0826143136701 0.93 8.54070114269e-39
-0.0206091621199 -0.0824366484794 0.928 7.98968816575e-39
-0.0188917319432 -0.0824366484794 0.928 7.34683969264e-39
-0.0171743017665 -0.0824366484794 0.928 7.53051068496e-39
-0.0154568715899 -0.0824366484794 0.928 9.09171411964e-39
